-7.937148809432983398e-01 1.365114096552133560e-02 -2.750156074762344360e-02
9.729439616203308105e-01 5.683436989784240723e-03 3.105593286454677582e-02
-8.063559532165527344e-01 4.899504408240318298e-02 -1.951808184385299683e-01
4.249602258205413818e-01 2.979084290564060211e-02 -8.314777910709381104e-02
7.935430407524108887e-01 -5.900304764509201050e-02 -5.927021428942680359e-02
-1.875312328338623047e-01 -8.709429949522018433e-02 -1.225567236542701721e-02
7.931012660264968872e-02 -1.452687382698059082e-01 -1.180064752697944641e-01
1.776474714279174805e-02 -1.476437300443649292e-01 -1.334311217069625854e-01
4.845647513866424561e-01 5.236599594354629517e-02 8.082852512598037720e-02
2.059506028890609741e-01 -1.181479096412658691e-01 3.041028976440429688e-01
2.225244343280792236e-01 -1.707047969102859497e-02 7.005169987678527832e-02
-1.889868676662445068e-01 -8.686447143554687500e-02 1.739336736500263214e-02
2.045715898275375366e-01 -7.945858687162399292e-02 3.142923712730407715e-01
3.390265405178070068e-01 9.488526731729507446e-03 8.846423774957656860e-02
4.276596009731292725e-02 -1.066056545823812485e-02 -2.597651481628417969e-01
3.903313577175140381e-01 2.593398094177246094e-03 -8.345422893762588501e-02
-4.672690629959106445e-01 -1.186147797852754593e-03 8.233524113893508911e-02
1.245115101337432861e-01 -1.941992342472076416e-02 -2.789948880672454834e-01
-7.284231483936309814e-02 1.546365558169782162e-03 -5.332462191581726074e-01
3.433679044246673584e-01 -1.898578554391860962e-02 8.476129174232482910e-02
-6.108919382095336914e-01 8.551367372274398804e-02 -1.662258431315422058e-02
1.927146129310131073e-02 -3.285265341401100159e-02 1.672474294900894165e-01
-6.671331077814102173e-02 1.648511504754424095e-03 5.489054322242736816e-01
-7.935361266136169434e-01 5.254475772380828857e-02 2.847454845905303955e-01
1.539307087659835815e-01 -6.421338766813278198e-03 2.236853092908859253e-01
-3.259520605206489563e-02 -1.574252359569072723e-02 3.206256628036499023e-01
7.807742357254028320e-01 -4.477867111563682556e-02 -6.966397166252136230e-02
2.275808751583099365e-01 4.720741882920265198e-02 8.236077427864074707e-02
-7.521729916334152222e-02 3.778408095240592957e-02 -8.087494224309921265e-02
7.095936685800552368e-02 -5.473829433321952820e-02 -1.564914882183074951e-01
2.741612792015075684e-01 -4.901788756251335144e-02 -8.404158800840377808e-02
1.109511032700538635e-01 -4.863547626882791519e-03 -2.463324218988418579e-01
1.823028773069381714e-01 2.879487723112106323e-02 8.764702826738357544e-02
-6.263166069984436035e-01 2.680295892059803009e-02 9.025186300277709961e-02
2.384853810071945190e-01 9.858886897563934326e-02 -5.794684402644634247e-03
9.888793826103210449e-01 -9.996582753956317902e-03 -1.710779778659343719e-02
-1.356976758688688278e-02 9.164267778396606445e-02 3.823196887969970703e-02
-1.150302663445472717e-01 2.618941711261868477e-03 -4.989238381385803223e-01
7.338363528251647949e-01 2.082718349993228912e-02 -8.416928350925445557e-02
-8.019710332155227661e-02 2.292125672101974487e-02 -5.837338566780090332e-01
1.255509722977876663e-02 -4.153539985418319702e-02 1.302946656942367554e-01
-9.332337975502014160e-02 9.616215713322162628e-03 -6.091437339782714844e-01
-5.317843332886695862e-02 -2.146292850375175476e-02 3.269845545291900635e-01
2.402474731206893921e-01 -3.004352934658527374e-02 -2.693672478199005127e-01
-5.962078571319580078e-01 -3.770477697253227234e-02 -3.161309659481048584e-02
6.036971807479858398e-01 9.789935499429702759e-02 1.708691753447055817e-02
-1.495825052261352539e-01 5.864821746945381165e-02 7.743203639984130859e-02
1.379953026771545410e-01 -7.161923684179782867e-03 2.137767523527145386e-01
7.005864977836608887e-01 -3.959454968571662903e-02 -7.339245080947875977e-02
-1.785675734281539917e-01 1.888633146882057190e-02 -6.664498448371887207e-01
-1.147238165140151978e-01 4.227116005495190620e-04 5.356004238128662109e-01
2.582003474235534668e-01 -4.084588214755058289e-02 -1.449740678071975708e-01
1.109945960342884064e-02 -1.391652822494506836e-01 1.372408717870712280e-01
3.689054250717163086e-01 -6.704736500978469849e-02 -5.283476039767265320e-02
-6.214645504951477051e-01 1.935117691755294800e-01 8.838305249810218811e-03
8.888669312000274658e-02 -1.775998622179031372e-02 -1.621863543987274170e-01
-2.598099596798419952e-02 -3.029889799654483795e-02 3.781872093677520752e-01
-3.531675040721893311e-01 2.833520621061325073e-02 8.777472376823425293e-02
1.302574574947357178e-01 -6.582157313823699951e-02 -8.227951079607009888e-02
-7.596733570098876953e-01 6.237669661641120911e-02 1.953851804137229919e-02
8.345817923545837402e-01 1.265452010557055473e-03 -7.635480165481567383e-02
-8.803713321685791016e-02 9.284224361181259155e-03 5.124378800392150879e-01
2.491089850664138794e-01 -1.042299643158912659e-01 -3.122447133064270020e-01
1.098785176873207092e-01 -6.988203525543212891e-02 -7.872979342937469482e-02
-6.489938497543334961e-01 1.843438148498535156e-01 1.287323050200939178e-02
1.302319169044494629e-01 -2.874111756682395935e-02 -2.897972464561462402e-01
1.619750261306762695e-01 -3.852197155356407166e-02 2.338492423295974731e-01
-8.145024180412292480e-01 3.119036257266998291e-01 -2.806796226650476456e-03
-7.848789691925048828e-01 1.550267636775970459e-01 3.960642497986555099e-03
-2.231305092573165894e-01 7.986988127231597900e-02 -5.464792251586914062e-02
-2.307727700099349022e-03 -3.364431858062744141e-02 -2.493713945150375366e-01
-2.317111194133758545e-01 3.316179290413856506e-02 7.906434535980224609e-01
1.912665367126464844e-01 -1.023657247424125671e-01 -3.053495883941650391e-01
9.260759688913822174e-03 -8.673678338527679443e-02 -2.734833769500255585e-02
1.771698296070098877e-01 -1.102568209171295166e-01 -2.365004867315292358e-01
-6.688364744186401367e-01 1.651134341955184937e-02 -2.949348650872707367e-02
-3.874388337135314941e-01 -7.690484821796417236e-02 -3.388593718409538269e-02
-3.851990401744842529e-02 9.049348533153533936e-02 4.114324599504470825e-02
-6.129936501383781433e-02 1.209335029125213623e-02 -4.977746605873107910e-01
-7.101306319236755371e-01 -5.885045975446701050e-03 -3.738457337021827698e-02
-6.314752101898193359e-01 1.135027706623077393e-01 -9.318859316408634186e-03
-5.917643904685974121e-01 8.929321914911270142e-02 -6.714034359902143478e-03
-1.849008649587631226e-01 9.805259108543395996e-02 1.642294228076934814e-02
9.726300090551376343e-02 -8.489869534969329834e-03 4.017838537693023682e-01
-7.734381556510925293e-01 5.019531026482582092e-02 2.073923796415328979e-01
7.990080714225769043e-01 -1.821966655552387238e-02 8.241184800863265991e-02
-4.261536598205566406e-01 -9.485834278166294098e-03 -7.962360233068466187e-02
-8.450197577476501465e-01 3.362408876419067383e-01 5.799342412501573563e-03
2.171615660190582275e-01 -1.097716093063354492e-01 3.021875917911529541e-01
4.281268715858459473e-01 -7.320190966129302979e-02 -4.527565836906433105e-02
3.227005153894424438e-02 -4.332303628325462341e-02 -8.856172859668731689e-02
-3.703287243843078613e-01 3.351932018995285034e-02 8.639569580554962158e-02
-2.398320287466049194e-01 -8.178251236677169800e-02 -2.944241091609001160e-02
2.343993932008743286e-01 -4.641306400299072266e-02 -3.056049644947052002e-01
8.232686519622802734e-01 -1.602343656122684479e-02 7.980702817440032959e-02
7.807742357254028320e-01 -4.477867111563682556e-02 -6.966397166252136230e-02
-8.725491762161254883e-01 3.464813828468322754e-01 8.195293485186994076e-04
5.323199033737182617e-01 -9.639057330787181854e-03 8.654892444610595703e-02
7.596292495727539062e-01 9.473271667957305908e-02 3.041749447584152222e-02
4.758585710078477859e-04 -3.509995341300964355e-02 -1.756190806627273560e-01
2.742378711700439453e-01 -2.493602782487869263e-02 -1.209688261151313782e-01
1.957866847515106201e-01 -1.014981605112552643e-02 1.928615421056747437e-01
8.232686519622802734e-01 -1.602343656122684479e-02 7.980702817440032959e-02
3.257470428943634033e-01 -7.184842973947525024e-02 7.510812580585479736e-02
-1.826866529881954193e-02 1.045895647257566452e-02 -4.471593201160430908e-01
-6.315773129463195801e-01 8.730130642652511597e-02 1.300091762095689774e-02
-7.422313094139099121e-01 3.413221612572669983e-02 1.466897428035736084e-01
1.686913967132568359e-01 -7.823279500007629395e-02 7.388232648372650146e-02
-9.697525948286056519e-02 -4.914625547826290131e-03 -4.397789835929870605e-01
2.808010280132293701e-01 -8.262524008750915527e-02 -3.162796497344970703e-01
5.882470011711120605e-01 4.741171747446060181e-02 8.230969309806823730e-02
2.830738723278045654e-01 -5.593855306506156921e-02 -8.876603096723556519e-02
8.561789244413375854e-02 -3.382307663559913635e-02 2.841836512088775635e-01
2.770214974880218506e-01 -3.747494146227836609e-02 -2.462558001279830933e-01
1.771698296070098877e-01 -1.102568209171295166e-01 -2.365004867315292358e-01
4.845647513866424561e-01 5.236599594354629517e-02 8.082852512598037720e-02
-5.691892504692077637e-01 1.155706681311130524e-02 7.766187936067581177e-02
2.183107584714889526e-01 -1.158750653266906738e-01 2.863543331623077393e-01
-4.990632236003875732e-01 -1.142566634371178225e-05 8.006239682435989380e-02
-1.658319495618343353e-02 -5.969256162643432617e-02 9.533382207155227661e-02
1.698661148548126221e-01 -8.451502770185470581e-02 -2.299118191003799438e-01
-8.982475101947784424e-02 -9.868903085589408875e-03 -5.368725657463073730e-01
1.206808760762214661e-01 -3.479350358247756958e-02 2.689633071422576904e-01
5.331294983625411987e-02 -7.389142364263534546e-02 1.452341079711914062e-01
-8.349324464797973633e-01 5.887806043028831482e-02 3.125047385692596436e-01
-7.088793516159057617e-01 2.601129561662673950e-02 -5.329443886876106262e-02
-5.653330683708190918e-01 1.491786539554595947e-01 7.740192115306854248e-03
-3.632368519902229309e-02 -3.517656400799751282e-02 2.232511788606643677e-01
1.673889607191085815e-01 -1.055068448185920715e-01 2.982803583145141602e-01
5.425093173980712891e-01 -7.172073423862457275e-02 -4.744634777307510376e-02
-7.695819735527038574e-01 3.257443383336067200e-02 1.009520739316940308e-01
1.350074261426925659e-01 -7.670053839683532715e-02 -7.198788970708847046e-02
-9.352768957614898682e-02 1.617935299873352051e-02 -8.437358587980270386e-02
-7.333952784538269043e-01 3.239566460251808167e-02 -4.131734743714332581e-02
2.742378711700439453e-01 -2.493602782487869263e-02 -1.209688261151313782e-01
3.618825972080230713e-01 7.665216177701950073e-02 6.313103437423706055e-02
6.837317347526550293e-01 -1.004766114056110382e-02 8.649784326553344727e-02
3.584529832005500793e-02 -1.625327207148075104e-02 -4.040009677410125732e-01
-7.094411849975585938e-01 1.864378899335861206e-01 -6.305433809757232666e-03
8.653033971786499023e-01 -7.981611788272857666e-02 -1.664812304079532623e-02
-6.989707946777343750e-01 4.015906900167465210e-02 -1.288854479789733887e-01
2.463433705270290375e-02 -2.863896079361438751e-02 -3.114019632339477539e-01
2.602433264255523682e-01 -4.398699849843978882e-02 -2.776924669742584229e-01
-2.598099596798419952e-02 -3.029889799654483795e-02 3.781872093677520752e-01
9.994442760944366455e-02 -3.545747697353363037e-02 -2.675285637378692627e-01
7.163941860198974609e-01 -2.381237410008907318e-02 8.345888555049896240e-02
1.688956916332244873e-01 -9.043972939252853394e-02 2.420978546142578125e-01
-3.016914054751396179e-02 -2.582983672618865967e-02 -3.073925971984863281e-01
1.695596724748611450e-01 -5.351248756051063538e-02 -2.506993412971496582e-01
2.350122779607772827e-01 -5.667913705110549927e-02 -1.193854957818984985e-01
1.542626917362213135e-01 -7.647139020264148712e-03 -8.337762206792831421e-02
6.064221635460853577e-02 2.976467134431004524e-03 -4.649078845977783203e-01
5.959082245826721191e-01 -4.917111247777938843e-02 -6.772312521934509277e-02
4.289440810680389404e-01 3.982708230614662170e-02 8.453145623207092285e-02
6.319596618413925171e-02 -1.256814748048782349e-01 -1.576917469501495361e-01
-6.993283033370971680e-01 2.675188146531581879e-02 1.084090247750282288e-01
-7.270364761352539062e-01 2.649401724338531494e-01 -6.484196521341800690e-03
8.655588030815124512e-01 6.470060348510742188e-02 5.286496132612228394e-02
-3.797264993190765381e-01 9.698001295328140259e-02 2.107077091932296753e-02
2.760255038738250732e-01 -3.724510595202445984e-02 1.382879018783569336e-01
-3.746700882911682129e-01 -3.162685409188270569e-02 -7.620158046483993530e-02
-6.593109965324401855e-01 3.214029595255851746e-02 -1.267402917146682739e-01
-7.764515280723571777e-01 4.467920213937759399e-02 1.679624766111373901e-01
2.059506028890609741e-01 -1.181479096412658691e-01 3.041028976440429688e-01
-3.616459369659423828e-01 -7.414679974317550659e-02 4.535693675279617310e-02
1.125854924321174622e-01 -5.984578654170036316e-02 -1.360104084014892578e-01
-7.568387389183044434e-01 5.195739492774009705e-02 -2.295542806386947632e-01
1.678486615419387817e-01 -6.119928508996963501e-02 2.370924949645996094e-01
-6.730247139930725098e-01 1.515785418450832367e-02 6.267136335372924805e-02
2.319733202457427979e-01 -8.397873491048812866e-02 -5.286030098795890808e-02
5.489447712898254395e-01 -1.747907325625419617e-02 -8.061957359313964844e-02
8.464746922254562378e-02 -1.592129096388816833e-02 -1.794496923685073853e-01
4.018667712807655334e-02 -7.136389613151550293e-03 2.908234000205993652e-01
1.676188111305236816e-01 -7.621595170348882675e-03 -2.108097523450851440e-01
-7.864622473716735840e-01 4.618591815233230591e-02 -1.895625591278076172e-01
-7.925657629966735840e-01 3.392032086849212646e-01 8.506317622959613800e-03
-4.041148126125335693e-01 6.224900484085083008e-02 7.551672309637069702e-02
2.232905775308609009e-01 2.968869544565677643e-02 -8.317331969738006592e-02
1.341135948896408081e-01 -1.436349935829639435e-02 1.435997039079666138e-01
1.575059592723846436e-01 9.823134541511535645e-02 -1.054465956985950470e-02
-6.129936501383781433e-02 1.209335029125213623e-02 -4.977746605873107910e-01
-4.606803655624389648e-01 3.505156561732292175e-02 -7.906177639961242676e-02
-4.459783434867858887e-02 -6.306352466344833374e-02 8.534866571426391602e-02
4.062081500887870789e-02 -1.219281274825334549e-02 4.303092658519744873e-01
2.449463754892349243e-01 -5.910520255565643311e-02 2.427873760461807251e-01
-7.848789691925048828e-01 1.550267636775970459e-01 3.960642497986555099e-03
2.115688472986221313e-01 -7.029063254594802856e-02 3.126069009304046631e-01
-3.632368519902229309e-02 -3.517656400799751282e-02 2.232511788606643677e-01
4.722301363945007324e-01 4.843322187662124634e-02 -7.775936275720596313e-02
-1.060410737991333008e-01 9.072987450053915381e-05 4.799030721187591553e-01
1.357735544443130493e-01 -3.921148926019668579e-02 2.406932860612869263e-01
2.690027058124542236e-01 -3.433382511138916016e-02 2.911809384822845459e-01
2.112113386392593384e-01 -2.348039112985134125e-02 2.403102219104766846e-01
2.454060465097427368e-01 -1.274180114269256592e-01 2.892145514488220215e-01
-2.003765851259231567e-01 -8.448947221040725708e-02 -2.270051091909408569e-02
-4.021228849887847900e-01 8.298546075820922852e-02 -5.048531293869018555e-02
1.867464035749435425e-01 -9.866280108690261841e-02 2.324957400560379028e-01
1.819708943367004395e-01 -1.380167249590158463e-02 -1.147632151842117310e-01
-4.459783434867858887e-02 -6.306352466344833374e-02 8.534866571426391602e-02
1.435369551181793213e-01 -7.197609543800354004e-02 -2.992461323738098145e-01
-4.756018519401550293e-02 -9.971048682928085327e-03 4.564596712589263916e-01
-5.338963866233825684e-01 4.204884171485900879e-02 7.812155038118362427e-02
-8.180596679449081421e-02 9.521792829036712646e-02 -2.441152371466159821e-02
6.498359143733978271e-02 -1.453198194503784180e-01 -1.177255585789680481e-01
-8.464754223823547363e-01 3.608079552650451660e-01 -2.398195909336209297e-03
-1.701912730932235718e-01 2.202743850648403168e-02 7.105067372322082520e-01
5.105108618736267090e-01 8.433894068002700806e-02 -4.811032488942146301e-02
4.595815017819404602e-02 -4.010529816150665283e-02 9.329082816839218140e-02
7.519859075546264648e-02 -8.635371178388595581e-02 -3.518835082650184631e-02
2.529140710830688477e-01 -1.102312803268432617e-01 -2.291712313890457153e-01
-5.639029741287231445e-01 -3.321018069982528687e-02 -5.043423548340797424e-02
4.007762074470520020e-01 -1.857719197869300842e-02 -8.038973808288574219e-02
-8.029850721359252930e-01 2.117455601692199707e-01 -7.428318349411711097e-05
4.181416928768157959e-01 9.777167439460754395e-02 -1.340486016124486923e-02
2.776854336261749268e-01 -5.021814629435539246e-02 -2.309843748807907104e-01
1.677720397710800171e-01 -8.663462847471237183e-02 3.294570744037628174e-02
-7.283644080162048340e-01 3.548570349812507629e-02 -7.048117369413375854e-02
4.442590475082397461e-02 -4.122962709516286850e-03 4.660872817039489746e-01
8.339612931013107300e-02 8.823925163596868515e-04 -4.292320013046264648e-01
8.169609308242797852e-01 -2.483387291431427002e-02 7.875999063253402710e-02
2.333268076181411743e-01 -1.673848740756511688e-02 1.695202738046646118e-01
2.925662323832511902e-02 -1.390375941991806030e-01 1.763643324375152588e-01
-4.761050343513488770e-01 8.175965398550033569e-02 -4.879983514547348022e-02
5.151331424713134766e-01 9.634157270193099976e-02 2.385435625910758972e-02
-6.914627552032470703e-01 1.082931235432624817e-01 9.451204910874366760e-03
-1.133447811007499695e-01 2.110808715224266052e-02 -6.017888784408569336e-01
-1.716469079256057739e-01 -1.395489647984504700e-02 8.565511554479598999e-02
4.251058772206306458e-02 -8.344244211912155151e-02 -1.470170766115188599e-01
-2.352939546108245850e-02 -1.283125206828117371e-02 3.774977028369903564e-01
-7.164204865694046021e-02 -8.152713626623153687e-02 5.618483573198318481e-02
7.275797128677368164e-01 -7.391695678234100342e-02 -4.407539963722229004e-02
-8.373073935508728027e-01 3.661453127861022949e-01 -3.189858747646212578e-03
5.406962037086486816e-01 -8.298277109861373901e-02 3.082609362900257111e-02
-7.371237874031066895e-01 2.246157638728618622e-02 3.202635794878005981e-02
-4.115717709064483643e-01 4.010799154639244080e-02 8.412285894155502319e-02
-7.088793516159057617e-01 2.601129561662673950e-02 -5.329443886876106262e-02
-1.511402726173400879e-01 9.169374406337738037e-02 -3.383486345410346985e-02
-3.736740946769714355e-01 6.625840067863464355e-02 7.273314148187637329e-02
-6.712881326675415039e-01 2.286513745784759521e-01 -6.228821352124214172e-03
4.406837746500968933e-02 -1.032857410609722137e-02 2.654391229152679443e-01
1.098785176873207092e-01 -6.988203525543212891e-02 -7.872979342937469482e-02
-8.103142976760864258e-01 2.426203936338424683e-01 -5.084209260530769825e-04
1.532667279243469238e-01 -5.218454077839851379e-02 2.640856504440307617e-01
-6.299174427986145020e-01 -3.446151316165924072e-02 -1.337932236492633820e-02
3.829690068960189819e-02 -5.438075959682464600e-02 1.576964110136032104e-01
2.463764697313308716e-01 -1.753015071153640747e-02 -8.674857020378112793e-02
-4.907380044460296631e-01 -2.582983672618865967e-02 7.102212309837341309e-02
-2.184060662984848022e-01 3.035266883671283722e-02 -7.581294775009155273e-01
-6.254994273185729980e-01 1.754823029041290283e-01 1.223479211330413818e-02
-3.874388337135314941e-01 -7.690484821796417236e-02 -3.388593718409538269e-02
2.978856265544891357e-01 -8.630264550447463989e-02 3.179442286491394043e-01
-1.411295831203460693e-01 3.620075434446334839e-02 -7.401766180992126465e-01
1.691766083240509033e-01 -2.766854129731655121e-02 -2.671710252761840820e-01
2.423160225152969360e-01 -5.553064402192831039e-03 -8.317331969738006592e-02
1.414173394441604614e-01 -6.717505306005477905e-02 1.040931865572929382e-01
-5.962078571319580078e-01 -3.770477697253227234e-02 -3.161309659481048584e-02
1.559992432594299316e-01 -1.259113103151321411e-01 -2.781265974044799805e-01
2.434907406568527222e-01 -9.508755058050155640e-02 -2.339467406272888184e-01
-3.494645357131958008e-01 8.998274058103561401e-02 4.242012277245521545e-02
2.966598272323608398e-01 -4.832837358117103577e-02 9.970074146986007690e-02
-7.141221314668655396e-02 9.330261498689651489e-02 -2.977439761161804199e-02
-7.078323364257812500e-01 3.048035874962806702e-02 1.345338821411132812e-01
-4.067962467670440674e-01 -7.248685508966445923e-02 4.242012277245521545e-02
-1.273137927055358887e-01 2.274248935282230377e-02 -7.082546949386596680e-01
8.333839359693229198e-04 -2.560000121593475342e-02 3.341094851493835449e-01
4.547293484210968018e-02 -6.602586805820465088e-02 9.086476266384124756e-02
2.625417113304138184e-01 -3.040105476975440979e-02 -1.589941531419754028e-01
8.612864464521408081e-02 -2.547231130301952362e-02 8.833654969930648804e-02
-2.133317105472087860e-02 -1.867933757603168488e-02 -3.849244117736816406e-01
-5.653330683708190918e-01 1.491786539554595947e-01 7.740192115306854248e-03
2.349356859922409058e-01 -6.505543738603591919e-02 2.402591556310653687e-01
1.691766083240509033e-01 -2.766854129731655121e-02 -2.671710252761840820e-01
8.655588030815124512e-01 6.470060348510742188e-02 5.286496132612228394e-02
-7.683306336402893066e-01 5.527726933360099792e-02 -2.645917534828186035e-01
-2.947376668453216553e-01 9.710770100355148315e-02 -1.626505888998508453e-02
2.896369993686676025e-01 -1.253750175237655640e-01 2.548921406269073486e-01
1.626389920711517334e-01 -1.228978857398033142e-01 -2.673753201961517334e-01
-7.925657629966735840e-01 3.392032086849212646e-01 8.506317622959613800e-03
1.714494377374649048e-01 -1.037958264350891113e-01 2.492228001356124878e-01
-2.133317105472087860e-02 -1.867933757603168488e-02 -3.849244117736816406e-01
-5.491498485207557678e-02 2.036750130355358124e-02 5.518677830696105957e-01
1.822007149457931519e-01 -3.379753977060317993e-02 2.874524593353271484e-01
1.013745293021202087e-01 -8.282954990863800049e-02 -2.494735419750213623e-01
4.858851432800292969e-02 -8.111853152513504028e-02 -6.384142488241195679e-02
5.032582283020019531e-01 5.096075590699911118e-03 -8.370961248874664307e-02
-4.707421362400054932e-01 2.445350401103496552e-02 -8.041527122259140015e-02
7.716829180717468262e-01 -7.634302228689193726e-02 -3.991278260946273804e-02
-6.593109965324401855e-01 3.214029595255851746e-02 -1.267402917146682739e-01
-1.060410737991333008e-01 9.072987450053915381e-05 4.799030721187591553e-01
5.395214557647705078e-01 -4.087143763899803162e-02 -7.283062487840652466e-02
-4.810593128204345703e-01 7.008901983499526978e-02 -6.261562556028366089e-02
-6.037158966064453125e-01 1.724177747964859009e-01 9.834267199039459229e-03
-7.828179746866226196e-02 9.897194057703018188e-02 5.033217370510101318e-03
1.887638717889785767e-01 9.866548329591751099e-02 8.889379911124706268e-03
6.437069177627563477e-02 -4.200192925054579973e-04 -4.553057849407196045e-01
-2.088550478219985962e-01 9.271524846553802490e-02 3.544838353991508484e-02
4.583888053894042969e-01 6.360249966382980347e-02 -7.053224742412567139e-02
5.425093173980712891e-01 -7.172073423862457275e-02 -4.744634777307510376e-02
-3.851990401744842529e-02 9.049348533153533936e-02 4.114324599504470825e-02
1.927732527256011963e-01 1.012696512043476105e-02 -8.427142351865768433e-02
2.462232559919357300e-01 -9.547061473131179810e-02 -3.058858811855316162e-01
1.269631087779998779e-01 -1.339371665380895138e-03 2.914107739925384521e-01
-3.499572724103927612e-02 -5.249098688364028931e-02 -1.980920881032943726e-01
7.478053569793701172e-01 3.418329358100891113e-02 8.619139343500137329e-02
-1.873590517789125443e-03 -5.905413255095481873e-02 -1.052632629871368408e-01
2.416009604930877686e-01 -4.820068180561065674e-02 2.949604690074920654e-01
-2.352939546108245850e-02 -1.283125206828117371e-02 3.774977028369903564e-01
-3.254593014717102051e-01 -3.946686908602714539e-02 -7.334137707948684692e-02
3.326601162552833557e-02 1.418675878085196018e-03 4.947403967380523682e-01
-3.516097068786621094e-01 9.851226210594177246e-02 1.108560524880886078e-02
-7.596733570098876953e-01 6.237669661641120911e-02 1.953851804137229919e-02
-8.095226287841796875e-01 2.947168946266174316e-01 7.254979573190212250e-03
2.656573057174682617e-01 -1.017528325319290161e-01 -2.495501488447189331e-01
1.921858936548233032e-01 -8.816688507795333862e-02 -3.189858747646212578e-03
-6.050693988800048828e-01 1.924902647733688354e-01 4.875418380834162235e-04
1.440987735986709595e-01 8.796527236700057983e-02 4.604645073413848877e-02
4.907372966408729553e-02 -3.527871146798133850e-02 2.678140997886657715e-01
1.066097170114517212e-01 -7.154195755720138550e-02 2.955733835697174072e-01
2.978856265544891357e-01 -8.630264550447463989e-02 3.179442286491394043e-01
-7.728584110736846924e-02 -3.101464360952377319e-03 -4.290532469749450684e-01
5.882470011711120605e-01 4.741171747446060181e-02 8.230969309806823730e-02
1.482869237661361694e-01 -3.816515207290649414e-03 2.686313092708587646e-01
6.334918737411499023e-02 -8.285577408969402313e-03 2.584674060344696045e-01
1.789063811302185059e-01 -5.014154314994812012e-02 -2.605568170547485352e-01
-2.993930503726005554e-02 -4.608108475804328918e-02 -8.222842961549758911e-02
5.859921500086784363e-02 -1.921562105417251587e-02 -8.401605486869812012e-02
2.336332648992538452e-01 -1.745353825390338898e-02 -6.473523378372192383e-02
8.648947477340698242e-01 8.188734203577041626e-02 2.066216990351676941e-02
1.576336473226547241e-01 5.734580755233764648e-02 7.814709097146987915e-02
-1.985123455524444580e-01 6.891429424285888672e-02 -6.639517843723297119e-02
-7.519176602363586426e-02 -1.086485758423805237e-02 -4.244820177555084229e-01
2.895017340779304504e-02 -1.164113581180572510e-01 -1.490600705146789551e-01
4.313701093196868896e-01 -8.372335880994796753e-02 -2.482012286782264709e-02
-2.934097349643707275e-01 -1.819412410259246826e-02 -8.046634495258331299e-02
1.910622417926788330e-01 -5.902859941124916077e-02 3.014214634895324707e-01
4.758585710078477859e-04 -3.509995341300964355e-02 -1.756190806627273560e-01
1.576336473226547241e-01 -8.405534178018569946e-02 5.656789988279342651e-02
-4.606803655624389648e-01 3.505156561732292175e-02 -7.906177639961242676e-02
1.254308521747589111e-01 -5.627053231000900269e-02 2.667160034179687500e-01
1.093422323465347290e-01 -4.942649230360984802e-02 -2.687288224697113037e-01
-6.796389222145080566e-01 3.842252120375633240e-02 -1.469404697418212891e-01
1.850609183311462402e-01 -1.255033817142248154e-02 2.744794189929962158e-01
-2.077569365501403809e-01 9.330261498689651489e-02 -2.977439761161804199e-02
5.185551643371582031e-01 -3.006906248629093170e-02 8.185002207756042480e-02
4.128478839993476868e-02 -2.907309867441654205e-02 3.152627944946289062e-01
4.744774401187896729e-01 -6.255276501178741455e-02 6.198184937238693237e-02
-2.600652910768985748e-02 -2.496156096458435059e-02 -3.686825633049011230e-01
-8.029850721359252930e-01 2.117455601692199707e-01 -7.428318349411711097e-05
7.426723241806030273e-01 -4.669398069381713867e-02 -6.928091496229171753e-02
-5.317843332886695862e-02 -2.146292850375175476e-02 3.269845545291900635e-01
-7.438657283782958984e-01 1.567377746105194092e-01 -2.883408684283494949e-03
-2.047690451145172119e-01 -6.717505306005477905e-02 -5.270707234740257263e-02
-6.957274675369262695e-01 2.848842926323413849e-02 1.213309988379478455e-01
7.496951222419738770e-01 -7.386589050292968750e-02 4.844697192311286926e-02
-2.175377905368804932e-01 -7.813064008951187134e-02 4.152631014585494995e-02
7.920107841491699219e-01 9.733753651380538940e-02 1.279661804437637329e-02
-7.450915575027465820e-01 5.918450653553009033e-02 -3.031068667769432068e-02
1.927732527256011963e-01 1.012696512043476105e-02 -8.427142351865768433e-02
6.652426123619079590e-01 -8.821795135736465454e-02 5.416279658675193787e-03
-1.147238165140151978e-01 4.227116005495190620e-04 5.356004238128662109e-01
-5.277674198150634766e-01 5.218723043799400330e-02 -7.188573479652404785e-02
-7.098497748374938965e-01 4.230421781539916992e-02 1.511843502521514893e-01
-3.210668563842773438e-01 -5.494258925318717957e-02 6.785547733306884766e-02
-5.614258050918579102e-01 -1.564037799835205078e-02 6.770224869251251221e-02
1.691255420446395874e-01 -7.210378348827362061e-02 -6.815726310014724731e-02
-2.993930503726005554e-02 -4.608108475804328918e-02 -8.222842961549758911e-02
2.434907406568527222e-01 -9.508755058050155640e-02 -2.339467406272888184e-01
2.564893364906311035e-01 -1.107931137084960938e-01 2.993784844875335693e-01
-3.831740617752075195e-01 9.245987236499786377e-02 -3.189400956034660339e-02
-1.542558670043945312e-01 3.510264307260513306e-02 -7.299872040748596191e-01
1.123045831918716431e-01 -9.621120244264602661e-02 2.951647639274597168e-01
-1.410274356603622437e-01 9.634157270193099976e-02 -1.961047388613224030e-02
-1.190983038395643234e-02 1.812020316720008850e-02 5.632320046424865723e-01
-2.789630740880966187e-02 3.673703968524932861e-02 8.545081317424774170e-02
-7.801034450531005859e-01 5.869929492473602295e-02 -1.532017160207033157e-02
8.789072930812835693e-02 -8.750290423631668091e-02 1.415010541677474976e-02
1.284698098897933960e-01 -7.774828467518091202e-03 3.667719662189483643e-01
2.925662323832511902e-02 -1.390375941991806030e-01 1.763643324375152588e-01
-6.349738836288452148e-01 5.073159188032150269e-02 6.637430191040039062e-02
-7.549489736557006836e-01 5.535388365387916565e-02 -3.401362523436546326e-02
-8.096758127212524414e-01 5.900574475526809692e-02 -3.186035454273223877e-01
9.925492107868194580e-02 -7.281883805990219116e-02 2.557093203067779541e-01
2.172637283802032471e-01 -1.694278977811336517e-02 -2.149723619222640991e-01
-9.332337975502014160e-02 9.616215713322162628e-03 -6.091437339782714844e-01
5.469197407364845276e-02 -3.308248892426490784e-02 1.208968609571456909e-01
9.943368285894393921e-02 -7.976505160331726074e-02 -2.931682169437408447e-01
8.359608650207519531e-01 7.892499864101409912e-02 4.849804937839508057e-02
2.443334758281707764e-01 -1.689171232283115387e-02 -9.898103773593902588e-02
2.326883673667907715e-01 -1.133979335427284241e-01 -2.488095611333847046e-01
2.713777124881744385e-01 -8.625157922506332397e-02 -2.670989744365215302e-02
2.451506853103637695e-01 -4.771547764539718628e-02 3.110746443271636963e-01
-1.464924663305282593e-01 1.270625460892915726e-02 5.911700129508972168e-01
-6.052225828170776367e-01 1.600059494376182556e-02 4.395237565040588379e-02
-6.683257222175598145e-01 6.148288398981094360e-02 5.365662276744842529e-02
-2.958178333938121796e-02 2.008658833801746368e-02 5.972223877906799316e-01
-1.400314718484878540e-01 -8.842226117849349976e-02 2.734842011705040932e-03
1.822007149457931519e-01 -3.379753977060317993e-02 2.874524593353271484e-01
-8.079206570982933044e-03 -1.666187494993209839e-02 4.081682264804840088e-01
3.306171298027038574e-02 1.717531681060791016e-02 8.856638520956039429e-02
1.189443320035934448e-01 -7.910107076168060303e-02 2.535130977630615234e-01
-9.414058923721313477e-02 6.628323346376419067e-03 5.880799889564514160e-01
2.596228756010532379e-02 -3.675989061594009399e-02 -1.327416002750396729e-01
-7.274706363677978516e-01 7.711183279752731323e-02 5.875954870134592056e-03
4.583888053894042969e-01 6.360249966382980347e-02 -7.053224742412567139e-02
-1.638068854808807373e-01 2.353415265679359436e-02 7.264165878295898438e-01
-7.212394475936889648e-01 3.880557790398597717e-02 -1.035011634230613708e-01
1.962974220514297485e-01 -8.617495745420455933e-02 -3.779317438602447510e-02
-3.823899105191230774e-02 1.367667503654956818e-02 6.042707562446594238e-01
3.025258705019950867e-02 -4.812408238649368286e-02 6.966864317655563354e-02
1.495382636785507202e-01 -1.474655885249376297e-02 -3.260094225406646729e-01
2.710712254047393799e-01 6.107428297400474548e-02 -7.191127538681030273e-02
-6.511390209197998047e-01 1.438413262367248535e-01 -8.782571181654930115e-03
8.516919016838073730e-01 -9.628780186176300049e-02 9.425667114555835724e-03
-3.530218452215194702e-02 -4.140771180391311646e-02 -1.859362274408340454e-01
1.344891078770160675e-02 -1.393440365791320801e-01 -1.238800957798957825e-01
2.208900451660156250e-01 -4.740903154015541077e-02 -2.487584948539733887e-01
-7.384517192840576172e-01 3.374915570020675659e-02 5.802353471517562866e-02
-6.593109965324401855e-01 3.214029595255851746e-02 -1.267402917146682739e-01
6.843115389347076416e-02 -1.341861300170421600e-02 8.820886164903640747e-02
5.643439292907714844e-01 9.815473854541778564e-02 -1.143847219645977020e-02
5.328741669654846191e-02 4.840706009417772293e-03 -3.619151711463928223e-01
2.488791495561599731e-01 -2.863896079361438751e-02 -8.419481664896011353e-02
5.949302762746810913e-02 -5.501986481249332428e-03 -8.317331969738006592e-02
8.516919016838073730e-01 -9.628780186176300049e-02 9.425667114555835724e-03
-1.460583209991455078e-01 1.676671393215656281e-02 -6.067942976951599121e-01
2.978856265544891357e-01 -9.179386310279369354e-03 -8.279025554656982422e-02
8.722675591707229614e-02 -1.445026099681854248e-01 1.242933496832847595e-01
7.426723241806030273e-01 -4.669398069381713867e-02 -6.928091496229171753e-02
4.828206449747085571e-02 -4.038621112704277039e-02 -2.770540416240692139e-01
5.765432864427566528e-02 -1.467243731021881104e-01 1.340742111206054688e-01
4.142089486122131348e-01 -1.244818326085805893e-02 -8.174321800470352173e-02
2.051589488983154297e-01 9.156544692814350128e-03 -8.416928350925445557e-02
3.913963958621025085e-02 -1.122998148202896118e-01 -1.438248902559280396e-01
1.383783668279647827e-01 -1.939438842236995697e-02 -9.665711969137191772e-02
8.905344605445861816e-01 -6.988203525543212891e-02 1.300167496083304286e-04
3.071226365864276886e-02 7.394451647996902466e-03 -3.936071991920471191e-01
8.169609308242797852e-01 -2.483387291431427002e-02 7.875999063253402710e-02
1.249711811542510986e-01 -8.175696432590484619e-02 -2.450555562973022461e-01
8.464746922254562378e-02 -1.592129096388816833e-02 -1.794496923685073853e-01
-6.950891017913818359e-01 2.603683061897754669e-02 -9.992592036724090576e-02
2.299558669328689575e-01 -2.468064799904823303e-02 -2.781521677970886230e-01
-4.988409578800201416e-02 1.306378003209829330e-02 -6.078413128852844238e-01
9.072538465261459351e-02 -1.671362901106476784e-03 2.881675064563751221e-01
-1.873590517789125443e-03 -5.905413255095481873e-02 -1.052632629871368408e-01
7.162665128707885742e-01 8.916553109884262085e-02 -3.970849141478538513e-02
-2.136816382408142090e-01 3.694133833050727844e-02 7.972320914268493652e-01
7.871586680412292480e-01 3.931633383035659790e-02 8.335673809051513672e-02
2.036011517047882080e-01 -1.120444536209106445e-01 2.384459972381591797e-01
5.177634954452514648e-01 7.231078296899795532e-02 6.790655106306076050e-02
4.694465398788452148e-01 8.303653448820114136e-02 5.462704971432685852e-02
-5.397955775260925293e-01 7.455808669328689575e-02 -5.592479929327964783e-02
1.005573272705078125e-01 -2.595752663910388947e-02 2.688866853713989258e-01
1.164161190390586853e-01 -3.195883706212043762e-02 -2.645661830902099609e-01
2.384853810071945190e-01 9.858886897563934326e-02 -5.794684402644634247e-03
-6.796389222145080566e-01 3.842252120375633240e-02 -1.469404697418212891e-01
-5.397189259529113770e-01 8.755667507648468018e-02 -1.187260914593935013e-02
6.743519008159637451e-02 -4.370608553290367126e-02 8.864299207925796509e-02
-5.891340374946594238e-01 1.442754566669464111e-01 -8.297358639538288116e-03
-6.082615852355957031e-01 3.198706358671188354e-02 7.485275715589523315e-02
1.625046599656343460e-03 1.513231080025434494e-02 4.860576391220092773e-01
9.145141839981079102e-01 -5.266974493861198425e-02 -2.548409812152385712e-02
1.765569299459457397e-01 6.270797923207283020e-03 -8.383729308843612671e-02
1.350074261426925659e-01 -7.670053839683532715e-02 -7.198788970708847046e-02
5.885458737611770630e-02 -2.909864298999309540e-02 1.367812007665634155e-01
8.794180303812026978e-02 -6.722611933946609497e-02 -8.166660368442535400e-02
1.221109777688980103e-01 -8.180805295705795288e-02 -2.878308594226837158e-01
-4.919382929801940918e-01 -5.009047314524650574e-02 -4.619501158595085144e-02
1.620696112513542175e-02 -3.075920743867754936e-03 -4.885300695896148682e-01
6.504564285278320312e-01 -8.111853152513504028e-02 -3.100019879639148712e-02
-6.511390209197998047e-01 1.438413262367248535e-01 -8.782571181654930115e-03
-3.984454870223999023e-01 9.667356312274932861e-02 2.239871956408023834e-02
1.776474714279174805e-02 -1.476437300443649292e-01 -1.334311217069625854e-01
-8.203580975532531738e-02 1.704762689769268036e-02 6.560352444648742676e-01
5.151331424713134766e-01 9.634157270193099976e-02 2.385435625910758972e-02
7.892271876335144043e-01 9.606066346168518066e-02 2.298608236014842987e-02
-1.362519264221191406e-01 -1.101809088140726089e-02 8.629354834556579590e-02
1.676188111305236816e-01 -7.621595170348882675e-03 -2.108097523450851440e-01
-2.136816382408142090e-01 3.694133833050727844e-02 7.972320914268493652e-01
-7.375068664550781250e-01 9.120853990316390991e-02 5.543967243283987045e-03
7.802890539169311523e-01 -7.956074178218841553e-02 -3.424346446990966797e-02
-5.561140179634094238e-01 7.167234271764755249e-02 6.210953742265701294e-02
1.709642261266708374e-01 -9.868903085589408875e-03 -1.660935878753662109e-01
5.425093173980712891e-01 -7.172073423862457275e-02 -4.744634777307510376e-02
2.839676737785339355e-01 -4.082034900784492493e-02 -2.636979222297668457e-01
2.638185918331146240e-01 7.167234271764755249e-02 6.844284385442733765e-02
-6.009909883141517639e-02 -1.063502207398414612e-02 4.440484344959259033e-01
-2.843949794769287109e-01 -8.768165856599807739e-02 -7.863221690058708191e-03
1.535987257957458496e-01 -2.886879816651344299e-02 -2.735553979873657227e-01
-2.317111194133758545e-01 3.316179290413856506e-02 7.906434535980224609e-01
-6.905689835548400879e-01 2.144007757306098938e-02 -5.955112725496292114e-02
2.073551714420318604e-01 -5.900304764509201050e-02 -8.396498113870620728e-02
-5.338963866233825684e-01 4.204884171485900879e-02 7.812155038118362427e-02
2.925662323832511902e-02 -1.145981922745704651e-01 1.268726438283920288e-01
6.526450067758560181e-02 -8.842226117849349976e-02 3.015754744410514832e-03
2.446909993886947632e-01 -6.983096152544021606e-02 8.476129174232482910e-02
-1.769331693649291992e-01 -8.704323321580886841e-02 -1.238335948437452316e-02
-6.797665357589721680e-01 3.872896730899810791e-02 -1.338141858577728271e-01
-1.573203504085540771e-01 8.696930855512619019e-02 -4.351357370615005493e-02
-6.444993019104003906e-01 9.549883008003234863e-02 -8.093059994280338287e-03
2.412434369325637817e-01 -8.012256771326065063e-02 -3.085162341594696045e-01
-7.801034450531005859e-01 5.869929492473602295e-02 -1.532017160207033157e-02
-5.414299368858337402e-01 9.074885398149490356e-02 2.035572007298469543e-02
9.644579142332077026e-02 -2.023712918162345886e-02 2.894188463687896729e-01
-2.621083147823810577e-02 -6.472406908869743347e-03 4.876920282840728760e-01
-6.298483163118362427e-02 -1.704493537545204163e-02 3.682531416416168213e-01
2.398133277893066406e-01 -1.183011308312416077e-01 -2.838980853557586670e-01
1.509938985109329224e-01 -5.259314179420471191e-02 1.770538240671157837e-01
1.383783668279647827e-01 -1.939438842236995697e-02 -9.665711969137191772e-02
3.520686179399490356e-02 5.402523092925548553e-03 -3.724621236324310303e-01
-6.349738836288452148e-01 5.073159188032150269e-02 6.637430191040039062e-02
-1.421000212430953979e-01 -7.013741135597229004e-02 5.380984768271446228e-02
-3.016914054751396179e-02 -2.582983672618865967e-02 -3.073925971984863281e-01
1.532667279243469238e-01 -5.218454077839851379e-02 2.640856504440307617e-01
-6.924076676368713379e-01 3.076126240193843842e-02 -3.094912506639957428e-02
-3.111403621733188629e-02 -2.273979783058166504e-02 -2.795566916465759277e-01
7.356239557266235352e-01 9.424749761819839478e-02 -2.737387269735336304e-02
9.943368285894393921e-02 -7.976505160331726074e-02 -2.931682169437408447e-01
1.559992432594299316e-01 -1.259113103151321411e-01 -2.781265974044799805e-01
-7.944044470787048340e-01 1.898847892880439758e-02 3.312446922063827515e-02
6.469833254814147949e-01 -8.722198754549026489e-02 1.591219380497932434e-02
-9.212312102317810059e-02 -6.932088173925876617e-03 8.677875995635986328e-02
-8.767959475517272949e-02 -2.932847850024700165e-02 8.230969309806823730e-02
5.836937949061393738e-02 -6.592370569705963135e-02 -9.272434562444686890e-02
-5.784593224525451660e-01 -4.082034900784492493e-02 3.935562074184417725e-02
8.199232816696166992e-01 8.250024914741516113e-02 -4.433077201247215271e-02
-8.210399746894836426e-01 7.777511142194271088e-03 1.226032990962266922e-02
-1.937879323959350586e-01 3.579215332865715027e-02 -8.020284771919250488e-01
8.209958672523498535e-01 -7.289613597095012665e-03 8.179894834756851196e-02
-8.016825914382934570e-01 5.686059594154357910e-02 -5.594957037828862667e-04
-4.270985722541809082e-01 -7.491292059421539307e-02 -2.448813617229461670e-02
3.361595794558525085e-03 -6.804398261010646820e-03 -4.731820523738861084e-01
5.489447712898254395e-01 -1.747907325625419617e-02 -8.061957359313964844e-02
8.023534417152404785e-01 -8.648140728473663330e-02 4.364667402114719152e-04
2.346547693014144897e-01 -7.161857932806015015e-02 8.317796885967254639e-02
-2.172058075666427612e-01 7.596264779567718506e-02 6.405039131641387939e-02
1.094443798065185547e-01 -6.319119781255722046e-02 2.777992784976959229e-01
-2.724434435367584229e-01 -3.916041180491447449e-02 7.781510055065155029e-02
8.818517327308654785e-01 -8.505130559206008911e-02 2.022803202271461487e-02
6.036971807479858398e-01 8.204057067632675171e-02 -5.176218599081039429e-02
-3.837614059448242188e-01 9.131068736314773560e-02 3.904917091131210327e-02
-6.605623960494995117e-01 3.152739256620407104e-02 -4.662914946675300598e-02
7.851846516132354736e-02 -2.151399850845336914e-02 -2.835150361061096191e-01
-2.176730707287788391e-02 1.472371723502874374e-02 5.917573571205139160e-01
-7.058659195899963379e-01 3.244674205780029297e-02 -1.440036594867706299e-01
9.644579142332077026e-02 -2.023712918162345886e-02 2.894188463687896729e-01
-2.422581017017364502e-01 -1.635542884469032288e-02 -8.087494224309921265e-02
-6.777746677398681641e-01 3.666042536497116089e-02 -1.562105715274810791e-01
-5.215362310409545898e-01 1.196573153138160706e-01 2.658229554072022438e-03
-6.063538044691085815e-02 -1.896025240421295166e-02 3.474145531654357910e-01
8.333839359693229198e-04 -2.560000121593475342e-02 3.341094851493835449e-01
1.033664569258689880e-01 -1.012427266687154770e-02 -3.862523734569549561e-01
2.865214347839355469e-01 -1.284650713205337524e-01 -2.794290482997894287e-01
-6.785918474197387695e-01 -2.345484867691993713e-02 1.795519329607486725e-02
8.076907992362976074e-01 9.414534270763397217e-02 -1.664812304079532623e-02
-1.190983038395643234e-02 1.812020316720008850e-02 5.632320046424865723e-01
-8.058017492294311523e-02 -7.315147668123245239e-03 -4.096958041191101074e-01
8.875900506973266602e-02 -3.032444231212139130e-02 3.049201071262359619e-01
-7.842660546302795410e-01 3.512817993760108948e-02 1.083324179053306580e-01
-6.536417007446289062e-01 3.900988027453422546e-02 -6.184949725866317749e-02
2.839676737785339355e-01 -4.082034900784492493e-02 -2.636979222297668457e-01
3.732212185859680176e-01 -8.091424405574798584e-02 -3.145987540483474731e-02
-8.767959475517272949e-02 -2.932847850024700165e-02 8.230969309806823730e-02
-7.100795507431030273e-01 2.465276271104812622e-01 -7.020484190434217453e-03
1.363353729248046875e-01 -5.877321958541870117e-02 -2.888268232345581055e-01
4.793295562267303467e-01 8.316422253847122192e-02 5.442274734377861023e-02
-7.049721479415893555e-01 2.058974653482437134e-01 -7.148171309381723404e-03
-7.268577218055725098e-01 2.445101588964462280e-01 -6.586346309632062912e-03
-7.422568202018737793e-01 3.814160451292991638e-02 1.855322718620300293e-01
4.815513193607330322e-01 -6.296136975288391113e-02 -5.743151158094406128e-02
-2.047690451145172119e-01 -3.645344078540802002e-02 7.901536673307418823e-02
-2.391921880189329386e-04 -1.382203847169876099e-01 -1.687750220298767090e-01
-2.136816382408142090e-01 3.694133833050727844e-02 7.972320914268493652e-01
-4.247821867465972900e-02 1.610274054110050201e-02 5.094755291938781738e-01
4.419682025909423828e-01 9.424749761819839478e-02 3.161775693297386169e-02
-7.407501339912414551e-01 2.800321578979492188e-02 8.815778791904449463e-02
2.036011517047882080e-01 -1.120444536209106445e-01 2.384459972381591797e-01
-8.029850721359252930e-01 2.117455601692199707e-01 -7.428318349411711097e-05
-6.367104053497314453e-01 -1.745353825390338898e-02 5.120502412319183350e-02
-6.721819639205932617e-01 2.483408004045486450e-01 6.999604869633913040e-03
1.642733961343765259e-01 -7.856477797031402588e-02 -2.377262860536575317e-01
-6.313806027173995972e-02 -1.543673221021890640e-03 4.261466562747955322e-01
-7.445807456970214844e-01 2.555161528289318085e-02 4.520370811223983765e-02
2.347569018602371216e-01 -8.328922092914581299e-02 -2.204629331827163696e-01
-6.910541653633117676e-01 1.976743787527084351e-01 -7.633384317159652710e-03
3.913963958621025085e-02 -1.122998148202896118e-01 -1.438248902559280396e-01
-7.473388314247131348e-01 2.422117888927459717e-01 -5.488234106451272964e-03
-6.530798673629760742e-01 1.870756410062313080e-02 -5.158342421054840088e-02
1.249711811542510986e-01 -8.175696432590484619e-02 -2.450555562973022461e-01
7.854400575160980225e-02 -2.687687799334526062e-02 2.858180403709411621e-01
-6.485597491264343262e-01 8.025295287370681763e-02 2.119845710694789886e-02
6.107200384140014648e-01 -5.478936433792114258e-02 -6.391803920269012451e-02
2.079425305128097534e-01 -1.505301613360643387e-02 2.267242670059204102e-01
1.643500030040740967e-01 -1.009100899100303650e-01 -2.979181706905364990e-01
1.059712767601013184e-01 7.802370237186551094e-04 -3.112232089042663574e-01
2.115944027900695801e-01 -5.491705238819122314e-02 -2.401778846979141235e-01
5.895673856139183044e-02 -2.943062409758567810e-02 2.757562994956970215e-01
-4.290393888950347900e-01 -7.108228653669357300e-02 3.723600879311561584e-02
-3.499572724103927612e-02 -5.249098688364028931e-02 -1.980920881032943726e-01
1.123045831918716431e-01 -9.621120244264602661e-02 2.951647639274597168e-01
1.163574773818254471e-02 -3.244405239820480347e-02 -2.706696689128875732e-01
-2.516379393637180328e-02 -5.226116254925727844e-02 1.377005428075790405e-01
-6.810689568519592285e-01 2.435134910047054291e-02 9.306099265813827515e-02
1.092911511659622192e-01 -1.610004901885986328e-02 -1.511541455984115601e-01
-8.374682813882827759e-02 -1.109535922296345234e-03 5.358813405036926270e-01
-1.339100487530231476e-02 -3.548301383852958679e-02 -1.911203265190124512e-01
-9.094840288162231445e-02 2.578145079314708710e-02 -6.146853566169738770e-01
-5.317843332886695862e-02 -2.146292850375175476e-02 3.269845545291900635e-01
-7.225494831800460815e-02 -5.026923120021820068e-02 -7.977682352066040039e-02
6.456809043884277344e-01 -4.710258170962333679e-02 -6.902553886175155640e-02
5.970574617385864258e-01 -8.339137583971023560e-02 -2.563732489943504333e-02
2.875429391860961914e-01 -7.225701212882995605e-02 2.359177768230438232e-01
-3.884858787059783936e-01 -8.566491305828094482e-03 -8.238165080547332764e-02
3.931840136647224426e-02 -4.896682128310203552e-02 -1.831781715154647827e-01
-5.526409149169921875e-01 2.144007757306098938e-02 -7.566528767347335815e-02
-5.891340374946594238e-01 1.442754566669464111e-01 -8.297358639538288116e-03
5.580361485481262207e-01 1.658795587718486786e-02 8.859192579984664917e-02
-7.519176602363586426e-02 -1.086485758423805237e-02 -4.244820177555084229e-01
-2.352939546108245850e-02 -1.283125206828117371e-02 3.774977028369903564e-01
-7.800088822841644287e-02 1.045895647257566452e-02 5.119526982307434082e-01
7.083167880773544312e-02 -2.143738605082035065e-02 3.640139102935791016e-01
-6.678661108016967773e-01 3.244674205780029297e-02 5.659344047307968140e-02
2.716330587863922119e-01 -8.487254381179809570e-02 4.706794768571853638e-02
2.158336192369461060e-01 -1.589574664831161499e-02 -8.092601597309112549e-02
1.213448643684387207e-01 -8.448947221040725708e-02 2.985357344150543213e-01
1.243582889437675476e-01 8.007418364286422729e-02 5.861090123653411865e-02
-8.494707942008972168e-02 3.971774713136255741e-04 -4.553057849407196045e-01
