2.105656713247299194e-01 -1.344086378812789917e-01 -7.361649535596370697e-03
-5.252248644828796387e-01 -9.415324032306671143e-02 -1.780195347964763641e-02
-6.605472564697265625e-01 1.589660905301570892e-02 9.628942236304283142e-03
1.037784293293952942e-01 -8.117814362049102783e-02 -7.652866840362548828e-02
3.960569202899932861e-02 2.666317299008369446e-02 1.257020384073257446e-01
1.338194012641906738e-01 1.609738357365131378e-02 3.828447461128234863e-01
-4.946066439151763916e-01 -1.703050732612609863e-02 4.737466201186180115e-02
3.010399639606475830e-01 -1.293971203267574310e-02 2.371573150157928467e-01
7.883228361606597900e-03 2.151831239461898804e-02 -1.249907612800598145e-01
1.675747185945510864e-01 -1.306692063808441162e-01 -2.226919867098331451e-02
4.924289882183074951e-02 2.824427746236324310e-02 1.548144370317459106e-01
8.729227185249328613e-01 -4.624328389763832092e-02 5.362378433346748352e-02
-1.387578845024108887e-01 5.506498739123344421e-03 4.049811139702796936e-02
2.088088989257812500e-01 -5.490170419216156006e-02 2.552270591259002686e-01
1.760825663805007935e-01 2.181947231292724609e-02 2.587908208370208740e-01
1.325645595788955688e-01 2.721530571579933167e-02 7.287310063838958740e-02
2.801342606544494629e-01 7.489152718335390091e-03 3.846526518464088440e-02
4.418335258960723877e-01 -1.042923778295516968e-01 5.977252498269081116e-02
1.141434386372566223e-01 2.508207038044929504e-02 5.619863271713256836e-01
1.176820993423461914e-01 -4.557351116091012955e-03 2.100777775049209595e-01
1.410222053527832031e-01 7.689926773309707642e-03 1.273333430290222168e-01
2.775743901729583740e-01 -1.050201877951622009e-01 5.901961773633956909e-02
1.715149432420730591e-01 -7.344830781221389771e-02 -7.876229286193847656e-02
1.165276467800140381e-01 -6.113358307629823685e-03 2.650901675224304199e-01
4.369665868580341339e-03 1.263401471078395844e-02 -3.810041248798370361e-01
3.753769397735595703e-01 -3.750956803560256958e-02 7.206999510526657104e-02
6.401240229606628418e-01 -1.261345390230417252e-02 -6.405551731586456299e-02
-2.676554918289184570e-01 -1.285359710454940796e-01 2.589172497391700745e-02
3.732186257839202881e-01 -1.092866584658622742e-01 -5.946278572082519531e-02
7.801896333694458008e-01 -4.533979296684265137e-02 7.430361956357955933e-02
1.356765776872634888e-01 -1.330785155296325684e-01 -1.268219016492366791e-02
1.899109482765197754e-01 -1.055723205208778381e-01 5.844238772988319397e-02
9.991351515054702759e-02 3.825793787837028503e-02 -5.036274790763854980e-01
4.979502782225608826e-02 2.831956744194030762e-02 -2.239477932453155518e-01
-1.826272308826446533e-01 -1.312464326620101929e-01 -1.988499611616134644e-02
-6.326143741607666016e-01 -6.366052478551864624e-02 2.094763889908790588e-02
-2.620337903499603271e-01 -7.870142348110675812e-03 5.430139973759651184e-02
7.659850269556045532e-02 4.799552634358406067e-02 -7.722394466400146484e-01
8.051361888647079468e-02 9.271032176911830902e-03 3.794817328453063965e-01
7.802902907133102417e-02 -6.667214632034301758e-02 2.385878264904022217e-01
-4.778920710086822510e-01 -2.915230020880699158e-02 -5.800716578960418701e-02
1.007417142391204834e-01 -6.699840724468231201e-02 -2.232952564954757690e-01
8.034043312072753906e-01 4.753591027110815048e-03 4.127611592411994934e-02
-8.458124399185180664e-01 2.408400028944015503e-01 -1.882098168134689331e-01
-8.230746984481811523e-01 2.434249818325042725e-01 -6.051685661077499390e-02
6.522708535194396973e-01 -1.253486573696136475e-01 -4.287374019622802734e-02
5.963300913572311401e-02 1.135407201945781708e-02 -2.603633701801300049e-01
1.053595319390296936e-01 2.611104212701320648e-02 5.732799172401428223e-01
7.770276814699172974e-02 1.691770972684025764e-03 2.106048166751861572e-01
2.429659105837345123e-02 2.415348403155803680e-02 -2.198820859193801880e-01
-6.680512428283691406e-01 2.299902960658073425e-02 -1.416290458291769028e-02
4.664284586906433105e-01 1.120349206030368805e-02 2.543998323380947113e-02
1.621035933494567871e-01 -3.946712240576744080e-02 2.650901675224304199e-01
1.257633119821548462e-01 2.626162394881248474e-02 5.453220009803771973e-01
-7.937364578247070312e-01 2.344653904438018799e-01 3.191497921943664551e-02
8.234817981719970703e-01 -9.508182108402252197e-02 6.634791195392608643e-02
5.398621037602424622e-02 2.902228198945522308e-02 5.420101806521415710e-02
6.988757848739624023e-01 -5.887487903237342834e-03 5.226855352520942688e-02
5.765535831451416016e-01 -8.534422516822814941e-02 7.051398605108261108e-02
-8.254069834947586060e-03 1.770358532667160034e-02 -2.111734747886657715e-01
-8.168004751205444336e-01 2.356700301170349121e-01 1.740637421607971191e-01
-8.814249634742736816e-01 2.486953139305114746e-01 1.168688666075468063e-02
-7.007524371147155762e-01 -1.098215673118829727e-02 2.182603068649768829e-02
9.249987006187438965e-01 -4.187642037868499756e-02 1.043204218149185181e-02
-6.831094026565551758e-01 2.262838035821914673e-01 -1.652201265096664429e-02
3.084687888622283936e-02 2.523265220224857330e-02 -7.841093093156814575e-02
6.435122340917587280e-02 3.873477876186370850e-02 -5.033765435218811035e-01
5.448814854025840759e-02 -6.029753386974334717e-02 -2.223666906356811523e-01
1.428293529897928238e-02 2.252218686044216156e-02 9.525951743125915527e-02
1.264911144971847534e-01 -1.610192283987998962e-02 -7.178535312414169312e-02
-3.011849224567413330e-01 -7.126487791538238525e-02 7.452949136495590210e-02
2.399541437625885010e-01 -1.484707556664943695e-02 -2.155905216932296753e-01
1.222497373819351196e-01 3.685250878334045410e-02 -5.813525319099426270e-01
7.471623271703720093e-02 2.079050056636333466e-02 4.466159045696258545e-01
9.830478429794311523e-01 -1.205300614237785339e-01 -1.516678091138601303e-02
-1.360725164413452148e-01 -8.547757752239704132e-03 -5.986433476209640503e-02
-3.731125891208648682e-01 -1.240185350179672241e-01 3.419879451394081116e-02
1.656171679496765137e-01 4.452428314834833145e-03 -2.694986462593078613e-01
2.067258507013320923e-01 -7.801594585180282593e-02 -7.745725661516189575e-02
-3.109209472313523293e-03 1.905881613492965698e-02 -3.810041248798370361e-01
-8.241037130355834961e-01 2.207373976707458496e-01 5.362472496926784515e-03
9.275586605072021484e-01 -1.335302591323852539e-01 -5.845530176884494722e-05
2.757171988487243652e-01 -9.688879549503326416e-02 6.720120459794998169e-02
8.713919669389724731e-02 1.526918634772300720e-02 -3.584169149398803711e-01
1.338194012641906738e-01 1.609738357365131378e-02 3.828447461128234863e-01
4.419842362403869629e-02 3.532160073518753052e-02 4.721143543720245361e-01
-8.343682885169982910e-01 -1.650347188115119934e-02 -2.417562529444694519e-03
1.018459722399711609e-01 -4.644405096769332886e-02 2.650901675224304199e-01
6.693117022514343262e-01 1.740242168307304382e-02 -5.604867357760667801e-03
2.093360945582389832e-02 4.054174944758415222e-02 7.256430983543395996e-01
1.834863238036632538e-02 3.753012418746948242e-02 -6.734330058097839355e-01
7.422934174537658691e-01 -1.303680539131164551e-01 -2.347384952008724213e-02
9.662329554557800293e-01 -1.235165894031524658e-01 -1.556833181530237198e-02
-8.143410086631774902e-01 2.353939712047576904e-01 4.022204875946044922e-02
4.863303005695343018e-01 -1.100646629929542542e-01 5.379946157336235046e-02
-2.629623711109161377e-01 -1.019834652543067932e-01 6.215672567486763000e-02
-7.373184710741043091e-02 -5.153871700167655945e-02 2.300799787044525146e-01
3.709600493311882019e-02 1.285988558083772659e-02 1.142327636480331421e-01
1.079445108771324158e-01 2.392761409282684326e-02 5.346558094024658203e-01
4.369665868580341339e-03 -5.778785049915313721e-02 -2.253783047199249268e-01
-3.173221945762634277e-01 -1.257753074169158936e-01 -4.111696407198905945e-02
-2.486822456121444702e-01 1.481744367629289627e-02 1.103436760604381561e-02
-1.339141875505447388e-01 -1.131264865398406982e-01 5.595779418945312500e-02
1.706868596374988556e-02 2.254728414118289948e-02 3.856806755065917969e-01
1.167033314704895020e-01 2.922305651009082794e-02 -1.213005837053060532e-02
1.726944893598556519e-01 -1.371771562844514847e-02 6.303511559963226318e-02
7.410886883735656738e-01 -8.185576647520065308e-02 -7.635299116373062134e-02
5.825268104672431946e-02 1.102781388908624649e-02 8.000060915946960449e-02
-7.649503350257873535e-01 2.344653904438018799e-01 -5.622528865933418274e-02
1.110816299915313721e-01 3.163235634565353394e-02 6.630013585090637207e-01
-6.528927087783813477e-01 -8.296788670122623444e-03 -2.952219918370246887e-02
5.435512065887451172e-01 1.750280894339084625e-02 3.932887339033186436e-04
9.725324064493179321e-02 9.095354005694389343e-03 1.530576497316360474e-01
8.826855570077896118e-02 3.522121161222457886e-02 -7.341926097869873047e-01
4.357099905610084534e-02 4.154562950134277344e-02 -6.595042347908020020e-01
6.389947980642318726e-02 3.005125373601913452e-02 -2.382028251886367798e-01
9.154869914054870605e-01 -1.593800634145736694e-01 -8.214943110942840576e-03
-4.761353135108947754e-01 -1.600153371691703796e-02 -5.281211063265800476e-02
7.389053106307983398e-01 1.577112451195716858e-02 7.269835565239191055e-03
3.880259394645690918e-02 1.308575738221406937e-02 -2.322548627853393555e-01
8.729227185249328613e-01 -4.624328389763832092e-02 5.362378433346748352e-02
-7.460021972656250000e-01 2.379287630319595337e-01 1.160146445035934448e-01
3.753769397735595703e-01 -3.750956803560256958e-02 7.206999510526657104e-02
-2.463984340429306030e-01 -1.110434383153915405e-01 -5.763071030378341675e-02
-8.614227771759033203e-01 2.559232115745544434e-01 -1.052385754883289337e-02
3.960569202899932861e-02 2.666317299008369446e-02 1.257020384073257446e-01
8.799248933792114258e-02 3.005125373601913452e-02 2.407963573932647705e-01
-5.749166607856750488e-01 2.094108425080776215e-02 1.874004956334829330e-03
-7.708230018615722656e-01 2.453825324773788452e-01 4.735050257295370102e-03
-7.649503350257873535e-01 2.344653904438018799e-01 -5.622528865933418274e-02
5.684974789619445801e-01 8.969867601990699768e-03 3.437447547912597656e-02
-5.811908841133117676e-01 1.125368662178516388e-02 2.024586312472820282e-03
-2.365855425596237183e-01 -5.665848776698112488e-02 7.754112035036087036e-02
-6.449872255325317383e-01 2.591026760637760162e-02 -1.388684008270502090e-02
9.619664549827575684e-01 -7.397533208131790161e-02 2.538978867232799530e-02
2.038397192955017090e-01 1.358769461512565613e-02 -2.231939323246479034e-02
9.286128729581832886e-02 8.556964166928082705e-05 -2.145113497972488403e-01
-9.822641313076019287e-02 1.356259826570749283e-02 -2.096416242420673370e-02
1.044811457395553589e-01 3.005125373601913452e-02 9.766881912946701050e-02
1.721925437450408936e-01 -5.640751495957374573e-02 -2.491199672222137451e-01
2.514988742768764496e-02 2.430406585335731506e-02 1.489166617393493652e-01
3.880259394645690918e-02 1.308575738221406937e-02 -2.322548627853393555e-01
1.841888576745986938e-01 1.835610345005989075e-02 -1.591968908905982971e-02
-1.060817465186119080e-01 -1.355630904436111450e-01 -2.066206187009811401e-03
-3.044726252555847168e-01 -9.515711665153503418e-02 -7.253826409578323364e-02
6.748833507299423218e-02 3.005125373601913452e-02 1.005047634243965149e-01
2.640973329544067383e-01 -1.182462498545646667e-01 -5.017693713307380676e-02
2.342571467161178589e-01 1.755300350487232208e-02 -2.221910059452056885e-01
9.098904132843017578e-01 -5.924346297979354858e-02 -5.276191607117652893e-02
1.871502846479415894e-01 -1.265031248331069946e-01 3.399801999330520630e-02
5.140122771263122559e-02 1.845649071037769318e-02 -5.815282464027404785e-01
2.442958801984786987e-01 -5.251749977469444275e-02 -2.490446716547012329e-01
2.615376189351081848e-02 -5.778785049915313721e-02 2.431805729866027832e-01
9.496942907571792603e-02 2.523265220224857330e-02 5.800058841705322266e-01
7.060034573078155518e-02 2.191986143589019775e-02 -4.686926007270812988e-01
-5.367943644523620605e-02 1.318614650517702103e-02 -4.919815808534622192e-02
2.038397192955017090e-01 1.358769461512565613e-02 -2.231939323246479034e-02
3.057081438601016998e-02 -1.681890636682510376e-01 -2.228686064481735229e-01
6.044613122940063477e-01 -9.724014997482299805e-02 6.705062091350555420e-02
4.296867549419403076e-02 -1.363662034273147583e-01 2.561807632446289062e-01
-2.549563534557819366e-02 -1.904947130242362618e-04 6.489229202270507812e-02
5.747467651963233948e-02 1.110310386866331100e-02 -2.245501130819320679e-01
-7.855046391487121582e-01 1.366377323865890503e-01 3.455108497291803360e-03
-1.781097948551177979e-01 1.311085559427738190e-02 -2.269584499299526215e-02
-7.157604098320007324e-01 4.046646133065223694e-02 -1.300844829529523849e-02
6.806556135416030884e-02 1.456647459417581558e-02 -3.287272751331329346e-01
-3.959758579730987549e-01 -2.696887403726577759e-02 6.178027391433715820e-02
-5.086357593536376953e-01 -2.302866056561470032e-02 -5.291249975562095642e-02
-7.722786664962768555e-01 2.453825324773788452e-01 -2.337104827165603638e-01
1.225760057568550110e-01 2.847014926373958588e-02 1.647277027368545532e-01
-4.587431848049163818e-01 -1.133021637797355652e-01 -5.805642344057559967e-03
3.730178475379943848e-01 1.757810078561306000e-02 -4.927251022309064865e-03
-7.963967323303222656e-01 2.344653904438018799e-01 2.576614618301391602e-01
1.506092250347137451e-01 -1.333294659852981567e-01 -1.167831383645534515e-02
1.621035933494567871e-01 -3.946712240576744080e-02 2.650901675224304199e-01
4.813863337039947510e-02 2.809369564056396484e-02 1.986847259104251862e-02
1.171801760792732239e-01 1.042548846453428268e-02 -2.933657765388488770e-01
1.176820993423461914e-01 -4.557351116091012955e-03 2.100777775049209595e-01
-7.387241125106811523e-01 7.788591831922531128e-02 6.692606955766677856e-03
-5.377982184290885925e-02 -5.362176522612571716e-02 2.480995655059814453e-01
4.049662053585052490e-01 -1.069024577736854553e-01 -6.192228198051452637e-02
3.102254271507263184e-01 -1.023097261786460876e-01 6.180536746978759766e-02
1.302808895707130432e-02 2.437935769557952881e-02 3.051447868347167969e-01
-8.077405095100402832e-01 2.346661686897277832e-01 -7.396878302097320557e-02
7.983598709106445312e-01 1.602209359407424927e-02 -1.112618297338485718e-02
4.748611524701118469e-02 3.552237525582313538e-02 6.853124499320983887e-01
7.694985717535018921e-02 2.849524654448032379e-02 -5.977408289909362793e-01
3.471680283546447754e-01 2.269000280648469925e-03 -4.867112264037132263e-02
8.283004164695739746e-01 -8.132872730493545532e-02 6.988657265901565552e-02
-7.238416075706481934e-01 9.851555526256561279e-02 -1.107598841190338135e-02
7.356178015470504761e-02 1.943526975810527802e-02 4.202892780303955078e-01
1.918936073780059814e-01 -4.303087666630744934e-02 7.365109771490097046e-02
8.765115737915039062e-01 -9.702215902507305145e-03 1.203824393451213837e-02
6.630878150463104248e-02 -6.852932274341583252e-02 2.193134278059005737e-01
5.930674821138381958e-02 -9.181922674179077148e-02 -2.397086322307586670e-01
1.522656232118606567e-01 1.983681879937648773e-02 -2.551431953907012939e-01
1.144948080182075500e-01 1.712635532021522522e-02 -4.168675541877746582e-01
6.814085692167282104e-02 -9.372658282518386841e-02 6.810468435287475586e-02
-5.063519477844238281e-01 -9.909731894731521606e-02 1.131043396890163422e-02
4.665791615843772888e-02 1.225756015628576279e-02 -1.534506380558013916e-01
-2.014248073101043701e-01 -1.191497370600700378e-01 -6.975250691175460815e-02
9.662329554557800293e-01 -1.235165894031524658e-01 -1.556833181530237198e-02
2.771979272365570068e-01 -2.117149345576763153e-02 -2.413901239633560181e-01
7.803403139114379883e-01 -1.306942999362945557e-01 1.728349365293979645e-02
4.482834339141845703e-01 -6.082457304000854492e-02 7.754112035036087036e-02
5.120546221733093262e-01 -9.476341307163238525e-03 5.595779418945312500e-02
3.091964423656463623e-01 -1.323507130146026611e-01 -1.549304183572530746e-02
1.809780369512736797e-03 -2.440898865461349487e-02 6.830546259880065918e-02
3.436044231057167053e-02 2.696433849632740021e-02 2.793451845645904541e-01
-8.235515952110290527e-01 1.121682673692703247e-01 -4.626088310033082962e-03
-1.139118243008852005e-02 1.845649071037769318e-02 4.609471932053565979e-02
1.264911144971847534e-01 -1.610192283987998962e-02 -7.178535312414169312e-02
9.797350168228149414e-01 -7.864335924386978149e-02 1.233940664678812027e-02
5.120045691728591919e-02 -1.063754186034202576e-01 2.328406572341918945e-01
2.733832001686096191e-01 6.463476270437240601e-02 2.272189408540725708e-01
-3.774543702602386475e-01 -1.123233810067176819e-01 4.614491388201713562e-02
-7.748134136199951172e-01 6.207487732172012329e-02 -8.716881275177001953e-03
7.352160811424255371e-01 -7.426257361657917500e-04 -5.178313702344894409e-02
7.795121073722839355e-01 -1.394359022378921509e-02 6.060072034597396851e-02
-6.171045303344726562e-01 -1.403005589963868260e-04 1.969279535114765167e-02
1.455396562814712524e-01 -1.145319044589996338e-01 -5.401676148176193237e-02
7.014607787132263184e-01 -1.090356931090354919e-01 -5.971375480294227600e-02
1.047572121024131775e-01 -3.635510802268981934e-02 -2.289922684431076050e-01
5.312286615371704102e-01 -1.310456544160842896e-01 -2.078848332166671753e-02
-8.339918255805969238e-01 2.207373976707458496e-01 -1.413780823349952698e-02
-7.929334044456481934e-01 2.453825324773788452e-01 -1.709180623292922974e-01
5.966562032699584961e-01 1.649893447756767273e-02 -9.243915788829326630e-03
-6.757811307907104492e-01 -2.295337058603763580e-02 2.877786755561828613e-02
-7.006772160530090332e-01 9.306953102350234985e-02 -1.172850746661424637e-02
1.319873332977294922e-01 2.741608023643493652e-02 2.444605082273483276e-01
-4.587431848049163818e-01 -1.133021637797355652e-01 -5.805642344057559967e-03
1.972392350435256958e-01 -9.410304576158523560e-02 6.800430268049240112e-02
2.652769088745117188e-01 -8.932081982493400574e-04 4.712369292974472046e-02
3.503805771470069885e-02 -1.801602691411972046e-01 2.578120529651641846e-01
1.153731942176818848e-01 3.795677423477172852e-02 -7.217445373535156250e-01
-4.085996150970458984e-01 -6.325896829366683960e-02 6.632281094789505005e-02
-1.072863861918449402e-01 -9.560885280370712280e-02 6.757765263319015503e-02
2.160368114709854126e-01 -5.457544326782226562e-02 2.268424779176712036e-01
-5.546131357550621033e-02 -1.602663286030292511e-02 -6.756907701492309570e-02
7.679674625396728516e-01 -1.346847116947174072e-01 -6.182095501571893692e-03
1.526671648025512695e-01 1.953565701842308044e-02 1.764479428529739380e-01
4.924289882183074951e-02 2.824427746236324310e-02 1.548144370317459106e-01
-6.809760928153991699e-01 -6.740781944245100021e-03 1.984337531030178070e-02
6.324695795774459839e-02 3.228487446904182434e-02 3.117201626300811768e-01
5.448814854025840759e-02 -6.029753386974334717e-02 -2.223666906356811523e-01
5.323329940438270569e-02 -1.458528190851211548e-01 -2.495215237140655518e-01
2.093360945582389832e-02 4.054174944758415222e-02 7.256430983543395996e-01
2.274058386683464050e-02 2.202024869620800018e-02 -1.066700369119644165e-01
-2.326704412698745728e-01 -1.323255896568298340e-01 1.078339945524930954e-02
1.689300872385501862e-02 1.501821726560592651e-02 -1.784471422433853149e-01
-8.934210985898971558e-02 -1.341827809810638428e-01 3.430012147873640060e-03
4.201497733592987061e-01 -5.962778348475694656e-03 -5.717897042632102966e-02
1.313097178936004639e-01 1.853178255259990692e-02 4.237777590751647949e-01
8.644399642944335938e-01 -5.801371857523918152e-02 6.258337199687957764e-02
7.028411030769348145e-01 -8.471680432558059692e-02 -7.552479207515716553e-02
8.059390783309936523e-01 -1.020415313541889191e-02 5.625896155834197998e-02
3.102254271507263184e-01 -1.023097261786460876e-01 6.180536746978759766e-02
-3.099437355995178223e-01 -3.148631006479263306e-02 -7.517343759536743164e-02
7.755219191312789917e-02 2.877131290733814240e-02 -2.401352673768997192e-01
5.310782045125961304e-02 3.938729688525199890e-02 -5.540220737457275391e-01
8.360053598880767822e-02 2.151831239461898804e-02 4.680988490581512451e-01
1.297788172960281372e-01 7.614636793732643127e-03 -1.318673044443130493e-01
7.649056911468505859e-01 -1.290128082036972046e-01 2.403455600142478943e-02
-2.526977360248565674e-01 -1.269046664237976074e-01 3.246711194515228271e-02
2.537575736641883850e-02 3.529650345444679260e-02 -6.446719765663146973e-01
1.496806293725967407e-01 -1.966567710041999817e-02 -2.145113497972488403e-01
3.448592871427536011e-02 2.698943391442298889e-02 -2.843057811260223389e-01
-7.748636007308959961e-01 2.453825324773788452e-01 6.526874005794525146e-02
-4.579651653766632080e-01 -3.075850382447242737e-02 5.585740879178047180e-02
-1.370261907577514648e-01 -1.133021637797355652e-01 -6.099369376897811890e-02
8.151749521493911743e-02 -9.355091303586959839e-02 6.815488636493682861e-02
8.291286230087280273e-01 9.296128526329994202e-03 2.559056319296360016e-02
3.209919929504394531e-01 -3.183766826987266541e-02 7.043869793415069580e-02
1.417500078678131104e-01 -5.736120417714118958e-02 2.257382422685623169e-01
7.659850269556045532e-02 4.799552634358406067e-02 -7.722394466400146484e-01
1.742003113031387329e-01 -2.915230020880699158e-02 6.966069340705871582e-02
2.545104920864105225e-02 3.843361511826515198e-02 6.462115049362182617e-01
2.820667028427124023e-01 -6.640393286943435669e-03 5.304655805230140686e-02
-1.668162047863006592e-01 -7.677240064367651939e-04 4.697310924530029297e-02
-1.610188335180282593e-01 1.117839384824037552e-02 2.564075775444507599e-02
4.279299452900886536e-02 -4.805025458335876465e-02 -2.372993230819702148e-01
1.319873332977294922e-01 2.741608023643493652e-02 2.444605082273483276e-01
1.077939346432685852e-01 3.190842270851135254e-02 3.040656149387359619e-01
2.879393994808197021e-01 -4.722205549478530884e-02 1.878419369459152222e-01
2.633946239948272705e-01 -2.669280767440795898e-02 2.290008366107940674e-01
-4.970159232616424561e-01 -6.903125345706939697e-02 4.998473450541496277e-02
-7.669330239295959473e-01 -1.771600102074444294e-03 4.534274805337190628e-03
8.023000359535217285e-01 -1.267791837453842163e-01 3.294395282864570618e-02
-7.315213084220886230e-01 2.389326244592666626e-01 2.727205492556095123e-02
1.058865711092948914e-01 -5.096149072051048279e-02 -8.074495196342468262e-02
-6.988953351974487305e-01 1.779472082853317261e-01 3.530399175360798836e-03
5.405144691467285156e-01 -3.557710722088813782e-02 7.149276882410049438e-02
8.677276372909545898e-01 -1.444552745670080185e-02 -3.491802886128425598e-02
3.860181942582130432e-02 3.820774331688880920e-02 5.808340907096862793e-01
2.946654893457889557e-02 2.575968764722347260e-02 -4.738876819610595703e-01
-2.707656240090727806e-03 2.367664501070976257e-02 -3.733495771884918213e-01
-6.831094026565551758e-01 2.262838035821914673e-01 -1.652201265096664429e-02
2.858816087245941162e-02 2.415348403155803680e-02 4.377818107604980469e-01
-9.408527985215187073e-03 6.962117739021778107e-03 2.590166926383972168e-01
1.143944114446640015e-01 8.317350409924983978e-03 1.729092746973037720e-01
1.192632094025611877e-01 3.720386698842048645e-02 5.616098642349243164e-01
1.048325002193450928e-01 3.356481716036796570e-02 3.501937091350555420e-01
1.388138253241777420e-02 -5.603106692433357239e-02 -2.187276333570480347e-01
1.627310216426849365e-01 -5.663338676095008850e-02 -8.237624913454055786e-02
5.966562032699584961e-01 1.649893447756767273e-02 -9.243915788829326630e-03
4.419842362403869629e-02 3.532160073518753052e-02 4.721143543720245361e-01
3.506315872073173523e-02 -4.665613814722746611e-04 -7.123322784900665283e-02
1.211956664919853210e-01 -1.343082487583160400e-01 2.877880353480577469e-03
2.489137202501296997e-01 -2.112129703164100647e-02 6.735178083181381226e-02
-4.219260513782501221e-01 -2.694377675652503967e-02 -6.367906183004379272e-02
-2.331220358610153198e-02 -8.968598395586013794e-02 6.925914436578750610e-02
-7.387241125106811523e-01 7.788591831922531128e-02 6.692606955766677856e-03
2.775743901729583740e-01 -1.050201877951622009e-01 5.901961773633956909e-02
-2.748582959175109863e-01 -9.209528565406799316e-02 6.858152896165847778e-02
8.332446962594985962e-02 -2.122954465448856354e-03 -2.145113497972488403e-01
1.972392350435256958e-01 -9.410304576158523560e-02 6.800430268049240112e-02
-6.697578430175781250e-01 2.380212768912315369e-02 9.277586825191974640e-03
1.079445108771324158e-01 2.392761409282684326e-02 5.346558094024658203e-01
1.434315145015716553e-01 -3.567749261856079102e-02 2.650901675224304199e-01
3.335656598210334778e-02 1.366298738867044449e-02 -1.361337751150131226e-01
6.046120449900627136e-02 3.818264231085777283e-02 7.587208747863769531e-01
2.652266919612884521e-01 3.398360451683402061e-03 -2.505002915859222412e-01
-6.169037818908691406e-01 -4.107332602143287659e-02 3.746139258146286011e-02
6.919239163398742676e-01 -9.279800206422805786e-02 -7.321587949991226196e-02
1.102034095674753189e-02 2.693923935294151306e-02 4.559770524501800537e-01
3.510329723358154297e-01 -9.314935654401779175e-02 6.825527548789978027e-02
-8.896564692258834839e-02 -1.284355819225311279e-01 -3.110330365598201752e-02
2.612362802028656006e-01 -2.488583140075206757e-02 -2.589077651500701904e-01
3.704581037163734436e-02 3.103003092110157013e-02 3.826690912246704102e-01
4.979502782225608826e-02 2.831956744194030762e-02 -2.239477932453155518e-01
4.253950417041778564e-01 -1.040414050221443176e-01 6.002349033951759338e-02
1.752043142914772034e-02 2.362645044922828674e-02 4.063354134559631348e-01
2.689661383628845215e-01 1.471705455332994461e-02 1.153630670160055161e-02
3.936223983764648438e-01 -7.322243601083755493e-02 -7.881248742341995239e-02
-7.963967323303222656e-01 2.344653904438018799e-01 2.576614618301391602e-01
2.879895865917205811e-01 1.594680361449718475e-02 -1.137715112417936325e-02
4.663282260298728943e-02 2.784272655844688416e-02 9.955201297998428345e-03
-7.731820940971374512e-01 2.453825324773788452e-01 -1.727491803467273712e-02
1.940269768238067627e-02 2.568439580500125885e-02 4.486236870288848877e-01
-8.743727803230285645e-01 2.559232115745544434e-01 -8.767074905335903168e-03
-2.833912670612335205e-01 3.900297451764345169e-03 4.215450957417488098e-02
1.020467504858970642e-01 3.005125373601913452e-02 2.428542971611022949e-01
4.196980595588684082e-01 -1.097885891795158386e-01 5.407553166151046753e-02
2.805357873439788818e-01 -4.433592036366462708e-02 2.454392910003662109e-01
-6.432052850723266602e-01 -1.119080698117613792e-03 -2.319778501987457275e-02
-1.906080543994903564e-01 -1.328024417161941528e-01 8.876035921275615692e-03
4.299377277493476868e-02 3.853400051593780518e-02 -5.750030279159545898e-01
-7.532300353050231934e-01 2.441527843475341797e-01 1.123003065586090088e-01
3.463650867342948914e-02 2.586007304489612579e-02 9.827113896608352661e-02
-4.315381646156311035e-01 -1.288952026516199112e-02 4.878008365631103516e-02
1.410222053527832031e-01 7.689926773309707642e-03 1.273333430290222168e-01
1.449373215436935425e-01 8.643608540296554565e-03 -1.528734117746353149e-01
7.929137945175170898e-01 1.122858840972185135e-02 -3.022491186857223511e-02
4.138757288455963135e-02 3.898574411869049072e-02 7.380911707878112793e-01
2.268786430358886719e-01 7.614636793732643127e-03 -4.314980655908584595e-02
1.193886995315551758e-01 3.745483607053756714e-02 6.720362305641174316e-01
-7.238416075706481934e-01 9.851555526256561279e-02 -1.107598841190338135e-02
7.852592468261718750e-01 -1.166149526834487915e-01 -5.185842886567115784e-02
-7.629175186157226562e-01 2.429230362176895142e-01 2.153481096029281616e-01
5.559241026639938354e-02 3.220958635210990906e-02 3.307687044143676758e-01
1.363541930913925171e-01 -1.271384209394454956e-02 2.100777775049209595e-01
-1.534144729375839233e-01 -1.027363762259483337e-01 -6.621384620666503906e-02
-8.185321688652038574e-01 2.358708083629608154e-01 -2.290675491094589233e-01
7.890990972518920898e-01 -1.327773481607437134e-01 9.001521393656730652e-03
1.477983742952346802e-01 -1.043002307415008545e-02 2.100777775049209595e-01
2.879393994808197021e-01 -4.722205549478530884e-02 1.878419369459152222e-01
7.255790382623672485e-02 4.370396211743354797e-02 6.429739594459533691e-01
2.854045927524566650e-01 -1.283932384103536606e-02 5.944626405835151672e-02
3.190595209598541260e-01 -7.159113883972167969e-02 7.445420324802398682e-02
3.910375386476516724e-02 1.727693900465965271e-02 1.635732352733612061e-01
2.186219394207000732e-02 2.207044325768947601e-02 -1.720976233482360840e-01
-7.544347643852233887e-01 2.358708083629608154e-01 -1.345275789499282837e-01
1.330163180828094482e-01 1.928468979895114899e-02 -4.327287673950195312e-01
7.852090597152709961e-01 1.767848804593086243e-02 -4.550797864794731140e-03
7.803403139114379883e-01 -1.306942999362945557e-01 1.728349365293979645e-02
8.628590404987335205e-02 -2.026800252497196198e-02 6.712590903043746948e-02
1.716907508671283722e-02 2.299902960658073425e-02 2.446863651275634766e-01
-4.923730194568634033e-01 -9.854519367218017578e-02 2.561566047370433807e-02
-7.452993988990783691e-01 3.090454824268817902e-02 -1.190418656915426254e-02
-7.338552474975585938e-01 2.408901900053024292e-01 -5.065377801656723022e-02
3.373551666736602783e-01 -1.238679587841033936e-01 -4.437955841422080994e-02
-6.713891029357910156e-01 4.249931126832962036e-02 8.675261400640010834e-03
2.442958801984786987e-01 -5.251749977469444275e-02 -2.490446716547012329e-01
5.930674821138381958e-02 -9.181922674179077148e-02 -2.397086322307586670e-01
4.054430127143859863e-01 -9.628647565841674805e-02 6.737688183784484863e-02
1.656171679496765137e-01 4.452428314834833145e-03 -2.694986462593078613e-01
8.344995230436325073e-02 4.262479394674301147e-02 -6.164630651473999023e-01
-6.416993588209152222e-02 -5.462563782930374146e-02 7.696388661861419678e-02
1.315857768058776855e-01 3.090454824268817902e-02 3.999608159065246582e-01
1.407963484525680542e-01 2.490639127790927887e-02 -4.220876991748809814e-01
-7.632186412811279297e-01 2.559232115745544434e-01 -5.780545528978109360e-03
-2.436126768589019775e-01 -1.311711370944976807e-01 -2.026144787669181824e-02
3.005631268024444580e-01 -1.269046664237976074e-01 -3.720184788107872009e-02
-7.516239285469055176e-01 2.453825324773788452e-01 5.543075874447822571e-02
-6.075675785541534424e-02 -1.159624308347702026e-01 -6.606326997280120850e-02
-7.566181421279907227e-01 2.453825324773788452e-01 -7.462036795914173126e-03
-3.405368328094482422e-01 -9.701428562402725220e-02 6.484209001064300537e-02
6.527998484671115875e-03 3.030222281813621521e-02 -5.059614777565002441e-01
7.945955544710159302e-02 4.094330221414566040e-02 5.629400014877319336e-01
-8.154954314231872559e-01 2.355445474386215210e-01 -1.620086580514907837e-01
-7.983794212341308594e-01 -1.294759102165699005e-03 -3.622212912887334824e-03
9.090372920036315918e-02 9.396516717970371246e-03 -1.244386285543441772e-01
-7.563923001289367676e-01 1.603291928768157959e-01 -8.716881275177001953e-03
4.390226602554321289e-01 -1.348854750394821167e-01 -5.378995090723037720e-03
1.606481336057186127e-02 -1.444223076105117798e-01 -2.228686064481735229e-01
8.947320282459259033e-02 1.037529483437538147e-02 2.639608085155487061e-01
-1.120045930147171021e-01 1.190620288252830505e-02 -2.751444838941097260e-02
1.877527870237827301e-02 2.227121777832508087e-02 1.620674282312393188e-01
1.439334601163864136e-01 1.900862343609333038e-02 3.577227294445037842e-01
9.090372920036315918e-02 9.396516717970371246e-03 -1.244386285543441772e-01
4.564650058746337891e-01 4.326944239437580109e-03 -4.656298831105232239e-02
4.663282260298728943e-02 2.784272655844688416e-02 9.955201297998428345e-03
-2.326704412698745728e-01 -1.323255896568298340e-01 1.078339945524930954e-02
1.669223606586456299e-02 2.299902960658073425e-02 -6.237402185797691345e-02
1.646636240184307098e-02 8.242057636380195618e-03 6.607183814048767090e-02
2.633946239948272705e-01 -2.669280767440795898e-02 2.290008366107940674e-01
8.700867295265197754e-01 -9.515711665153503418e-02 -6.352847814559936523e-02
-3.959758579730987549e-01 -2.696887403726577759e-02 6.178027391433715820e-02
5.586846470832824707e-01 -8.697552233934402466e-02 -7.487227022647857666e-02
5.886753797531127930e-01 -1.283351927995681763e-01 -3.155504539608955383e-02
-4.315381646156311035e-01 -1.288952026516199112e-02 4.878008365631103516e-02
-2.485818564891815186e-01 -9.671311825513839722e-02 -7.208652049303054810e-02
-8.126594424247741699e-01 2.211891412734985352e-01 1.168688666075468063e-02
9.496942907571792603e-02 2.523265220224857330e-02 5.800058841705322266e-01
3.048546910285949707e-01 1.519389543682336807e-02 9.603846818208694458e-03
-3.497222959995269775e-01 -1.296151280403137207e-01 -2.129042148590087891e-02
-2.818101346492767334e-01 -3.515045717358589172e-02 -7.622750848531723022e-02
6.527998484671115875e-03 3.030222281813621521e-02 -5.059614777565002441e-01
2.796073630452156067e-02 -1.456520557403564453e-01 2.234544008970260620e-01
1.171801760792732239e-01 1.042548846453428268e-02 -2.933657765388488770e-01
-7.124725729227066040e-02 -2.641674131155014038e-02 -2.247508913278579712e-01
-8.458124399185180664e-01 2.408400028944015503e-01 -1.882098168134689331e-01
3.074649162590503693e-02 3.411694988608360291e-02 -5.039788484573364258e-01
8.499339222908020020e-01 -1.040916070342063904e-01 5.595779418945312500e-02
1.729456149041652679e-02 3.163235634565353394e-02 4.904100000858306885e-01
-7.937364578247070312e-01 2.344653904438018799e-01 3.191497921943664551e-02
5.795151740312576294e-02 -1.178525853902101517e-02 -2.691974937915802002e-01
7.566991448402404785e-02 3.005125373601913452e-02 4.017185419797897339e-02
4.520229622721672058e-02 -2.099581435322761536e-02 2.381862998008728027e-01
2.792558372020721436e-01 5.319058522582054138e-02 -2.523825764656066895e-01
3.078412115573883057e-01 -5.260064732283353806e-03 -2.415909022092819214e-01
-7.214071750640869141e-01 1.722674444317817688e-02 8.825843222439289093e-03
5.552714467048645020e-01 1.992933452129364014e-03 4.411206394433975220e-02
6.671033054590225220e-02 3.813245147466659546e-02 4.817013740539550781e-01
-3.548169732093811035e-01 -4.453669488430023193e-02 -7.554989308118820190e-02
8.499339222908020020e-01 -1.040916070342063904e-01 5.595779418945312500e-02
-7.305423915386199951e-02 -7.475333660840988159e-02 -7.838583737611770630e-02
1.935248970985412598e-01 -5.560442060232162476e-02 2.363793104887008667e-01
-9.759885258972644806e-03 -3.499987721443176270e-02 -2.165693044662475586e-01
4.984521865844726562e-02 2.834466658532619476e-02 -1.559854149818420410e-01
5.170239135622978210e-02 -5.490170419216156006e-02 2.127380520105361938e-01
-5.869882702827453613e-01 4.552816972136497498e-03 -1.463974546641111374e-02
5.039733648300170898e-01 -8.858172595500946045e-02 -7.442053407430648804e-02
-4.848941266536712646e-01 -3.841305151581764221e-02 5.492882430553436279e-02
-3.303223848342895508e-01 -1.211574971675872803e-01 4.117572680115699768e-02
-5.811908841133117676e-01 1.125368662178516388e-02 2.024586312472820282e-03
1.526671648025512695e-01 1.953565701842308044e-02 1.764479428529739380e-01
5.077380686998367310e-02 3.215939179062843323e-02 6.283926963806152344e-01
8.713919669389724731e-02 1.095252390950918198e-02 -2.772033810615539551e-01
1.787428408861160278e-01 -3.186276555061340332e-02 2.650901675224304199e-01
4.054430127143859863e-01 -9.628647565841674805e-02 6.737688183784484863e-02
-5.048712491989135742e-01 -1.026108860969543457e-01 3.932887339033186436e-04
-6.171045303344726562e-01 -1.403005589963868260e-04 1.969279535114765167e-02
-7.633190155029296875e-01 2.442029714584350586e-01 1.998633444309234619e-01
-4.923730194568634033e-01 -9.854519367218017578e-02 2.561566047370433807e-02
-3.297953605651855469e-01 -1.213331669569015503e-01 -4.588536918163299561e-02
5.720110535621643066e-01 1.499312184751033783e-02 -1.526716910302639008e-02
-6.597673986107110977e-03 -5.758707225322723389e-02 -8.265231549739837646e-02
5.463118553161621094e-01 -1.346094310283660889e-01 -6.508355494588613510e-03
-1.339141875505447388e-01 -1.131264865398406982e-01 5.595779418945312500e-02
8.508374691009521484e-01 -5.034194327890872955e-03 -3.890843689441680908e-02
8.495575189590454102e-01 -1.250976920127868652e-01 -4.056482762098312378e-02
-6.075675785541534424e-02 -1.159624308347702026e-01 -6.606326997280120850e-02
1.079445108771324158e-01 2.392761409282684326e-02 5.346558094024658203e-01
-2.436126768589019775e-01 -1.311711370944976807e-01 -2.026144787669181824e-02
5.586846470832824707e-01 -8.697552233934402466e-02 -7.487227022647857666e-02
-8.143410086631774902e-01 2.353939712047576904e-01 1.095145419239997864e-01
7.141848802566528320e-01 -1.012807488441467285e-01 -6.771966069936752319e-02
1.139426752924919128e-01 2.151831239461898804e-02 -4.990096390247344971e-01
-5.309218168258666992e-01 5.088166519999504089e-02 -6.131901405751705170e-03
8.889597654342651367e-02 3.180803358554840088e-02 -6.706973910331726074e-01
-7.411584854125976562e-01 2.399365007877349854e-01 -1.127936691045761108e-01
5.463118553161621094e-01 -1.346094310283660889e-01 -6.508355494588613510e-03
8.124893903732299805e-01 -1.323507130146026611e-01 1.070810947567224503e-02
-8.337659835815429688e-01 2.422203123569488525e-01 2.187622338533401489e-02
9.227901697158813477e-01 -1.704728752374649048e-01 -8.214943110942840576e-03
2.419116944074630737e-01 -1.220107898116111755e-01 4.145179316401481628e-02
-8.896564692258834839e-02 -1.284355819225311279e-01 -3.110330365598201752e-02
-6.789684295654296875e-01 2.309518307447433472e-01 1.321873278357088566e-03
1.372074782848358154e-01 2.626162394881248474e-02 4.617242515087127686e-01
4.926799237728118896e-02 4.398002848029136658e-02 -7.046284079551696777e-01
-7.679117321968078613e-01 2.344653904438018799e-01 -1.104094684123992920e-01
-6.930226683616638184e-01 2.513054013252258301e-01 1.168688666075468063e-02
-5.196784138679504395e-01 -9.003734588623046875e-02 2.729715220630168915e-02
3.057081438601016998e-02 -1.681890636682510376e-01 -2.228686064481735229e-01
-5.839013457298278809e-01 5.876209214329719543e-02 -6.131901405751705170e-03
1.315857768058776855e-01 3.090454824268817902e-02 3.999608159065246582e-01
-7.108414173126220703e-01 1.926539689302444458e-01 -8.139652200043201447e-03
-7.960451394319534302e-02 -5.096149072051048279e-02 2.474470436573028564e-01
-5.448254942893981934e-01 6.133919581770896912e-03 9.628942236304283142e-03
-7.659039497375488281e-01 2.001077532768249512e-01 3.003364661708474159e-03
3.780121505260467529e-01 -1.103156358003616333e-01 5.354849621653556824e-02
3.621761500835418701e-02 2.247199416160583496e-02 -4.249487519264221191e-01
-1.063829064369201660e-01 -1.376791205257177353e-02 6.042503938078880310e-02
3.973117843270301819e-02 -1.908845081925392151e-02 2.646383941173553467e-01
9.496942907571792603e-02 2.523265220224857330e-02 5.800058841705322266e-01
6.979738827794790268e-03 2.234650775790214539e-02 2.743007242679595947e-01
2.652266919612884521e-01 -2.395724877715110779e-02 -2.325309216976165771e-01
7.544405013322830200e-02 3.062848001718521118e-02 -6.360888481140136719e-01
1.807256601750850677e-02 3.574824705719947815e-02 6.033961772918701172e-01
1.002397686243057251e-01 9.597291238605976105e-03 -2.631240189075469971e-01
-3.867149725556373596e-02 -5.487661063671112061e-02 2.310587614774703979e-01
2.342571467161178589e-01 1.755300350487232208e-02 -2.221910059452056885e-01
1.750284880399703979e-01 1.092742569744586945e-02 -6.004001200199127197e-02
9.775517880916595459e-02 4.001471400260925293e-02 5.534031987190246582e-01
-8.428008556365966797e-01 2.411913573741912842e-01 2.995742112398147583e-02
6.894395500421524048e-02 -1.294645518064498901e-01 2.222757972776889801e-02
-7.155094146728515625e-01 1.435895711183547974e-01 5.738925654441118240e-03
-2.258691787719726562e-01 -5.522796884179115295e-02 -8.197470009326934814e-02
-3.497222959995269775e-01 -1.296151280403137207e-01 -2.129042148590087891e-02
6.693117022514343262e-01 -4.984002560377120972e-03 -5.617509409785270691e-02
4.946893081068992615e-03 2.104146964848041534e-02 -7.379310578107833862e-02
1.222497373819351196e-01 3.685250878334045410e-02 -5.813525319099426270e-01
1.627310216426849365e-01 -1.268293857574462891e-01 -3.755320236086845398e-02
4.152057170867919922e-01 -9.974984824657440186e-02 6.446564197540283203e-02
7.526583671569824219e-01 -9.124988690018653870e-03 -6.046665832400321960e-02
3.744735941290855408e-02 2.806860022246837616e-02 -5.845398902893066406e-01
5.288194492459297180e-02 4.139504581689834595e-02 6.094696521759033203e-01
2.931596897542476654e-02 -1.677953824400901794e-02 2.640862762928009033e-01
1.322886534035205841e-02 3.552237525582313538e-02 -6.263010501861572266e-01
5.448814854025840759e-02 -6.029753386974334717e-02 -2.223666906356811523e-01
3.911879956722259521e-01 -5.201556161046028137e-02 -8.104611188173294067e-02
2.722287476062774658e-01 -3.075850382447242737e-02 -1.770166009664535522e-01
9.133037179708480835e-02 3.080415911972522736e-02 6.496497392654418945e-01
4.698418080806732178e-02 3.845870867371559143e-02 5.506676435470581055e-01
1.251860707998275757e-01 1.090232934802770615e-02 3.045926690101623535e-01
-5.488408729434013367e-02 2.437935769557952881e-02 -1.840334269218146801e-03
9.285875558853149414e-01 -5.374725162982940674e-02 3.158871829509735107e-02
-5.872392058372497559e-01 -1.645327918231487274e-02 -4.242200031876564026e-02
-6.762579083442687988e-01 3.198371455073356628e-02 8.926229551434516907e-03
-7.268281579017639160e-01 1.459235846996307373e-01 -1.007211208343505859e-02
9.213347733020782471e-02 9.346322156488895416e-03 -2.052506059408187866e-01
-7.748134136199951172e-01 6.207487732172012329e-02 -8.716881275177001953e-03
-4.264434874057769775e-01 -1.061495468020439148e-01 -4.302432760596275330e-02
1.029000431299209595e-01 1.657422445714473724e-02 3.919548988342285156e-01
3.905355930328369141e-02 3.966336324810981750e-02 6.209138035774230957e-01
8.291286230087280273e-01 9.296128526329994202e-03 2.559056319296360016e-02
1.294776499271392822e-01 2.972499467432498932e-02 -3.287523686885833740e-01
-3.082873225212097168e-01 -1.166400462388992310e-01 -5.183333531022071838e-02
-7.855046391487121582e-01 1.366377323865890503e-01 3.455108497291803360e-03
8.312369138002395630e-02 2.174418233335018158e-02 -4.766985476016998291e-01
8.058889955282211304e-02 4.405531659722328186e-02 -6.574964523315429688e-01
1.648893505334854126e-01 -1.713089458644390106e-02 -2.145113497972488403e-01
1.189872808754444122e-02 3.095474094152450562e-02 -5.380604267120361328e-01
4.444686770439147949e-01 -4.137448593974113464e-02 -7.800938189029693604e-02
6.324695795774459839e-02 3.228487446904182434e-02 3.117201626300811768e-01
-5.756945535540580750e-02 -1.213080734014511108e-01 4.217960685491561890e-02
9.333813190460205078e-02 4.438157752156257629e-02 -6.900973320007324219e-01
1.971639543771743774e-01 -5.490170419216156006e-02 7.703917473554611206e-02
-6.391898393630981445e-01 3.313817083835601807e-02 -1.310883648693561554e-02
9.155623316764831543e-01 -1.160377264022827148e-01 -3.868256509304046631e-02
4.444686770439147949e-01 -4.137448593974113464e-02 -7.800938189029693604e-02
-4.489538259804248810e-03 1.958585157990455627e-02 6.411428749561309814e-02
3.876493573188781738e-01 1.097761932760477066e-02 2.639366500079631805e-02
1.052340567111968994e-01 -5.778785049915313721e-02 2.423021793365478516e-01
-5.837256312370300293e-01 -7.565683126449584961e-02 2.313106879591941833e-02
2.299155481159687042e-02 1.436569821089506149e-02 -2.142352908849716187e-01
8.721448481082916260e-02 -5.337079241871833801e-02 2.480242699384689331e-01
7.679674625396728516e-01 -1.346847116947174072e-01 -6.182095501571893692e-03
-5.019851326942443848e-01 -8.323609083890914917e-02 -4.400310292840003967e-02
-5.224891752004623413e-02 1.511860545724630356e-02 2.978174388408660889e-02
4.025821387767791748e-02 1.526918634772300720e-02 -2.974565625190734863e-01
2.552632391452789307e-01 -5.061013624072074890e-02 -2.491199672222137451e-01
4.778727516531944275e-02 -1.379974931478500366e-01 -2.579540610313415527e-01
-3.010092675685882568e-01 -1.933941803872585297e-02 6.617222726345062256e-02
8.603493869304656982e-02 6.159018259495496750e-03 -2.689966857433319092e-01
4.020801559090614319e-02 -1.664071828126907349e-01 -2.246755957603454590e-01
-7.732573747634887695e-01 2.524849474430084229e-01 1.168688666075468063e-02
-4.676776528358459473e-01 -8.421486616134643555e-02 -5.291249975562095642e-02
8.402717858552932739e-02 2.350096590816974640e-02 -5.845398902893066406e-01
-5.837256312370300293e-01 -7.565683126449584961e-02 2.313106879591941833e-02
7.150383293628692627e-02 3.175784274935722351e-02 -6.533303856849670410e-01
3.591645136475563049e-02 -1.004023626446723938e-01 6.378802657127380371e-02
2.643984854221343994e-01 -7.407572865486145020e-02 7.372639328241348267e-02
-1.698529273271560669e-01 -1.143311336636543274e-01 -6.214815378189086914e-02
-9.408527985215187073e-03 6.962117739021778107e-03 2.590166926383972168e-01
5.079890787601470947e-02 -4.689579829573631287e-02 2.365800738334655762e-01
9.213347733020782471e-02 9.346322156488895416e-03 -2.052506059408187866e-01
6.954645272344350815e-03 2.560910396277904510e-02 -2.230944931507110596e-01
3.978136926889419556e-02 2.673846296966075897e-02 -2.073829062283039093e-02
7.642282545566558838e-02 3.060338459908962250e-02 6.322074532508850098e-01
-1.588353961706161499e-01 -1.150087490677833557e-01 6.014897674322128296e-02
4.787510037422180176e-01 -1.002266779541969299e-01 6.396370381116867065e-02
-3.944950178265571594e-02 -1.354125142097473145e-01 -1.463880995288491249e-03
3.541451320052146912e-02 1.303556375205516815e-02 1.017596125602722168e-01
4.187945723533630371e-01 -1.317985653877258301e-01 1.289153750985860825e-02
1.957585215568542480e-01 4.477526526898145676e-03 -2.694986462593078613e-01
6.823620796203613281e-01 -1.312464326620101929e-01 1.515025831758975983e-02
1.972392350435256958e-01 -9.410304576158523560e-02 6.800430268049240112e-02
-1.938455551862716675e-01 -6.709878891706466675e-02 7.573414593935012817e-02
3.315579146146774292e-02 -1.559166759252548218e-01 -2.281389683485031128e-01
-8.995699882507324219e-01 2.221930176019668579e-01 8.199358708225190639e-04
-2.720474302768707275e-01 -5.432447791099548340e-02 7.686350494623184204e-02
1.526671648025512695e-01 1.953565701842308044e-02 1.764479428529739380e-01
8.104065060615539551e-02 9.848259389400482178e-03 1.306461244821548462e-01
-2.510162591934204102e-01 -3.954241052269935608e-02 -7.748235017061233521e-02
-5.729338899254798889e-02 1.627306267619132996e-02 -1.120147295296192169e-02
1.018459722399711609e-01 1.333672646433115005e-02 -3.348760306835174561e-01
1.390395611524581909e-01 7.213085889816284180e-03 -2.457318902015686035e-01
1.345473527908325195e-02 -1.404397841542959213e-02 2.120604217052459717e-01
2.652266919612884521e-01 -1.893787086009979248e-02 2.407210618257522583e-01
-3.175731599330902100e-01 -1.141052544116973877e-01 -5.419243872165679932e-02
7.341119647026062012e-02 4.603797197341918945e-02 7.108108997344970703e-01
3.656393587589263916e-01 -1.271807402372360229e-01 3.131265565752983093e-02
1.602715253829956055e-01 -6.690589711070060730e-03 2.100777775049209595e-01
1.189872808754444122e-02 3.095474094152450562e-02 -5.380604267120361328e-01
1.044811457395553589e-01 3.005125373601913452e-02 9.766881912946701050e-02
-2.319426387548446655e-01 -1.256749182939529419e-01 -4.214593395590782166e-02
-7.929334044456481934e-01 2.453825324773788452e-01 -1.709180623292922974e-01
3.917920868843793869e-03 2.515736222267150879e-02 4.094223380088806152e-01
4.507178068161010742e-01 1.434060186147689819e-02 1.301702111959457397e-02
7.129049301147460938e-01 -2.775473752990365028e-03 -5.391637235879898071e-02
-3.508767485618591309e-01 2.623652666807174683e-02 -3.697503590956330299e-03
-5.377982184290885925e-02 -5.362176522612571716e-02 2.480995655059814453e-01
-3.297953605651855469e-01 -1.213331669569015503e-01 -4.588536918163299561e-02
-8.073891401290893555e-01 1.537287086248397827e-01 -6.282482761889696121e-03
1.170546859502792358e-01 -4.463708028197288513e-02 7.410284876823425293e-02
-8.137135505676269531e-01 -1.898806169629096985e-02 -1.155282929539680481e-02
7.300964742898941040e-02 3.005125373601913452e-02 -6.056704744696617126e-02
