8.026308417320251465e-01 2.302018925547599792e-02 -7.547383010387420654e-02
2.581074535846710205e-01 -4.591388860717415810e-04 -8.260814100503921509e-02
3.047466576099395752e-01 -6.461466848850250244e-02 2.803364396095275879e-01
2.846747636795043945e-01 -1.016704738140106201e-01 -3.363552093505859375e-01
5.411418527364730835e-02 -2.202177792787551880e-02 3.498160541057586670e-01
7.919075340032577515e-02 -9.936047717928886414e-03 2.914105951786041260e-01
1.703394949436187744e-01 -4.629972577095031738e-02 4.264155402779579163e-02
-3.931909203529357910e-01 9.726490080356597900e-02 1.969463750720024109e-02
-8.113465309143066406e-01 2.282912433147430420e-01 -4.210617858916521072e-03
4.018850922584533691e-01 -6.373618543148040771e-02 -3.358759917318820953e-03
2.385946065187454224e-01 -2.196854352951049805e-02 3.059720396995544434e-01
1.871104538440704346e-01 -4.888191446661949158e-02 3.372245430946350098e-01
-3.851248919963836670e-01 -6.248501688241958618e-02 -1.296877767890691757e-02
5.597762763500213623e-02 -2.417804487049579620e-02 9.910374134778976440e-02
4.898393452167510986e-01 -2.290025912225246429e-02 -7.392983883619308472e-02
1.389538794755935669e-01 -1.459465362131595612e-02 1.110829934477806091e-01
3.267884850502014160e-01 -2.718616649508476257e-02 7.719502598047256470e-02
1.818395853042602539e-01 -1.006855070590972900e-01 -3.058480918407440186e-01
5.099378824234008789e-01 -6.139357760548591614e-02 -2.127439156174659729e-02
-6.308325529098510742e-01 -3.743508458137512207e-02 -2.233921177685260773e-02
-4.986082911491394043e-01 -5.452547222375869751e-02 2.757431752979755402e-02
4.682767391204833984e-01 -7.593441288918256760e-03 -8.031877130270004272e-02
1.977586746215820312e-01 -1.557961292564868927e-02 2.909846603870391846e-01
6.625316292047500610e-02 -4.536800086498260498e-02 -9.006188809871673584e-02
1.534620821475982666e-01 -3.626377508044242859e-02 1.888948529958724976e-01
1.680767536163330078e-01 -7.201517373323440552e-02 -1.366091240197420120e-02
4.859527945518493652e-01 -6.168640404939651489e-02 1.311936136335134506e-02
2.063837200403213501e-01 -3.748831897974014282e-02 5.696341022849082947e-02
-2.123042941093444824e-01 4.247981682419776917e-02 7.632599472999572754e-01
1.086052390746772289e-03 -1.068142428994178772e-02 -4.703364968299865723e-01
1.406043618917465210e-01 -8.072617463767528534e-03 2.163672596216201782e-01
-7.839273810386657715e-01 6.241860240697860718e-02 2.870448632165789604e-03
-9.272476285696029663e-02 2.256764099001884460e-02 6.128004789352416992e-01
3.270546793937683105e-01 -8.415414392948150635e-02 -3.584502935409545898e-01
-6.996999382972717285e-01 4.567427560687065125e-02 4.884414374828338623e-02
-1.658248007297515869e-01 4.029692709445953369e-02 -7.506241798400878906e-01
-3.984351456165313721e-01 -3.450682386755943298e-02 5.925277620553970337e-02
3.267884850502014160e-01 -2.718616649508476257e-02 7.719502598047256470e-02
2.713378667831420898e-01 -3.032739274203777313e-02 -6.820642203092575073e-02
-7.740777730941772461e-01 1.355452537536621094e-01 -1.169099193066358566e-02
7.314474582672119141e-01 8.863984048366546631e-02 -3.884395584464073181e-02
-2.875558473169803619e-02 -1.378211677074432373e-01 1.291849613189697266e-01
-8.489081263542175293e-01 5.528429523110389709e-02 -1.708285999484360218e-03
2.754687704145908356e-02 -3.320683390484191477e-05 4.018592536449432373e-01
2.215308248996734619e-01 6.249846145510673523e-02 6.601439416408538818e-02
-2.425671182572841644e-02 -6.940636783838272095e-02 -6.562422215938568115e-02
-1.277307868003845215e-01 -7.220753002911806107e-03 -8.047848939895629883e-02
-1.404287964105606079e-01 -2.881611231714487076e-03 -5.045438408851623535e-01
3.355998992919921875e-01 -7.792493700981140137e-02 -2.582771778106689453e-01
-2.184802591800689697e-01 3.861983120441436768e-02 -7.522746920585632324e-01
2.487370222806930542e-01 -4.345132783055305481e-02 -1.224324777722358704e-01
-8.059958815574645996e-01 4.189416021108627319e-02 -3.506383672356605530e-02
-1.480156481266021729e-01 -2.950215712189674377e-02 4.013922065496444702e-02
2.285054177045822144e-01 -2.290025912225246429e-02 2.222503870725631714e-01
-4.477630555629730225e-01 5.387340858578681946e-02 -7.640554755926132202e-02
7.687428593635559082e-01 -2.013172022998332977e-02 6.707922369241714478e-02
2.081140726804733276e-01 -5.567016080021858215e-02 7.242994755506515503e-02
2.648158371448516846e-01 -4.909488186240196228e-02 -3.388842046260833740e-01
-8.447021245956420898e-01 9.150879457592964172e-03 -1.110528610297478735e-04
-3.779373466968536377e-01 -1.177893020212650299e-03 7.674247771501541138e-02
-3.304149210453033447e-02 2.974914619699120522e-03 4.647103846073150635e-01
-2.271053194999694824e-01 6.313735991716384888e-02 8.106710910797119141e-01
-5.093050375580787659e-02 -6.815519928932189941e-02 1.695271953940391541e-02
3.116147518157958984e-01 -6.269798427820205688e-02 -2.562806308269500732e-01
8.749636262655258179e-02 -4.339808225631713867e-02 -5.622716993093490601e-02
-8.092967867851257324e-01 3.377489000558853149e-02 -4.022822529077529907e-02
-2.946682572364807129e-01 9.423016011714935303e-02 2.706852927803993225e-02
1.537282913923263550e-01 -6.954553071409463882e-03 -2.527400851249694824e-01
2.075284123420715332e-01 -7.566824089735746384e-03 1.404720693826675415e-01
2.997686266899108887e-01 -5.224217660725116730e-03 -8.678756654262542725e-02
-4.414226487278938293e-02 1.402244158089160919e-02 -5.606600046157836914e-01
-3.275180160999298096e-01 7.229483127593994141e-02 -6.426657736301422119e-02
-1.122376248240470886e-01 -6.237853690981864929e-02 -1.366091240197420120e-02
-8.928586840629577637e-01 3.963141143321990967e-02 -5.436373129487037659e-02
3.344286084175109863e-01 -3.557164222002029419e-02 -6.746104359626770020e-02
8.433336615562438965e-01 6.028896197676658630e-02 3.364380449056625366e-02
-2.971706092357635498e-01 1.198657453060150146e-01 -8.884919881820678711e-01
6.465592980384826660e-02 -4.398980643600225449e-03 -8.164979517459869385e-02
3.368244469165802002e-01 -4.824302718043327332e-02 4.413230344653129578e-02
2.914411388337612152e-02 -1.826827973127365112e-02 -7.589975744485855103e-02
-8.038396239280700684e-01 1.432918310165405273e-01 -1.161113101989030838e-02
1.740131527185440063e-01 -6.741587072610855103e-03 -1.847245842218399048e-01
-2.798140048980712891e-01 -5.665512010455131531e-02 -3.466452658176422119e-02
1.925410479307174683e-01 -5.521761253476142883e-02 7.450634986162185669e-02
8.510050922632217407e-02 -1.206569839268922806e-02 -4.173615574836730957e-01
1.585199981927871704e-01 -8.525166660547256470e-03 -7.994608581066131592e-02
-7.366445660591125488e-02 -4.345736466348171234e-03 4.473005235195159912e-01
9.737731888890266418e-03 1.324440469034016132e-03 4.252321124076843262e-01
-1.729591190814971924e-01 2.176902443170547485e-02 -6.809847950935363770e-01
5.855982750654220581e-02 -1.845462992787361145e-02 -1.951864659786224365e-01
-8.158986568450927734e-01 8.804813958704471588e-03 1.665989309549331665e-02
2.201199382543563843e-01 -3.330889716744422913e-02 -3.377927243709564209e-01
3.047466576099395752e-01 -1.048117056488990784e-01 -2.877194881439208984e-01
-1.162307113409042358e-01 9.071018546819686890e-03 -6.077783703804016113e-01
-2.321099787950515747e-01 3.491957485675811768e-02 -7.288752198219299316e-01
-5.665439367294311523e-01 -4.763075709342956543e-02 -2.726401388645172119e-02
4.982827976346015930e-02 -4.739116504788398743e-02 4.525036737322807312e-02
-5.705636143684387207e-01 4.317194595932960510e-02 -7.339742779731750488e-02
-4.480777308344841003e-02 7.117676734924316406e-02 -6.511843949556350708e-02
-5.425322055816650391e-01 -5.582988262176513672e-02 -9.241902269423007965e-03
2.111221849918365479e-01 -8.285582996904850006e-03 -1.516352146863937378e-01
-6.128903031349182129e-01 1.455485168844461441e-02 -7.009647786617279053e-02
-8.517831563949584961e-01 5.919751524925231934e-02 -1.364881396293640137e-01
4.260565340518951416e-01 -6.179288402199745178e-02 -1.823964715003967285e-02
-8.653063774108886719e-01 5.075880512595176697e-02 -8.361972123384475708e-02
5.855982750654220581e-02 -1.845462992787361145e-02 -1.951864659786224365e-01
2.330841422080993652e-01 -4.938770830631256104e-02 -7.675161957740783691e-02
-4.785630106925964355e-01 9.707856178283691406e-02 1.940180920064449310e-02
-9.049177765846252441e-01 4.474256187677383423e-02 1.009937971830368042e-01
-2.851381003856658936e-01 -2.641417458653450012e-02 -7.124116271734237671e-02
-5.093050375580787659e-02 -6.815519928932189941e-02 1.695271953940391541e-02
-1.176682189106941223e-01 2.850402332842350006e-02 7.799364626407623291e-02
4.056432843208312988e-02 -4.046982154250144958e-02 -7.906760275363922119e-02
1.588128209114074707e-01 -3.203111141920089722e-02 -8.899706602096557617e-02
-8.752092719078063965e-01 2.845671176910400391e-01 -2.054353011772036552e-03
-4.798673987388610840e-01 -6.115399673581123352e-02 1.090985536575317383e-02
-7.564550042152404785e-01 -1.086777262389659882e-02 9.818412363529205322e-03
3.005938529968261719e-01 -8.008120208978652954e-02 2.486579865217208862e-01
2.297831922769546509e-01 9.761097282171249390e-02 -2.468182332813739777e-02
-9.339607954025268555e-01 2.180689573287963867e-01 -4.024273715913295746e-03
-5.793484449386596680e-01 5.999613553285598755e-02 5.941249802708625793e-02
1.803488284349441528e-01 -2.132964506745338440e-02 2.903724014759063721e-01
3.197606503963470459e-01 -2.489680424332618713e-02 -8.995541185140609741e-02
6.602375507354736328e-01 9.793041646480560303e-02 1.764485426247119904e-02
-2.689528167247772217e-01 -9.483498521149158478e-03 7.378759235143661499e-02
4.319976270198822021e-02 -7.385199517011642456e-02 4.174855537712574005e-03
-9.020693898200988770e-01 3.220428153872489929e-02 -2.879590028896927834e-03
1.100972071290016174e-01 -4.319119732826948166e-03 -9.051443636417388916e-02
-1.110397055745124817e-01 2.179564163088798523e-02 -6.197575926780700684e-01
-2.268609777092933655e-02 -3.373482078313827515e-02 -8.537667989730834961e-02
-6.682610511779785156e-01 8.414097875356674194e-02 4.787128418684005737e-03
9.764350950717926025e-03 -7.278717309236526489e-02 5.206523090600967407e-02
3.116946220397949219e-01 -2.481694333255290985e-02 3.181908726692199707e-01
-6.770145148038864136e-02 1.692408509552478790e-02 -6.223398447036743164e-01
-8.749430179595947266e-01 4.948101565241813660e-02 1.645370572805404663e-01
-6.109736561775207520e-01 -3.631702065467834473e-02 2.839955501258373260e-02
-5.294082760810852051e-01 4.731872119009494781e-03 -7.936042547225952148e-02
2.221697121858596802e-01 -2.415142767131328583e-02 3.119616508483886719e-01
-8.781375288963317871e-01 4.168119654059410095e-02 4.461147263646125793e-02
-6.025083065032958984e-01 -3.485288470983505249e-02 3.409635275602340698e-02
7.527172565460205078e-01 -1.187874898314476013e-01 -1.797344349324703217e-02
-3.244034051895141602e-01 1.259884834289550781e-01 8.882433772087097168e-01
1.086052390746772289e-03 -4.068278893828392029e-02 -5.798412859439849854e-02
1.396992504596710205e-01 -6.450817734003067017e-02 -3.228852450847625732e-01
-5.910414620302617550e-04 -8.179095573723316193e-03 4.873378276824951172e-01
-9.022822976112365723e-01 6.681099534034729004e-02 2.162874042987823486e-01
5.030745267868041992e-02 -2.319308556616306305e-02 -1.315100789070129395e-01
-7.045449018478393555e-01 1.191335381008684635e-03 4.365313798189163208e-02
6.046804189682006836e-01 -5.689470469951629639e-02 -3.405225649476051331e-02
2.967871129512786865e-01 -1.085918173193931580e-01 2.814545035362243652e-01
-2.004581391811370850e-01 4.641965031623840332e-02 -7.832610011100769043e-01
2.791377007961273193e-01 -2.061089687049388885e-02 6.918224692344665527e-02
1.389538794755935669e-01 -1.459465362131595612e-02 1.110829934477806091e-01
-8.928586840629577637e-01 3.963141143321990967e-02 -5.436373129487037659e-02
6.305822134017944336e-01 9.681235253810882568e-02 -2.659850195050239563e-02
2.782059907913208008e-01 9.851606935262680054e-02 -1.877205818891525269e-02
3.225824534893035889e-01 -1.117064058780670166e-01 3.173656463623046875e-01
5.015790462493896484e-01 9.079610556364059448e-02 -4.108007997274398804e-02
3.809879422187805176e-01 5.927737429738044739e-02 -7.416941970586776733e-02
8.753581643104553223e-01 5.549725890159606934e-02 2.083936997223645449e-04
2.530761659145355225e-01 -1.603216119110584259e-02 7.107230275869369507e-02
-1.480156481266021729e-01 -2.950215712189674377e-02 4.013922065496444702e-02
7.601177692413330078e-01 -1.323639601469039917e-01 -1.603014208376407623e-02
3.005938529968261719e-01 -8.008120208978652954e-02 2.486579865217208862e-01
3.678420931100845337e-02 -1.669767685234546661e-02 -2.631753385066986084e-01
-1.621245443820953369e-01 9.785055369138717651e-02 -2.398968860507011414e-02
3.946442902088165283e-01 3.433392196893692017e-02 7.724826782941818237e-02
1.460615843534469604e-01 -6.315655075013637543e-03 -2.417191863059997559e-01
2.064635902643203735e-01 -1.076600998640060425e-01 2.753051519393920898e-01
3.334170281887054443e-01 -1.255224794149398804e-01 -3.072057366371154785e-01
1.309677213430404663e-01 -6.341674178838729858e-02 -5.807850509881973267e-03
3.076796606183052063e-02 -1.332424432039260864e-01 1.621678173542022705e-01
-3.533086180686950684e-02 -4.025685787200927734e-02 4.450498893857002258e-02
7.930740118026733398e-01 -3.030077554285526276e-02 5.805484950542449951e-02
1.144097447395324707e-01 -9.483498521149158478e-03 -3.803057670593261719e-01
3.228220045566558838e-01 -1.275722682476043701e-01 2.973469495773315430e-01
1.552190482616424561e-01 -7.249435037374496460e-02 8.061456494033336639e-03
-8.859373331069946289e-01 2.533411979675292969e-01 -8.523146621882915497e-03
-4.068738520145416260e-01 9.356464445590972900e-02 -3.442494571208953857e-02
7.332576513290405273e-01 -4.693861305713653564e-02 4.533022642135620117e-02
-7.393065840005874634e-02 -1.017564069479703903e-02 -4.542044103145599365e-01
2.398191392421722412e-01 -6.454779650084674358e-04 -8.258151262998580933e-02
1.328577697277069092e-01 -6.635108962655067444e-03 2.537691295146942139e-01
1.434308569878339767e-02 2.868431620299816132e-03 -4.386047720909118652e-01
1.732145100831985474e-01 -8.990418165922164917e-02 -2.877461016178131104e-01
2.237669527530670166e-01 -3.333551436662673950e-02 -2.777367830276489258e-01
3.261495828628540039e-01 -7.238785922527313232e-02 -3.095483481884002686e-01
2.201199382543563843e-01 -3.330889716744422913e-02 -3.377927243709564209e-01
-4.743835926055908203e-01 1.676435768604278564e-02 7.884550094604492188e-02
-1.438362300395965576e-01 -4.659255221486091614e-02 -4.573867470026016235e-02
2.235273569822311401e-01 -1.199854165315628052e-01 2.905321121215820312e-01
2.100041210651397705e-01 -2.625445090234279633e-02 -2.967704832553863525e-01
7.884952425956726074e-01 -5.508450791239738464e-02 2.909168973565101624e-02
-4.978581890463829041e-02 -4.052909556776285172e-03 7.605034857988357544e-02
-8.361835479736328125e-01 5.097176879644393921e-02 5.571224540472030640e-02
1.609690785408020020e-01 -8.924471214413642883e-03 -2.733710110187530518e-01
2.560044527053833008e-01 -6.908690929412841797e-02 -3.477101027965545654e-02
-5.731990933418273926e-01 -3.083318658173084259e-02 4.743324965238571167e-02
8.914683759212493896e-02 -3.607743605971336365e-02 1.626203656196594238e-01
8.523361384868621826e-02 -3.312255069613456726e-02 2.060917317867279053e-01
2.728818655014038086e-01 9.643966704607009888e-02 -2.750360034406185150e-02
-5.538991689682006836e-01 -2.183543890714645386e-02 -6.461264193058013916e-02
2.371038496494293213e-01 -8.951088413596153259e-03 1.012600064277648926e-01
-1.226196363568305969e-01 -5.401968955993652344e-02 -2.441561594605445862e-02
2.212113738059997559e-01 -4.403698071837425232e-02 -1.060342192649841309e-01
-2.862029373645782471e-01 6.593251973390579224e-02 8.307429552078247070e-01
-5.607140660285949707e-01 -5.247569084167480469e-02 -9.667830541729927063e-03
-1.149795502424240112e-01 7.035152614116668701e-02 5.999815091490745544e-02
3.428661264479160309e-03 -9.834288805723190308e-02 -1.533389389514923096e-01
8.496959209442138672e-01 -2.460397779941558838e-02 -5.303270742297172546e-02
-6.988433003425598145e-02 1.929331384599208832e-02 6.032437086105346680e-01
-6.468048691749572754e-01 -1.257754047401249409e-03 -6.040659546852111816e-02
-6.854580044746398926e-01 2.906305529177188873e-02 5.517983436584472656e-02
2.787117660045623779e-01 -4.896177724003791809e-02 5.084068328142166138e-02
1.445708274841308594e-01 4.013117868453264236e-03 -8.716025948524475098e-02
-9.046249389648437500e-01 5.988965183496475220e-02 1.706065237522125244e-01
3.832820430397987366e-02 -1.557961292564868927e-02 -2.788548469543457031e-01
-7.405358552932739258e-01 1.430923468433320522e-03 3.356394544243812561e-02
-2.446216344833374023e-01 4.804350808262825012e-02 -7.882802188396453857e-02
-8.489081263542175293e-01 5.528429523110389709e-02 -1.708285999484360218e-03
9.122323989868164062e-02 -1.842801272869110107e-02 3.844494223594665527e-01
8.405118584632873535e-01 -3.173828497529029846e-02 -5.114264786243438721e-02
-8.284854143857955933e-02 7.686749566346406937e-03 -6.051695346832275391e-01
1.309677213430404663e-01 -6.341674178838729858e-02 -5.807850509881973267e-03
-3.887452781200408936e-01 7.343950867652893066e-02 5.762892588973045349e-02
-9.339607954025268555e-01 2.180689573287963867e-01 -4.024273715913295746e-03
-6.322920322418212891e-02 7.314066402614116669e-03 5.098322033882141113e-01
1.976255774497985840e-01 -9.297159500420093536e-03 9.492431581020355225e-02
-7.094915211200714111e-02 9.928806126117706299e-02 7.182977627962827682e-03
-7.352661807090044022e-03 -7.108345627784729004e-02 -6.932448595762252808e-02
4.826518297195434570e-01 -4.369090870022773743e-02 -5.585448443889617920e-02
-5.708032250404357910e-01 6.902050226926803589e-02 -5.918205529451370239e-02
-6.215686202049255371e-01 5.352734401822090149e-02 5.778864771127700806e-02
-2.500522136688232422e-01 4.479580000042915344e-02 7.672796249389648438e-01
1.480315029621124268e-01 -8.312200196087360382e-03 -2.051425427198410034e-01
4.260565340518951416e-01 -6.179288402199745178e-02 -1.823964715003967285e-02
2.882685661315917969e-01 -9.828965365886688232e-02 -2.761927843093872070e-01
-3.994999825954437256e-01 -5.633566901087760925e-02 -3.540990501642227173e-02
-8.949882984161376953e-01 5.155741795897483826e-02 1.804295182228088379e-01
-7.796148657798767090e-01 4.072285443544387817e-02 -4.036132618784904480e-02
-1.467911005020141602e-01 1.639167033135890961e-02 -6.127032041549682617e-01
-7.565626874566078186e-03 -9.217298589646816254e-03 3.632328212261199951e-01
-2.826091647148132324e-01 1.006989553570747375e-01 8.750928044319152832e-01
2.059844285249710083e-01 -1.155990455299615860e-02 2.175651788711547852e-01
2.682812325656414032e-02 -1.233928352594375610e-01 1.394605040550231934e-01
-1.117318347096443176e-01 4.992032772861421108e-04 5.371448993682861328e-01
8.715029805898666382e-02 -7.646685466170310974e-03 3.016062676906585693e-01
-5.093050375580787659e-02 -6.815519928932189941e-02 1.695271953940391541e-02
1.040277183055877686e-01 -3.946431446820497513e-03 -3.361156582832336426e-01
2.257102429866790771e-01 -4.528814181685447693e-02 2.604508996009826660e-01
1.090323850512504578e-01 -1.161314919590950012e-02 2.134390026330947876e-01
6.759436130523681641e-01 -1.976503292098641396e-03 -8.239517360925674438e-02
3.657124564051628113e-02 -1.456802617758512497e-02 4.368120431900024414e-01
-3.727416321635246277e-02 -3.866570536047220230e-03 7.610358297824859619e-02
1.684228181838989258e-01 -3.589108586311340332e-02 2.014597505331039429e-01
2.705392539501190186e-01 -3.479965031147003174e-02 2.656685113906860352e-01
-2.869216799736022949e-01 6.691747903823852539e-02 -8.398562669754028320e-01
6.118147373199462891e-01 6.302485242486000061e-03 7.772743701934814453e-02
2.344417870044708252e-01 -6.197923421859741211e-02 -1.664241403341293335e-02
-2.910165116190910339e-02 -1.723008789122104645e-02 -7.632568478584289551e-02
4.702998697757720947e-01 8.509930968284606934e-02 -4.986486211419105530e-02
-6.988433003425598145e-02 1.929331384599208832e-02 6.032437086105346680e-01
8.449308276176452637e-01 4.072285443544387817e-02 5.105364695191383362e-02
2.826782166957855225e-01 -5.992944166064262390e-02 -5.795750766992568970e-02
8.900260925292968750e-01 -1.637822203338146210e-02 -3.958933055400848389e-02
-9.205925464630126953e-02 1.053514890372753143e-02 6.166338324546813965e-01
-7.118874788284301758e-02 -6.474777311086654663e-02 4.543671011924743652e-02
-8.790692687034606934e-01 4.447634890675544739e-02 -1.234440654516220093e-01
-5.705323070287704468e-02 -6.107413396239280701e-02 8.068232238292694092e-02
-1.384854912757873535e-01 -3.583784401416778564e-02 5.824119597673416138e-02
-8.719349503517150879e-01 5.296830460429191589e-02 -1.901019364595413208e-01
-1.169181242585182190e-02 -3.836679831147193909e-02 8.193349093198776245e-02
3.225824534893035889e-01 -1.117064058780670166e-01 3.173656463623046875e-01
-6.583801656961441040e-02 -1.842801272869110107e-02 -3.574120998382568359e-01
-8.550841212272644043e-01 4.767082259058952332e-02 -1.498250216245651245e-01
6.886197626590728760e-02 -3.381469100713729858e-02 1.880429834127426147e-01
1.749182492494583130e-01 -4.153464362025260925e-02 1.176050230860710144e-01
-4.612596333026885986e-01 4.402380064129829407e-02 -8.050511777400970459e-02
-3.994999825954437256e-01 -5.633566901087760925e-02 -3.540990501642227173e-02
4.543589428067207336e-02 1.351062441244721413e-03 -4.567866027355194092e-01
-2.371945083141326904e-01 8.323586732149124146e-02 4.652815312147140503e-02
-3.244566619396209717e-01 9.566766768693923950e-02 2.360785752534866333e-02
-8.749430179595947266e-01 4.948101565241813660e-02 1.645370572805404663e-01
-8.113465309143066406e-01 2.282912433147430420e-01 -4.210617858916521072e-03
-4.643210470676422119e-01 9.183431416749954224e-02 3.284518793225288391e-02
1.278264969587326050e-01 -4.193395748734474182e-02 9.039881825447082520e-02
-1.912740617990493774e-01 3.867307305335998535e-02 7.204274535179138184e-01
-6.364760994911193848e-01 8.619076013565063477e-02 -2.766332216560840607e-02
-7.355577945709228516e-01 1.351991891860961914e-01 -1.102547906339168549e-02
6.939390897750854492e-01 4.136174917221069336e-02 7.583738118410110474e-02
7.823991775512695312e-01 8.110623061656951904e-02 -4.201180115342140198e-02
-1.467911005020141602e-01 1.639167033135890961e-02 -6.127032041549682617e-01
3.367978334426879883e-01 -9.003728628158569336e-02 3.417766988277435303e-01
-3.412009775638580322e-01 1.003528833389282227e-01 -4.876131657510995865e-03
-1.250687390565872192e-01 -2.377874031662940979e-02 -7.323770225048065186e-02
-3.549904227256774902e-01 2.850402332842350006e-02 -8.375281840562820435e-02
7.798169851303100586e-01 -5.969593767076730728e-03 -7.829561084508895874e-02
-7.352661807090044022e-03 -7.108345627784729004e-02 -6.932448595762252808e-02
-2.416401356458663940e-01 6.760961562395095825e-02 -6.788697093725204468e-02
-1.112260520458221436e-01 2.658734284341335297e-02 -6.511964797973632812e-01
2.530229389667510986e-01 -6.884732842445373535e-02 -4.906624183058738708e-02
-3.163060545921325684e-02 -3.099290840327739716e-02 -1.927107423543930054e-01
4.884551167488098145e-01 9.910172224044799805e-02 8.540626615285873413e-03
-5.068606734275817871e-01 9.007736295461654663e-02 3.364380449056625366e-02
-1.335074454545974731e-01 3.153876587748527527e-02 6.814017295837402344e-01
-8.151533007621765137e-01 2.911629341542720795e-02 -3.405225649476051331e-02
1.160868331789970398e-01 -2.859705872833728790e-02 3.119083940982818604e-01
7.798169851303100586e-01 -5.969593767076730728e-03 -7.829561084508895874e-02
2.261894196271896362e-01 -1.065480709075927734e-02 -1.624697893857955933e-01
5.029898881912231445e-01 3.255034610629081726e-02 7.746123522520065308e-02
-2.415602803230285645e-01 -6.373618543148040771e-02 -3.491862909868359566e-03
7.607614248991012573e-02 -2.881002426147460938e-02 -2.739832699298858643e-01
-1.413605064153671265e-01 -6.987219676375389099e-04 5.186169743537902832e-01
-5.863135811523534358e-05 5.344143137335777283e-03 4.574961960315704346e-01
-9.014571309089660645e-01 6.910035759210586548e-02 -2.339992225170135498e-01
-5.487034097313880920e-02 9.257968515157699585e-02 -3.676754981279373169e-02
2.203062772750854492e-01 -9.964730590581893921e-02 2.622877061367034912e-01
6.250717639923095703e-01 8.674978464841842651e-02 -4.770859330892562866e-02
5.984246134757995605e-01 8.595117181539535522e-02 4.298762232065200806e-02
2.125064581632614136e-01 -9.669847786426544189e-03 -6.796683371067047119e-02
2.782059907913208008e-01 9.851606935262680054e-02 -1.877205818891525269e-02
-5.808670539408922195e-03 -4.958007950335741043e-03 5.098587870597839355e-01
2.715242207050323486e-01 -4.550110548734664917e-02 3.295046091079711914e-01
-8.683689869940280914e-03 -5.891786515712738037e-02 -9.016837924718856812e-02
-7.094915211200714111e-02 9.928806126117706299e-02 7.182977627962827682e-03
-1.176695572212338448e-03 7.606888655573129654e-03 -4.778168201446533203e-01
3.047466576099395752e-01 -1.011114418506622314e-01 -2.998584508895874023e-01
-1.781767308712005615e-01 8.219164796173572540e-03 5.844496488571166992e-01
-7.850720882415771484e-01 2.068084627389907837e-01 -3.491862909868359566e-03
-8.026416301727294922e-01 4.311870411038398743e-02 -1.054485663771629333e-01
-3.931909203529357910e-01 9.726490080356597900e-02 1.969463750720024109e-02
1.328045427799224854e-01 9.630656242370605469e-02 -2.779642492532730103e-02
-2.971439957618713379e-01 7.074478548020124435e-03 -8.359310030937194824e-02
6.271263211965560913e-02 -1.693725958466529846e-02 2.074759900569915771e-01
2.012725770473480225e-01 -9.909430518746376038e-03 7.849943637847900391e-02
1.920884996652603149e-01 -5.654863268136978149e-02 -7.459534704685211182e-02
8.885086774826049805e-01 1.367637608200311661e-02 -4.379537329077720642e-02
3.485108613967895508e-01 -1.510043628513813019e-02 -7.723078876733779907e-02
3.047466576099395752e-01 -5.982296541333198547e-02 -3.227521181106567383e-01
7.340562343597412109e-01 -2.817112579941749573e-02 -6.908489763736724854e-02
2.951898872852325439e-01 7.351937144994735718e-02 5.757568031549453735e-02
8.717691898345947266e-02 -3.227069601416587830e-02 2.201207578182220459e-01
-7.144743800163269043e-01 6.667789071798324585e-02 3.111485205590724945e-02
-1.937497556209564209e-01 2.874360606074333191e-02 7.796702533960342407e-02
1.558046787977218628e-01 -7.140289992094039917e-02 -4.717618599534034729e-02
-5.422660112380981445e-01 -4.555435106158256531e-02 -4.257083311676979065e-02
2.048929780721664429e-01 -9.057576768100261688e-03 -9.197857230901718140e-02
6.611692309379577637e-01 -6.307066977024078369e-02 2.630863571539521217e-03
-7.393065840005874634e-02 -1.017564069479703903e-02 -4.542044103145599365e-01
-6.647690385580062866e-02 1.689746417105197906e-02 5.680513381958007812e-01
2.740797996520996094e-01 -1.287968009710311890e-01 2.958029806613922119e-01
-4.885723292827606201e-01 -8.631644770503044128e-03 7.272277772426605225e-02
1.040011048316955566e-01 -6.209176965057849884e-03 2.988643348217010498e-01
-7.678219676017761230e-01 3.987099975347518921e-02 5.297032743692398071e-02
-3.029206395149230957e-01 -5.950352177023887634e-02 -2.779642492532730103e-02
2.515055537223815918e-01 -6.945960223674774170e-02 2.898520976305007935e-02
-1.232319176197052002e-01 3.161258762702345848e-03 5.587874054908752441e-01
-3.359034955501556396e-01 -1.302404049783945084e-02 7.232346385717391968e-02
3.470780700445175171e-02 -5.702780932188034058e-02 -3.378605097532272339e-02
1.369307339191436768e-01 5.533753708004951477e-02 -7.581989467144012451e-02
2.291709184646606445e-01 -9.377020411193370819e-03 1.264430433511734009e-01
-8.583052158355712891e-01 5.853200331330299377e-02 -1.294336915016174316e-01
4.467140734195709229e-01 1.335693150758743286e-02 7.865915447473526001e-02
-7.764469981193542480e-01 1.027487367391586304e-01 -1.225002389401197433e-02
1.729749441146850586e-01 -6.453480571508407593e-02 -7.161384820938110352e-02
1.086052390746772289e-03 -1.068142428994178772e-02 -4.703364968299865723e-01
2.861655354499816895e-01 -9.025026112794876099e-02 2.659080922603607178e-01
5.005142092704772949e-01 8.456689864397048950e-02 -5.053037032485008240e-02
1.270544975996017456e-01 -1.217217650264501572e-02 7.266952842473983765e-02
1.100972071290016174e-01 -4.319119732826948166e-03 -9.051443636417388916e-02
-6.949614882469177246e-01 1.166446730494499207e-01 -8.656249381601810455e-03
-1.031866446137428284e-01 9.172783792018890381e-02 -3.887057304382324219e-02
7.953681796789169312e-02 -1.560623012483119965e-02 -2.054087519645690918e-01
-8.903829455375671387e-01 2.622324526309967041e-01 2.684105187654495239e-03
1.585199981927871704e-01 -8.525166660547256470e-03 -7.994608581066131592e-02
-6.725203394889831543e-01 7.080408185720443726e-02 -1.350119058042764664e-02
2.563019841909408569e-02 5.616277456283569336e-02 6.971465796232223511e-02
-2.835627831518650055e-02 -1.496733166277408600e-02 -3.439687192440032959e-01
2.425344437360763550e-01 -5.761346220970153809e-02 -3.575185835361480713e-01
6.477791070938110352e-01 6.510727852582931519e-02 6.401785463094711304e-02
-5.246698260307312012e-01 9.710518270730972290e-02 9.525586850941181183e-03
8.081944584846496582e-01 7.783190160989761353e-02 2.850603871047496796e-02
-2.066293731331825256e-02 -5.490418057888746262e-03 -4.057017564773559570e-01
3.005938529968261719e-01 -8.008120208978652954e-02 2.486579865217208862e-01
-4.477630555629730225e-01 5.387340858578681946e-02 -7.640554755926132202e-02
2.672915458679199219e-01 -3.251027688384056091e-02 1.551399976015090942e-01
1.803754568099975586e-01 -2.510976977646350861e-02 -2.961315810680389404e-01
3.267884850502014160e-01 -2.718616649508476257e-02 7.719502598047256470e-02
3.133717179298400879e-01 -3.887259215116500854e-02 -6.165776401758193970e-02
-7.956404685974121094e-01 1.964796930551528931e-01 3.482721513137221336e-03
-1.939094811677932739e-01 8.994425833225250244e-02 3.737068176269531250e-02
-7.500926852226257324e-01 -4.058949125465005636e-04 2.941113710403442383e-02
7.930740118026733398e-01 -3.030077554285526276e-02 5.805484950542449951e-02
-6.338892132043838501e-02 -5.598960444331169128e-02 3.047595918178558350e-02
-1.929777711629867554e-01 4.080271720886230469e-02 7.607696205377578735e-02
-9.402445517480373383e-03 -2.763871662318706512e-02 2.476463913917541504e-01
-3.865357935428619385e-01 6.518714129924774170e-02 6.396461278200149536e-02
8.836104869842529297e-01 2.898319438099861145e-02 3.444242104887962341e-02
-2.164038419723510742e-01 5.967669188976287842e-02 -8.073525428771972656e-01
-2.259872555732727051e-01 3.670315071940422058e-02 7.269494533538818359e-01
9.112693071365356445e-01 2.256160601973533630e-03 2.493888512253761292e-02
8.823327422142028809e-01 -3.346861898899078369e-02 2.342151291668415070e-02
-3.048373162746429443e-01 4.040340706706047058e-02 7.623668760061264038e-02
-4.249178990721702576e-02 -1.499395817518234253e-02 -3.544838428497314453e-01
8.526023477315902710e-02 9.859593212604522705e-02 1.253370754420757294e-02
8.773546814918518066e-01 -3.868624195456504822e-02 -2.454871870577335358e-02
2.705392539501190186e-01 -3.479965031147003174e-02 2.656685113906860352e-01
3.265802189707756042e-02 -1.539326366037130356e-02 2.862994372844696045e-01
9.251651763916015625e-01 -3.014706308022141457e-03 -1.973039656877517700e-02
4.619942903518676758e-01 8.211781084537506104e-02 4.796566069126129150e-02
7.884952425956726074e-01 -5.508450791239738464e-02 2.909168973565101624e-02
-6.873965263366699219e-02 -6.768204271793365479e-03 -4.873469769954681396e-01
8.526023477315902710e-02 9.859593212604522705e-02 1.253370754420757294e-02
2.956690490245819092e-01 -2.127641253173351288e-02 -3.027334809303283691e-01
-2.256944179534912109e-01 2.767878584563732147e-02 6.951379179954528809e-01
7.931538820266723633e-01 -5.697456374764442444e-02 -2.870152518153190613e-02
-7.148157060146331787e-02 -5.063887685537338257e-02 -8.692066371440887451e-02
1.040324382483959198e-02 -1.677753776311874390e-02 -4.050362408161163330e-01
1.328577697277069092e-01 -6.635108962655067444e-03 2.537691295146942139e-01
8.914683759212493896e-02 -3.607743605971336365e-02 1.626203656196594238e-01
2.826782166957855225e-01 -5.992944166064262390e-02 -5.795750766992568970e-02
-2.875558473169803619e-02 -1.378211677074432373e-01 1.291849613189697266e-01
-3.860518708825111389e-02 -1.323639601469039917e-01 -1.685392856597900391e-01
-2.875558473169803619e-02 -1.378211677074432373e-01 1.291849613189697266e-01
-8.552172183990478516e-01 2.174240350723266602e-02 1.655341312289237976e-02
7.440123558044433594e-01 -3.352186456322669983e-02 -6.471912562847137451e-02
3.946442902088165283e-01 3.433392196893692017e-02 7.724826782941818237e-02
-6.221761554479598999e-02 6.401583552360534668e-02 6.486971676349639893e-02
-2.908082902431488037e-01 8.246387541294097900e-02 -5.329890921711921692e-02
2.081140726804733276e-01 -5.567016080021858215e-02 7.242994755506515503e-02
8.496959209442138672e-01 -2.460397779941558838e-02 -5.303270742297172546e-02
1.449701189994812012e-01 6.247184425592422485e-02 6.604101508855819702e-02
6.971383094787597656e-02 -2.774520404636859894e-02 -2.873467803001403809e-01
3.384748995304107666e-01 -3.703576698899269104e-02 2.826524376869201660e-01
1.820525377988815308e-01 -6.821447983384132385e-03 -1.881852447986602783e-01
8.911175131797790527e-01 2.352597750723361969e-02 3.167388588190078735e-02
7.767822742462158203e-01 -3.509247675538063049e-02 5.691016837954521179e-02
2.938055992126464844e-01 -2.183543890714645386e-02 -3.176143765449523926e-01
-9.583937376737594604e-02 1.191335381008684635e-03 -5.538717508316040039e-01
2.221697121858596802e-01 -2.415142767131328583e-02 3.119616508483886719e-01
-4.736648499965667725e-01 -4.579393193125724792e-02 -5.266001820564270020e-02
3.831175863742828369e-01 -5.916350055485963821e-03 7.525172829627990723e-02
2.201199382543563843e-01 -3.330889716744422913e-02 -3.377927243709564209e-01
-5.549107193946838379e-01 3.590453416109085083e-02 7.093919813632965088e-02
-4.735583364963531494e-01 3.606425598263740540e-02 -8.258151262998580933e-02
2.059844285249710083e-01 -1.155990455299615860e-02 2.175651788711547852e-01
-8.296881318092346191e-01 3.795431926846504211e-02 -7.462196797132492065e-02
3.864185214042663574e-01 -2.963526174426078796e-02 -6.876545399427413940e-02
3.049330115318298340e-01 -5.604285001754760742e-02 2.683571875095367432e-01
-8.162713646888732910e-01 1.919009685516357422e-01 4.307958763092756271e-03
9.365043602883815765e-03 -4.813653975725173950e-02 8.613953739404678345e-02
1.406043618917465210e-01 -8.072617463767528534e-03 2.163672596216201782e-01
1.058379188179969788e-01 -2.074399217963218689e-02 -2.961315810680389404e-01
1.057846844196319580e-01 -3.477302193641662598e-02 -1.960915625095367432e-01
-1.981687843799591064e-01 1.636505313217639923e-02 -8.481764793395996094e-02
-9.245105385780334473e-01 3.015510141849517822e-01 1.539421151392161846e-03
-1.999789774417877197e-01 -6.245839968323707581e-02 7.289459928870201111e-03
-1.086657494306564331e-02 9.484243392944335938e-02 2.555115893483161926e-02
2.064635902643203735e-01 -1.076600998640060425e-01 2.753051519393920898e-01
-7.956404685974121094e-01 1.964796930551528931e-01 3.482721513137221336e-03
-1.071264818310737610e-01 -1.025550160557031631e-02 -4.446742534637451172e-01
3.114065341651439667e-02 -2.026482485234737396e-02 -3.690452575683593750e-01
-7.885073311626911163e-03 -5.433913320302963257e-02 -4.025484248995780945e-02
-8.337622508406639099e-03 -1.496733166277408600e-02 4.150630533695220947e-01
-1.153522357344627380e-01 2.813133411109447479e-02 -6.755009889602661133e-01
1.835432946681976318e-01 8.804813958704471588e-03 7.807350158691406250e-02
1.154745593667030334e-01 -7.409157603979110718e-02 -3.046767711639404297e-01
1.849589124321937561e-02 -2.729265578091144562e-02 1.142242178320884705e-01
2.132518291473388672e-01 -1.159390881657600403e-01 2.868584692478179932e-01
-2.533265650272369385e-01 4.285249859094619751e-02 -7.661173343658447266e-01
3.180036842823028564e-01 -2.574865892529487610e-02 -2.911269366741180420e-01
-3.557044640183448792e-02 -3.117924742400646210e-02 -1.509430855512619019e-01
-2.497546747326850891e-02 -2.713293209671974182e-02 -2.537250518798828125e-01
3.653350472450256348e-01 6.321722269058227539e-02 -7.124116271734237671e-02
1.934195160865783691e-01 -1.307727396488189697e-02 3.976653143763542175e-02
-3.206233084201812744e-01 -1.270458661019802094e-02 -7.821574807167053223e-02
2.246188074350357056e-01 -7.869692891836166382e-02 3.513600826263427734e-01
3.034156262874603271e-01 -3.429385647177696228e-02 -3.422649800777435303e-01
-7.991276979446411133e-01 1.689746417105197906e-02 2.810673043131828308e-02
1.529296636581420898e-01 -1.092101726680994034e-02 -1.532324552536010742e-01
2.825451195240020752e-01 -8.708241581916809082e-02 2.495896965265274048e-01
-8.373814225196838379e-01 1.385267525911331177e-01 2.311417134478688240e-03
7.243397831916809082e-01 -5.423264577984809875e-02 3.452228382229804993e-02
6.886197626590728760e-02 -3.381469100713729858e-02 1.880429834127426147e-01
3.047466576099395752e-01 -3.772791102528572083e-02 2.991305291652679443e-01
1.144097447395324707e-01 -9.483498521149158478e-03 -3.803057670593261719e-01
-8.768064975738525391e-01 2.906305529177188873e-02 1.516914367675781250e-02
-7.500926852226257324e-01 -4.058949125465005636e-04 2.941113710403442383e-02
4.771946072578430176e-01 -1.595230028033256531e-02 -7.688471674919128418e-02
-1.459658592939376831e-01 3.454688936471939087e-02 6.933277249336242676e-01
-8.871352672576904297e-01 4.245318844914436340e-02 -6.338810175657272339e-02
-3.011323325335979462e-02 1.173307467252016068e-02 5.166736841201782227e-01
5.373038053512573242e-01 5.491160601377487183e-02 -7.597962021827697754e-02
-9.155346453189849854e-02 7.899715565145015717e-03 -5.372871160507202148e-01
-5.409361794590950012e-03 -1.038001179695129395e-01 -1.499315202236175537e-01
-6.682610511779785156e-01 8.414097875356674194e-02 4.787128418684005737e-03
-9.975259006023406982e-02 7.498349994421005249e-02 -6.221679598093032837e-02
-2.448612302541732788e-01 5.634911358356475830e-02 -7.539396733045578003e-02
-2.111329883337020874e-01 1.221224572509527206e-02 7.852604985237121582e-02
3.891385346651077271e-02 -1.930648274719715118e-02 3.781403601169586182e-01
-6.890516877174377441e-01 7.626128941774368286e-02 -3.362632542848587036e-02
-9.100022912025451660e-01 5.254238471388816833e-02 -1.846713423728942871e-01
-7.565626874566078186e-03 -9.217298589646816254e-03 3.632328212261199951e-01
-5.425322055816650391e-01 -5.582988262176513672e-02 -9.241902269423007965e-03
6.420291066169738770e-01 9.516187757253646851e-02 2.477916330099105835e-02
-7.067810297012329102e-01 1.916020922362804413e-02 -5.500262230634689331e-02
-2.891530655324459076e-02 -1.054832898080348969e-02 -4.631222784519195557e-01
3.353650495409965515e-02 1.590645522810518742e-03 -8.287434279918670654e-02
-5.204104781150817871e-01 8.222429454326629639e-02 4.455823451280593872e-02
6.040149331092834473e-01 -2.189469290897250175e-03 7.660937309265136719e-02
-1.947081089019775391e-01 1.655139774084091187e-02 -6.422786116600036621e-01
1.638440936803817749e-01 -1.086777262389659882e-02 1.287324130535125732e-01
2.913565337657928467e-01 -5.468520149588584900e-02 3.518126308917999268e-01
2.690485119819641113e-01 -2.713293209671974182e-02 -3.333204686641693115e-01
2.725624144077301025e-01 -2.340605296194553375e-02 3.085542321205139160e-01
2.110470831394195557e-02 -3.376144543290138245e-02 -1.730115413665771484e-01
-1.413338929414749146e-01 6.542068440467119217e-03 -5.611658096313476562e-01
-7.925476878881454468e-02 -1.257754047401249409e-03 4.691826403141021729e-01
-8.495204448699951172e-01 4.479580000042915344e-02 -1.278098374605178833e-01
-8.230329751968383789e-01 1.408161371946334839e-01 -1.035996433347463608e-02
-4.735583364963531494e-01 3.606425598263740540e-02 -8.258151262998580933e-02
-8.654927611351013184e-01 5.605629086494445801e-02 -2.039712369441986084e-01
-3.174820840358734131e-01 1.216227114200592041e-01 -8.909144997596740723e-01
1.291042864322662354e-01 -1.094763353466987610e-02 1.892409026622772217e-01
4.766622185707092285e-01 -2.266067638993263245e-02 6.833038479089736938e-02
6.140822544693946838e-02 -7.323972880840301514e-02 -2.787628769874572754e-02
-7.291955351829528809e-01 7.881686091423034668e-02 -1.318174321204423904e-02
-8.074333071708679199e-01 6.305749714374542236e-02 1.024434063583612442e-02
-9.082453250885009766e-01 2.469728514552116394e-02 -1.175874960608780384e-03
3.367978334426879883e-01 -3.450682386755943298e-02 -3.088828325271606445e-01
-1.176695572212338448e-03 7.606888655573129654e-03 -4.778168201446533203e-01
3.374899625778198242e-01 -7.449088245630264282e-02 2.588536441326141357e-01
2.661734819412231445e-01 -3.956472501158714294e-02 7.543806731700897217e-02
3.455826044082641602e-01 -6.461466848850250244e-02 -1.866557635366916656e-02
5.557252168655395508e-01 -1.523354183882474899e-02 -7.717754691839218140e-02
1.814982481300830841e-02 -1.272794306278228760e-01 1.662141531705856323e-01
-2.849517762660980225e-01 7.296033948659896851e-02 8.481262326240539551e-01
2.849409580230712891e-01 -2.822436951100826263e-02 -3.351040482521057129e-01
2.589640393853187561e-02 3.933251835405826569e-03 4.364659786224365234e-01
1.058958843350410461e-02 -8.902569860219955444e-02 -1.581838876008987427e-01
3.338695466518402100e-01 -1.001797243952751160e-01 -3.511030077934265137e-01
-1.232585385441780090e-01 2.847740054130554199e-02 6.902130842208862305e-01
6.053725481033325195e-01 -3.235055506229400635e-02 -6.666243076324462891e-02
3.928654268383979797e-02 -7.140892092138528824e-03 -4.747288525104522705e-01
1.087129414081573486e-01 -2.960864454507827759e-02 2.705134749412536621e-01
2.887211143970489502e-01 -1.254486385732889175e-02 -6.024687364697456360e-02
-5.649419873952865601e-02 -1.685739867389202118e-02 3.461690545082092285e-01
8.483430743217468262e-02 6.154012680053710938e-02 -7.251894474029541016e-02
-4.770468920469284058e-03 -3.128573670983314514e-02 8.885483443737030029e-02
-9.305534362792968750e-01 6.462810933589935303e-02 -2.226056158542633057e-01
8.850795030593872070e-02 -3.535867854952812195e-02 1.732153445482254028e-01
-8.337622508406639099e-03 -1.496733166277408600e-02 4.150630533695220947e-01
-2.044778466224670410e-01 -3.759480640292167664e-02 -6.264272332191467285e-02
-9.975259006023406982e-02 7.498349994421005249e-02 -6.221679598093032837e-02
-7.299421820789575577e-03 3.427463816478848457e-03 5.369585752487182617e-01
2.043339610099792480e-01 -6.953946501016616821e-02 -3.482546210289001465e-01
-6.812737882137298584e-02 1.407568622380495071e-02 6.158618330955505371e-01
4.466861952096223831e-03 -5.646877363324165344e-02 2.933127619326114655e-02
-1.456464231014251709e-01 -2.662714011967182159e-02 6.247386336326599121e-02
-2.050901204347610474e-01 7.668721675872802734e-02 5.504672974348068237e-02
1.040324382483959198e-02 -1.677753776311874390e-02 -4.050362408161163330e-01
1.396992504596710205e-01 -6.450817734003067017e-02 -3.228852450847625732e-01
5.936595201492309570e-01 1.000334396958351135e-01 1.645903568714857101e-03
2.971864342689514160e-01 -4.225340113043785095e-02 -9.088712930679321289e-02
5.751315951347351074e-01 4.864972084760665894e-03 7.754109054803848267e-02
2.043919265270233154e-02 -2.497666515409946442e-02 -3.059013187885284424e-01
-2.268609777092933655e-02 -3.373482078313827515e-02 -8.537667989730834961e-02
-2.457615733146667480e-02 -1.379010379314422607e-01 -1.759131699800491333e-01
-3.956352919340133667e-02 -2.428453415632247925e-02 -2.726788818836212158e-01
1.293971091508865356e-01 -2.013172022998332977e-02 3.619937598705291748e-02
-3.915404379367828369e-01 8.917225897312164307e-02 3.880818933248519897e-02
-6.109736561775207520e-01 -3.631702065467834473e-02 2.839955501258373260e-02
2.264869958162307739e-02 -1.997199840843677521e-02 3.636853992938995361e-01
-7.956404685974121094e-01 1.964796930551528931e-01 3.482721513137221336e-03
4.429120197892189026e-02 -2.620120719075202942e-02 2.936999499797821045e-01
-3.557044640183448792e-02 -3.117924742400646210e-02 -1.509430855512619019e-01
1.715374290943145752e-01 -3.085980378091335297e-02 2.599717080593109131e-01
-6.694590449333190918e-01 6.143364310264587402e-02 -1.475235540419816971e-02
2.760012261569499969e-02 -3.573136404156684875e-02 -1.457254737615585327e-01
1.978917866945266724e-01 -8.540530502796173096e-02 3.439595699310302734e-01
-6.660249233245849609e-01 5.975655093789100647e-02 7.688768208026885986e-03
1.172847598791122437e-01 -1.975903287529945374e-02 -3.638808727264404297e-01
1.379689276218414307e-01 -9.164054878056049347e-03 -3.382453024387359619e-01
-2.353795804083347321e-02 3.971127793192863464e-02 -8.228868991136550903e-02
8.823327422142028809e-01 4.799026623368263245e-02 1.048392616212368011e-02
-5.711492896080017090e-01 1.157335191965103149e-02 -7.520762830972671509e-02
-6.770145148038864136e-02 1.692408509552478790e-02 -6.223398447036743164e-01
3.371705114841461182e-01 -9.006389975547790527e-02 -2.610190808773040771e-01
1.658672541379928589e-01 -2.723941020667552948e-02 2.878700494766235352e-01
3.180036842823028564e-01 -2.574865892529487610e-02 -2.911269366741180420e-01
6.662270426750183105e-01 -1.515368092805147171e-02 -7.720416784286499023e-02
-2.063631638884544373e-02 -1.077931895852088928e-01 1.600115597248077393e-01
-3.727416321635246277e-02 -3.866570536047220230e-03 7.610358297824859619e-02
3.374899625778198242e-01 -7.449088245630264282e-02 2.588536441326141357e-01
1.529296636581420898e-01 -1.092101726680994034e-02 -1.532324552536010742e-01
-3.632161617279052734e-01 8.344883471727371216e-02 4.626194760203361511e-02
6.037475075572729111e-03 -2.353915758430957794e-02 -3.184928596019744873e-01
-1.333477199077606201e-01 1.058235415257513523e-03 5.175787806510925293e-01
7.633655071258544922e-01 -5.399306118488311768e-02 -2.960662357509136200e-02
-8.106809854507446289e-01 1.008853018283843994e-01 -9.348384104669094086e-03
1.242061033844947815e-01 5.716831423342227936e-03 -8.343337476253509521e-02
-5.791620612144470215e-01 4.434325173497200012e-02 -7.198654115200042725e-02
-8.859905600547790527e-01 3.947168961167335510e-02 5.951898172497749329e-02
-8.341869711875915527e-01 6.161998584866523743e-02 -7.112257648259401321e-03
3.039746582508087158e-01 -3.288296610116958618e-02 -1.120238453149795532e-01
-8.074333071708679199e-01 6.305749714374542236e-02 1.024434063583612442e-02
1.789911836385726929e-01 4.508862644433975220e-02 -8.005256205797195435e-02
-2.031468152999877930e-01 2.600168995559215546e-02 6.914642453193664551e-01
1.657921262085437775e-02 -2.931581810116767883e-02 8.619277179241180420e-02
1.291042864322662354e-01 -1.094763353466987610e-02 1.892409026622772217e-01
1.266019493341445923e-01 2.432459779083728790e-02 7.855267822742462158e-02
2.726955115795135498e-01 -3.578460961580276489e-02 -3.172949254512786865e-01
4.630058407783508301e-01 -6.208571046590805054e-02 1.027096156030893326e-02
-6.253706663846969604e-02 2.655465621501207352e-03 -4.874534904956817627e-01
2.124798446893692017e-01 4.940115660429000854e-02 7.250981032848358154e-02
3.373834788799285889e-01 -5.622918903827667236e-02 -2.703894972801208496e-01
4.572872072458267212e-02 -4.292492754757404327e-03 -3.632686138153076172e-01
2.661734819412231445e-01 -3.956472501158714294e-02 7.543806731700897217e-02
1.629123836755752563e-01 -5.753359198570251465e-02 -2.836465537548065186e-01
-1.668097674846649170e-01 -3.573136404156684875e-02 -6.408023089170455933e-02
2.246720492839813232e-01 -1.162585318088531494e-01 2.792183756828308105e-01
1.293971091508865356e-01 -2.013172022998332977e-02 3.619937598705291748e-02
-1.430376023054122925e-01 6.438852846622467041e-02 6.457688659429550171e-02
1.925410479307174683e-01 -5.521761253476142883e-02 7.450634986162185669e-02
-2.826091647148132324e-01 1.006989553570747375e-01 8.750928044319152832e-01
2.882685661315917969e-01 -9.828965365886688232e-02 -2.761927843093872070e-01
