1.579957455396652222e-01 -2.893003821372985840e-02 5.540210604667663574e-01
-7.450161576271057129e-01 3.050777316093444824e-01 -6.739477068185806274e-02
8.389288187026977539e-02 -2.329967357218265533e-02 6.614391207695007324e-01
-2.979859709739685059e-01 -4.730007052421569824e-02 -7.009319216012954712e-02
-8.006712198257446289e-01 3.059080243110656738e-01 8.846513926982879639e-02
4.390950500965118408e-02 -6.149274483323097229e-02 4.894145727157592773e-01
1.165593788027763367e-01 -6.699337810277938843e-02 -5.073416233062744141e-01
2.337851375341415405e-01 -1.112579107284545898e-01 -4.622252658009529114e-02
1.726813912391662598e-01 -1.133854985237121582e-01 2.715384215116500854e-02
1.481620669364929199e-01 1.585341989994049072e-02 -9.679202735424041748e-02
2.275580167770385742e-01 8.673893660306930542e-02 5.756300315260887146e-02
3.879066407680511475e-01 6.538668647408485413e-03 2.985789477825164795e-01
-2.801089286804199219e-01 -8.199039101600646973e-02 -2.569893747568130493e-02
-1.561889946460723877e-01 7.441440224647521973e-02 7.022483646869659424e-02
9.626930207014083862e-02 -8.466286212205886841e-02 -3.474340736865997314e-01
4.642927646636962891e-01 -7.309078425168991089e-02 2.741633951663970947e-01
2.098885029554367065e-01 -6.009164080023765564e-02 2.065990269184112549e-01
6.749475002288818359e-02 -6.019543111324310303e-02 -5.227018594741821289e-01
3.253239691257476807e-01 -1.930392719805240631e-02 9.227925539016723633e-02
3.455226542428135872e-04 -5.038769915699958801e-02 -5.386070013046264648e-01
-7.058371305465698242e-01 5.526597425341606140e-02 -6.866249023005366325e-04
4.559899270534515381e-01 -3.632475808262825012e-02 -2.776382863521575928e-01
6.290263533592224121e-01 -1.663144864141941071e-02 -3.400177881121635437e-02
1.994321197271347046e-01 -6.164842098951339722e-02 1.080287098884582520e-01
6.365469098091125488e-02 -5.134771391749382019e-02 -5.872564911842346191e-01
6.067086756229400635e-02 -2.794407680630683899e-02 7.576482892036437988e-01
1.155474632978439331e-01 -3.346902085468173027e-03 -8.647010922431945801e-01
3.852600753307342529e-01 -8.121038787066936493e-03 2.764726281166076660e-01
-7.751919031143188477e-01 3.006927967071533203e-01 -2.504724562168121338e-01
-3.750726580619812012e-01 -3.510527312755584717e-02 5.335969105362892151e-02
-6.250919699668884277e-01 1.333386301994323730e-01 3.179386025294661522e-03
-8.514223098754882812e-01 2.992138564586639404e-01 -1.993061751127243042e-01
6.189591288566589355e-01 -1.831293851137161255e-01 8.368662558495998383e-03
3.397760689258575439e-01 -2.885219454765319824e-02 -9.614337235689163208e-02
-4.058451056480407715e-01 -7.104101777076721191e-02 -1.646641059778630733e-03
-1.003302261233329773e-02 -8.331365138292312622e-02 1.796666830778121948e-01
-2.664256375283002853e-03 -8.917753398418426514e-02 1.193672791123390198e-01
6.599803566932678223e-01 -4.960930347442626953e-02 2.484461478888988495e-02
5.820595845580101013e-02 -5.139959976077079773e-02 -3.583574891090393066e-01
1.146912351250648499e-01 -1.114914119243621826e-01 3.258745670318603516e-01
-4.461916685104370117e-01 -5.300827696919441223e-02 2.842082874849438667e-03
7.216510176658630371e-02 -8.027792721986770630e-02 3.678557872772216797e-01
5.239175558090209961e-01 -9.229109436273574829e-02 -6.036330014467239380e-02
3.057604134082794189e-01 -9.055105969309806824e-03 2.739298939704895020e-01
5.758323892951011658e-02 4.994696378707885742e-02 8.441750705242156982e-02
5.996550321578979492e-01 -1.849959418177604675e-02 -4.850580543279647827e-02
-5.287050455808639526e-02 -1.137487590312957764e-01 -2.891629002988338470e-02
-2.426423281431198120e-01 9.569043666124343872e-02 -1.913450285792350769e-02
1.460085213184356689e-01 -4.955578129738569260e-03 -8.440477848052978516e-01
-3.204814791679382324e-01 6.445098668336868286e-02 -5.704216286540031433e-02
4.124519228935241699e-01 -1.328436844050884247e-02 -9.414549171924591064e-02
-7.607137560844421387e-01 3.000181913375854492e-01 1.913425475358963013e-01
3.251903876662254333e-02 -5.612184479832649231e-02 3.024968504905700684e-01
2.366651892662048340e-01 -7.355780899524688721e-02 2.227636277675628662e-01
2.179837822914123535e-01 -8.313203603029251099e-02 -2.690759897232055664e-01
2.997408211231231689e-01 8.277076296508312225e-03 -3.047522902488708496e-01
2.289331406354904175e-01 -1.215326711535453796e-01 -3.383787870407104492e-01
-1.111720278859138489e-01 5.428000912070274353e-02 -8.638752996921539307e-02
5.638591013848781586e-03 -7.272753119468688965e-02 1.595582365989685059e-01
1.219821721315383911e-01 7.812473177909851074e-02 6.794155389070510864e-02
-1.070465445518493652e-01 -1.149941757321357727e-01 1.010707020759582520e-02
-2.979859709739685059e-01 -4.730007052421569824e-02 -7.009319216012954712e-02
9.886394441127777100e-02 -5.137365683913230896e-02 1.954161375761032104e-01
3.772945404052734375e-01 -4.286324605345726013e-02 -2.699841260910034180e-01
-8.524342179298400879e-01 2.753172516822814941e-01 -2.918014070019125938e-03
3.329003155231475830e-01 -1.299895718693733215e-02 2.703492939472198486e-01
5.179240107536315918e-01 3.528886940330266953e-03 -1.941947340965270996e-01
1.491999179124832153e-01 -2.592845703475177288e-04 -9.850144982337951660e-01
1.444776654243469238e-01 -2.900787815451622009e-02 -5.353378057479858398e-01
6.614554673433303833e-02 -9.823282808065414429e-02 1.119466125965118408e-01
1.694380939006805420e-01 -5.155527591705322266e-02 1.909014582633972168e-01
3.189930319786071777e-01 7.550576701760292053e-03 3.256669640541076660e-01
2.266498506069183350e-01 -7.091128081083297729e-02 1.532792001962661743e-01
2.444971725344657898e-02 -4.499084874987602234e-02 5.471972227096557617e-01
1.741343885660171509e-01 2.872282452881336212e-02 -9.396387636661529541e-02
-1.623420976102352142e-02 -7.791680842638015747e-02 -2.501351237297058105e-01
5.490336418151855469e-01 -8.946294337511062622e-02 -5.429184809327125549e-02
1.256146728992462158e-01 -8.614017628133296967e-03 -7.966178059577941895e-01
1.909217089414596558e-01 -1.210656389594078064e-01 -3.370036184787750244e-01
6.376146078109741211e-01 -1.694556325674057007e-01 1.514066848903894424e-02
-2.402293235063552856e-01 2.776280790567398071e-02 -8.324801176786422729e-02
-6.264152526855468750e-01 1.242833510041236877e-01 -7.251059636473655701e-03
4.324046373367309570e-01 -2.944896556437015533e-02 8.929541707038879395e-02
-9.565608948469161987e-02 -1.168363764882087708e-01 -7.302952464669942856e-03
5.067768506705760956e-03 -8.806183189153671265e-02 1.454174369573593140e-01
-6.942391395568847656e-01 -2.249533496797084808e-02 -2.658549929037690163e-03
8.000092208385467529e-02 -1.894343495368957520e-01 -3.064906597137451172e-01
1.632888019084930420e-01 -2.483051083981990814e-02 -6.152006983757019043e-01
-7.826384902000427246e-01 3.022755384445190430e-01 2.408223003149032593e-01
8.957512676715850830e-02 -1.419249270111322403e-02 8.866018652915954590e-01
6.010004505515098572e-02 -2.374076098203659058e-02 7.320910692214965820e-01
1.443738937377929688e-01 -1.945960894227027893e-02 -8.712396621704101562e-01
5.804806947708129883e-01 -3.354849293828010559e-02 -5.885841324925422668e-02
1.866405606269836426e-01 -5.386450886726379395e-02 5.851048231124877930e-01
4.105540364980697632e-02 -5.510993674397468567e-02 2.816100120544433594e-01
4.390950500965118408e-02 -6.149274483323097229e-02 4.894145727157592773e-01
2.363019138574600220e-01 -7.021072506904602051e-02 -2.412095665931701660e-01
7.909280061721801758e-02 -5.552507936954498291e-02 5.629466176033020020e-01
6.524818539619445801e-01 -2.028226852416992188e-01 1.155568170361220837e-03
1.726813912391662598e-01 -1.133854985237121582e-01 2.715384215116500854e-02
1.685818582773208618e-01 9.940077364444732666e-02 -2.839736081659793854e-02
-3.735159039497375488e-01 -5.905378609895706177e-02 1.828018017113208771e-02
-7.730382680892944336e-01 3.077761530876159668e-01 -5.942923575639724731e-02
4.951391741633415222e-02 5.111455172300338745e-02 -8.817782998085021973e-02
1.510421037673950195e-01 -4.745575040578842163e-02 2.252025753259658813e-01
-7.671523094177246094e-02 -1.323247794061899185e-02 9.292791783809661865e-02
2.489378303289413452e-01 1.657991670072078705e-02 9.235709160566329956e-02
-8.761652745306491852e-03 -1.126071140170097351e-01 3.257663920521736145e-02
1.074521839618682861e-01 -2.103212028741836548e-01 -3.060495853424072266e-01
5.906219035387039185e-02 -7.264805492013692856e-03 9.025068879127502441e-01
1.011212691664695740e-01 -4.675520211458206177e-02 -2.862265408039093018e-01
1.436733454465866089e-01 -2.402617223560810089e-02 8.328409194946289062e-01
1.843572705984115601e-01 -2.534943819046020508e-02 6.516573429107666016e-01
3.923915326595306396e-02 -6.912098079919815063e-02 -4.319933056831359863e-01
-6.183459758758544922e-01 8.367726206779479980e-02 2.452887129038572311e-03
1.686856597661972046e-01 -1.561954338103532791e-02 -8.962259888648986816e-01
1.072705611586570740e-01 -1.122957617044448853e-01 3.475613519549369812e-02
-8.419519066810607910e-01 2.984873652458190918e-01 -1.970747858285903931e-01
-8.654890954494476318e-02 1.018137857317924500e-01 1.280549447983503342e-02
-4.065196812152862549e-01 5.716005712747573853e-02 -4.661171883344650269e-02
1.990948170423507690e-01 -9.511926770210266113e-02 3.501863181591033936e-01
3.161092102527618408e-02 -1.142417341470718384e-01 -2.533568814396858215e-02
1.637558341026306152e-01 -5.020606890320777893e-02 -6.320139765739440918e-01
5.257559195160865784e-02 -6.058462336659431458e-02 -5.077826976776123047e-01
-5.517973378300666809e-02 2.075728587806224823e-02 -9.572822600603103638e-02
2.658548355102539062e-01 -4.745575040578842163e-02 -9.720716625452041626e-02
-1.187743097543716431e-01 -8.912564814090728760e-02 -8.332585543394088745e-02
1.535329520702362061e-01 -5.090662464499473572e-02 -1.667953580617904663e-01
2.250373549759387970e-02 -6.595551967620849609e-02 -1.928714662790298462e-01
-1.741179376840591431e-01 -1.019950583577156067e-01 4.461576044559478760e-02
1.031969785690307617e-01 -5.303422734141349792e-02 1.520337760448455811e-01
1.579438447952270508e-01 -8.362501114606857300e-02 -3.774021267890930176e-01
4.466194659471511841e-02 -4.563951119780540466e-02 -4.621949195861816406e-01
-7.819638848304748535e-01 2.909110188484191895e-01 1.072978321462869644e-02
1.284168660640716553e-01 -6.836853176355361938e-02 -5.056291818618774414e-01
2.605877220630645752e-01 -7.373943924903869629e-02 -8.989028632640838623e-02
8.339989185333251953e-02 -1.793671548366546631e-01 -3.300759196281433105e-01
-7.708069682121276855e-01 2.990322411060333252e-01 -1.942466348409652710e-01
7.213915884494781494e-02 -8.933321386575698853e-02 2.194684296846389771e-01
1.260557472705841064e-01 -4.260377958416938782e-02 6.940796971321105957e-01
1.586145907640457153e-02 -4.314865916967391968e-02 -5.942360758781433105e-01
-7.371804118156433105e-01 3.120832741260528564e-01 3.983723931014537811e-03
-7.457427382469177246e-01 3.042474389076232910e-01 8.963272720575332642e-02
1.015104725956916809e-01 -3.326308354735374451e-02 5.137782692909240723e-01
-2.271004468202590942e-01 -1.336220651865005493e-02 8.387262374162673950e-02
1.489923447370529175e-01 -8.816562592983245850e-02 -3.481086790561676025e-01
3.341717123985290527e-01 -1.164212301373481750e-01 -3.395463824272155762e-01
-8.723350763320922852e-01 3.007187545299530029e-01 -2.007851153612136841e-01
-2.041638642549514771e-01 -9.934852272272109985e-02 3.140905126929283142e-02
-7.713777422904968262e-01 3.011857867240905762e-01 -1.500902790576219559e-02
2.220573723316192627e-01 9.812939912080764771e-02 2.839926816523075104e-02
3.255574703216552734e-01 -7.604866474866867065e-02 2.647967636585235596e-01
4.027700796723365784e-02 2.859309129416942596e-02 -9.398981928825378418e-02
1.671769283711910248e-02 -7.047019153833389282e-02 -1.449744552373886108e-01
4.187049865722656250e-01 -4.265567287802696228e-02 -2.585158348083496094e-01
1.900135874748229980e-01 -3.227711841464042664e-02 -6.563257575035095215e-01
-4.758743643760681152e-01 -3.411931172013282776e-02 -1.381549332290887833e-02
1.054024174809455872e-01 -1.161358207464218140e-01 3.117597103118896484e-01
-3.826749920845031738e-01 8.417023718357086182e-02 -5.798061843961477280e-03
1.499523669481277466e-01 -4.761143401265144348e-02 6.564833521842956543e-01
-3.086796961724758148e-02 7.389546930789947510e-02 -7.730628550052642822e-02
4.353625178337097168e-01 -9.086406230926513672e-02 -8.241773396730422974e-02
-2.609383687376976013e-02 9.895968437194824219e-02 -2.987630479037761688e-02
1.212816163897514343e-01 -1.043042689561843872e-01 9.009975939989089966e-02
-4.822571873664855957e-01 8.279508352279663086e-02 -6.939703132957220078e-03
-2.580842562019824982e-02 4.800098761916160583e-02 -8.952704071998596191e-02
5.548159033060073853e-02 -8.704993873834609985e-02 -2.355792224407196045e-01
5.184688568115234375e-01 3.147314116358757019e-02 -3.323851525783538818e-01
-7.104555964469909668e-01 2.506438456475734711e-02 3.771767369471490383e-04
1.917000859975814819e-01 -3.295011352747678757e-03 -2.885617315769195557e-01
-1.814088821411132812e-01 -1.061464697122573853e-01 -1.568363420665264130e-02
-8.110756874084472656e-01 3.055188357830047607e-01 -1.427949666976928711e-01
7.167212665081024170e-02 4.927235841751098633e-02 -8.898217231035232544e-02
4.390950500965118408e-02 -6.149274483323097229e-02 4.894145727157592773e-01
-5.319444537162780762e-01 4.955938085913658142e-03 3.275826200842857361e-02
1.845388859510421753e-01 -7.096318155527114868e-02 -4.585624039173126221e-01
-2.019065171480178833e-01 -4.566385410726070404e-03 -9.235519915819168091e-02
4.953987151384353638e-02 -3.105764091014862061e-02 6.615428924560546875e-01
4.704939424991607666e-01 -7.290753070265054703e-03 -2.903260886669158936e-01
1.642488241195678711e-01 -9.444464743137359619e-02 7.870930433273315430e-02
-3.575069904327392578e-01 -7.405079901218414307e-02 2.733911678660660982e-04
9.938286244869232178e-02 -2.410401031374931335e-02 8.193746805191040039e-01
4.349435865879058838e-02 -7.947359234094619751e-02 3.445299863815307617e-01
-1.802153438329696655e-01 2.322219312191009521e-02 8.776459097862243652e-02
-4.884881526231765747e-02 -5.656129680573940277e-03 -9.720716625452041626e-02
4.696636795997619629e-01 2.241785451769828796e-02 -5.507024377584457397e-02
-7.854925990104675293e-01 2.947251200675964355e-01 9.899936616420745850e-02
-3.471803069114685059e-01 4.587338492274284363e-02 5.722569674253463745e-02
5.147584676742553711e-01 -4.019076377153396606e-02 -3.818908631801605225e-01
-8.139816522598266602e-01 3.053112626075744629e-01 1.410325020551681519e-01
3.297348916530609131e-01 6.746238563209772110e-03 -3.348760306835174561e-01
1.535329520702362061e-01 -5.090662464499473572e-02 -1.667953580617904663e-01
-2.238052636384963989e-01 -5.228177830576896667e-02 8.021418750286102295e-02
-7.168644070625305176e-01 2.861368954181671143e-01 -1.500902790576219559e-02
-1.845743358135223389e-01 -1.032923609018325806e-01 2.790628746151924133e-02
1.981347948312759399e-01 -3.009600332006812096e-03 2.830370664596557617e-01
-2.985308468341827393e-01 -2.096449770033359528e-02 7.188540697097778320e-02
1.421425193548202515e-01 -5.700402334332466125e-02 5.862983465194702148e-01
-8.527753502130508423e-02 -9.519709646701812744e-02 7.844984531402587891e-02
-8.218991011381149292e-02 9.571637958288192749e-02 3.636480867862701416e-02
-7.463654279708862305e-01 2.251888364553451538e-01 1.337192719802260399e-03
6.287252064794301987e-03 -7.405079901218414307e-02 -3.692290186882019043e-01
-8.218991011381149292e-02 9.571637958288192749e-02 3.636480867862701416e-02
3.224698603153228760e-01 -9.831065684556961060e-02 -8.112040907144546509e-02
3.615153580904006958e-02 -4.467949643731117249e-02 5.059424638748168945e-01
-1.823208853602409363e-02 -1.147347316145896912e-01 -2.191076613962650299e-02
6.271840929985046387e-01 -1.624241620302200317e-01 -9.690020233392715454e-03
1.335023492574691772e-01 -4.237026348710060120e-02 3.559982776641845703e-01
5.438703298568725586e-01 -9.255056083202362061e-02 1.986291073262691498e-02
-2.140234857797622681e-01 -9.454844146966934204e-02 -5.120423063635826111e-02
1.868481189012527466e-01 -5.965055152773857117e-02 -5.444189906120300293e-01
3.558368980884552002e-01 -1.006458252668380737e-01 -2.720079421997070312e-01
5.162115097045898438e-01 -1.004106923937797546e-02 -2.982397377490997314e-01
6.290263533592224121e-01 -1.663144864141941071e-02 -3.400177881121635437e-02
-1.985594481229782104e-01 -1.043561771512031555e-01 7.252968382090330124e-03
5.151736736297607422e-01 -1.794709414243698120e-01 2.753050625324249268e-01
7.808089256286621094e-02 -2.013696730136871338e-01 3.151846230030059814e-01
5.034199357032775879e-01 -3.393768519163131714e-02 3.362271487712860107e-01
7.787330448627471924e-02 -5.197042226791381836e-02 2.402514815330505371e-01
1.162480190396308899e-01 -1.175888180732727051e-01 3.057661056518554688e-01
2.128982841968536377e-01 -6.694149225950241089e-02 1.188224032521247864e-01
-8.653555512428283691e-01 3.007965981960296631e-01 1.354021430015563965e-01
4.011133313179016113e-01 4.955938085913658142e-03 -3.315548598766326904e-01
-3.853733837604522705e-01 -7.098912447690963745e-02 -2.974292146973311901e-04
5.487482547760009766e-01 -6.938044726848602295e-02 5.966465920209884644e-02
1.691786348819732666e-01 -9.060458838939666748e-02 2.123591303825378418e-01
-1.969248056411743164e-01 9.361472725868225098e-02 -4.432843998074531555e-02
1.043126806616783142e-01 -1.102459952235221863e-01 3.038460612297058105e-01
4.255288839340209961e-01 -3.806316107511520386e-02 -3.511444032192230225e-01
7.800304144620895386e-02 -2.872246690094470978e-02 -6.080135703086853027e-01
5.820595845580101013e-02 -5.139959976077079773e-02 -3.583574891090393066e-01
5.195326209068298340e-01 -6.408576853573322296e-03 3.211522996425628662e-01
-2.271004468202590942e-01 -1.336220651865005493e-02 8.387262374162673950e-02
-1.353281140327453613e-01 1.018137857317924500e-01 -9.222985245287418365e-03
4.099870026111602783e-01 -5.098446458578109741e-02 -3.526233434677124023e-01
-3.683006465435028076e-01 -7.763139903545379639e-02 -2.425032667815685272e-03
3.340678513050079346e-01 -4.332865122705698013e-03 -3.471746146678924561e-01
3.658262789249420166e-01 -7.449188083410263062e-02 -3.566450178623199463e-01
1.377316117286682129e-01 -4.052807018160820007e-02 -3.885590732097625732e-01
3.009603023529052734e-01 1.006461977958679199e-01 2.004453539848327637e-02
-2.504262626171112061e-01 -9.109756350517272949e-02 9.769767522811889648e-03
-8.448578715324401855e-01 2.983316779136657715e-01 2.381498366594314575e-01
-7.182738045230507851e-04 -1.132817268371582031e-01 -3.213363885879516602e-02
1.433360427618026733e-01 -9.662415087223052979e-02 1.738546788692474365e-01
3.780729770660400391e-01 4.257819429039955139e-02 -8.656915277242660522e-02
-1.014940217137336731e-01 -1.071583777666091919e-01 6.957618147134780884e-02
-7.372062802314758301e-01 3.013155162334442139e-01 -1.575584560632705688e-01
1.827226430177688599e-01 -5.630186758935451508e-03 9.258846640586853027e-01
-4.101262688636779785e-01 6.678616255521774292e-02 3.003389202058315277e-02
6.502986699342727661e-02 -6.050678715109825134e-02 1.233889684081077576e-01
3.337046504020690918e-01 -8.365095406770706177e-02 -2.690759897232055664e-01
7.634247839450836182e-02 6.660454720258712769e-02 -8.150960505008697510e-02
3.148118779063224792e-02 -8.679047226905822754e-02 -8.553130179643630981e-02
1.523134857416152954e-01 -3.497554361820220947e-02 4.735353887081146240e-01
-7.712220549583435059e-01 3.015749752521514893e-01 -2.360721975564956665e-01
4.422085732221603394e-02 -4.436813294887542725e-02 6.196135282516479492e-01
2.047511190176010132e-01 3.580780234187841415e-03 2.941680848598480225e-01
1.044683530926704407e-01 -2.675054036080837250e-02 -9.855638444423675537e-02
-1.406211704015731812e-01 -1.440006028860807419e-02 -9.562443941831588745e-02
1.398851722478866577e-01 2.293678186833858490e-02 9.095598757266998291e-02
2.840951681137084961e-01 -1.112319678068161011e-01 4.212490841746330261e-02
1.575767807662487030e-02 -4.823414236307144165e-02 -5.360383391380310059e-01
-3.857404738664627075e-02 -5.420181527733802795e-02 -9.640283137559890747e-02
4.505113884806632996e-02 -5.331964045763015747e-02 3.027303814888000488e-01
-3.821560442447662354e-01 -2.677648887038230896e-02 5.478674173355102539e-02
-7.605321407318115234e-01 2.099582999944686890e-01 5.847477004863321781e-04
-2.984530031681060791e-01 8.865896612405776978e-02 1.075572986155748367e-02
1.088792383670806885e-01 -2.077265530824661255e-01 -3.283894360065460205e-01
2.805924117565155029e-01 -1.175888180732727051e-01 3.050915002822875977e-01
-7.414653897285461426e-02 9.973807632923126221e-02 2.300242148339748383e-02
5.257559195160865784e-02 -6.058462336659431458e-02 -5.077826976776123047e-01
6.417363137006759644e-02 -1.045621465891599655e-02 9.292791783809661865e-02
1.740565598011016846e-01 -3.121331892907619476e-02 -5.575738549232482910e-01
3.421891331672668457e-01 -5.212609842419624329e-02 9.168248623609542847e-02
8.308853954076766968e-02 -8.598612248897552490e-02 -2.688165307044982910e-01
-1.358768064528703690e-02 -7.301294058561325073e-02 2.318967431783676147e-01
4.507709294557571411e-02 -7.612650096416473389e-02 3.791943788528442383e-01
1.964482963085174561e-01 5.967846140265464783e-03 3.078936934471130371e-01
-2.366746813058853149e-01 -4.823414236307144165e-02 7.883903384208679199e-02
-7.191514968872070312e-02 -7.277941703796386719e-02 -9.020164608955383301e-02
-8.098302483558654785e-01 2.958927154541015625e-01 -1.922228187322616577e-01
1.030412986874580383e-01 -8.030387014150619507e-02 3.908183276653289795e-01
-2.795380949974060059e-01 8.289886265993118286e-02 -4.209705069661140442e-02
2.141696661710739136e-01 -1.105054691433906555e-01 4.726228863000869751e-02
4.092086255550384521e-01 -4.265567287802696228e-02 -3.671533167362213135e-01
7.514894753694534302e-02 2.324813790619373322e-02 9.090409427881240845e-02
-8.377485871315002441e-01 2.988765537738800049e-01 1.072978321462869644e-02
1.827447302639484406e-02 -8.899591118097305298e-02 1.577160209417343140e-01
6.008744835853576660e-01 -8.224985748529434204e-02 -3.714128956198692322e-02
1.166372075676918030e-01 -4.047458525747060776e-03 8.514444828033447266e-01
1.100727692246437073e-01 -3.933453187346458435e-02 -4.314744174480438232e-01
3.916131705045700073e-02 -4.195511713624000549e-02 -5.400081276893615723e-01
3.059939146041870117e-01 -2.099044620990753174e-02 -2.712035775184631348e-01
2.299710214138031006e-01 -1.009571999311447144e-01 7.652980834245681763e-02
-7.237401604652404785e-01 3.026128411293029785e-01 -8.617995679378509521e-02
4.868363589048385620e-02 5.892441421747207642e-02 8.052555471658706665e-02
2.678008377552032471e-01 1.018137857317924500e-01 -4.786153323948383331e-03
1.057397350668907166e-01 -2.262506447732448578e-02 -8.398445248603820801e-01
5.012145042419433594e-01 -3.777775168418884277e-02 -8.112040907144546509e-02
-1.428006589412689209e-01 -6.471009552478790283e-02 -8.973461389541625977e-02
1.751981824636459351e-01 -7.044424861669540405e-02 -4.684479832649230957e-01
3.281780779361724854e-01 -3.357443958520889282e-02 -3.566450178623199463e-01
-3.857404738664627075e-02 -5.420181527733802795e-02 -9.640283137559890747e-02
-6.376760005950927734e-01 3.619538247585296631e-02 -1.744798757135868073e-02
8.685076981782913208e-02 -9.255056083202362061e-02 -1.993061751127243042e-01
6.010004505515098572e-02 -2.374076098203659058e-02 7.320910692214965820e-01
-7.451978325843811035e-01 3.031058311462402344e-01 1.221435368061065674e-01
-4.101262688636779785e-01 6.678616255521774292e-02 3.003389202058315277e-02
-8.084031939506530762e-01 3.032096028327941895e-01 2.787818610668182373e-01
1.114219948649406433e-01 -2.181829363107681274e-01 3.150030076503753662e-01
3.425744920969009399e-02 -5.965055152773857117e-02 2.365411520004272461e-01
1.088792383670806885e-01 -2.077265530824661255e-01 -3.283894360065460205e-01
9.385629743337631226e-02 -4.934983700513839722e-02 -6.257089972496032715e-01
2.125609964132308960e-01 -8.058927953243255615e-02 -2.380181849002838135e-01
6.147519499063491821e-02 -4.309676215052604675e-02 -4.556564092636108398e-01
5.008252859115600586e-01 -5.882027000188827515e-02 -7.956362515687942505e-02
3.238709867000579834e-01 -1.305085327476263046e-02 3.482143878936767578e-01
3.859049454331398010e-02 -5.939109250903129578e-02 -2.224503457546234131e-01
1.422981917858123779e-01 -3.240685537457466125e-02 7.702063322067260742e-01
2.813967168331146240e-01 8.572702854871749878e-02 -6.306172907352447510e-02
2.706549465656280518e-01 -1.049269959330558777e-01 3.469430208206176758e-01
-7.029570937156677246e-01 2.445188909769058228e-01 3.231278620660305023e-03
1.660910099744796753e-01 -6.525497138500213623e-02 8.843919634819030762e-02
-2.041638642549514771e-01 -9.934852272272109985e-02 3.140905126929283142e-02
1.526767313480377197e-01 -1.476331055164337158e-02 7.126832008361816406e-01
3.911239504814147949e-01 -4.776711389422416687e-02 -9.474226087331771851e-02
6.624549161642789841e-03 -1.826607249677181244e-02 -9.720716625452041626e-02
-2.975610550493001938e-03 -6.133706495165824890e-02 4.048812687397003174e-01
1.008618026971817017e-01 -1.019690930843353271e-01 3.179349601268768311e-01
3.291640579700469971e-01 7.342843711376190186e-02 6.571016460657119751e-02
4.393064081668853760e-01 -1.712443307042121887e-02 2.579728662967681885e-01
1.633147448301315308e-01 -7.550216745585203171e-03 -3.357582092285156250e-01
-5.041300058364868164e-01 1.182897314429283142e-01 -6.347321905195713043e-04
-2.698860466480255127e-01 -7.869519293308258057e-02 -6.189413741230964661e-02
-2.840306609869003296e-02 -1.071324348449707031e-01 -7.499706000089645386e-02
1.170782968401908875e-01 -4.924605414271354675e-02 -1.929233670234680176e-01
4.810541570186614990e-01 -2.459699101746082306e-02 3.093985915184020996e-01
3.550325334072113037e-01 -9.312138706445693970e-02 -3.547250330448150635e-01
-3.471803069114685059e-01 4.587338492274284363e-02 5.722569674253463745e-02
-7.244926095008850098e-01 3.036766350269317627e-01 5.252940580248832703e-02
1.380170285701751709e-01 -3.980157151818275452e-02 3.933092057704925537e-01
4.262294471263885498e-01 2.763307467103004456e-02 7.435031235218048096e-02
-8.130995035171508789e-01 3.044550418853759766e-01 -3.667425736784934998e-02
-1.406211704015731812e-01 -1.440006028860807419e-02 -9.562443941831588745e-02
2.083317339420318604e-01 8.554540574550628662e-02 -6.326930224895477295e-02
4.637998044490814209e-01 -8.045955002307891846e-02 -3.414663970470428467e-01
2.870011627674102783e-01 -1.150201410055160522e-01 -2.847216725349426270e-01
4.454297721385955811e-01 -6.250465661287307739e-02 3.449710905551910400e-01
5.457384586334228516e-01 -4.916821792721748352e-02 7.045835256576538086e-02
-3.033049702644348145e-01 -8.082279562950134277e-02 -5.382920149713754654e-03
-1.587576866149902344e-01 -1.010869145393371582e-01 -6.765423715114593506e-02
2.992478311061859131e-01 -1.001512631773948669e-02 -2.773269414901733398e-01
1.206329613924026489e-01 -4.283729568123817444e-02 -6.958420872688293457e-01
1.868481189012527466e-01 -5.965055152773857117e-02 -5.444189906120300293e-01
3.075468726456165314e-02 -9.659820795059204102e-02 9.178628027439117432e-02
1.162220612168312073e-01 -4.073564335703849792e-02 -9.720716625452041626e-02
-8.148638606071472168e-01 3.045847713947296143e-01 -6.773208081722259521e-02
-8.506180047988891602e-01 3.033912181854248047e-01 -2.571665942668914795e-01
-1.003302261233329773e-02 -8.331365138292312622e-02 1.796666830778121948e-01
-2.077185064554214478e-01 -9.374409168958663940e-02 -6.695368140935897827e-02
3.798373341560363770e-01 -2.441536448895931244e-02 -2.715409100055694580e-01
2.024159431457519531e-01 -2.918950282037258148e-02 9.292791783809661865e-02
1.084640920162200928e-01 4.514849744737148285e-03 -9.710034132003784180e-01
1.335023492574691772e-01 -4.237026348710060120e-02 3.559982776641845703e-01
5.790478899143636227e-04 -5.978028476238250732e-02 4.148446917533874512e-01
-2.876333594322204590e-01 1.071327850222587585e-01 -1.724480185657739639e-03
2.633899450302124023e-01 -1.175888180732727051e-01 3.198809325695037842e-01
2.016634941101074219e-01 -9.044891595840454102e-02 1.672124117612838745e-01
1.854210644960403442e-01 -1.294203698635101318e-01 -2.896514534950256348e-01
-6.542557477951049805e-01 1.367116570472717285e-01 2.400994766503572464e-03
2.247779257595539093e-02 -4.813036322593688965e-02 -5.111297965049743652e-01
1.520799547433853149e-01 -1.346599310636520386e-02 9.118217229843139648e-01
5.760919302701950073e-02 -3.214738890528678894e-02 -6.177953481674194336e-01
6.295413523912429810e-02 -6.237491965293884277e-02 -1.006839871406555176e-01
-4.304681718349456787e-01 1.231157630681991577e-01 -2.425032667815685272e-03
5.947251915931701660e-01 -4.582113027572631836e-02 -5.667891725897789001e-02
7.434460520744323730e-02 -7.744976878166198730e-02 3.911556601524353027e-01
3.927586376667022705e-01 -6.123328581452369690e-02 -2.714889943599700928e-01
8.685076981782913208e-02 -9.255056083202362061e-02 -1.993061751127243042e-01
1.575287133455276489e-01 -1.670929230749607086e-02 -7.017578482627868652e-01
-2.153726965188980103e-01 6.097577977925539017e-03 -9.009785950183868408e-02
5.599311590194702148e-01 -8.847697824239730835e-02 1.986291073262691498e-02
3.687322735786437988e-01 -5.583643540740013123e-02 2.648745775222778320e-01
1.162220612168312073e-01 -4.073564335703849792e-02 -9.720716625452041626e-02
1.715657114982604980e-01 -5.181474611163139343e-02 9.290197491645812988e-02
2.279212474822998047e-01 -1.175888180732727051e-01 -3.141967356204986572e-01
1.876265108585357666e-01 -3.398797707632184029e-03 9.292791783809661865e-02
4.276046156883239746e-01 3.679214790463447571e-02 -4.770146682858467102e-02
-6.762323379516601562e-01 1.133339852094650269e-01 1.285300240851938725e-03
1.900135874748229980e-01 -3.227711841464042664e-02 -6.563257575035095215e-01
5.958409309387207031e-01 -9.104567766189575195e-02 6.085380911827087402e-03
-1.148602087050676346e-02 -8.536341786384582520e-02 1.488683223724365234e-01
5.162115097045898438e-01 -1.699469983577728271e-02 2.476980984210968018e-01
1.165074706077575684e-01 -5.160717293620109558e-02 1.428747028112411499e-01
-6.369494795799255371e-01 2.610223926603794098e-02 -1.941991224884986877e-02
7.335865497589111328e-02 -9.599980898201465607e-03 9.072551131248474121e-01
2.004180848598480225e-01 -8.544126898050308228e-02 -2.350083887577056885e-01
2.277655601501464844e-01 1.018137857317924500e-01 1.591905951499938965e-02
5.638591013848781586e-03 -7.272753119468688965e-02 1.595582365989685059e-01
-1.820613630115985870e-02 -6.548848748207092285e-02 4.010931253433227539e-01
3.133108019828796387e-01 9.846669435501098633e-02 -2.645138278603553772e-02
4.534471929073333740e-01 -5.845702067017555237e-02 -2.773788571357727051e-01
-8.221288323402404785e-01 2.985911667346954346e-01 3.077380061149597168e-01
4.204136133193969727e-02 -5.425370112061500549e-02 -2.980580925941467285e-01
1.274049580097198486e-01 -7.347997277975082397e-02 4.614444077014923096e-01
6.451909542083740234e-01 -2.189872860908508301e-01 6.915665231645107269e-03
7.546030730009078979e-02 -3.515717014670372009e-02 5.285417437553405762e-01
4.810541570186614990e-01 -2.742514386773109436e-02 -3.370295763015747070e-01
2.083317339420318604e-01 8.554540574550628662e-02 -6.326930224895477295e-02
8.871889114379882812e-02 -5.575859546661376953e-02 1.433157920837402344e-01
1.835529208183288574e-01 -1.322744637727737427e-01 3.315049111843109131e-01
-6.315007805824279785e-01 5.799034237861633301e-02 1.570710213854908943e-03
-8.118541240692138672e-01 1.987754106521606445e-01 -2.399086253717541695e-03
2.949926555156707764e-01 -3.539068624377250671e-02 2.647967636585235596e-01
2.722598053514957428e-02 5.033615976572036743e-02 8.423587679862976074e-02
4.119848608970642090e-01 -1.105573549866676331e-01 -3.018766082823276520e-02
9.512765705585479736e-02 -3.297767043113708496e-02 5.265438556671142578e-01
6.269469112157821655e-02 -1.149406749755144119e-02 8.562445640563964844e-01
2.151777781546115875e-02 7.418088614940643311e-02 -7.696899026632308960e-02
1.104619726538658142e-01 -2.594620175659656525e-02 -5.950922966003417969e-01
4.069772362709045410e-01 -6.434524431824684143e-03 9.002191573381423950e-02
1.631850153207778931e-01 9.895968437194824219e-02 2.557111531496047974e-02
4.092086255550384521e-01 -4.265567287802696228e-02 -3.671533167362213135e-01
2.289331406354904175e-01 -1.215326711535453796e-01 -3.383787870407104492e-01
5.251370668411254883e-01 2.537574060261249542e-02 -1.129869557917118073e-02
1.207107901573181152e-01 -3.995724767446517944e-02 -4.084080755710601807e-01
4.937937855720520020e-01 -6.486577540636062622e-02 7.352002710103988647e-02
-4.338671863079071045e-01 5.588868260383605957e-02 -4.204516112804412842e-02
-1.802153438329696655e-01 2.322219312191009521e-02 8.776459097862243652e-02
6.189591288566589355e-01 -1.831293851137161255e-01 8.368662558495998383e-03
7.213915884494781494e-02 -8.933321386575698853e-02 2.194684296846389771e-01
9.974611550569534302e-02 -4.203135613352060318e-03 -8.793348670005798340e-01
1.322828829288482666e-01 -5.176284909248352051e-02 6.255552172660827637e-01
-1.919210329651832581e-02 -7.049613445997238159e-02 2.869549691677093506e-01
1.139868050813674927e-02 -1.136190295219421387e-01 2.554516680538654327e-02
-1.624680310487747192e-01 9.148711711168289185e-02 -5.257939174771308899e-02
-6.021035313606262207e-01 1.246984824538230896e-01 -7.977557368576526642e-03
-1.522970348596572876e-01 1.018137857317924500e-01 7.123235613107681274e-03
2.004959136247634888e-01 -1.136449724435806274e-01 -2.953900210559368134e-02
-2.127261608839035034e-01 8.725786209106445312e-02 4.951962456107139587e-02
3.352873623371124268e-01 -3.139334265142679214e-03 -9.627309441566467285e-02
1.044683530926704407e-01 -2.675054036080837250e-02 -9.855638444423675537e-02
4.394620656967163086e-01 -9.665009379386901855e-02 3.308562636375427246e-01
8.062362670898437500e-02 -7.804653048515319824e-02 -3.954867720603942871e-01
5.299630761146545410e-01 -8.782833069562911987e-02 5.655109509825706482e-02
1.064921766519546509e-01 -2.143153361976146698e-02 -6.561440825462341309e-01
1.950471699237823486e-01 -7.495891302824020386e-02 8.519589155912399292e-02
-6.222379207611083984e-01 2.113594114780426025e-01 3.828045679256320000e-03
1.147171780467033386e-01 6.228918791748583317e-04 -9.159452319145202637e-01
1.047797054052352905e-01 -2.148342505097389221e-02 6.537590026855468750e-01
2.496124207973480225e-01 -8.967050909996032715e-02 8.029203116893768311e-02
1.412084251642227173e-01 -8.767265081405639648e-02 -3.563596308231353760e-01
1.067218184471130371e-02 -4.608059674501419067e-02 5.660601854324340820e-01
1.964482963085174561e-01 5.967846140265464783e-03 3.078936934471130371e-01
2.115750163793563843e-01 -3.829667717218399048e-02 -3.566450178623199463e-01
5.203072354197502136e-02 -3.681773692369461060e-02 5.640622973442077637e-01
5.760919302701950073e-02 -3.214738890528678894e-02 -6.177953481674194336e-01
-1.985594481229782104e-01 -1.043561771512031555e-01 7.252968382090330124e-03
5.065556243062019348e-02 -2.249533496797084808e-02 7.590753436088562012e-01
1.414419561624526978e-01 -1.117768287658691406e-01 -2.911044657230377197e-01
4.853353202342987061e-01 -2.226181514561176300e-02 -3.448394536972045898e-01
4.892531931400299072e-01 -4.576923325657844543e-02 8.049960434436798096e-02
4.337539076805114746e-01 -2.200235240161418915e-02 3.653130233287811279e-01
4.282792210578918457e-01 -4.265567287802696228e-02 -2.636791467666625977e-01
3.466259539127349854e-01 -2.078287303447723389e-02 2.669762670993804932e-01
5.099285766482353210e-02 -3.256253153085708618e-02 6.332094669342041016e-01
-7.696134448051452637e-01 3.067642748355865479e-01 7.629629224538803101e-02
5.251370668411254883e-01 2.537574060261249542e-02 -1.129869557917118073e-02
4.074182808399200439e-01 -4.595086351037025452e-02 8.999597281217575073e-02
8.402259647846221924e-02 -1.792633682489395142e-01 3.280021548271179199e-01
3.835697844624519348e-02 -3.775180876255035400e-02 -6.074946522712707520e-01
1.892092376947402954e-01 -1.122179105877876282e-01 3.532695397734642029e-02
3.900181036442518234e-03 -1.095194965600967407e-01 -5.833948403596878052e-02
-6.916964054107666016e-01 1.132301911711692810e-01 -5.123456474393606186e-03
2.431998401880264282e-02 -5.448722839355468750e-02 4.027017652988433838e-01
1.147171780467033386e-01 6.228918791748583317e-04 -9.159452319145202637e-01
6.728719174861907959e-02 8.108261972665786743e-02 6.436095386743545532e-02
1.314007043838500977e-01 -3.105764091014862061e-02 5.022320747375488281e-01
-2.352735698223114014e-01 -6.484820623882114887e-04 8.249747753143310547e-02
-4.995115399360656738e-01 5.876873433589935303e-02 1.856559142470359802e-02
5.361123681068420410e-01 -2.062719687819480896e-02 -3.000559806823730469e-01
5.195326209068298340e-01 1.145534589886665344e-01 3.534815013408660889e-01
2.372100651264190674e-01 -6.712310761213302612e-02 -2.690759897232055664e-01
6.664929389953613281e-01 -6.548848748207092285e-02 -1.109112426638603210e-02
2.282844930887222290e-01 -7.399889826774597168e-02 -1.197805255651473999e-01
4.276046156883239746e-01 3.679214790463447571e-02 -4.770146682858467102e-02
3.946786522865295410e-01 -9.169433265924453735e-02 7.819037139415740967e-02
1.266525238752365112e-01 9.223956614732742310e-02 4.796284064650535583e-02
2.016634941101074219e-01 -9.044891595840454102e-02 1.672124117612838745e-01
-2.298027276992797852e-02 -7.936980575323104858e-02 -2.204784303903579712e-01
3.386863172054290771e-01 -5.534345284104347229e-02 3.523657917976379395e-01
2.082279324531555176e-01 -6.554038822650909424e-02 -9.261465817689895630e-02
1.575767807662487030e-02 -4.823414236307144165e-02 -5.360383391380310059e-01
3.665267825126647949e-01 -1.175888180732727051e-01 2.996946275234222412e-01
-2.333535403013229370e-01 -9.480790793895721436e-02 -1.755177229642868042e-02
9.302600473165512085e-02 -8.095253258943557739e-02 3.783900141716003418e-01
8.503451198339462280e-02 -9.153865277767181396e-02 -2.090620100498199463e-01
1.163517907261848450e-01 -3.375606238842010498e-02 4.863269925117492676e-01
5.418426916003227234e-02 -8.292444795370101929e-02 -3.080474436283111572e-01
-2.801089286804199219e-01 -8.199039101600646973e-02 -2.569893747568130493e-02
-2.292021065950393677e-01 3.915327042341232300e-02 -8.252151310443878174e-02
-6.295028924942016602e-01 2.304056659340858459e-02 1.638609357178211212e-02
1.160404384136199951e-01 -2.965653315186500549e-02 -3.372890353202819824e-01
1.108511760830879211e-01 -2.348129823803901672e-02 6.204438209533691406e-01
-7.168644070625305176e-01 2.861368954181671143e-01 -1.500902790576219559e-02
-2.388839609920978546e-02 -7.013288885354995728e-02 -3.409993946552276611e-01
-8.615413904190063477e-01 3.028723001480102539e-01 -2.822048664093017578e-01
3.015792183578014374e-02 -6.413926929235458374e-02 1.797445267438888550e-01
1.995099484920501709e-01 -1.246202886104583740e-01 -2.873162925243377686e-01
1.256925016641616821e-01 -2.771055512130260468e-02 -5.511651039123535156e-01
2.188400179147720337e-01 -8.258715271949768066e-02 1.705594956874847412e-01
5.187503620982170105e-02 -5.754889175295829773e-02 -5.303041338920593262e-01
1.969412565231323242e-01 -1.066135019063949585e-01 2.723211944103240967e-01
4.159806370735168457e-01 -5.632941797375679016e-02 2.694671154022216797e-01
4.032149910926818848e-01 -1.137747019529342651e-01 4.710222594439983368e-03
1.353704929351806641e-01 -3.850425034761428833e-02 4.060748219490051270e-01
3.698479533195495605e-01 7.467386871576309204e-02 5.237372592091560364e-02
-8.289787173271179199e-01 2.981241047382354736e-01 1.147747710347175598e-01
4.095161333680152893e-02 -4.532814770936965942e-02 4.774014055728912354e-01
8.275124430656433105e-02 -1.190920826047658920e-02 -8.285059332847595215e-01
2.644758671522140503e-02 -6.460631638765335083e-02 4.522334039211273193e-01
3.711155056953430176e-02 -4.444596916437149048e-02 -6.178732514381408691e-01
5.760919302701950073e-02 -9.942635893821716309e-02 9.098194539546966553e-02
1.236686706542968750e-01 -6.460631638765335083e-02 -5.310825705528259277e-01
1.412305887788534164e-02 -9.205759316682815552e-02 -1.194951161742210388e-01
-4.170020222663879395e-01 4.060626775026321411e-02 -5.208640545606613159e-02
-2.238052636384963989e-01 -5.228177830576896667e-02 8.021418750286102295e-02
-6.148172616958618164e-01 1.877741366624832153e-01 -9.248930029571056366e-03
-7.742837667465209961e-01 1.752679944038391113e-01 -3.540727077051997185e-03
-2.465602606534957886e-01 -3.707719966769218445e-02 -8.488263934850692749e-02
-5.804902315139770508e-01 -1.445195637643337250e-02 1.181514468044042587e-03
4.697116836905479431e-02 -7.324645668268203735e-02 -4.070588350296020508e-01
-1.742774993181228638e-02 -7.327239960432052612e-02 3.385363817214965820e-01
-3.785494565963745117e-01 -5.643320083618164062e-02 -2.974657155573368073e-02
1.742381751537322998e-01 -1.782498508691787720e-02 -8.678925037384033203e-01
5.790478899143636227e-04 -5.978028476238250732e-02 4.148446917533874512e-01
1.946060955524444580e-01 -4.395299404859542847e-02 4.369510114192962646e-01
-1.624680310487747192e-01 9.148711711168289185e-02 -5.257939174771308899e-02
3.352873623371124268e-01 -3.139334265142679214e-03 -9.627309441566467285e-02
-6.381171345710754395e-01 1.381127685308456421e-01 2.893975703045725822e-03
4.299657046794891357e-01 -1.015020608901977539e-01 2.986567914485931396e-01
1.273011714220046997e-01 -1.295504625886678696e-04 9.018323421478271484e-01
5.010588169097900391e-01 1.024899911135435104e-02 5.613595247268676758e-02
-2.667984366416931152e-01 -3.878965973854064941e-02 7.564762979745864868e-02
3.366106450557708740e-01 -1.175888180732727051e-01 -2.916493415832519531e-01
4.547964036464691162e-01 -8.743751794099807739e-03 2.828294932842254639e-01
3.968024253845214844e-02 -5.383856594562530518e-02 3.241102099418640137e-01
-3.952848911285400391e-01 2.306651324033737183e-02 -5.942923575639724731e-02
3.448356091976165771e-01 7.309113442897796631e-02 -6.568231433629989624e-02
3.772945404052734375e-01 -4.286324605345726013e-02 -2.699841260910034180e-01
-4.973320066928863525e-01 -5.640725791454315186e-02 -1.880158437415957451e-03
2.064376473426818848e-01 -7.467350363731384277e-02 -3.896488249301910400e-01
-4.839177727699279785e-01 -4.335622116923332214e-02 -7.432684302330017090e-03
3.594693839550018311e-01 9.382229298353195190e-02 9.458410553634166718e-03
-2.070179581642150879e-01 -7.477729767560958862e-02 -8.008255064487457275e-02
1.789344698190689087e-01 -6.509929895401000977e-02 5.030105113983154297e-01
1.868961751461029053e-02 -8.572665601968765259e-02 1.959091126918792725e-01
3.704187572002410889e-01 8.214642107486724854e-02 3.527506068348884583e-02
-4.101262688636779785e-01 6.678616255521774292e-02 3.003389202058315277e-02
1.594227999448776245e-01 -4.807846620678901672e-02 -2.387706190347671509e-01
9.193624556064605713e-02 5.640761554241180420e-02 8.161529898643493652e-02
5.211932063102722168e-01 -7.469945400953292847e-02 -4.402183592319488525e-01
1.199583485722541809e-01 -1.995793879032135010e-01 -3.347981572151184082e-01
2.010407894849777222e-01 -1.436389833688735962e-01 -2.873162925243377686e-01
2.810594141483306885e-01 8.964493125677108765e-02 5.406024307012557983e-02
-4.827761352062225342e-01 6.512559950351715088e-02 -4.085600841790437698e-03
-1.379525288939476013e-02 -7.462161779403686523e-02 -2.995370626449584961e-01
3.248310089111328125e-01 6.105201691389083862e-02 7.803469896316528320e-02
-8.489314913749694824e-01 3.005890250205993652e-01 -2.956494688987731934e-02
4.126075804233551025e-01 -1.128406450152397156e-01 9.510303847491741180e-03
-4.550913274288177490e-01 8.871085941791534424e-02 1.804227824322879314e-03
-8.300165534019470215e-01 3.037285506725311279e-01 -3.232001662254333496e-01
4.507709294557571411e-02 -7.612650096416473389e-02 3.791943788528442383e-01
-3.132943212985992432e-01 8.676487952470779419e-02 1.202710252255201340e-02
2.984175682067871094e-01 -1.333625894039869308e-02 -3.525714576244354248e-01
4.768767356872558594e-01 -7.918817549943923950e-02 -2.883801162242889404e-01
9.891583025455474854e-02 3.893763059750199318e-04 -9.878166913986206055e-01
-6.782561540603637695e-01 2.295218855142593384e-01 -8.003504015505313873e-03
-8.400616049766540527e-02 -1.152795851230621338e-01 -1.814853958785533905e-02
1.591373980045318604e-01 -9.439276158809661865e-02 1.815088838338851929e-01
-2.658681757748126984e-02 -7.794275134801864624e-02 2.306772768497467041e-01
4.448070824146270752e-01 -3.614313155412673950e-02 8.716781437397003174e-02
-7.645279169082641602e-01 1.113879904150962830e-01 -1.594748347997665405e-03
8.033821731805801392e-02 -3.764801844954490662e-02 -4.950171113014221191e-01
2.282844930887222290e-01 -7.399889826774597168e-02 -1.197805255651473999e-01
-1.961983144283294678e-01 5.864062346518039703e-03 8.903595805168151855e-02
1.327239573001861572e-01 -4.000914469361305237e-02 -7.176889181137084961e-01
3.594693839550018311e-01 9.382229298353195190e-02 9.458410553634166718e-03
1.228384003043174744e-01 -1.299895718693733215e-02 -9.196036458015441895e-01
5.869893357157707214e-02 -1.523034647107124329e-02 -8.563463687896728516e-01
6.124984622001647949e-01 -1.910170912742614746e-01 -1.093544624745845795e-02
-7.617516517639160156e-01 7.939610630273818970e-02 -2.139622345566749573e-03
-6.664246320724487305e-01 3.095664680004119873e-01 -9.793804958462715149e-03
2.181653976440429688e-01 2.514222264289855957e-02 9.046300500631332397e-02
2.839913666248321533e-01 -3.528689965605735779e-02 -3.566450178623199463e-01
5.191693902015686035e-01 -2.150937169790267944e-02 3.332433402538299561e-01
1.228384003043174744e-01 -1.299895718693733215e-02 -9.196036458015441895e-01
3.550325334072113037e-01 -9.312138706445693970e-02 -3.547250330448150635e-01
8.560533076524734497e-02 -3.995724767446517944e-02 2.943497002124786377e-01
2.951742708683013916e-01 -7.290753070265054703e-03 9.292791783809661865e-02
3.083252534270286560e-02 -4.646979272365570068e-02 -5.040205121040344238e-01
-5.780252814292907715e-01 -3.170629590749740601e-02 1.051782863214612007e-03
-6.782561540603637695e-01 2.295218855142593384e-01 -8.003504015505313873e-03
1.316342204809188843e-01 4.514849744737148285e-03 -9.753883481025695801e-01
8.441179990768432617e-02 -4.512058198451995850e-02 -3.975624740123748779e-01
-7.168644070625305176e-01 2.861368954181671143e-01 -1.500902790576219559e-02
5.080124735832214355e-01 -1.951149851083755493e-02 3.352671563625335693e-01
5.589672550559043884e-02 -9.262679144740104675e-03 8.860310316085815430e-01
2.095252573490142822e-01 9.366661310195922852e-02 -4.749390110373497009e-02
4.040712416172027588e-01 -9.172027558088302612e-02 -3.490686714649200439e-01
9.642497450113296509e-02 -1.808444783091545105e-02 7.075458168983459473e-01
-9.306144714355468750e-02 9.607964009046554565e-02 3.517127409577369690e-02
-8.259429335594177246e-01 2.971122264862060547e-01 2.012021690607070923e-01
-1.823208853602409363e-02 -1.147347316145896912e-01 -2.191076613962650299e-02
3.281780779361724854e-01 -3.357443958520889282e-02 -3.566450178623199463e-01
2.176205217838287354e-01 -1.175888180732727051e-01 3.222939372062683105e-01
1.088792383670806885e-01 -2.077265530824661255e-01 -3.283894360065460205e-01
4.005165398120880127e-01 -3.352254629135131836e-02 -3.757415711879730225e-01
5.791054964065551758e-01 -7.013288885354995728e-02 -5.239776521921157837e-02
-7.781497836112976074e-01 2.943359613418579102e-01 -7.741007208824157715e-02
-8.553662300109863281e-01 2.988505959510803223e-01 -2.698803246021270752e-01
7.514894753694534302e-02 2.324813790619373322e-02 9.090409427881240845e-02
-5.829329788684844971e-02 2.311840653419494629e-02 9.093004465103149414e-02
8.466740138828754425e-03 3.009960288181900978e-03 9.292791783809661865e-02
-8.113352060317993164e-01 3.070496618747711182e-01 1.072978321462869644e-02
1.325942277908325195e-01 -1.033183187246322632e-01 -1.140982657670974731e-01
-7.388707250356674194e-02 1.525665167719125748e-02 -9.692175686359405518e-02
