3.248086944222450256e-02 -6.461572647094726562e-02 7.413447648286819458e-02
-3.125663101673126221e-01 4.971836134791374207e-02 -1.595096737146377563e-01
-2.300194799900054932e-01 -4.218969866633415222e-02 -6.382986158132553101e-02
-1.276141107082366943e-01 5.619395896792411804e-02 -2.249963022768497467e-02
-3.119983077049255371e-01 -8.607471361756324768e-03 9.890080988407135010e-02
-6.456223875284194946e-02 -7.252277433872222900e-02 -5.953551456332206726e-02
1.167318224906921387e-01 -6.779672205448150635e-02 -3.254440724849700928e-01
6.328530143946409225e-03 -6.809209287166595459e-02 7.954217493534088135e-02
2.359964549541473389e-01 -7.786229252815246582e-02 1.332555711269378662e-01
-2.955934703350067139e-01 -1.317447051405906677e-02 1.323921531438827515e-01
6.036059856414794922e-01 -1.917292363941669464e-02 -7.569043338298797607e-02
-3.676202595233917236e-01 6.661307066679000854e-03 -1.142713725566864014e-01
-3.149747848510742188e-01 -1.308358833193778992e-02 1.607939004898071289e-01
4.334170371294021606e-02 -7.627180218696594238e-02 4.396046325564384460e-02
-3.143385946750640869e-01 -4.563063383102416992e-03 5.334082525223493576e-03
-3.710966110229492188e-01 -2.005906030535697937e-02 4.995891079306602478e-02
3.547612130641937256e-01 -1.859218231402337551e-03 -7.348645478487014771e-02
4.231980741024017334e-01 5.580769479274749756e-02 -2.338576689362525940e-02
-6.033605709671974182e-02 5.678471922874450684e-02 2.744200639426708221e-02
1.354315429925918579e-01 -8.108874410390853882e-02 1.444572210311889648e-01
-6.456223875284194946e-02 -7.252277433872222900e-02 -5.953551456332206726e-02
-5.605477094650268555e-01 2.516661584377288818e-01 -7.150968909263610840e-02
1.972337365150451660e-01 -4.602961614727973938e-02 -8.702841401100158691e-02
2.286801487207412720e-01 2.574728429317474365e-02 6.777248531579971313e-02
-3.403772711753845215e-01 7.750663906335830688e-02 -6.753702182322740555e-03
-4.199931025505065918e-01 3.876664489507675171e-02 -2.888434566557407379e-02
-2.413347214460372925e-01 -3.290663706138730049e-03 -1.563968509435653687e-01
5.676607489585876465e-01 -7.147759199142456055e-02 -5.687711015343666077e-02
-5.134689211845397949e-01 9.818310290575027466e-02 -4.640611819922924042e-03
-3.468074202537536621e-01 -1.649179682135581970e-02 4.697883967310190201e-03
8.814830332994461060e-02 -5.175540596246719360e-02 -4.158560931682586670e-02
2.461926266551017761e-02 -4.707479849457740784e-02 -3.428486883640289307e-01
3.909564018249511719e-01 -1.826406829059123993e-02 8.192791789770126343e-02
-6.601639837026596069e-02 -1.247010752558708191e-02 -6.781256794929504395e-01
3.441218659281730652e-02 -7.390878349542617798e-02 1.535003334283828735e-01
5.197640061378479004e-01 -3.480524569749832153e-02 -7.382728159427642822e-02
-6.118753552436828613e-01 2.545290589332580566e-01 8.060650900006294250e-03
-4.807274043560028076e-01 2.388967275619506836e-01 4.489819984883069992e-04
7.882627844810485840e-01 1.738580875098705292e-02 -6.446605920791625977e-02
-4.515531361103057861e-01 7.320233620703220367e-03 -5.394605174660682678e-02
-5.351906418800354004e-01 3.038245253264904022e-02 7.606223225593566895e-03
-4.051787555217742920e-01 -1.494674291461706161e-02 4.502836614847183228e-02
3.444911241531372070e-01 -8.440605551004409790e-02 5.266276001930236816e-02
3.068587929010391235e-02 -4.737018048763275146e-02 -3.302837312221527100e-01
3.130219876766204834e-01 -1.002201586961746216e-01 1.914869435131549835e-02
6.192202679812908173e-03 -7.206834107637405396e-02 5.629818141460418701e-02
-6.290981173515319824e-01 2.503256201744079590e-01 3.507639467716217041e-02
-4.529391229152679443e-01 1.314699649810791016e-01 1.155974622815847397e-02
-3.403772711753845215e-01 7.750663906335830688e-02 -6.753702182322740555e-03
-4.409024864435195923e-02 -4.537069797515869141e-02 -4.896743297576904297e-01
3.434232473373413086e-01 5.946584045886993408e-02 -9.457549080252647400e-03
5.809300541877746582e-01 -9.485790878534317017e-02 3.160002082586288452e-02
-2.658738493919372559e-01 6.162437796592712402e-02 1.429121643304824829e-01
-2.254070341587066650e-01 -9.026817977428436279e-02 -1.300208736211061478e-02
1.996422111988067627e-01 -6.232085824012756348e-02 2.060094922780990601e-01
-2.554219961166381836e-01 5.210411176085472107e-02 3.380399942398071289e-02
2.716690599918365479e-01 -1.072183400392532349e-01 3.362222760915756226e-02
-1.003711596131324768e-01 -2.789793908596038818e-02 8.106450736522674561e-02
1.588573008775711060e-01 5.376277118921279907e-02 3.457652404904365540e-02
5.965001881122589111e-03 -6.472933292388916016e-02 -3.418034911155700684e-01
-3.174513876438140869e-01 -1.433326117694377899e-02 6.307529984042048454e-04
9.916818141937255859e-02 -7.774868607521057129e-02 -1.965228319168090820e-01
-1.197752282023429871e-01 -7.347706705331802368e-02 -5.540022253990173340e-02
-2.662373781204223633e-01 -1.619641482830047607e-02 1.204861402511596680e-01
1.371299196034669876e-02 -6.363869458436965942e-02 3.840998113155364990e-01
-7.512768357992172241e-02 -3.825890272855758667e-02 6.269461512565612793e-01
-3.436718881130218506e-01 1.622701436281204224e-02 -4.928816482424736023e-02
-2.646923065185546875e-01 5.133158341050148010e-02 1.058762818574905396e-01
5.409176349639892578e-01 -9.310835599899291992e-02 3.568987175822257996e-02
1.040078327059745789e-01 3.574470058083534241e-02 -5.394605174660682678e-02
-6.377550363540649414e-01 2.449179142713546753e-01 9.733302891254425049e-02
-2.114333510398864746e-01 6.276044994592666626e-02 1.591807007789611816e-01
-2.888678610324859619e-01 4.730989411473274231e-02 1.265037339180707932e-02
1.804880648851394653e-01 -7.468131184577941895e-02 -2.134048193693161011e-01
-2.202265560626983643e-01 -9.217678010463714600e-02 1.180968247354030609e-02
1.102789416909217834e-01 -4.677942767739295959e-02 3.322268724441528320e-01
1.329822000116109848e-03 -5.161907896399497986e-02 3.403838574886322021e-01
5.006099343299865723e-01 1.480826525948941708e-03 -7.296386361122131348e-02
-3.076812028884887695e-01 7.592888548970222473e-03 8.935782313346862793e-02
7.268922924995422363e-01 -9.415353834629058838e-02 -2.693030424416065216e-02
-3.622125983238220215e-01 6.320488639175891876e-03 1.142377480864524841e-01
4.025158658623695374e-02 -5.768569558858871460e-02 -4.724515080451965332e-01
-3.781914338469505310e-02 -5.245977267622947693e-02 5.372420549392700195e-01
6.889248490333557129e-01 -5.982151255011558533e-02 -6.537491083145141602e-02
1.321142166852951050e-01 2.002149075269699097e-02 -6.546580046415328979e-02
-2.352681010961532593e-01 -9.561771526932716370e-03 -1.433320343494415283e-01
-2.129556834697723389e-01 -6.221726536750793457e-03 7.604307681322097778e-02
-2.812335193157196045e-01 4.387896135449409485e-02 9.076654911041259766e-02
-2.214138209819793701e-02 -6.268440186977386475e-02 -3.156057000160217285e-01
1.278141885995864868e-02 -6.870557367801666260e-02 2.658576667308807373e-01
-3.529706224799156189e-02 -3.425993025302886963e-02 -6.195725798606872559e-01
-3.375825285911560059e-01 4.283377528190612793e-02 -3.315597027540206909e-02
-3.290393352508544922e-01 3.579014539718627930e-02 1.233227457851171494e-02
-2.381537407636642456e-01 -1.708255149424076080e-02 -9.916163980960845947e-02
6.623920053243637085e-03 -3.807712718844413757e-02 -5.144861340522766113e-01
4.180630445480346680e-01 3.606279939413070679e-02 6.004721298813819885e-02
5.458027124404907227e-01 5.685288086533546448e-02 -2.093185298144817352e-02
3.752502426505088806e-02 -6.522920727729797363e-02 -3.695463240146636963e-01
7.126629352569580078e-02 -5.320958048105239868e-02 1.101024597883224487e-01
1.143915131688117981e-01 -7.938463240861892700e-02 -1.639857888221740723e-01
7.038527727127075195e-01 -3.323746472597122192e-02 -7.403177022933959961e-02
-6.438670754432678223e-01 2.537338137626647949e-01 -1.981850713491439819e-02
-3.928410112857818604e-01 9.047051891684532166e-03 1.212586686015129089e-01
-5.033806562423706055e-01 3.708526492118835449e-02 1.133253239095211029e-02
-3.669158816337585449e-01 -5.358308553695678711e-03 4.477843269705772400e-02
-2.848235070705413818e-01 3.035972826182842255e-02 5.509394407272338867e-02
-2.063210308551788330e-01 2.879195287823677063e-02 -5.667262151837348938e-02
6.622215360403060913e-02 -6.945538520812988281e-02 -3.187185227870941162e-01
1.882530935108661652e-02 -5.159636214375495911e-02 -2.955654263496398926e-01
-1.658996939659118652e-01 -3.313381923362612724e-03 7.842881977558135986e-02
1.913943290710449219e-01 -7.543110102415084839e-02 -1.965001076459884644e-01
-4.201067388057708740e-01 2.616898855194449425e-03 5.543476715683937073e-02
-2.202265560626983643e-01 -9.217678010463714600e-02 1.180968247354030609e-02
1.385898143053054810e-01 -6.502470374107360840e-02 -3.228765726089477539e-01
4.216018691658973694e-02 -5.418659746646881104e-02 -2.210619449615478516e-01
9.193879961967468262e-01 -2.732990309596061707e-02 -4.692513495683670044e-02
7.169229444116353989e-03 -7.159118354320526123e-02 1.013774350285530090e-01
-4.199931025505065918e-01 1.409120578318834305e-02 4.561912640929222107e-02
4.082701206207275391e-01 -6.426217500120401382e-03 -7.405448704957962036e-02
8.569268584251403809e-01 -1.431054342538118362e-02 -6.269378960132598877e-02
4.565928503870964050e-02 -6.177555024623870850e-02 4.295199215412139893e-01
9.448756277561187744e-02 -5.073294416069984436e-02 1.230536550283432007e-01
-2.261341214179992676e-01 6.830446422100067139e-02 -1.422186791896820068e-01
1.169817596673965454e-01 -1.096949875354766846e-01 2.407923899590969086e-02
-3.654674440622329712e-02 2.358875237405300140e-02 6.938570737838745117e-02
5.690239667892456055e-01 -1.001747101545333862e-01 9.764755144715309143e-03
-2.089340239763259888e-01 5.376277118921279907e-02 -2.706663124263286591e-02
-3.595598042011260986e-02 -1.013335138559341431e-01 -7.049080450087785721e-03
-3.847294747829437256e-01 2.604266256093978882e-02 1.203689631074666977e-02
6.030379533767700195e-01 -6.616077572107315063e-02 6.713628768920898438e-02
-1.976869255304336548e-01 -5.608244799077510834e-03 1.658380627632141113e-01
-2.941221743822097778e-02 3.426780924201011658e-02 -5.505939945578575134e-02
2.836659550666809082e-01 -1.007200330495834351e-01 6.111511588096618652e-02
-1.196843534708023071e-01 -3.762270137667655945e-02 -7.346373796463012695e-02
-1.268188655376434326e-01 3.138219192624092102e-02 -7.010515332221984863e-01
3.961538523435592651e-02 -7.268182188272476196e-02 2.388873696327209473e-01
-2.841248922049999237e-02 -4.855168983340263367e-02 -4.270996153354644775e-01
-5.106571316719055176e-02 -2.973837591707706451e-02 -6.740357875823974609e-01
1.488884678110480309e-03 -6.116206943988800049e-02 -4.111719131469726562e-01
-4.413284957408905029e-01 1.327878087759017944e-01 -5.890288855880498886e-03
8.427941799163818359e-01 -8.576934784650802612e-02 4.302888363599777222e-02
-1.116693951189517975e-02 -1.041282340884208679e-01 5.338983982801437378e-02
8.427941799163818359e-01 -8.576934784650802612e-02 4.302888363599777222e-02
-4.427144825458526611e-01 9.591096639633178711e-02 1.203689631074666977e-02
-2.392216473817825317e-01 4.780976474285125732e-02 -1.246323212981224060e-01
-2.170909792184829712e-01 -6.591083854436874390e-02 5.902475118637084961e-02
-2.621020972728729248e-01 -3.146520256996154785e-02 6.781793385744094849e-02
-4.041335582733154297e-01 6.002388894557952881e-03 -6.244385614991188049e-02
3.465814888477325439e-01 3.140491619706153870e-02 6.354630738496780396e-02
4.837278723716735840e-01 3.781234845519065857e-02 5.857032164931297302e-02
-3.510791063308715820e-01 8.219083538278937340e-04 8.424193598330020905e-03
2.277258634567260742e-01 -2.035443298518657684e-02 -7.569043338298797607e-02
-2.852778732776641846e-01 -9.561771526932716370e-03 -6.087607890367507935e-02
-3.019554316997528076e-01 9.001615457236766815e-03 1.480699181556701660e-01
-3.518289029598236084e-01 -5.816284939646720886e-02 1.087810378521680832e-02
3.068587929010391235e-02 -4.737018048763275146e-02 -3.302837312221527100e-01
7.103284001350402832e-01 2.047592215240001678e-02 -6.530675292015075684e-02
-5.134689211845397949e-01 9.818310290575027466e-02 -4.640611819922924042e-03
-3.344924449920654297e-01 4.228846356272697449e-02 1.238716244697570801e-01
1.691670902073383331e-02 -5.777658894658088684e-02 4.834604859352111816e-01
-2.452882379293441772e-01 1.543176919221878052e-02 1.729044169187545776e-01
5.046088099479675293e-01 9.887751191854476929e-03 -6.957837194204330444e-02
-2.917989790439605713e-01 5.876147747039794922e-02 1.278670132160186768e-02
1.721720248460769653e-01 -8.224753290414810181e-02 -1.135670095682144165e-01
-1.003711596131324768e-01 -2.789793908596038818e-02 8.106450736522674561e-02
5.577541589736938477e-01 2.751955203711986542e-02 -6.010355055332183838e-02
3.516199439764022827e-02 -6.854653358459472656e-02 3.158901631832122803e-01
-3.985895216464996338e-01 4.546946287155151367e-02 3.085021674633026123e-02
-1.883484125137329102e-01 3.776690363883972168e-02 5.702526867389678955e-02
7.149351388216018677e-02 -4.952871799468994141e-02 -2.446013092994689941e-01
6.802225112915039062e-01 4.637831822037696838e-02 -4.133567586541175842e-02
-3.456259369850158691e-01 1.109197922050952911e-02 5.670716613531112671e-02
-3.615536689758300781e-01 9.206105954945087433e-03 3.253160044550895691e-02
-1.634230464696884155e-01 1.161457877606153488e-02 7.404359430074691772e-02
-4.290362596511840820e-01 5.403542891144752502e-02 1.260493136942386627e-02
3.271092474460601807e-01 2.029415033757686615e-02 7.170329988002777100e-02
-3.211550116539001465e-01 -5.790017545223236084e-03 4.770949110388755798e-02
-2.425616830587387085e-01 5.728458613157272339e-02 -1.598050445318222046e-01
8.305869996547698975e-02 2.645164728164672852e-02 6.724989414215087891e-02
1.078192889690399170e-02 -6.936449557542800903e-02 -2.369896322488784790e-01
-4.241056442260742188e-01 3.238193318247795105e-02 1.212813854217529297e-01
1.062572523951530457e-01 1.259159669280052185e-02 7.481612265110015869e-02
-2.106153815984725952e-01 -8.392892032861709595e-02 -3.372400254011154175e-02
5.458027124404907227e-01 5.685288086533546448e-02 -2.093185298144817352e-02
-4.901794791221618652e-01 1.512375771999359131e-01 1.080994028598070145e-02
1.913943290710449219e-01 -7.543110102415084839e-02 -1.965001076459884644e-01
7.059886455535888672e-01 5.070807412266731262e-03 7.786079496145248413e-02
-2.662373781204223633e-01 -1.619641482830047607e-02 1.204861402511596680e-01
8.204590082168579102e-01 -8.306550234556198120e-02 -4.226725175976753235e-02
-8.219403028488159180e-02 -3.048817627131938934e-02 -6.737630963325500488e-01
6.871979832649230957e-01 1.872637309134006500e-02 7.233949750661849976e-02
-1.825601048767566681e-02 -5.627696961164474487e-02 -4.800859093666076660e-01
2.716917693614959717e-01 -5.959429591894149780e-02 7.908774912357330322e-02
4.436415806412696838e-02 -9.728910028934478760e-02 -6.594295054674148560e-02
-4.422827959060668945e-01 -1.192479766905307770e-02 3.689410910010337830e-02
-5.473238229751586914e-01 2.135396450757980347e-01 9.401213377714157104e-03
7.065339684486389160e-01 -9.835699945688247681e-02 -1.668295264244079590e-02
-2.713724076747894287e-01 -2.826148457825183868e-02 6.715901196002960205e-02
-4.382611513137817383e-01 5.979670677334070206e-03 3.848460316658020020e-02
-2.351545095443725586e-01 1.386399567127227783e-02 1.731316298246383667e-01
-1.524485945701599121e-01 -6.688787043094635010e-02 6.520497053861618042e-02
1.664462536573410034e-01 -8.479231595993041992e-02 6.540945917367935181e-02
-6.217364072799682617e-01 2.590278983116149902e-01 1.676294766366481781e-02
1.096371002495288849e-02 -6.057130545377731323e-02 2.407277971506118774e-01
-3.364010453224182129e-01 2.745138853788375854e-02 -1.047511026263237000e-01
4.486687481403350830e-01 6.096545606851577759e-02 1.698658801615238190e-03
1.868273466825485229e-01 -1.096949875354766846e-01 -2.050014957785606384e-02
4.320821464061737061e-01 -5.693588778376579285e-02 -6.653370708227157593e-02
-3.076812028884887695e-01 7.592888548970222473e-03 8.935782313346862793e-02
3.997949957847595215e-01 -9.081348776817321777e-02 4.102940484881401062e-02
1.486781090497970581e-01 -7.361339032649993896e-02 2.540879845619201660e-01
-4.545354098081588745e-02 -4.762011766433715820e-02 4.793024957180023193e-01
-1.868715137243270874e-01 -6.445667892694473267e-02 -5.701343715190887451e-02
1.191630139946937561e-01 -4.827903583645820618e-02 2.391373068094253540e-01
-2.768028080463409424e-01 5.642117932438850403e-02 2.176165580749511719e-02
1.072570011019706726e-01 -4.739290103316307068e-02 -2.569163143634796143e-01
6.820856928825378418e-01 3.263187035918235779e-02 6.261473149061203003e-02
2.317021042108535767e-01 -5.827645957469940186e-02 1.468884199857711792e-01
-2.763996273279190063e-02 -5.593614280223846436e-02 3.670133352279663086e-01
-3.891147077083587646e-01 5.492155998945236206e-02 -4.617890343070030212e-03
-6.775856018066406250e-01 2.426230609416961670e-01 1.869235187768936157e-01
2.909822165966033936e-01 -6.168466061353683472e-02 -7.116886973381042480e-02
-6.565456390380859375e-01 2.515071034431457520e-01 -6.791970878839492798e-02
-4.006798863410949707e-01 2.629259787499904633e-02 -3.890448436141014099e-02
-2.315418124198913574e-01 3.247281908988952637e-02 1.726999133825302124e-01
-2.674643397331237793e-01 2.436128072440624237e-02 -8.889156579971313477e-02
6.102406382560729980e-01 -6.039953790605068207e-03 -7.400904595851898193e-02
8.020092248916625977e-01 4.728716984391212463e-02 -3.167907521128654480e-02
-1.812138855457305908e-01 -5.373217165470123291e-02 7.058994472026824951e-02
-5.357586145401000977e-01 6.212424859404563904e-02 -2.959228353574872017e-03
-6.204867362976074219e-01 2.015200406312942505e-01 -1.436894526705145836e-03
4.376716017723083496e-01 -8.020260930061340332e-02 -4.883373528718948364e-02
-3.076812028884887695e-01 7.592888548970222473e-03 8.935782313346862793e-02
5.924668163061141968e-02 -6.045771390199661255e-02 -7.503151148557662964e-02
9.140939116477966309e-01 -8.361081033945083618e-02 3.678049892187118530e-02
1.948479861021041870e-01 -7.868027687072753906e-02 1.637022495269775391e-01
1.251387447118759155e-01 -4.825631901621818542e-02 3.144132494926452637e-01
-2.474467903375625610e-01 5.826161056756973267e-02 1.484561860561370850e-01
2.317021042108535767e-01 -5.827645957469940186e-02 1.468884199857711792e-01
9.791850298643112183e-02 -8.213392645120620728e-02 4.809575527906417847e-02
-2.823070809245109558e-02 -5.754936859011650085e-02 4.359727799892425537e-01
-5.859729051589965820e-01 2.437363862991333008e-01 -6.253474205732345581e-02
5.603444576263427734e-01 -4.614322632551193237e-02 7.720186561346054077e-02
-3.705967366695404053e-01 -2.646649442613124847e-02 -4.126751050353050232e-02
3.290633261203765869e-01 5.898869410157203674e-02 -1.302480883896350861e-02
-2.575805187225341797e-01 -3.745090914890170097e-03 -5.092410370707511902e-02
-4.001345932483673096e-01 -3.586045000702142715e-03 4.259717464447021484e-02
-5.043576955795288086e-01 2.501892745494842529e-01 8.651406504213809967e-03
-5.578211545944213867e-01 2.459176629781723022e-01 -2.933877147734165192e-02
2.058905810117721558e-01 -1.096949875354766846e-01 1.489979214966297150e-02
9.916818141937255859e-02 -7.774868607521057129e-02 -1.965228319168090820e-01
-9.260042756795883179e-02 -8.824597299098968506e-02 4.500564932823181152e-02
2.661250233650207520e-01 -4.977865144610404968e-02 5.082232505083084106e-02
-2.556946575641632080e-01 1.677233166992664337e-02 -5.905836448073387146e-02
1.862080954015254974e-02 -5.689045041799545288e-02 4.952529072761535645e-01
8.042301982641220093e-02 -6.129839643836021423e-02 -4.127851128578186035e-01
3.800046741962432861e-01 -8.690541982650756836e-02 4.670975357294082642e-02
1.493995450437068939e-02 -6.822842359542846680e-02 -2.777972817420959473e-01
-3.618036210536956787e-01 -3.405543789267539978e-02 4.461938515305519104e-02
6.265489012002944946e-02 -5.411843582987785339e-02 4.895498454570770264e-01
-2.675552070140838623e-01 1.288696937263011932e-02 -4.292617365717887878e-02
-6.128296852111816406e-01 2.526204586029052734e-01 1.090572699904441833e-01
1.618961803615093231e-02 -7.234099507331848145e-02 -1.142259240150451660e-01
2.483568936586380005e-01 5.585314333438873291e-02 2.966870367527008057e-02
-1.311586499214172363e-01 -6.188916042447090149e-02 -6.398890912532806396e-02
-1.728524267673492432e-01 -5.195990577340126038e-02 7.199867069721221924e-02
-2.315418124198913574e-01 3.247281908988952637e-02 1.726999133825302124e-01
-2.220669835805892944e-01 3.942556679248809814e-02 7.924322970211505890e-03
2.286801487207412720e-01 2.574728429317474365e-02 6.777248531579971313e-02
-6.098530888557434082e-01 2.451678514480590820e-01 8.083371445536613464e-03
-2.936621010303497314e-01 1.784023642539978027e-02 -9.154997020959854126e-02
7.226604223251342773e-02 -4.773372784256935120e-02 2.759687006473541260e-01
6.963547468185424805e-01 -9.887959063053131104e-02 1.921685785055160522e-02
-4.139946401119232178e-01 -8.721080608665943146e-03 1.810351014137268066e-02
1.332957148551940918e-01 -8.063431084156036377e-02 -7.453164458274841309e-02
4.016070440411567688e-02 -6.229814141988754272e-02 8.279132843017578125e-02
-4.555005114525556564e-03 -6.397952139377593994e-02 -3.317151665687561035e-01
-5.068116188049316406e-01 2.556551247835159302e-02 2.905522659420967102e-02
-3.985895216464996338e-01 4.546946287155151367e-02 3.085021674633026123e-02
-2.399714589118957520e-01 -1.660540513694286346e-02 1.310515850782394409e-01
1.474738866090774536e-01 -4.607506468892097473e-02 -9.423109143972396851e-02
-2.285198569297790527e-01 1.218260638415813446e-02 1.289839446544647217e-01
3.484389558434486389e-02 -6.207092478871345520e-02 1.175096333026885986e-01
3.888660371303558350e-01 5.423992499709129333e-02 -2.708935551345348358e-02
1.044849827885627747e-01 -6.247990578413009644e-02 3.894620537757873535e-01
5.345102548599243164e-01 5.946584045886993408e-02 1.585409045219421387e-02
-2.453564256429672241e-01 -8.630190044641494751e-03 -1.507619321346282959e-01
6.795408725738525391e-01 5.805711448192596436e-02 -1.813712343573570251e-02
7.960505038499832153e-02 -7.863482087850570679e-02 -1.345843076705932617e-01
1.803517341613769531e-01 -6.602445244789123535e-02 -2.479186356067657471e-01
-6.433671712875366211e-01 2.416687458753585815e-01 1.341416984796524048e-01
1.251387447118759155e-01 -4.825631901621818542e-02 3.144132494926452637e-01
-3.553280234336853027e-01 3.083687834441661835e-02 1.518416702747344971e-01
8.260484933853149414e-01 -3.689561039209365845e-02 7.490700483322143555e-02
1.738079786300659180e-01 -8.542852103710174561e-02 5.232193693518638611e-02
1.254795640707015991e-01 6.030653044581413269e-02 -3.231885144487023354e-03
4.845401272177696228e-02 -6.718324124813079834e-02 -3.442800939083099365e-01
-8.219403028488159180e-02 -3.450986742973327637e-02 -6.540864109992980957e-01
-2.967295050621032715e-01 -6.745589524507522583e-02 2.853263355791568756e-02
-3.570604324340820312e-02 -4.893795400857925415e-02 -4.397327303886413574e-01
-3.857746720314025879e-01 4.525498487055301666e-03 -8.957677520811557770e-03
-2.126830369234085083e-01 3.172301501035690308e-02 -9.409476816654205322e-02
4.270834326744079590e-01 -1.749154180288314819e-02 -7.548593729734420776e-02
5.136235430836677551e-02 -6.800120323896408081e-02 3.385661244392395020e-01
8.976890444755554199e-01 -8.465599268674850464e-02 -3.120192885398864746e-02
-3.211550116539001465e-01 -5.790017545223236084e-03 4.770949110388755798e-02
9.549924731254577637e-01 -4.237147420644760132e-02 4.066585749387741089e-02
-5.578892827033996582e-01 8.388133719563484192e-03 1.501339860260486603e-02
-3.503747284412384033e-01 -1.487857941538095474e-02 -2.504799980670213699e-03
-2.125524543225765228e-02 -4.757467284798622131e-02 4.258617460727691650e-01
4.225391447544097900e-01 -9.944763034582138062e-02 -8.639577776193618774e-03
-1.399518251419067383e-01 1.753489603288471699e-03 -7.282753288745880127e-02
-2.351545095443725586e-01 1.386399567127227783e-02 1.731316298246383667e-01
-8.617027848958969116e-02 -4.173527285456657410e-02 6.210613250732421875e-01
-3.290620148181915283e-01 5.603491514921188354e-02 1.538638770580291748e-01
2.341787368059158325e-01 5.798894912004470825e-02 2.462455257773399353e-02
1.213669851422309875e-01 3.824405372142791748e-02 -5.167391151189804077e-02
6.475264430046081543e-01 1.293241512030363083e-02 -6.835141777992248535e-02
2.203868478536605835e-01 -6.268440186977386475e-02 1.732452362775802612e-01
5.192868709564208984e-01 -8.854136615991592407e-02 -3.831372782588005066e-02
6.094908118247985840e-01 -1.005382537841796875e-01 -7.552523748017847538e-04
1.602493575774133205e-03 -3.812257200479507446e-02 6.074966192245483398e-01
-1.630822271108627319e-01 -9.531234204769134521e-02 -1.861427165567874908e-02
-1.681718379259109497e-01 -2.717085741460323334e-02 7.911046594381332397e-02
4.386713504791259766e-01 1.129647810012102127e-02 -6.901033967733383179e-02
2.428128570318222046e-01 -1.586555154062807560e-03 7.976938784122467041e-02
1.066889613866806030e-01 -8.570118993520736694e-02 7.947400957345962524e-02
-6.420720815658569336e-01 2.434183061122894287e-01 -1.889793276786804199e-01
-4.194250404834747314e-01 2.595177479088306427e-02 1.157146394252777100e-01
-9.122013114392757416e-03 -1.063322201371192932e-01 -1.700105331838130951e-02
5.430534482002258301e-01 4.842324182391166687e-02 4.505109041929244995e-02
-3.535557091236114502e-01 4.496958851814270020e-02 -1.230872720479965210e-01
3.672976791858673096e-02 -6.425217539072036743e-02 5.841127038002014160e-02
-1.292500644922256470e-01 -2.308100461959838867e-02 -7.534960657358169556e-02
8.569268584251403809e-01 -1.431054342538118362e-02 -6.269378960132598877e-02
2.483568936586380005e-01 5.585314333438873291e-02 2.966870367527008057e-02
6.030379533767700195e-01 -6.616077572107315063e-02 6.713628768920898438e-02
2.706920206546783447e-01 -7.222738862037658691e-02 -9.411748498678207397e-02
1.488371491432189941e-01 -5.355039983987808228e-02 2.977357506752014160e-01
1.229120418429374695e-01 -4.827903583645820618e-02 1.040812879800796509e-01
8.533141613006591797e-01 3.987999632954597473e-02 2.539707906544208527e-02
1.720357090234756470e-01 -7.202289998531341553e-02 -2.420565187931060791e-01
5.807482600212097168e-01 -3.425993025302886963e-02 -7.389544695615768433e-02
-3.952040672302246094e-01 1.584075018763542175e-02 -4.306250065565109253e-02
-1.475407779216766357e-01 5.008190497756004333e-02 4.273350909352302551e-02
1.158684045076370239e-01 -7.829400897026062012e-02 -7.482701539993286133e-02
7.733802795410156250e-01 4.116516560316085815e-03 -7.064627856016159058e-02
7.966015338897705078e-01 -2.609018469229340553e-03 -7.135064154863357544e-02
3.465814888477325439e-01 3.140491619706153870e-02 6.354630738496780396e-02
3.256550729274749756e-01 -5.982151255011558533e-02 -6.537491083145141602e-02
-2.392216473817825317e-01 4.780976474285125732e-02 -1.246323212981224060e-01
1.341136991977691650e-01 -7.949823886156082153e-02 -1.720291525125503540e-01
6.820856928825378418e-01 3.263187035918235779e-02 6.261473149061203003e-02
1.882133483886718750e-01 -8.192943036556243896e-02 1.171688139438629150e-01
2.477831579744815826e-02 -7.072778791189193726e-02 2.475896626710891724e-01
-2.790749669075012207e-01 -2.131872810423374176e-03 1.666105985641479492e-01
-6.353919506072998047e-01 2.047237604856491089e-01 4.606998059898614883e-03
1.736034899950027466e-01 -8.279284834861755371e-02 1.084437966346740723e-01
5.345102548599243164e-01 5.946584045886993408e-02 1.585409045219421387e-02
7.821961641311645508e-01 4.560578987002372742e-02 -3.885904327034950256e-02
6.311670541763305664e-01 -2.169499546289443970e-02 -7.553137838840484619e-02
-2.658738493919372559e-01 6.162437796592712402e-02 1.429121643304824829e-01
-4.194250404834747314e-01 2.454305253922939301e-02 -3.683684021234512329e-02
-4.149262607097625732e-01 5.496700480580329895e-02 1.766822999343276024e-03
2.768665179610252380e-02 -4.968776181340217590e-02 -3.003596365451812744e-01
-1.825601048767566681e-02 -5.627696961164474487e-02 -4.800859093666076660e-01
1.871681511402130127e-01 -8.513314276933670044e-02 5.857032164931297302e-02
-2.958433926105499268e-01 3.158668428659439087e-02 5.311718583106994629e-02
6.641585230827331543e-01 5.673927813768386841e-02 2.753289230167865753e-02
9.422002434730529785e-01 -5.777658894658088684e-02 4.680063948035240173e-02
-2.857323288917541504e-01 6.365933921188116074e-03 9.783290326595306396e-02
-8.576129376888275146e-02 1.095565129071474075e-02 7.547504454851150513e-02
2.155244797468185425e-01 -4.441640153527259827e-02 -3.158819302916526794e-02
-6.244629621505737305e-01 2.452814429998397827e-01 7.767902314662933350e-02
-5.357586145401000977e-01 6.212424859404563904e-02 -2.959228353574872017e-03
-4.139946401119232178e-01 -8.721080608665943146e-03 1.810351014137268066e-02
8.010492473840713501e-02 -4.421190917491912842e-02 4.212038516998291016e-01
5.428943634033203125e-01 -1.000838354229927063e-01 1.044639758765697479e-02
1.597207039594650269e-01 -5.239160731434822083e-02 -2.470097690820693970e-01
-3.615536689758300781e-01 9.206105954945087433e-03 3.253160044550895691e-02
-6.576646119356155396e-02 -3.707738220691680908e-02 -6.103022694587707520e-01
6.695207953453063965e-01 -3.725915774703025818e-02 -7.350917905569076538e-02
1.736034899950027466e-01 -8.279284834861755371e-02 1.084437966346740723e-01
9.366960078477859497e-02 -4.834719747304916382e-02 2.385465353727340698e-01
-6.467980742454528809e-01 2.560059428215026855e-01 -6.799145136028528214e-03
7.038527727127075195e-01 -3.323746472597122192e-02 -7.403177022933959961e-02
-3.152247369289398193e-01 5.930679664015769958e-02 1.070577874779701233e-01
-4.897477924823760986e-01 2.480080276727676392e-01 -4.825956420972943306e-04
-1.783004961907863617e-03 -5.514089763164520264e-02 -5.128047466278076172e-01
-5.605477094650268555e-01 2.516661584377288818e-01 -7.150968909263610840e-02
-4.409024864435195923e-02 -4.537069797515869141e-02 -4.896743297576904297e-01
-2.553992867469787598e-01 -2.371720410883426666e-02 1.511600315570831299e-01
4.124557599425315857e-03 -7.013702392578125000e-02 -1.841623783111572266e-01
1.312507987022399902e-01 -4.921061545610427856e-02 -3.052220344543457031e-01
-6.631575226783752441e-01 2.426457703113555908e-01 -2.002945840358734131e-01
-2.538996636867523193e-01 5.283119529485702515e-02 -2.590784057974815369e-02
2.629667520523071289e-01 5.867059528827667236e-02 2.171621471643447876e-02
6.208685413002967834e-02 -7.740787416696548462e-02 1.163053959608078003e-01
-4.422827959060668945e-01 -1.192479766905307770e-02 3.689410910010337830e-02
8.829883337020874023e-01 -3.441898524761199951e-02 6.454604864120483398e-02
-4.701392352581024170e-01 1.918634474277496338e-01 9.923805482685565948e-03
-8.444345742464065552e-02 4.419706389307975769e-02 5.043606087565422058e-02
-6.478943675756454468e-02 -5.875359848141670227e-02 7.213499397039413452e-02
3.752502426505088806e-02 -6.522920727729797363e-02 -3.695463240146636963e-01
-5.300328135490417480e-01 4.749166592955589294e-02 1.380916498601436615e-02
4.216018691658973694e-02 -5.418659746646881104e-02 -2.210619449615478516e-01
4.290999472141265869e-02 -4.214425384998321533e-02 -4.012654125690460205e-01
4.641192853450775146e-01 -3.898598253726959229e-02 -7.330468297004699707e-02
-2.114333510398864746e-01 6.276044994592666626e-02 1.591807007789611816e-01
-3.756920620799064636e-02 -1.056151650846004486e-02 8.092817664146423340e-02
3.597996756434440613e-02 -7.102315872907638550e-02 2.713562548160552979e-01
-4.730248153209686279e-01 2.842841111123561859e-02 -6.503766868263483047e-03
1.734898835420608521e-01 -5.848094075918197632e-02 -2.496227473020553589e-01
-8.648838847875595093e-02 -1.169758010655641556e-02 -7.473613321781158447e-02
-2.515139281749725342e-01 2.597449906170368195e-02 1.824701130390167236e-01
-3.329246938228607178e-01 5.760268867015838623e-02 1.948594348505139351e-03
1.352724879980087280e-01 -7.829400897026062012e-02 8.115539699792861938e-02
-1.399518251419067383e-01 1.753489603288471699e-03 -7.282753288745880127e-02
2.855518162250518799e-01 -1.646907813847064972e-02 8.167798817157745361e-02
1.690592020750045776e-01 3.990271687507629395e-02 -4.958353936672210693e-02
1.062288321554660797e-02 -5.134642496705055237e-02 3.221839964389801025e-01
1.914397925138473511e-01 -5.036940798163414001e-02 1.579537391662597656e-01
-2.037080824375152588e-01 -1.917292363941669464e-02 7.761085778474807739e-02
4.547751322388648987e-02 -5.884448811411857605e-02 1.299609690904617310e-01
2.615125775337219238e-01 -6.211637705564498901e-02 1.061034873127937317e-01
3.547385036945343018e-01 1.865820959210395813e-02 -6.603384017944335938e-02
1.948025524616241455e-01 -8.581478148698806763e-02 4.425583779811859131e-02
-4.158578217029571533e-01 4.025625996291637421e-03 4.693696647882461548e-02
-3.622125983238220215e-01 6.320488639175891876e-03 1.142377480864524841e-01
2.777811288833618164e-01 -7.827129215002059937e-02 -6.821509450674057007e-02
-2.134612016379833221e-02 -5.943525210022926331e-02 -4.006746113300323486e-01
-6.662021875381469727e-01 2.404645085334777832e-01 1.728817075490951538e-01
-5.612066388130187988e-01 2.555969655513763428e-01 6.156954914331436157e-02
2.706920206546783447e-01 -7.222738862037658691e-02 -9.411748498678207397e-02
2.539918124675750732e-01 -1.087861284613609314e-01 -1.522878557443618774e-02
9.426035732030868530e-02 -4.916517063975334167e-02 -2.196304947137832642e-01
9.696421027183532715e-02 -7.259093225002288818e-02 8.135988563299179077e-02
6.623920053243637085e-03 -3.807712718844413757e-02 -5.144861340522766113e-01
8.362673968076705933e-02 -2.851142175495624542e-02 -7.464524358510971069e-02
2.341787368059158325e-01 5.798894912004470825e-02 2.462455257773399353e-02
1.614929735660552979e-01 -8.376985788345336914e-02 8.772187680006027222e-02
-2.914581000804901123e-01 2.726962044835090637e-02 -1.718019545078277588e-01
3.184296786785125732e-01 5.214955285191535950e-02 -3.201989829540252686e-02
5.238084197044372559e-01 5.878420174121856689e-02 2.092096395790576935e-02
-3.691653013229370117e-01 -2.609018469229340553e-03 -4.428945481777191162e-02
6.486170887947082520e-01 8.638069964945316315e-03 7.640662044286727905e-02
3.604813292622566223e-02 -6.500198692083358765e-02 4.532374814152717590e-02
9.294535517692565918e-01 -2.119512297213077545e-02 -3.999511152505874634e-02
-2.081387490034103394e-01 -1.258371584117412567e-02 7.713370770215988159e-02
1.392487287521362305e-01 -4.814270883798599243e-02 1.710185408592224121e-01
-3.770496547222137451e-01 4.069796577095985413e-02 -1.284722387790679932e-01
8.042301982641220093e-02 -6.129839643836021423e-02 -4.127851128578186035e-01
-1.355893164873123169e-01 6.005660071969032288e-02 1.146886125206947327e-02
-2.881635725498199463e-01 1.172817870974540710e-02 -1.715520173311233521e-01
-3.989531099796295166e-01 3.147307783365249634e-02 1.432075500488281250e-01
-2.668281197547912598e-01 -8.140280260704457760e-04 -1.584226265549659729e-02
-1.657406240701675415e-01 -4.384836554527282715e-02 -6.951020658016204834e-02
-9.046462923288345337e-02 1.253617112524807453e-03 -6.842604279518127441e-01
7.058068513870239258e-01 -9.992478787899017334e-02 -5.276810377836227417e-03
1.377491205930709839e-01 7.615606766194105148e-03 -7.048722356557846069e-02
-2.455381751060485840e-01 5.626212432980537415e-02 -1.888692937791347504e-02
5.915863513946533203e-01 -5.593614280223846436e-02 -6.694269180297851562e-02
-3.291983902454376221e-01 -4.154081456363201141e-03 5.354889109730720520e-02
2.305148914456367493e-02 -1.091951131820678711e-01 1.826255954802036285e-02
-2.969340085983276367e-01 2.207916928455233574e-03 1.618845462799072266e-01
7.948293089866638184e-01 3.145035728812217712e-02 -5.367339402437210083e-02
-4.120405912399291992e-01 1.849915832281112671e-02 -1.016609892249107361e-01
3.693483471870422363e-01 -4.848352819681167603e-02 -6.991919875144958496e-02
-4.283091425895690918e-01 5.130885913968086243e-02 -7.094523869454860687e-03
-1.964145302772521973e-01 -8.431518077850341797e-02 -3.540538623929023743e-02
-3.876150846481323242e-01 4.387896135449409485e-02 3.371310979127883911e-02
-2.224305123090744019e-01 -6.063947826623916626e-02 -5.594553425908088684e-02
2.296059951186180115e-02 3.935937456844840199e-06 7.956489175558090210e-02
-3.323794007301330566e-01 5.105892568826675415e-02 1.607711911201477051e-01
5.229393020272254944e-02 -5.752665176987648010e-02 -1.144304201006889343e-01
2.441988885402679443e-01 -7.252277433872222900e-02 1.401855945587158203e-01
-6.601639837026596069e-02 -1.247010752558708191e-02 -6.781256794929504395e-01
-1.825601048767566681e-02 -5.627696961164474487e-02 -4.800859093666076660e-01
8.829883337020874023e-01 -3.441898524761199951e-02 6.454604864120483398e-02
2.580816447734832764e-01 1.461379602551460266e-02 -6.766977906227111816e-02
-2.241119146347045898e-01 -5.307325348258018494e-02 -6.076246872544288635e-02
7.556064426898956299e-02 -5.234616994857788086e-02 -1.311760842800140381e-01
-4.036109447479248047e-01 -1.860488764941692352e-02 -3.763208538293838501e-02
-6.576646119356155396e-02 -3.707738220691680908e-02 -6.103022694587707520e-01
1.678038202226161957e-02 -5.189173668622970581e-02 -5.476593971252441406e-01
-5.241025686264038086e-01 6.110178679227828979e-02 -4.390676505863666534e-03
1.614418253302574158e-02 -4.303039237856864929e-02 5.914553403854370117e-01
-2.254070341587066650e-01 -9.026817977428436279e-02 -1.300208736211061478e-02
-4.651632606983184814e-01 7.570161484181880951e-03 5.857032164931297302e-02
1.278141885995864868e-02 -6.870557367801666260e-02 2.658576667308807373e-01
-3.310842812061309814e-01 -1.478768885135650635e-02 -1.436501294374465942e-01
1.095064133405685425e-01 -4.925605282187461853e-02 1.405036896467208862e-01
2.477831579744815826e-02 -7.072778791189193726e-02 2.475896626710891724e-01
5.068071186542510986e-02 -4.125812649726867676e-02 4.558767080307006836e-01
1.637196689844131470e-01 -8.447422832250595093e-02 -6.601111590862274170e-02
-6.440488100051879883e-01 2.486669272184371948e-01 -6.287556141614913940e-02
1.806016713380813599e-01 5.244493484497070312e-02 3.768935799598693848e-02
-3.258356153964996338e-01 4.631015285849571228e-02 -2.995225228369235992e-02
3.320171236991882324e-01 5.546687915921211243e-02 -2.422645688056945801e-02
7.485457658767700195e-01 -6.425217539072036743e-02 6.856773793697357178e-02
1.079613640904426575e-01 4.837779700756072998e-02 4.511925205588340759e-02
6.622215360403060913e-02 -7.768052816390991211e-02 1.311197578907012939e-01
-3.142476677894592285e-01 2.286166697740554810e-02 -5.003797262907028198e-02
-1.487677395343780518e-01 2.867834828794002533e-02 6.522769480943679810e-02
-6.053543090820312500e-01 1.368549317121505737e-01 2.357579302042722702e-03
8.163918852806091309e-01 -7.461313903331756592e-02 5.809317156672477722e-02
4.913565516471862793e-02 6.101089343428611755e-02 1.880430150777101517e-03
9.485623240470886230e-01 -1.606008782982826233e-02 2.396563254296779633e-02
-1.187982186675071716e-01 4.290194064378738403e-02 -4.576634615659713745e-02
1.715585589408874512e-01 -7.406783103942871094e-02 -2.259470373392105103e-01
-4.481733962893486023e-02 -4.459817335009574890e-02 -4.980812668800354004e-01
-4.497638717293739319e-02 -3.850883617997169495e-02 -5.602470040321350098e-01
2.025959938764572144e-01 -8.399707078933715820e-02 7.670199871063232422e-02
2.664146944880485535e-02 -5.736758932471275330e-02 -4.814037680625915527e-01
4.427327588200569153e-02 -7.613547146320343018e-02 6.322820484638214111e-02
-5.642513036727905273e-01 1.276754885911941528e-01 8.855899795889854431e-03
1.584937572479248047e-01 -7.693071663379669189e-02 8.124627918004989624e-02
7.592418789863586426e-02 -6.791032850742340088e-02 3.470185101032257080e-01
5.567771792411804199e-01 -6.488838046789169312e-02 6.811331212520599365e-02
-2.369495034217834473e-01 3.304085507988929749e-02 1.494332104921340942e-01
1.201627552509307861e-01 -4.755195230245590210e-02 2.945774793624877930e-01
-3.436264395713806152e-01 1.617162371985614300e-03 7.174873352050781250e-02
2.812801897525787354e-01 -6.313882023096084595e-02 -7.196411490440368652e-02
-1.681718379259109497e-01 -2.717085741460323334e-02 7.911046594381332397e-02
-4.019068181514739990e-01 1.586347818374633789e-02 -7.114615291357040405e-02
-3.691653013229370117e-01 -2.609018469229340553e-03 -4.428945481777191162e-02
-4.299450516700744629e-01 1.614167690277099609e-01 -4.208905156701803207e-03
1.171408072113990784e-01 -4.725657403469085693e-02 -2.938158810138702393e-01
3.672976791858673096e-02 -6.425217539072036743e-02 5.841127038002014160e-02
4.401254951953887939e-01 5.926135182380676270e-02 1.733098179101943970e-02
-6.380049586296081543e-01 2.529158294200897217e-01 -8.200697600841522217e-02
-2.717132270336151123e-01 -2.612566761672496796e-02 1.279841959476470947e-01
-2.521955370903015137e-01 4.008448868989944458e-02 -8.209787309169769287e-02
-5.632742047309875488e-01 2.451905757188796997e-01 6.936299055814743042e-02
5.808618664741516113e-01 3.051877953112125397e-02 -5.785413458943367004e-02
6.702705621719360352e-01 5.339922755956649780e-02 -2.908883802592754364e-02
-2.344728559255599976e-01 4.406073689460754395e-02 1.198272109031677246e-01
-4.199931025505065918e-01 1.409120578318834305e-02 4.561912640929222107e-02
-2.329959571361541748e-01 2.311537828063592315e-04 1.218494251370429993e-01
5.304430723190307617e-01 -4.118995368480682373e-02 -7.287298142910003662e-02
-3.362874388694763184e-01 4.324276372790336609e-02 -1.252685189247131348e-01
2.661250233650207520e-01 -4.977865144610404968e-02 5.082232505083084106e-02
-6.217364072799682617e-01 2.590278983116149902e-01 1.676294766366481781e-02
5.345102548599243164e-01 5.946584045886993408e-02 1.585409045219421387e-02
-3.490114212036132812e-01 -8.367548580281436443e-04 -5.140125378966331482e-02
-3.057271540164947510e-01 1.100109703838825226e-02 -8.427911996841430664e-02
6.206015944480895996e-01 -7.824855297803878784e-02 5.761602148413658142e-02
-2.839373350143432617e-01 -1.915020495653152466e-02 1.292338818311691284e-01
4.203351736068725586e-01 -2.387624979019165039e-02 8.156437426805496216e-02
-3.220638930797576904e-01 6.539613008499145508e-02 -1.278587728738784790e-01
-2.973429560661315918e-01 2.692879736423492432e-02 -1.628497093915939331e-01
1.051666364073753357e-01 -6.750135123729705811e-02 3.412018120288848877e-01
-2.942983508110046387e-01 6.456816103309392929e-03 -1.702377572655677795e-02
-3.562141358852386475e-01 7.066749036312103271e-02 1.267309486865997314e-02
-1.337091159075498581e-02 -5.734486877918243408e-02 -4.656124114990234375e-01
1.913943290710449219e-01 -7.543110102415084839e-02 -1.965001076459884644e-01
-4.722579568624496460e-02 -2.496687695384025574e-02 6.799551844596862793e-01
-1.176167055964469910e-01 5.196777731180191040e-02 3.880270197987556458e-02
1.469001825898885727e-02 -6.161650642752647400e-02 2.233231961727142334e-01
-1.938015669584274292e-01 4.003904387354850769e-02 -9.829822182655334473e-02
8.892083168029785156e-02 -8.102057129144668579e-02 -5.667262151837348938e-02
-2.719859182834625244e-01 6.223785504698753357e-02 -1.179067865014076233e-01
3.547385036945343018e-01 1.865820959210395813e-02 -6.603384017944335938e-02
1.301374435424804688e-01 -7.999811321496963501e-02 -1.615546047687530518e-01
-4.241056442260742188e-01 3.238193318247795105e-02 1.212813854217529297e-01
-4.199931025505065918e-01 3.876664489507675171e-02 -2.888434566557407379e-02
1.293194741010665894e-01 -1.972827129065990448e-03 -7.348645478487014771e-02
4.427327588200569153e-02 -7.613547146320343018e-02 6.322820484638214111e-02
6.883510947227478027e-02 2.636076137423515320e-02 6.731805950403213501e-02
1.868273466825485229e-01 -1.096949875354766846e-01 -2.050014957785606384e-02
9.186154603958129883e-01 7.501997984945774078e-03 1.426359359174966812e-02
-3.065223991870880127e-01 5.537599325180053711e-02 -1.486524287611246109e-02
1.291831433773040771e-01 -8.356537669897079468e-02 -4.258535057306289673e-02
-3.604403138160705566e-01 -2.982925809919834137e-02 -4.158560931682586670e-02
1.074842140078544617e-01 -4.652949050068855286e-02 -3.341690897941589355e-01
1.220940798521041870e-01 -4.864257946610450745e-02 1.899227499961853027e-01
8.848912268877029419e-02 -4.787005484104156494e-02 -2.462826967239379883e-01
9.696421027183532715e-02 -7.259093225002288818e-02 8.135988563299179077e-02
-4.382611513137817383e-01 5.979670677334070206e-03 3.848460316658020020e-02
-3.739368021488189697e-01 3.207653528079390526e-03 -1.550501328893005848e-03
-2.668281197547912598e-01 -8.140280260704457760e-04 -1.584226265549659729e-02
1.139540970325469971e-02 -7.100044190883636475e-02 -1.794590502977371216e-01
1.956886947154998779e-01 -4.716569185256958008e-02 -1.068187430500984192e-01
2.675110399723052979e-01 -7.633996009826660156e-02 9.694676101207733154e-02
-6.128296852111816406e-01 2.526204586029052734e-01 1.090572699904441833e-01
-5.154229998588562012e-01 2.111766189336776733e-01 -4.686054773628711700e-03
-2.886179387569427490e-01 -6.700147688388824463e-02 3.448564186692237854e-02
-2.688957750797271729e-01 1.184178795665502548e-02 1.007639616727828979e-01
1.378116384148597717e-02 -7.295447587966918945e-02 -4.624349623918533325e-02
5.567771792411804199e-01 -6.488838046789169312e-02 6.811331212520599365e-02
1.926440149545669556e-01 -3.603220358490943909e-02 -7.366822659969329834e-02
9.193879961967468262e-01 -2.732990309596061707e-02 -4.692513495683670044e-02
4.856364727020263672e-01 -7.733970135450363159e-02 -5.242371559143066406e-02
2.051180601119995117e-01 5.701193213462829590e-02 -2.059103362262248993e-02
9.350483305752277374e-03 -3.837250918149948120e-02 -5.061246752738952637e-01
-3.928410112857818604e-01 9.047051891684532166e-03 1.212586686015129089e-01
9.422002434730529785e-01 -5.777658894658088684e-02 4.680063948035240173e-02
-2.290878891944885254e-01 9.355172514915466309e-04 -6.603384017944335938e-02
6.487592589110136032e-03 -5.071022734045982361e-02 5.713468790054321289e-01
-6.099497526884078979e-02 -6.850107759237289429e-02 6.793154031038284302e-02
8.901001214981079102e-01 -2.162683196365833282e-02 6.138777732849121094e-02
-6.373460292816162109e-01 2.384877651929855347e-01 -1.603049188852310181e-01
2.049590200185775757e-01 5.362644046545028687e-02 -2.854352444410324097e-02
-3.977317735552787781e-02 -5.598159879446029663e-02 -4.376195967197418213e-01
7.800830602645874023e-01 -1.006064265966415405e-01 6.470152642577886581e-03
1.738079786300659180e-01 -8.542852103710174561e-02 5.232193693518638611e-02
-7.849613204598426819e-03 -6.691058725118637085e-02 2.539970874786376953e-01
7.084879279136657715e-01 5.044544860720634460e-02 -3.604158759117126465e-02
-2.201583683490753174e-01 5.421719700098037720e-02 -1.630087643861770630e-01
7.487275600433349609e-01 -2.405802346765995026e-02 -7.521328330039978027e-02
2.215456515550613403e-01 5.998843163251876831e-02 -5.617632064968347549e-03
5.063129663467407227e-01 3.994815796613693237e-02 5.586647614836692810e-02
1.416344791650772095e-01 -8.433789759874343872e-02 -3.563260287046432495e-02
-2.719859182834625244e-01 6.223785504698753357e-02 -1.179067865014076233e-01
4.329625889658927917e-02 -5.268698930740356445e-02 2.420683503150939941e-01
-1.603102087974548340e-01 5.171784758567810059e-02 3.900719434022903442e-02
1.871681511402130127e-01 -8.513314276933670044e-02 5.857032164931297302e-02
2.992755174636840820e-01 -6.827387958765029907e-02 7.572497427463531494e-02
4.877950251102447510e-01 -9.747086465358734131e-02 -1.918230578303337097e-02
-2.814152538776397705e-01 1.708044437691569328e-03 -7.230494171380996704e-02
6.871979832649230957e-01 1.872637309134006500e-02 7.233949750661849976e-02
-3.925229310989379883e-01 -4.825631901621818542e-02 1.176066696643829346e-03
-3.139068484306335449e-01 -1.417421549558639526e-02 1.056036204099655151e-01
-2.080251574516296387e-01 5.775170866400003433e-03 -9.779835492372512817e-02
-1.496765762567520142e-01 5.798894912004470825e-02 -5.280382465571165085e-04
6.794898211956024170e-02 -5.334590747952461243e-02 -1.196790635585784912e-01
4.649827182292938232e-01 -6.789762526750564575e-03 -7.409993559122085571e-02
