8.894454687833786011e-02 -9.343353100121021271e-03 -3.756961226463317871e-01
9.714429825544357300e-02 -4.153225943446159363e-02 -1.263357549905776978e-01
1.826072037220001221e-01 -3.206349164247512817e-02 -2.368860095739364624e-01
3.308372944593429565e-02 -4.524167254567146301e-02 -6.732682883739471436e-02
-8.447291254997253418e-01 6.028134003281593323e-02 -2.827411890029907227e-01
2.000316828489303589e-01 -8.597199618816375732e-02 8.642911911010742188e-03
-7.416953444480895996e-01 1.825699210166931152e-01 -2.046052133664488792e-03
-4.753741621971130371e-01 4.310090094804763794e-02 6.755423545837402344e-02
-7.432327866554260254e-01 4.622462019324302673e-02 3.795214742422103882e-02
-1.171962767839431763e-01 1.703740656375885010e-02 6.274557709693908691e-01
6.228070855140686035e-01 8.136641979217529297e-02 -2.361921221017837524e-02
3.249315023422241211e-01 -1.400451548397541046e-02 7.358203083276748657e-02
2.576252073049545288e-02 5.640110000967979431e-02 -5.214752256870269775e-02
1.043434888124465942e-01 7.023818045854568481e-02 -4.021395370364189148e-02
-2.469525039196014404e-01 8.053667843341827393e-02 3.241243213415145874e-02
2.729753255844116211e-01 -6.737612932920455933e-02 -5.968836694955825806e-02
1.863654255867004395e-01 -1.001995354890823364e-01 -2.513576149940490723e-01
1.463428698480129242e-02 1.427974272519350052e-02 5.195656418800354004e-01
1.754812300205230713e-01 -9.782622568309307098e-03 -1.335593611001968384e-01
2.814190983772277832e-01 -9.124325960874557495e-02 2.350146770477294922e-01
3.370358943939208984e-01 1.003960380330681801e-03 -6.788811832666397095e-02
1.628643423318862915e-01 -2.164297737181186676e-02 7.192255556583404541e-02
-6.987197995185852051e-01 1.311506330966949463e-01 1.159579865634441376e-02
2.176269888877868652e-01 -8.597199618816375732e-02 1.196185965090990067e-02
-6.550610661506652832e-01 4.061169177293777466e-02 -3.089161403477191925e-02
1.560068130493164062e-01 -8.597199618816375732e-02 -2.227699011564254761e-02
6.239784359931945801e-01 -5.295334383845329285e-02 4.981250315904617310e-02
-4.010395109653472900e-01 2.474354114383459091e-04 -6.791252642869949341e-02
1.580567508935928345e-01 -3.404023125767707825e-02 1.958217918872833252e-01
-1.875042170286178589e-02 -1.070389756932854652e-03 4.572865664958953857e-01
4.232064783573150635e-01 8.336754888296127319e-02 -1.917767897248268127e-02
-1.072394251823425293e-01 1.047271769493818283e-02 5.477278828620910645e-01
-3.012270629405975342e-01 -3.801808878779411316e-02 -5.922468751668930054e-02
7.903651148080825806e-02 3.694485349114984274e-04 4.370068013668060303e-01
2.432271139696240425e-03 5.421087611466646194e-03 5.357211232185363770e-01
9.780320525169372559e-01 4.981809761375188828e-03 -7.341725286096334457e-03
-3.472042381763458252e-01 -3.626099601387977600e-02 -5.937111005187034607e-02
8.594040870666503906e-01 7.367914915084838867e-02 1.508557423949241638e-02
1.594477742910385132e-01 -1.251587644219398499e-02 -6.168949604034423828e-02
2.718527317047119141e-01 1.784273236989974976e-02 -1.402842998504638672e-02
-7.143872231245040894e-02 1.443229382857680321e-03 -4.264564812183380127e-01
-6.715825796127319336e-01 3.748797997832298279e-02 -1.788426563143730164e-02
-3.075476884841918945e-01 -8.065190911293029785e-02 5.348368082195520401e-03
-1.059948205947875977e-01 9.447747841477394104e-03 -5.321503281593322754e-01
1.470505297183990479e-01 -1.077403873205184937e-01 2.510237097740173340e-01
1.757008582353591919e-01 8.285506814718246460e-02 2.801970951259136200e-02
1.482707411050796509e-01 -4.834099113941192627e-02 -9.033982455730438232e-02
-8.256694301962852478e-03 -1.014867983758449554e-02 2.816263437271118164e-01
1.096635684370994568e-01 -4.782850295305252075e-02 5.918364971876144409e-02
3.023333549499511719e-01 -5.436877161264419556e-02 -2.102612107992172241e-01
-5.740640312433242798e-02 -2.894549979828298092e-04 4.478665590286254883e-01
-3.292184472084045410e-01 -7.494137436151504517e-02 2.831255830824375153e-02
-7.642690539360046387e-01 4.317411407828330994e-02 -1.174038872122764587e-01
-7.925777435302734375e-01 1.706180721521377563e-02 -2.420490793883800507e-02
-4.125093668699264526e-02 1.149768754839897156e-02 5.967799425125122070e-01
-7.303962707519531250e-01 1.604598611593246460e-01 -2.290092408657073975e-03
1.337015330791473389e-01 -3.938471525907516479e-02 -1.492999494075775146e-01
1.208162084221839905e-01 -3.728595748543739319e-02 -2.672446370124816895e-01
5.675563961267471313e-02 -1.988589204847812653e-02 2.767699658870697021e-01
1.855356991291046143e-01 -4.114179313182830811e-02 2.594431042671203613e-01
-5.369699001312255859e-02 -5.633939988911151886e-03 -3.654952347278594971e-01
2.559169381856918335e-02 7.158040255308151245e-02 4.627392068505287170e-02
1.685016751289367676e-01 -1.266229897737503052e-02 -8.594709634780883789e-02
1.791418343782424927e-01 -3.567530214786529541e-02 -5.854137241840362549e-02
-5.923427343368530273e-01 -5.560728721320629120e-03 6.050147116184234619e-02
-1.181236207485198975e-01 -7.049985229969024658e-02 -3.042793646454811096e-02
2.021792382001876831e-01 2.821444720029830933e-02 -6.635066121816635132e-02
9.411820024251937866e-02 -1.502948626875877380e-02 -3.163699209690093994e-01
2.509872913360595703e-01 -1.101319938898086548e-01 2.285964041948318481e-01
2.102569639682769775e-01 -8.597199618816375732e-02 2.545728720724582672e-02
1.409739404916763306e-01 -3.974467515945434570e-03 -2.625346481800079346e-01
-7.452095150947570801e-01 2.836270034313201904e-01 -2.778172725811600685e-03
3.252731561660766602e-01 8.034144341945648193e-02 -2.583997882902622223e-02
3.327651917934417725e-01 -3.967756032943725586e-02 6.787148863077163696e-02
1.051000505685806274e-02 -1.183256227523088455e-02 3.382436931133270264e-01
2.265588492155075073e-01 7.241013646125793457e-02 4.612749814987182617e-02
1.899772286415100098e-01 -8.597199618816375732e-02 -3.128207847476005554e-02
2.207018882036209106e-01 -1.169407069683074951e-01 2.876053452491760254e-01
-4.815727006644010544e-03 -1.419974956661462784e-02 2.424823045730590820e-01
7.239861786365509033e-02 6.787714548408985138e-03 6.906728446483612061e-02
3.454797342419624329e-02 -2.254593372344970703e-02 -2.443780452013015747e-01
-1.452852878719568253e-02 -1.100282650440931320e-02 -2.723450660705566406e-01
-4.180491268634796143e-01 -6.447204947471618652e-02 -2.962260320782661438e-02
-4.318617880344390869e-01 3.660943359136581421e-02 -6.305612623691558838e-02
6.480896472930908203e-02 -3.491877019405364990e-02 -1.644060462713241577e-01
5.058141797780990601e-02 -8.597199618816375732e-02 -3.022213233634829521e-03
1.074916124343872070e-01 -1.746989414095878601e-02 6.135561317205429077e-02
-1.545550912851467729e-04 -3.640741854906082153e-02 -1.261161118745803833e-01
-6.861029863357543945e-01 1.476783212274312973e-02 -2.972022071480751038e-02
-1.113637089729309082e-01 8.397764712572097778e-02 2.523764967918395996e-02
1.849744021892547607e-01 -9.953455068171024323e-03 1.509916037321090698e-01
-7.780085206031799316e-01 3.306779563426971436e-01 9.448245167732238770e-03
2.004221528768539429e-01 -4.326495155692100525e-02 -1.307040750980377197e-01
1.511016190052032471e-01 -3.704192861914634705e-02 2.803329527378082275e-01
-3.744635283946990967e-01 -1.551756542176008224e-02 -6.625304371118545532e-02
-1.181968022137880325e-02 5.103831645101308823e-03 4.243167042732238770e-01
6.895764470100402832e-01 -4.719399288296699524e-02 5.610874295234680176e-02
-7.535800933837890625e-01 2.772819399833679199e-01 -2.607344416901469231e-03
1.146663948893547058e-01 8.080512285232543945e-02 -2.442454546689987183e-02
3.920913860201835632e-02 -3.128256648778915405e-02 -6.127462908625602722e-02
-4.536301791667938232e-01 7.890161871910095215e-02 3.568257391452789307e-02
3.125342726707458496e-01 -1.020298525691032410e-01 -2.858892977237701416e-01
3.959960341453552246e-01 8.778467029333114624e-02 5.885256920009851456e-03
1.929789185523986816e-01 -3.247836232185363770e-02 -2.799835205078125000e-01
-1.709827482700347900e-01 -3.266744082793593407e-03 -8.342291228473186493e-03
-1.893345862627029419e-01 -3.999480977654457092e-02 6.599237769842147827e-02
-2.616924792528152466e-02 -1.315037906169891357e-02 2.682285606861114502e-01
2.273885756731033325e-01 -4.892668500542640686e-02 3.051518499851226807e-01
1.511016190052032471e-01 -3.704192861914634705e-02 2.803329527378082275e-01
2.598215341567993164e-01 -6.949926912784576416e-02 1.906343176960945129e-02
7.333572506904602051e-01 -6.769337505102157593e-02 -1.771343871951103210e-02
-7.712730169296264648e-01 2.521274797618389130e-02 3.939198702573776245e-02
-6.909105181694030762e-01 4.410147294402122498e-02 9.371535480022430420e-02
-7.462589144706726074e-01 5.491245537996292114e-02 1.989210993051528931e-01
2.063767313957214355e-01 -4.863383993506431580e-02 -2.496737092733383179e-01
-3.246548399329185486e-02 2.091764286160469055e-02 6.037839055061340332e-01
-6.829059869050979614e-02 1.140007562935352325e-02 -5.805679559707641602e-01
-1.357677020132541656e-02 1.647610589861869812e-02 -5.326139926910400391e-01
-8.136872649192810059e-01 4.590736702084541321e-02 -1.731182783842086792e-01
1.917343139648437500e-01 -9.329319745302200317e-02 -2.936741709709167480e-01
-2.957117557525634766e-01 -5.851747468113899231e-02 5.264336988329887390e-02
2.186763435602188110e-01 -5.414914712309837341e-02 -3.026060461997985840e-01
1.827048324048519135e-02 8.473417162895202637e-02 -1.585873216390609741e-02
7.144197821617126465e-01 7.082387804985046387e-02 -4.016514122486114502e-02
2.043023854494094849e-01 -2.161857672035694122e-02 -2.625102400779724121e-01
-1.389402616769075394e-02 7.446618285030126572e-03 4.482326507568359375e-01
-7.199268937110900879e-01 2.038075402379035950e-02 5.564507097005844116e-02
2.278522700071334839e-01 -1.337001286447048187e-02 8.995713293552398682e-02
2.250458002090454102e-01 -6.666841357946395874e-02 -1.995860785245895386e-02
-7.126301527023315430e-01 -3.047109581530094147e-03 -2.764587663114070892e-02
-2.858525216579437256e-01 2.175353467464447021e-03 -6.859583407640457153e-02
1.146663948893547058e-01 8.080512285232543945e-02 -2.442454546689987183e-02
-5.363354682922363281e-01 9.476423263549804688e-02 -9.830937720835208893e-03
3.396227583289146423e-02 -9.026097133755683899e-03 7.511948049068450928e-02
3.023333549499511719e-01 -5.436877161264419556e-02 -2.102612107992172241e-01
-7.359603643417358398e-01 1.700994521379470825e-01 1.000953745096921921e-02
1.674035042524337769e-01 -5.802938342094421387e-02 -6.527688354253768921e-02
1.039042249321937561e-01 -1.031951233744621277e-02 1.819847077131271362e-01
-4.025769829750061035e-01 6.882274895906448364e-02 4.998333379626274109e-02
1.368496567010879517e-01 -1.097841653972864151e-02 -1.392210870981216431e-01
1.054416745901107788e-01 -1.918426860356703401e-04 -3.643238544464111328e-01
6.966536492109298706e-02 -3.997040912508964539e-02 1.370081007480621338e-01
2.509872913360595703e-01 -1.101319938898086548e-01 2.285964041948318481e-01
2.858118414878845215e-01 -3.699310868978500366e-02 2.261804044246673584e-01
1.850720047950744629e-01 -8.392205834388732910e-02 -4.255673661828041077e-02
9.064062237739562988e-01 -5.573539808392524719e-02 -2.862203866243362427e-02
-7.752264738082885742e-01 2.413897775113582611e-02 -3.120886534452438354e-02
7.911459803581237793e-01 -6.920642405748367310e-02 -1.346713677048683167e-02
-1.594395749270915985e-02 -2.162434830097481608e-04 -3.648607432842254639e-01
-4.002097547054290771e-01 -7.286703586578369141e-02 -1.258859224617481232e-02
2.200429737567901611e-01 -1.220411509275436401e-01 -2.506986856460571289e-01
-6.555247306823730469e-01 -3.189266845583915710e-02 -8.415502496063709259e-03
-2.866822481155395508e-01 8.102475851774215698e-02 -2.347278967499732971e-02
8.238474130630493164e-01 4.622462019324302673e-02 -5.688190087676048279e-02
1.906605362892150879e-01 -9.363486617803573608e-02 2.527807950973510742e-01
3.456749022006988525e-01 8.727219700813293457e-02 -1.435951329767704010e-03
-7.319581508636474609e-01 2.392848879098892212e-01 1.120533514767885208e-02
-7.629024386405944824e-01 6.311220675706863403e-02 -3.900757990777492523e-03
-1.594395749270915985e-02 -2.162434830097481608e-04 -3.648607432842254639e-01
-6.729735732078552246e-01 -4.114772018510848284e-04 -3.618728742003440857e-02
4.951983988285064697e-01 -8.928485214710235596e-03 -6.671672314405441284e-02
1.910753995180130005e-01 -3.696870803833007812e-02 2.777949273586273193e-01
2.093296051025390625e-01 -6.666841357946395874e-02 3.101058602333068848e-01
3.107039332389831543e-01 -5.380748212337493896e-02 3.098618090152740479e-01
-6.039590239524841309e-01 4.224676638841629028e-02 -2.932975441217422485e-02
1.885373741388320923e-01 -1.137193813920021057e-01 -2.388627380132675171e-01
4.704283177852630615e-02 -8.597199618816375732e-02 3.470641002058982849e-02
8.116697669029235840e-01 1.889210380613803864e-02 -6.727802008390426636e-02
4.371899962425231934e-01 -5.331940948963165283e-02 4.939763620495796204e-02
-8.062195777893066406e-01 1.792753785848617554e-01 4.006146918982267380e-03
3.218078240752220154e-02 -1.029511168599128723e-02 3.646976649761199951e-01
1.761401295661926270e-01 6.848109513521194458e-02 5.032499134540557861e-02
4.487574994564056396e-01 -6.337387114763259888e-02 3.504806756973266602e-02
-2.548837661743164062e-01 6.240448728203773499e-02 5.593791604042053223e-02
-2.356778234243392944e-01 8.754064142704010010e-02 7.251881994307041168e-03
6.375958919525146484e-01 2.845848351716995239e-02 7.419212907552719116e-02
1.374597549438476562e-01 -3.364365315064787865e-03 2.926569581031799316e-01
-6.106945276260375977e-01 3.699989989399909973e-02 -4.836489632725715637e-02
-1.389402616769075394e-02 7.446618285030126572e-03 4.482326507568359375e-01
2.666058540344238281e-01 5.698679387569427490e-02 -5.283083021640777588e-02
3.308372944593429565e-02 -4.524167254567146301e-02 -6.732682883739471436e-02
3.562906980514526367e-01 8.212294429540634155e-02 -2.193533442914485931e-02
-6.430542469024658203e-01 1.055752113461494446e-01 -6.609604693949222565e-03
2.732437551021575928e-01 -9.993109107017517090e-02 -3.000436425209045410e-01
-7.315676808357238770e-01 3.512078523635864258e-02 -1.605502218008041382e-01
7.457057386636734009e-02 -3.518721461296081543e-02 7.526590675115585327e-02
-6.416631489992141724e-02 1.698859594762325287e-02 5.737669467926025391e-01
2.276570200920104980e-01 -3.974467515945434570e-03 -6.620424240827560425e-02
5.843951553106307983e-02 -1.866568811237812042e-02 -1.297523230314254761e-01
1.443172842264175415e-01 -7.179325819015502930e-02 -1.942171901464462280e-02
-5.389222502708435059e-02 3.517570439726114273e-03 6.608998775482177734e-02
-7.465517520904541016e-01 4.432110488414764404e-02 -1.132063940167427063e-01
1.870731413364410400e-01 -6.644877046346664429e-02 -2.154104560613632202e-01
2.002513259649276733e-01 -6.456967443227767944e-02 -2.823995351791381836e-01
-7.876969575881958008e-01 3.582850843667984009e-02 -9.260939806699752808e-02
-3.701196014881134033e-01 6.413717567920684814e-02 -4.704707860946655273e-02
-6.184793263673782349e-02 2.477348037064075470e-02 -6.461415886878967285e-01
1.304313838481903076e-01 -4.973202198743820190e-02 8.144012838602066040e-02
1.636697165668010712e-02 1.435296423733234406e-02 6.103835627436637878e-02
2.063767313957214355e-01 -4.863383993506431580e-02 -2.496737092733383179e-01
6.947013735771179199e-02 -8.597199618816375732e-02 2.235224237665534019e-04
7.854111194610595703e-01 8.048786967992782593e-02 -2.383884973824024200e-02
1.326033473014831543e-01 -3.528483584523200989e-02 -2.518700659275054932e-01
-8.406536579132080078e-01 3.322154283523559570e-01 1.321703777648508549e-03
2.927425801753997803e-01 8.204972743988037109e-02 -2.210616320371627808e-02
-3.080601058900356293e-02 3.004475310444831848e-02 7.250825315713882446e-02
2.043023854494094849e-01 -2.161857672035694122e-02 -2.625102400779724121e-01
1.902212649583816528e-01 -1.061235833913087845e-02 -1.624781340360641479e-01
3.026750087738037109e-01 1.784273236989974976e-02 3.444854170083999634e-03
4.579823464155197144e-03 1.516440883278846741e-03 4.935265183448791504e-01
-2.054168432950973511e-01 6.799301505088806152e-02 -4.221508279442787170e-02
-4.991437196731567383e-01 7.658322900533676147e-02 1.918545179069042206e-02
7.503912448883056641e-01 -6.012812629342079163e-02 4.129550233483314514e-02
-5.134201049804687500e-01 6.647996604442596436e-02 1.935628056526184082e-02
-8.210328966379165649e-02 1.249825675040483475e-02 5.963407158851623535e-01
-7.416709065437316895e-01 3.914745151996612549e-02 1.948456317186355591e-01
-1.288858056068420410e-01 7.658322900533676147e-02 4.044136032462120056e-02
-8.134919404983520508e-01 1.098520774394273758e-02 -1.205170340836048126e-02
9.380094707012176514e-02 4.005650058388710022e-03 -6.298290938138961792e-02
8.841986060142517090e-01 -3.584612533450126648e-02 5.789024010300636292e-02
1.962734609842300415e-01 -4.265484213829040527e-02 -2.392287850379943848e-01
1.556651592254638672e-01 -5.095222592353820801e-02 5.635278299450874329e-02
1.358490884304046631e-01 -5.219683051109313965e-02 6.140441820025444031e-02
-7.149972915649414062e-01 2.743352204561233521e-02 -1.084964126348495483e-01
2.155770510435104370e-01 8.549069613218307495e-02 -1.378438808023929596e-02
2.281451225280761719e-01 -5.451521277427673340e-02 6.421088427305221558e-02
9.424022585153579712e-02 -5.072649102658033371e-03 -2.425721585750579834e-01
7.273051142692565918e-01 -6.378873437643051147e-02 3.416952490806579590e-02
-3.075476884841918945e-01 -8.065190911293029785e-02 5.348368082195520401e-03
2.293165586888790131e-02 -2.012992650270462036e-02 -2.585567831993103027e-01
-6.314134597778320312e-02 1.742786541581153870e-02 6.586441993713378906e-01
-1.325464099645614624e-01 2.304079569876194000e-02 -6.948276162147521973e-01
2.066695690155029297e-01 -8.084715157747268677e-02 -2.531146705150604248e-01
7.603969573974609375e-01 -1.704892492853105068e-03 -6.757086515426635742e-02
2.126729637384414673e-01 -8.009061962366104126e-02 2.146617025136947632e-01
5.116711258888244629e-01 7.834031432867050171e-02 3.812297806143760681e-02
5.811981558799743652e-01 -6.022574752569198608e-02 -3.333201631903648376e-02
-2.519308961927890778e-02 -5.307536572217941284e-02 -6.342218071222305298e-02
7.226195335388183594e-01 2.023432962596416473e-02 -6.730242073535919189e-02
-2.347260713577270508e-01 -7.684489339590072632e-02 2.509122714400291443e-02
2.058398425579071045e-01 -7.891923934221267700e-02 -2.338843196630477905e-01
8.833687901496887207e-01 4.639544710516929626e-02 5.073985829949378967e-02
-1.072394251823425293e-01 1.047271769493818283e-02 5.477278828620910645e-01
-6.233114004135131836e-01 1.936493366956710815e-01 -1.460355473682284355e-03
-3.183098137378692627e-02 1.201016828417778015e-02 -4.964228272438049316e-01
1.033917721360921860e-02 8.837645873427391052e-03 -4.397566914558410645e-01
-5.599585175514221191e-01 6.374670565128326416e-02 -3.975027427077293396e-02
2.724872231483459473e-01 7.751058042049407959e-02 -3.206300735473632812e-02
-5.763337016105651855e-01 -5.024449154734611511e-02 6.910225842148065567e-03
8.806600421667098999e-02 -4.245961830019950867e-02 -1.168425977230072021e-01
-7.570942491292953491e-02 1.222981233149766922e-02 -5.251951813697814941e-01
3.454797342419624329e-02 -2.254593372344970703e-02 -2.443780452013015747e-01
4.041469395160675049e-01 -6.903560459613800049e-02 2.233357168734073639e-02
2.359056286513805389e-02 5.347876343876123428e-03 -3.966103792190551758e-01
-7.390353083610534668e-01 4.007480293512344360e-02 8.849290013313293457e-02
1.569097638130187988e-01 -9.392771124839782715e-02 -2.865970134735107422e-01
1.156669557094573975e-01 3.992838039994239807e-02 6.928692013025283813e-02
2.572103142738342285e-01 2.053331350907683372e-03 -6.801013648509979248e-02
4.655962884426116943e-01 8.190330862998962402e-02 3.026487864553928375e-02
9.026236832141876221e-02 -7.757091894745826721e-03 2.737194597721099854e-01
6.532144546508789062e-02 -8.597199618816375732e-02 -2.354600094258785248e-02
-8.047309517860412598e-01 3.961113095283508301e-02 1.424501985311508179e-01
-8.237416744232177734e-01 5.256966874003410339e-02 2.102632541209459305e-03
-7.753973007202148438e-01 5.183754488825798035e-02 -1.806591302156448364e-01
2.653368413448333740e-01 -3.982398658990859985e-02 -2.978716790676116943e-01
2.927425801753997803e-01 8.204972743988037109e-02 -2.210616320371627808e-02
-7.177550196647644043e-01 3.848854079842567444e-02 -5.617418885231018066e-02
-5.279892683029174805e-01 -5.463721975684165955e-02 -1.961695402860641479e-02
1.222316473722457886e-01 -5.170261021703481674e-03 -2.468428611755371094e-01
2.278522774577140808e-02 4.051408171653747559e-02 -6.103058904409408569e-02
-7.816203236579895020e-01 1.995063126087188721e-01 6.139869801700115204e-04
-5.867541208863258362e-02 1.567078009247779846e-02 -5.494772195816040039e-01
5.913502573966979980e-01 -6.483811885118484497e-02 -2.398527227342128754e-02
2.936455309391021729e-01 -7.826032489538192749e-02 3.136688470840454102e-01
2.568442523479461670e-01 -2.491312101483345032e-02 9.491115063428878784e-02
-7.712730169296264648e-01 2.521274797618389130e-02 3.939198702573776245e-02
-7.913819551467895508e-01 3.812248259782791138e-02 1.483559757471084595e-01
-6.243363395333290100e-02 2.126542851328849792e-03 4.322236180305480957e-01
-7.654404044151306152e-01 5.972004309296607971e-02 -2.441096007823944092e-01
-7.149972915649414062e-01 2.743352204561233521e-02 -1.084964126348495483e-01
1.900260299444198608e-01 -1.088080368936061859e-02 -1.207960397005081177e-01
-7.943103909492492676e-01 5.515649542212486267e-02 -2.142390757799148560e-01
2.541598081588745117e-01 -4.306970909237861633e-02 -9.773423522710800171e-02
-1.940689533948898315e-01 8.707696199417114258e-02 -2.460920251905918121e-03
2.544526942074298859e-02 1.213219016790390015e-02 5.178084969520568848e-01
1.328717917203903198e-01 -2.379053831100463867e-02 2.607609033584594727e-01
2.995757162570953369e-01 -6.330064684152603149e-02 6.706614792346954346e-02
3.460898101329803467e-01 -6.134833022952079773e-02 -4.860893636941909790e-02
-6.111826300621032715e-01 1.911601275205612183e-01 4.591843113303184509e-03
1.839250177145004272e-01 -1.157693043351173401e-01 -2.519189119338989258e-01
4.179596900939941406e-02 -1.249146647751331329e-02 -3.339896202087402344e-01
3.196846544742584229e-01 -3.657824173569679260e-02 -5.566170066595077515e-02
-6.019334793090820312e-01 6.738290935754776001e-02 3.668313845992088318e-02
8.648949861526489258e-01 3.675585612654685974e-02 -5.373378470540046692e-02
4.262572154402732849e-03 7.300195284187793732e-03 -5.451576709747314453e-01
3.444791436195373535e-01 -7.230574637651443481e-02 -1.878721453249454498e-02
4.279653355479240417e-02 -1.739668287336826324e-02 -1.579389870166778564e-01
2.354907244443893433e-01 -1.159889474511146545e-01 -2.281249761581420898e-01
2.558192908763885498e-01 -3.045283071696758270e-02 -6.740003824234008789e-02
6.263456344604492188e-01 -6.437443196773529053e-02 3.282730281352996826e-02
-1.277388036251068115e-01 1.784273236989974976e-02 -1.600515656173229218e-02
-8.001918196678161621e-01 2.041186839342117310e-01 2.200248651206493378e-03
-1.384277790784835815e-01 1.784273236989974976e-02 1.291361637413501740e-02
2.365157008171081543e-01 -2.469348534941673279e-02 -2.353729605674743652e-01
2.936455309391021729e-01 -7.826032489538192749e-02 3.136688470840454102e-01
6.886734962463378906e-01 -6.920642405748367310e-02 2.116217836737632751e-02
3.874302208423614502e-01 -6.154357269406318665e-02 3.909913823008537292e-02
2.273885756731033325e-01 -4.892668500542640686e-02 3.051518499851226807e-01
1.981769651174545288e-01 -1.152812317013740540e-01 2.899481356143951416e-01
1.209138184785842896e-01 -3.186826780438423157e-02 2.744027674198150635e-01
6.835486888885498047e-01 -6.205604597926139832e-02 3.797655180096626282e-02
-6.441280841827392578e-01 3.878138586878776550e-02 9.700989723205566406e-02
2.178954184055328369e-01 -3.096532076597213745e-02 2.450203150510787964e-01
-6.744134426116943359e-01 3.714632242918014526e-02 2.489599213004112244e-02
-1.369879208505153656e-02 -4.926226101815700531e-03 3.282868564128875732e-01
-1.109000369906425476e-01 -4.736483469605445862e-02 4.883634671568870544e-02
9.780320525169372559e-01 4.981809761375188828e-03 -7.341725286096334457e-03
-1.371831744909286499e-01 -2.754263579845428467e-03 -6.803454458713531494e-02
-3.944016098976135254e-01 3.255836293101310730e-02 -6.432513147592544556e-02
1.779948472976684570e-01 -1.002666633576154709e-02 -2.179728895425796509e-01
-8.048529624938964844e-01 4.395504668354988098e-02 1.922588050365447998e-01
-7.969948649406433105e-01 3.175913821905851364e-03 1.642779633402824402e-02
3.327651917934417725e-01 -3.967756032943725586e-02 6.787148863077163696e-02
-6.810024976730346680e-01 4.022122547030448914e-02 -4.773038998246192932e-02
-4.459429159760475159e-02 -6.232449039816856384e-02 6.506501883268356323e-02
9.670503437519073486e-02 -5.410034582018852234e-02 5.476652085781097412e-02
2.100129127502441406e-01 -2.093526162207126617e-02 -2.515772283077239990e-01
-1.288858056068420410e-01 7.658322900533676147e-02 4.044136032462120056e-02
5.368072912096977234e-02 8.642421104013919830e-03 4.620941281318664551e-01
-2.502225525677204132e-02 1.503626815974712372e-02 -5.226327776908874512e-01
-7.940419316291809082e-01 5.383867397904396057e-02 -2.793734371662139893e-01
-7.565330266952514648e-01 4.890906065702438354e-02 1.578247249126434326e-01
3.293730691075325012e-02 -4.486947786062955856e-03 -4.235768318176269531e-01
7.873390316963195801e-01 3.875698521733283997e-02 7.043390721082687378e-02
2.875201106071472168e-01 -1.105956584215164185e-01 -2.902576029300689697e-01
-5.345294624567031860e-02 -3.672466427087783813e-02 6.931132078170776367e-02
1.522241979837417603e-01 -2.778664231300354004e-03 -6.583818048238754272e-02
2.548675239086151123e-01 -5.502768605947494507e-02 6.286866217851638794e-02
1.964442878961563110e-01 -4.209354892373085022e-02 -1.380741000175476074e-01
-7.943836450576782227e-01 4.107537120580673218e-02 1.761765480041503906e-01
-7.431107163429260254e-01 2.553000487387180328e-02 -7.115826010704040527e-02
5.800999999046325684e-01 3.568207472562789917e-02 7.158090174198150635e-02
-7.198293209075927734e-01 2.077732002362608910e-03 -3.052555397152900696e-02
-5.684511363506317139e-02 8.117118477821350098e-02 3.104580938816070557e-02
-6.347324848175048828e-01 2.882454916834831238e-02 8.688222616910934448e-02
3.829886615276336670e-01 7.841353118419647217e-02 -3.011068329215049744e-02
3.293730691075325012e-02 -4.486947786062955856e-03 -4.235768318176269531e-01
-3.700463101267814636e-02 8.203143253922462463e-03 -5.525764822959899902e-01
1.739925891160964966e-01 -1.002666633576154709e-02 1.366420388221740723e-01
1.690873652696609497e-01 -6.359349191188812256e-02 3.049077987670898438e-01
6.676128506660461426e-01 5.359463393688201904e-02 6.306388974189758301e-02
-8.329907059669494629e-02 -7.269012276083230972e-03 -6.752205640077590942e-02
2.408596128225326538e-01 1.784273236989974976e-02 3.253445401787757874e-02
6.092628240585327148e-01 7.367914915084838867e-02 -3.677298501133918762e-02
-1.060924381017684937e-01 1.388928480446338654e-02 -5.705378651618957520e-01
1.232322081923484802e-01 -3.559599164873361588e-03 2.521463036537170410e-01
1.279665827751159668e-01 -1.415094826370477676e-02 2.737682461738586426e-01
1.169603690505027771e-01 -4.084894433617591858e-02 -1.360485702753067017e-01
-8.027786016464233398e-01 5.278930440545082092e-02 2.774776816368103027e-01
-6.216518953442573547e-02 5.006219260394573212e-03 4.620697200298309326e-01
3.122414052486419678e-01 -7.001176476478576660e-02 1.564686745405197144e-02
1.163258701562881470e-01 -4.077574238181114197e-02 2.760134339332580566e-01
-7.170960903167724609e-01 2.966587543487548828e-01 6.300125271081924438e-03
7.401171922683715820e-01 5.708441138267517090e-02 6.062348932027816772e-02
2.811994552612304688e-01 -1.140854284167289734e-01 2.547331154346466064e-01
2.030821889638900757e-01 -6.125070899724960327e-02 -3.184336796402931213e-02
-3.035454154014587402e-01 -7.838234305381774902e-02 2.008840069174766541e-02
-7.160710692405700684e-01 -1.876330934464931488e-02 -3.949565812945365906e-03
-5.170562863349914551e-01 -5.737047269940376282e-02 -1.717654988169670105e-02
3.470415472984313965e-01 -4.233759641647338867e-02 5.950090661644935608e-02
-9.606238454580307007e-02 -2.851875731721520424e-03 7.590041309595108032e-02
-2.622781991958618164e-01 -4.189832508563995361e-02 -5.685749650001525879e-02
-1.281292736530303955e-01 4.622462019324302673e-02 -5.873660743236541748e-02
1.350437551736831665e-01 -3.355213999748229980e-02 -2.384722679853439331e-01
-5.437786579132080078e-01 -2.447385154664516449e-02 5.979375168681144714e-02
4.970291163772344589e-03 1.554875727742910385e-02 -5.239749550819396973e-01
5.553543567657470703e-02 4.469329025596380234e-03 3.788031935691833496e-01
6.244909763336181641e-01 6.835906952619552612e-02 5.095949396491050720e-02
4.961257278919219971e-01 8.180569857358932495e-02 -2.264305017888545990e-02
-2.622781991958618164e-01 -4.189832508563995361e-02 -5.685749650001525879e-02
4.555468331091105938e-04 -3.608400700613856316e-03 -6.791252642869949341e-02
-6.319748759269714355e-01 8.195211738348007202e-02 -7.780998945236206055e-03
-7.802780717611312866e-02 1.020427234470844269e-02 -5.036602914333343506e-02
-6.693129539489746094e-01 1.188021972775459290e-01 -5.242979619652032852e-03
5.077664926648139954e-02 2.831205911934375763e-02 7.333798706531524658e-02
1.911486089229583740e-01 -6.173879653215408325e-02 2.411156743764877319e-01
-5.823126435279846191e-01 6.796860694885253906e-02 -3.106244094669818878e-02
6.605358328670263290e-03 8.224496245384216309e-02 -2.110559679567813873e-02
1.026596594601869583e-02 -8.528868108987808228e-02 -3.591884300112724304e-02
2.411280572414398193e-01 -2.164297737181186676e-02 2.744515836238861084e-01
5.212130546569824219e-01 7.480173557996749878e-02 -3.545516729354858398e-02
2.389316856861114502e-01 -3.103853203356266022e-02 -1.358533352613449097e-01
-6.998668313026428223e-01 2.404135651886463165e-02 -8.816786110401153564e-02
1.022691503167152405e-01 -2.022754773497581482e-02 -2.736628949642181396e-01
2.738050520420074463e-01 1.179053355008363724e-02 7.619325816631317139e-02
3.196846544742584229e-01 -3.657824173569679260e-02 -5.566170066595077515e-02
1.815822422504425049e-01 -6.325184553861618042e-02 2.939747869968414307e-01
-7.765687108039855957e-01 5.581540241837501526e-02 -2.091142386198043823e-01
-4.469190537929534912e-02 5.543109960854053497e-03 -4.397322833538055420e-01
-1.025782432407140732e-02 -3.169131698086857796e-03 -3.383579552173614502e-01
-7.862814664840698242e-01 5.691358447074890137e-02 1.794084534049034119e-02
-2.779211997985839844e-01 -4.706582520157098770e-03 7.568077743053436279e-02
-7.241488248109817505e-02 1.701299659907817841e-02 5.796239376068115234e-01
-8.446071147918701172e-01 2.968783676624298096e-01 2.956773620098829269e-03
-7.584609389305114746e-01 2.523715794086456299e-02 -5.012198910117149353e-02
1.986894607543945312e-01 -1.534674223512411118e-02 2.044608294963836670e-01
7.915121316909790039e-01 -3.655384108424186707e-02 -5.619858950376510620e-02
2.114771604537963867e-01 -4.980522394180297852e-02 3.078607022762298584e-01
-4.252971112728118896e-01 -7.084149867296218872e-02 2.208952978253364563e-02
6.964096426963806152e-02 1.779393106698989868e-02 4.966608062386512756e-02
2.929378151893615723e-01 -4.082454368472099304e-02 2.423114776611328125e-01
-1.303012371063232422e-01 2.367529831826686859e-02 -7.040035128593444824e-01
7.239861786365509033e-02 6.787714548408985138e-03 6.906728446483612061e-02
-3.361247479915618896e-02 -2.659699507057666779e-02 1.686356961727142334e-01
-4.620495438575744629e-02 -1.415094826370477676e-02 2.846524417400360107e-01
1.414620131254196167e-01 -1.086677461862564087e-01 -2.504058480262756348e-01
-1.192462220788002014e-01 -1.981268078088760376e-02 -6.571616232395172119e-02
3.479688763618469238e-01 3.697549179196357727e-02 -6.322694569826126099e-02
-6.521569192409515381e-02 1.254132221220061183e-04 -4.405131936073303223e-01
6.502860039472579956e-02 9.911426343023777008e-03 -5.863898992538452148e-02
3.154871165752410889e-01 -2.044718340039253235e-02 -6.322694569826126099e-02
1.048315688967704773e-01 -3.040402941405773163e-02 2.135635316371917725e-01
2.129658311605453491e-02 -2.545001171529293060e-02 -1.065684929490089417e-01
-7.261011600494384766e-01 7.855994999408721924e-02 8.545295335352420807e-03
4.016089439392089844e-02 -1.595684327185153961e-02 1.821311265230178833e-01
6.933346986770629883e-01 -1.922697946429252625e-02 -6.373943388462066650e-02
8.909097313880920410e-02 -1.998350396752357483e-02 -2.737360894680023193e-01
5.734620690345764160e-01 -6.981653720140457153e-02 1.689147204160690308e-02
3.213197365403175354e-02 -2.586487866938114166e-02 2.275226265192031860e-01
2.796620130538940430e-01 -8.360481262207031250e-02 4.263772442936897278e-02
-7.493337988853454590e-01 2.707172632217407227e-01 1.061963848769664764e-02
2.842255532741546631e-01 -8.223818242549896240e-02 2.599555850028991699e-01
4.877552017569541931e-02 1.779393106698989868e-02 -4.180021211504936218e-02
-1.243710592389106750e-01 -4.004361107945442200e-02 4.615190252661705017e-02
6.183167174458503723e-02 -5.121450405567884445e-03 4.276844561100006104e-01
-3.668494820594787598e-01 5.635228753089904785e-02 -5.253798514604568481e-02
-2.336278371512889862e-02 -8.220762014389038086e-03 -2.992382943630218506e-01
3.115092813968658447e-01 -1.116450428962707520e-01 2.807234227657318115e-01
-3.622370585799217224e-02 -2.022754773497581482e-02 -2.119206935167312622e-01
-6.360747218132019043e-01 1.011580899357795715e-01 1.489034295082092285e-02
1.035869568586349487e-01 2.230867184698581696e-02 -6.676553189754486084e-02
1.155205294489860535e-01 -8.660039864480495453e-03 -1.840024739503860474e-01
8.152572065591812134e-02 -7.708281278610229492e-03 -3.921200335025787354e-01
-4.269321858882904053e-01 7.917005568742752075e-02 3.609744086861610413e-02
-7.545318603515625000e-01 3.531601652503013611e-02 6.967738270759582520e-02
-8.957091718912124634e-02 -3.223433345556259155e-02 6.274663656949996948e-02
1.030256673693656921e-01 -8.153046667575836182e-02 5.542543157935142517e-02
1.751883774995803833e-01 -2.010552585124969482e-02 2.564170062541961670e-01
1.673302799463272095e-01 -9.343353100121021271e-03 2.504380047321319580e-01
1.328717917203903198e-01 -2.379053831100463867e-02 2.607609033584594727e-01
-7.614138126373291016e-01 4.212474077939987183e-02 -2.034769058227539062e-01
-5.887308716773986816e-01 1.362083945423364639e-02 6.469896435737609863e-02
1.304313838481903076e-01 -4.973202198743820190e-02 8.144012838602066040e-02
-6.684344410896301270e-01 4.468716681003570557e-02 1.060149818658828735e-01
-7.920896410942077637e-01 5.723083391785621643e-02 2.347218245267868042e-01
2.066695690155029297e-01 -8.084715157747268677e-02 -2.531146705150604248e-01
-4.911392033100128174e-01 7.129371166229248047e-03 7.399689406156539917e-02
2.322205901145935059e-01 3.382736817002296448e-02 7.226420938968658447e-02
1.593745797872543335e-01 -4.828604403883218765e-03 7.431414723396301270e-02
-7.920896410942077637e-01 5.723083391785621643e-02 2.347218245267868042e-01
1.968835592269897461e-01 -1.087897643446922302e-01 -2.892570495605468750e-01
6.553132534027099609e-01 -5.673597753047943115e-02 -3.748069703578948975e-02
-7.253690361976623535e-01 -1.727465912699699402e-02 -3.621741489041596651e-04
2.927913963794708252e-01 6.474727392196655273e-02 -4.736433178186416626e-02
-1.303012371063232422e-01 2.367529831826686859e-02 -7.040035128593444824e-01
1.073451936244964600e-01 -4.973202198743820190e-02 -6.456916779279708862e-02
-8.506593108177185059e-01 3.380296751856803894e-02 1.525640301406383514e-02
-7.120932936668395996e-01 1.296863853931427002e-01 -2.826980547979474068e-03
8.118408732116222382e-03 -1.603005453944206238e-02 7.487543672323226929e-02
2.300974279642105103e-01 -6.974331289529800415e-02 3.134979903697967529e-01
2.432271139696240425e-03 -1.216812757775187492e-03 -3.467529416084289551e-01
1.781900674104690552e-01 -1.175019964575767517e-01 -2.587764263153076172e-01
-8.006798624992370605e-01 5.891471356153488159e-02 2.510481178760528564e-01
1.150568649172782898e-01 -1.371166948229074478e-02 -1.265553981065750122e-01
1.569097638130187988e-01 -9.392771124839782715e-02 -2.865970134735107422e-01
4.555468331091105938e-04 -3.608400700613856316e-03 -6.791252642869949341e-02
1.081261113286018372e-01 -4.455835744738578796e-02 -1.076666712760925293e-01
8.358297944068908691e-01 7.982896268367767334e-02 -2.534132450819015503e-03
2.390781417489051819e-02 -4.529049247503280640e-02 -6.732682883739471436e-02
1.126164570450782776e-01 1.345617114566266537e-03 -6.830298900604248047e-02
-6.106945276260375977e-01 3.699989989399909973e-02 -4.836489632725715637e-02
9.028677642345428467e-02 -8.025537244975566864e-03 2.193716764450073242e-01
2.993560731410980225e-01 -3.711513057351112366e-02 -6.469119340181350708e-02
2.461064755916595459e-01 -7.699131965637207031e-02 3.142057359218597412e-01
4.698913991451263428e-01 -3.106293268501758575e-02 -5.927349999547004700e-02
-4.342290014028549194e-02 5.158806452527642250e-04 4.590680301189422607e-01
-3.301946222782135010e-01 -6.230008974671363831e-02 4.795779660344123840e-02
1.827048324048519135e-02 8.473417162895202637e-02 -1.585873216390609741e-02
1.768966615200042725e-01 -5.529613047838211060e-02 3.046149313449859619e-01
1.646458730101585388e-02 -3.711513057351112366e-02 1.367396563291549683e-01
-1.001378595829010010e-01 1.784273236989974976e-02 -2.125202305614948273e-02
-7.970680594444274902e-01 3.407141193747520447e-02 3.297372907400131226e-02
-1.072394251823425293e-01 1.047271769493818283e-02 5.477278828620910645e-01
1.575686633586883545e-01 -7.244602311402559280e-03 -2.541152536869049072e-01
-8.081230521202087402e-01 1.951624006032943726e-01 4.469823557883501053e-03
-8.366514444351196289e-01 5.647430941462516785e-02 2.617126703262329102e-01
-6.661404967308044434e-01 1.814229190349578857e-01 -5.438211373984813690e-03
8.358297944068908691e-01 7.982896268367767334e-02 -2.534132450819015503e-03
5.208714008331298828e-01 4.149023815989494324e-02 -6.151866912841796875e-02
1.560068130493164062e-01 -8.597199618816375732e-02 -2.227699011564254761e-02
-8.342109620571136475e-02 4.239318892359733582e-02 6.811552494764328003e-02
1.815822422504425049e-01 -6.325184553861618042e-02 2.939747869968414307e-01
-7.753971964120864868e-02 1.884330250322818756e-02 -6.644689440727233887e-01
5.773179531097412109e-01 -6.776659935712814331e-02 2.543288096785545349e-02
-7.663677632808685303e-02 1.093639712780714035e-02 -5.144330263137817383e-01
2.555752396583557129e-01 -7.755260914564132690e-02 6.098955124616622925e-02
8.897138833999633789e-01 -3.779233666136860847e-03 -5.871220305562019348e-02
-2.220115661621093750e-01 -2.789041027426719666e-02 -6.283648312091827393e-02
1.439268141984939575e-01 -5.219072103500366211e-03 2.247893661260604858e-01
-8.241077065467834473e-01 5.200837180018424988e-02 2.250334173440933228e-01
3.471147418022155762e-01 -5.075697973370552063e-02 6.245378777384757996e-02
3.503360748291015625e-01 -5.170261021703481674e-03 7.502187043428421021e-02
7.603969573974609375e-01 -1.704892492853105068e-03 -6.757086515426635742e-02
-7.227577567100524902e-01 4.153905063867568970e-02 -1.900546848773956299e-01
7.116133570671081543e-01 6.525976210832595825e-02 5.462009832262992859e-02
7.273051142692565918e-01 -6.378873437643051147e-02 3.416952490806579590e-02
2.357347607612609863e-01 -7.960254698991775513e-02 -5.051245167851448059e-02
2.122092843055725098e-01 -3.506519272923469543e-02 -1.647965162992477417e-01
-4.186103865504264832e-02 -2.078883908689022064e-02 2.216168493032455444e-01
-7.663677632808685303e-02 1.093639712780714035e-02 -5.144330263137817383e-01
3.454308807849884033e-01 -3.660264238715171814e-02 6.565071642398834229e-02
8.514483571052551270e-01 5.354582890868186951e-02 5.462009832262992859e-02
2.773924469947814941e-01 8.568593114614486694e-02 -1.239336095750331879e-02
-6.693129539489746094e-01 1.188021972775459290e-01 -5.242979619652032852e-03
-9.079112112522125244e-02 3.541971324011683464e-03 4.751991033554077148e-01
1.141539067029953003e-01 -8.597199618816375732e-02 -2.088596113026142120e-02
5.812225863337516785e-02 5.689532961696386337e-03 4.732955992221832275e-01
-1.109000369906425476e-01 -4.736483469605445862e-02 4.883634671568870544e-02
2.566978335380554199e-01 1.784273236989974976e-02 7.593538612127304077e-03
-7.198293209075927734e-01 2.077732002362608910e-03 -3.052555397152900696e-02
2.359056286513805389e-02 5.347876343876123428e-03 -3.966103792190551758e-01
3.037731945514678955e-01 -9.590443223714828491e-02 2.220561355352401733e-01
9.231230020523071289e-01 -6.215366721153259277e-02 -1.271061226725578308e-02
1.692826151847839355e-01 -7.909005880355834961e-02 2.212996035814285278e-01
6.933346986770629883e-01 -1.922697946429252625e-02 -6.373943388462066650e-02
1.817774623632431030e-01 -4.097096621990203857e-02 -1.444679498672485352e-01
2.814190983772277832e-01 -9.124325960874557495e-02 2.350146770477294922e-01
-3.927420824766159058e-02 1.986247225431725383e-04 3.952026963233947754e-01
-7.431107163429260254e-01 2.553000487387180328e-02 -7.115826010704040527e-02
-7.553859949111938477e-01 2.445622347295284271e-02 4.315020889043807983e-02
2.306831330060958862e-01 1.784273236989974976e-02 -1.988539658486843109e-02
-4.318617880344390869e-01 3.660943359136581421e-02 -6.305612623691558838e-02
3.006982803344726562e-01 -2.364411577582359314e-02 -2.588496506214141846e-01
2.566978335380554199e-01 1.784273236989974976e-02 7.593538612127304077e-03
1.174240484833717346e-01 -1.001995354890823364e-01 2.767699658870697021e-01
1.163258701562881470e-01 -4.077574238181114197e-02 2.760134339332580566e-01
-9.105956554412841797e-02 -6.701005995273590088e-02 2.269963175058364868e-02
1.863654255867004395e-01 -1.001995354890823364e-01 -2.513576149940490723e-01
1.303093731403350830e-01 -2.632241230458021164e-03 3.154015243053436279e-01
-2.811913490295410156e-01 -7.962694764137268066e-02 -4.071586299687623978e-03
6.122156977653503418e-02 1.784273236989974976e-02 -1.669418707024306059e-04
-7.344961166381835938e-01 1.193634867668151855e-01 -8.258505258709192276e-04
1.355318427085876465e-01 -1.749429479241371155e-02 -2.912825942039489746e-01
-1.053115054965019226e-01 1.745227538049221039e-02 6.466373801231384277e-01
-2.125672250986099243e-01 3.507198393344879150e-02 7.072675973176956177e-02
-2.380206063389778137e-02 -3.355213999748229980e-02 -1.354384571313858032e-01
7.639355659484863281e-01 -5.251407623291015625e-02 5.034939572215080261e-02
7.971982657909393311e-02 -2.525477670133113861e-02 2.442881911993026733e-01
6.680033206939697266e-01 -3.594374656677246094e-02 6.396684050559997559e-02
-7.820352315902709961e-01 2.901978418231010437e-02 6.028183177113533020e-02
2.176269888877868652e-01 -1.073987409472465515e-01 -2.823019027709960938e-01
8.881276845932006836e-01 6.647996604442596436e-02 -5.574064562097191811e-04
2.196525037288665771e-01 -1.112545728683471680e-01 2.427995502948760986e-01
8.740221261978149414e-01 -2.269235625863075256e-02 -5.712594091892242432e-02
1.314075589179992676e-01 -1.085640303790569305e-02 2.493398338556289673e-01
7.464134693145751953e-01 1.159530039876699448e-02 7.621765881776809692e-02
-7.081885933876037598e-01 2.174676805734634399e-01 -4.120394121855497360e-03
1.314075589179992676e-01 -1.085640303790569305e-02 2.493398338556289673e-01
1.174972653388977051e-01 -7.184205949306488037e-02 -2.247572094202041626e-01
2.718527317047119141e-01 1.784273236989974976e-02 -1.402842998504638672e-02
6.933346986770629883e-01 -1.922697946429252625e-02 -6.373943388462066650e-02
-4.430143535137176514e-02 1.452378742396831512e-02 -5.289778113365173340e-01
7.127603143453598022e-02 -6.522856652736663818e-02 -6.249482557177543640e-02
7.854111194610595703e-01 8.048786967992782593e-02 -2.383884973824024200e-02
8.546696901321411133e-01 7.619276642799377441e-02 1.028855447657406330e-03
1.788977831602096558e-01 -4.814574867486953735e-02 1.046239584684371948e-01
-7.032101750373840332e-01 3.272919729351997375e-02 1.534564048051834106e-01
2.126729637384414673e-01 -8.009061962366104126e-02 2.146617025136947632e-01
2.598215341567993164e-01 -6.949926912784576416e-02 1.906343176960945129e-02
-2.898547947406768799e-01 -7.047542929649353027e-02 -3.045233897864818573e-02
1.556651592254638672e-01 -5.095222592353820801e-02 5.635278299450874329e-02
1.938574612140655518e-01 -7.067067176103591919e-02 1.110771857202053070e-02
5.511324405670166016e-01 -6.571665406227111816e-02 -2.205735445022583008e-02
-6.682635843753814697e-02 -1.802504877559840679e-03 -4.141568839550018311e-01
1.480022966861724854e-01 1.537792477756738663e-02 -6.759526580572128296e-02
3.004054427146911621e-01 -1.485257991589605808e-03 -6.298290938138961792e-02
-8.027542233467102051e-01 4.039205983281135559e-02 1.554087400436401367e-01
7.852402329444885254e-02 1.784273236989974976e-02 -3.574801236391067505e-02
-1.709827482700347900e-01 -1.412046491168439388e-03 -1.886042766273021698e-02
-5.763337016105651855e-01 -5.024449154734611511e-02 6.910225842148065567e-03
7.294037938117980957e-01 8.578354120254516602e-02 -1.180766429752111435e-02
1.624494791030883789e-01 -6.805333308875560760e-03 2.132462859153747559e-01
1.504427045583724976e-01 -1.095401588827371597e-02 3.024674057960510254e-01
-6.028608232736587524e-02 -1.371166948229074478e-02 7.465580850839614868e-02
8.259950578212738037e-02 4.127672407776117325e-03 -3.930473923683166504e-01
-7.101897001266479492e-01 1.167766675353050232e-01 -2.680556382983922958e-03
-7.580703496932983398e-02 8.287946879863739014e-02 2.750722505152225494e-02
5.974756479263305664e-01 -2.635295875370502472e-02 6.892085820436477661e-02
-3.195300400257110596e-01 8.695493638515472412e-02 1.118093077093362808e-02
-5.153480172157287598e-01 8.468537032604217529e-02 7.935195229947566986e-03
3.199042975902557373e-01 -5.109864845871925354e-02 6.879884004592895508e-02
-8.362121582031250000e-01 2.700339555740356445e-01 3.200813895091414452e-03
-5.823126435279846191e-01 6.796860694885253906e-02 -3.106244094669818878e-02
-8.217649161815643311e-02 4.688963759690523148e-03 -4.886867403984069824e-01
2.192620486021041870e-01 -7.901685684919357300e-02 5.913484469056129456e-02
1.381430625915527344e-01 -2.171619795262813568e-02 2.737682461738586426e-01
1.551770716905593872e-01 -3.186826780438423157e-02 -2.019150406122207642e-01
1.488320380449295044e-01 5.608384683728218079e-02 -5.263560265302658081e-02
8.648949861526489258e-01 3.675585612654685974e-02 -5.373378470540046692e-02
-6.133542861789464951e-03 -1.534059643745422363e-03 -3.499986827373504639e-01
1.324569284915924072e-01 -8.597199618816375732e-02 2.570132538676261902e-02
-7.565330266952514648e-01 4.890906065702438354e-02 1.578247249126434326e-01
3.053106367588043213e-01 -1.099367514252662659e-01 -2.731015682220458984e-01
2.350758612155914307e-01 -8.626484125852584839e-02 2.158330976963043213e-01
1.523950248956680298e-01 -7.073778659105300903e-03 1.895255595445632935e-01
1.908801645040512085e-01 -2.425420843064785004e-02 -2.423037141561508179e-01
-5.274035334587097168e-01 -3.028200753033161163e-02 5.876878276467323303e-02
-3.668494820594787598e-01 5.635228753089904785e-02 -5.253798514604568481e-02
2.529887948185205460e-03 -1.632290147244930267e-02 -6.664351373910903931e-02
1.429018527269363403e-01 -7.891923934221267700e-02 5.925686657428741455e-02
9.924327023327350616e-04 -4.438137169927358627e-03 -4.160115718841552734e-01
-5.535646528005599976e-02 1.872128061950206757e-02 -5.774441957473754883e-01
6.892104148864746094e-01 8.519785106182098389e-02 -1.517541799694299698e-02
-5.788228511810302734e-01 1.319803595542907715e-01 -5.169767420738935471e-03
1.605215668678283691e-01 -7.264739274978637695e-02 2.474956959486007690e-02
3.013328015804290771e-01 1.784273236989974976e-02 1.923425868153572083e-02
5.492532849311828613e-01 7.873078435659408569e-02 -2.937856316566467285e-02
