2.179097384214401245e-01 -1.193770989775657654e-01 -2.260619252920150757e-01
1.228988990187644958e-01 -7.030639052391052246e-02 7.037487626075744629e-02
6.383277773857116699e-01 6.152611598372459412e-02 7.044941186904907227e-02
-4.312160983681678772e-02 -2.473895624279975891e-02 2.810186743736267090e-01
4.627405107021331787e-02 7.817289233207702637e-02 -4.863713681697845459e-02
-8.759582042694091797e-02 -3.117405436933040619e-02 3.856945931911468506e-01
-1.007756334729492664e-03 -1.514842547476291656e-02 -3.439558446407318115e-01
4.972525238990783691e-01 4.820869863033294678e-02 -7.701118290424346924e-02
-6.032482981681823730e-01 3.402167186141014099e-02 8.202761411666870117e-02
9.857473522424697876e-02 -6.533721089363098145e-02 8.930747210979461670e-02
-2.688220441341400146e-01 8.716711401939392090e-02 -3.052444756031036377e-02
5.570318698883056641e-01 9.260837733745574951e-02 1.362677011638879776e-02
8.021368980407714844e-01 4.967460781335830688e-02 -8.138265460729598999e-03
-4.431162178516387939e-01 8.197432011365890503e-02 9.304994018748402596e-04
2.815401852130889893e-01 -7.298974692821502686e-02 -6.001656875014305115e-02
2.099590301513671875e-01 -1.414846192346885800e-04 -8.839062601327896118e-02
7.627809643745422363e-01 -1.284394529648125172e-03 9.017708152532577515e-02
-7.170923352241516113e-01 2.996246814727783203e-01 3.390246303752064705e-03
1.253089606761932373e-01 -3.755945712327957153e-02 2.794533967971801758e-01
-6.352002024650573730e-01 3.431982174515724182e-02 -3.927021473646163940e-02
9.997863173484802246e-01 -1.632237923331558704e-03 2.060847729444503784e-02
-6.513251662254333496e-01 1.345731467008590698e-01 4.483325779438018799e-02
1.879207044839859009e-01 6.701707094907760620e-02 -6.282415986061096191e-02
6.916222572326660156e-01 9.377612918615341187e-02 8.559616398997604847e-04
2.380846291780471802e-01 2.467959746718406677e-02 8.950623869895935059e-02
2.053625583648681641e-01 -1.050658449530601501e-01 2.923732697963714600e-01
-4.027664363384246826e-01 -4.926189035177230835e-02 -5.671206116676330566e-02
-1.175103336572647095e-01 -5.865365266799926758e-02 -7.986846566200256348e-02
-6.234728693962097168e-01 1.732520200312137604e-02 4.470902681350708008e-02
2.010641992092132568e-01 5.735199898481369019e-02 7.365453988313674927e-02
1.112461611628532410e-01 -5.731196328997612000e-02 -1.438467353582382202e-01
-1.439971197396516800e-02 -1.452727615833282471e-02 4.749909043312072754e-01
-1.497851908206939697e-01 7.240863144397735596e-02 5.951720103621482849e-02
5.571063756942749023e-01 -4.985818639397621155e-02 -7.050155103206634521e-02
-5.990741252899169922e-01 1.324860900640487671e-01 3.566511347889900208e-02
-5.032793153077363968e-03 -7.537496089935302734e-02 -1.821591705083847046e-01
-1.626315154135227203e-02 -3.184488788247108459e-02 1.913745552301406860e-01
4.610023498535156250e-01 2.236892655491828918e-02 8.980438858270645142e-02
-5.318658947944641113e-01 -3.355926275253295898e-02 -3.064867854118347168e-02
-5.961422920227050781e-01 3.948777541518211365e-02 -1.574623137712478638e-01
-7.369939684867858887e-01 2.122601680457592010e-02 7.614054251462221146e-03
8.997317552566528320e-01 6.604807823896408081e-02 -1.593988761305809021e-02
3.986638784408569336e-01 -8.613324910402297974e-02 8.284894749522209167e-03
8.302117884159088135e-02 -3.035413473844528198e-02 1.009353697299957275e-01
4.853503406047821045e-02 -1.271352171897888184e-02 3.748369216918945312e-01
1.237933561205863953e-01 -6.235568597912788391e-02 1.157435402274131775e-01
2.500852048397064209e-01 -1.152526885271072388e-01 -2.208691239356994629e-01
-2.799281477928161621e-01 -1.432850677520036697e-02 -7.384098768234252930e-01
7.611401379108428955e-02 -8.302751183509826660e-02 -5.420262366533279419e-02
2.179097384214401245e-01 -1.193770989775657654e-01 -2.260619252920150757e-01
7.799991965293884277e-01 -3.570223692804574966e-03 8.883539587259292603e-02
2.128411680459976196e-01 8.485644310712814331e-02 4.021191224455833435e-02
-6.516481637954711914e-01 -3.595066489651799202e-03 2.436021156609058380e-02
7.374878525733947754e-01 9.146545827388763428e-02 -1.472243759781122208e-02
-5.128090977668762207e-01 3.441920503973960876e-02 5.141742900013923645e-02
-4.147173464298248291e-01 1.783765256404876709e-01 2.388813905417919159e-02
9.583184719085693359e-01 2.266708388924598694e-02 3.755340352654457092e-02
-7.293662428855895996e-01 1.525119096040725708e-01 -1.504543423652648926e-02
4.771025180816650391e-01 -7.535011321306228638e-02 -4.240080714225769043e-02
-6.090621948242187500e-01 2.535044215619564056e-02 -5.596668273210525513e-02
-6.305539608001708984e-01 1.576053202152252197e-01 3.266016952693462372e-03
1.913991272449493408e-01 -1.250171214342117310e-01 2.468058317899703979e-01
6.728884577751159668e-01 8.475706726312637329e-02 4.001314938068389893e-02
9.857473522424697876e-02 -6.533721089363098145e-02 8.930747210979461670e-02
2.905582450330257416e-02 -4.965942725539207458e-02 -1.559467166662216187e-01
-7.081974744796752930e-01 2.914752066135406494e-01 3.837472992017865181e-03
-1.439971197396516800e-02 -1.452727615833282471e-02 4.749909043312072754e-01
2.177596651017665863e-02 -9.617101401090621948e-02 -1.944316364824771881e-02
7.251642346382141113e-01 -8.667986094951629639e-02 -7.590238237753510475e-04
-1.659350544214248657e-01 -1.673856750130653381e-02 6.690872311592102051e-01
-1.634504497051239014e-01 -3.758430108428001404e-02 8.185369521379470825e-02
1.576086729764938354e-01 -4.379578679800033569e-02 -2.291676551103591919e-01
-1.899620331823825836e-02 3.911508992314338684e-02 8.418921381235122681e-02
3.606237843632698059e-02 -1.296198554337024689e-02 3.623642921447753906e-01
8.724499493837356567e-02 -4.096334427595138550e-02 2.596760392189025879e-01
-3.412737697362899780e-02 -4.533623158931732178e-02 9.532018750905990601e-02
-2.943149581551551819e-02 -4.513746500015258789e-02 1.970642805099487305e-01
-6.591516733169555664e-01 3.160727024078369141e-01 4.905848298221826553e-03
7.241095416247844696e-03 -1.137184258550405502e-02 4.260195493698120117e-01
1.872995644807815552e-01 9.340344369411468506e-02 7.440132554620504379e-03
2.492901682853698730e-01 -7.179715484380722046e-02 7.263585925102233887e-02
3.060879409313201904e-01 -9.130120277404785156e-02 -2.829591035842895508e-01
-6.153243780136108398e-02 -4.307525604963302612e-02 1.685162931680679321e-01
-6.140313744544982910e-01 2.659274078905582428e-02 1.074698492884635925e-01
-1.214359849691390991e-01 5.968751758337020874e-02 -6.846418976783752441e-02
-2.358763217926025391e-01 9.001823142170906067e-03 -8.816700428724288940e-02
-6.266283392906188965e-01 2.065518200397491455e-01 -3.815073054283857346e-03
-5.273439288139343262e-01 1.023479849100112915e-01 1.576493727043271065e-03
-7.306830883026123047e-01 1.290076673030853271e-01 3.593841567635536194e-02
1.576086729764938354e-01 -4.379578679800033569e-02 -2.291676551103591919e-01
7.628794014453887939e-02 -2.265189588069915771e-02 -1.740345507860183716e-01
-4.463959038257598877e-01 1.059257984161376953e-01 2.247333759441971779e-03
-6.516481637954711914e-01 -3.595066489651799202e-03 2.436021156609058380e-02
4.617466777563095093e-02 -6.200785189867019653e-02 1.008856743574142456e-01
3.625130355358123779e-01 9.372644871473312378e-02 5.030077416449785233e-03
-1.162431910634040833e-01 -1.214206684380769730e-02 -5.013548135757446289e-01
1.536581665277481079e-01 -7.525072246789932251e-02 7.994056493043899536e-02
1.708763986825942993e-01 -2.220467291772365570e-02 1.129111051559448242e-01
-6.259823441505432129e-01 5.223373696208000183e-02 -1.585555225610733032e-01
-6.283675432205200195e-01 1.068947836756706238e-01 -1.643680781126022339e-02
-1.371386200189590454e-01 -2.478864975273609161e-02 -5.315177440643310547e-01
-1.981602162122726440e-01 -8.390336297452449799e-03 6.400423645973205566e-01
3.799549043178558350e-01 -7.967331260442733765e-02 -3.194066509604454041e-02
4.324285313487052917e-02 -1.174888163805007935e-01 1.699325144290924072e-01
2.980875670909881592e-01 -6.093947216868400574e-02 7.390299439430236816e-02
-4.719633981585502625e-02 -3.316172584891319275e-02 -3.407755792140960693e-01
-4.689818993210792542e-02 -2.680116333067417145e-02 -2.604486942291259766e-01
-6.697472650557756424e-03 -1.365456432104110718e-01 1.580064743757247925e-01
-3.210730254650115967e-01 -5.547336861491203308e-02 6.878473609685897827e-02
1.471982300281524658e-01 -5.234278738498687744e-02 -2.393793463706970215e-01
-4.222953319549560547e-01 1.104229092597961426e-01 -2.990330010652542114e-02
-1.521952450275421143e-01 -8.216409943997859955e-03 -5.951233506202697754e-01
-1.430767923593521118e-01 5.635816231369972229e-02 -7.102332264184951782e-02
2.022319734096527100e-01 -6.004502624273300171e-02 -8.853970468044281006e-02
2.670550048351287842e-01 -1.026309505105018616e-01 -2.135147452354431152e-01
4.807299971580505371e-01 7.230924814939498901e-02 5.969112366437911987e-02
-3.046250045299530029e-01 2.043095044791698456e-02 7.815399765968322754e-01
-5.333070158958435059e-01 4.639494419097900391e-02 -8.784259669482707977e-03
1.150475814938545227e-01 -4.332371056079864502e-02 -2.338635474443435669e-01
-2.318512946367263794e-01 -1.047738734632730484e-02 -6.522442102432250977e-01
-7.137629985809326172e-01 6.363801658153533936e-02 2.377867698669433594e-01
-4.901009425520896912e-02 -2.891307696700096130e-02 -2.417148649692535400e-01
-3.245017528533935547e-01 -1.380674634128808975e-02 -8.491219580173492432e-02
9.263169169425964355e-01 5.270580947399139404e-02 -2.816408500075340271e-02
3.755313158035278320e-02 -8.548724651336669922e-02 -1.499836891889572144e-01
-5.675446987152099609e-01 1.072923168540000916e-01 -1.812633126974105835e-02
2.700365185737609863e-01 8.194947242736816406e-02 -4.369279742240905762e-02
4.814753830432891846e-01 -5.062841996550559998e-02 -6.988040357828140259e-02
-3.745663166046142578e-01 7.904249429702758789e-02 -3.375441953539848328e-02
-8.692497760057449341e-02 -2.458988130092620850e-02 -3.351604044437408447e-01
-1.137088835239410400e-01 -2.874536905437707901e-03 -8.804278075695037842e-02
2.850921265780925751e-02 -6.394583731889724731e-02 -8.304874598979949951e-02
-2.858673408627510071e-02 -8.277904987335205078e-02 5.951720103621482849e-02
3.433816730976104736e-01 7.924126833677291870e-02 -4.722091555595397949e-02
8.351811021566390991e-02 -6.603290140628814697e-02 -2.518520057201385498e-01
2.853664457798004150e-01 -3.813091292977333069e-02 6.088372692465782166e-02
-5.554944276809692383e-01 9.710548818111419678e-02 2.726718597114086151e-02
-7.639030367136001587e-02 -5.765981599688529968e-02 -8.339659124612808228e-02
-8.362152613699436188e-03 -1.443721204996109009e-01 1.124155987054109573e-02
-5.961920022964477539e-01 -1.422912720590829849e-02 3.330474719405174255e-02
7.845460176467895508e-01 -4.466538876295089722e-02 -7.161962240934371948e-02
-8.212971687316894531e-02 -1.480058208107948303e-02 -4.309165775775909424e-01
1.290606856346130371e-01 -2.123568020761013031e-02 -1.489898413419723511e-01
6.358183026313781738e-01 -8.456795662641525269e-02 2.006186731159687042e-02
-6.394488215446472168e-01 3.566150367259979248e-02 1.390241831541061401e-01
-2.030300050973892212e-01 -6.079664453864097595e-03 -7.114520668983459473e-01
-4.125557243824005127e-01 4.982368275523185730e-02 -6.289870291948318481e-02
-6.292868256568908691e-01 6.671891361474990845e-02 2.262085527181625366e-01
2.300594002008438110e-01 9.310529381036758423e-02 -6.399049423635005951e-03
8.351811021566390991e-02 -6.603290140628814697e-02 -2.518520057201385498e-01
-1.508535742759704590e-01 -2.759624086320400238e-02 8.600296825170516968e-02
1.103765591979026794e-01 -3.502517193555831909e-02 -3.016183972358703613e-01
-6.513509899377822876e-02 5.542021244764328003e-04 9.189145267009735107e-02
-3.322536945343017578e-01 8.957716822624206543e-02 8.235203102231025696e-03
-4.431162178516387939e-01 8.197432011365890503e-02 9.304994018748402596e-04
-7.060359120368957520e-01 3.628326952457427979e-01 2.099673583870753646e-04
-4.719633981585502625e-02 -3.316172584891319275e-02 -3.407755792140960693e-01
9.387895464897155762e-01 -1.390612591058015823e-02 5.743014812469482422e-02
4.494738280773162842e-01 -8.108952641487121582e-02 -2.856161817908287048e-02
-6.425794363021850586e-01 2.058002352714538574e-02 -7.703603804111480713e-02
1.388996839523315430e-01 -2.302459068596363068e-02 2.808199226856231689e-01
8.048700094223022461e-01 8.667019754648208618e-02 1.404915098100900650e-02
-5.059515833854675293e-01 7.601129263639450073e-02 -7.020197808742523193e-03
5.714424848556518555e-01 2.100240439176559448e-02 8.997831493616104126e-02
-2.688220441341400146e-01 8.716711401939392090e-02 -3.052444756031036377e-02
-5.043365955352783203e-01 9.332890808582305908e-02 1.628528349101543427e-02
-1.060811951756477356e-01 -2.811800129711627960e-02 -4.512902796268463135e-01
5.285822600126266479e-02 -3.415555879473686218e-02 -9.663946926593780518e-02
3.090799436904489994e-04 -1.077740490436553955e-01 1.849798834882676601e-03
5.192908644676208496e-01 9.305559843778610229e-02 1.017318479716777802e-02
1.896599233150482178e-01 -6.734972447156906128e-02 2.172640115022659302e-01
-4.324076175689697266e-01 1.710966676473617554e-01 1.631013117730617523e-02
-8.769521117210388184e-02 -2.747200801968574524e-02 4.883082807064056396e-01
-1.214359849691390991e-01 5.968751758337020874e-02 -6.846418976783752441e-02
6.540542095899581909e-02 -3.442886471748352051e-02 9.370520710945129395e-02
2.862857580184936523e-01 -5.261609330773353577e-02 -2.583864927291870117e-01
7.401960492134094238e-01 8.326630294322967529e-02 -3.919567912817001343e-02
-2.381124645471572876e-01 -1.887531392276287079e-02 -6.134596467018127441e-01
8.338651657104492188e-01 -4.829289764165878296e-02 6.575353443622589111e-02
-7.591068148612976074e-01 1.227961778640747070e-01 2.262099832296371460e-02
-5.449597239494323730e-01 9.715517610311508179e-02 2.704357355833053589e-02
3.077029287815093994e-01 -4.469024017453193665e-02 -6.744550168514251709e-02
-1.439971197396516800e-02 -1.452727615833282471e-02 4.749909043312072754e-01
7.694644927978515625e-01 8.987532556056976318e-02 1.372615341097116470e-02
-5.052062273025512695e-01 1.790225356817245483e-01 6.073607131838798523e-03
-1.867321133613586426e-02 -1.082523074001073837e-02 4.519586861133575439e-01
-1.687923222780227661e-01 -1.937223039567470551e-02 -6.576358079910278320e-01
-5.467237830162048340e-01 -2.665209025144577026e-02 3.703163936734199524e-02
1.765412688255310059e-01 -5.465344712138175964e-02 1.699822098016738892e-01
3.223371803760528564e-01 8.423529565334320068e-02 -3.827637806534767151e-02
-4.139471054077148438e-01 8.445890992879867554e-02 1.824952894821763039e-03
-6.071490645408630371e-01 1.777243427932262421e-02 -7.370667904615402222e-02
6.045869588851928711e-01 8.632235229015350342e-02 -3.325749933719635010e-02
-6.157954931259155273e-01 9.672657586634159088e-03 -3.882299363613128662e-02
-4.394638836383819580e-01 1.739042699337005615e-01 -1.703169080428779125e-03
5.461245179176330566e-01 -1.465150807052850723e-02 -8.647748082876205444e-02
-9.778368286788463593e-03 -2.021699212491512299e-02 -2.859406173229217529e-01
-4.760619401931762695e-01 -4.315604921430349350e-03 6.846173852682113647e-02
2.274754345417022705e-01 -3.892597928643226624e-02 9.454996883869171143e-02
2.678003907203674316e-01 -1.223337650299072266e-01 2.727946639060974121e-01
1.608883291482925415e-01 -1.673856750130653381e-02 -2.332175523042678833e-01
1.427147304639220238e-03 -1.333902031183242798e-01 1.688889861106872559e-01
2.043428644537925720e-02 -1.106810271739959717e-01 1.569132655858993530e-01
-2.761764228343963623e-01 -3.795699402689933777e-02 8.148100227117538452e-02
-6.826061606407165527e-01 -8.123287116177380085e-04 2.744252560660243034e-03
-4.013253748416900635e-01 -3.455309942364692688e-02 -6.816603243350982666e-02
-9.505062364041805267e-03 -1.308062374591827393e-01 1.788522154092788696e-01
9.504661709070205688e-02 -8.210820704698562622e-02 6.458577513694763184e-02
1.475212275981903076e-01 -6.821933388710021973e-02 8.371713757514953613e-02
5.335514247417449951e-02 6.423432379961013794e-02 -6.496091187000274658e-02
3.726502060890197754e-01 -8.630716800689697266e-02 6.893522571772336960e-03
-6.205658316612243652e-01 4.443211480975151062e-02 1.743799448013305664e-01
-8.732251077890396118e-02 5.377418547868728638e-02 -7.298614829778671265e-02
-6.664314866065979004e-01 2.772881686687469482e-01 5.551842506974935532e-03
-3.710889071226119995e-02 -3.420525416731834412e-02 3.184366524219512939e-01
-4.834163188934326172e-01 -5.010665208101272583e-02 2.873309701681137085e-02
3.715559840202331543e-02 -1.330982893705368042e-02 -3.495461940765380859e-01
-2.471077255904674530e-02 -2.255251631140708923e-02 -2.769961059093475342e-01
-1.687923222780227661e-01 -1.937223039567470551e-02 -6.576358079910278320e-01
9.936980903148651123e-02 -5.346085131168365479e-02 -1.675249040126800537e-01
9.675999172031879425e-03 -1.304583847522735596e-01 -1.289143413305282593e-01
-1.374367624521255493e-01 -1.713609695434570312e-02 4.730031788349151611e-01
-4.219226539134979248e-01 7.827227562665939331e-02 2.873309701681137085e-02
8.743143081665039062e-01 3.444404900074005127e-02 6.791512668132781982e-02
5.898284912109375000e-01 -6.002018228173255920e-02 -6.267508119344711304e-02
1.341789662837982178e-01 -7.835648208856582642e-02 -3.599055111408233643e-02
-6.352002024650573730e-01 3.431982174515724182e-02 -3.927021473646163940e-02
8.501393198966979980e-01 5.039513856172561646e-02 6.244902312755584717e-02
2.342335283756256104e-01 -2.257735840976238251e-02 -1.410143077373504639e-01
4.639828577637672424e-02 9.357737004756927490e-02 6.148145068436861038e-03
8.766737580299377441e-02 -3.805637359619140625e-02 6.088372692465782166e-02
-7.315775156021118164e-01 3.122464120388031006e-01 2.793944207951426506e-03
-4.431162178516387939e-01 8.197432011365890503e-02 9.304994018748402596e-04
2.672030590474605560e-02 -8.049322664737701416e-02 -6.689889729022979736e-02
-2.980160117149353027e-01 -2.364573068916797638e-02 -8.364505320787429810e-02
-6.425794363021850586e-01 2.058002352714538574e-02 -7.703603804111480713e-02
1.571862846612930298e-01 -1.567019522190093994e-02 -2.186081409454345703e-01
-4.528320580720901489e-02 -6.178423389792442322e-02 7.755535095930099487e-02
-4.774284660816192627e-01 2.587220259010791779e-02 6.595230102539062500e-02
-4.724592864513397217e-01 3.223276510834693909e-02 5.233672633767127991e-02
2.634761482477188110e-02 -7.957392185926437378e-02 5.651225801557302475e-03
2.029276341199874878e-01 3.851878270506858826e-02 8.443767577409744263e-02
-1.347285509109497070e-01 8.955232799053192139e-02 2.880763448774814606e-02
8.516796827316284180e-01 1.595868170261383057e-02 -7.517258822917938232e-02
-4.878886044025421143e-01 5.894213914871215820e-02 4.885829985141754150e-02
-6.557477712631225586e-01 2.283913940191268921e-01 5.924531724303960800e-03
-3.621443733572959900e-02 -4.491385444998741150e-02 -1.257092058658599854e-01
1.804669201374053955e-01 -5.346085131168365479e-02 2.804968953132629395e-01
5.733556151390075684e-01 -8.431949466466903687e-02 -1.852386444807052612e-02
-2.980160117149353027e-01 -2.364573068916797638e-02 -8.364505320787429810e-02
1.246878132224082947e-01 -2.051514945924282074e-02 -1.601953655481338501e-01
-6.264543533325195312e-01 5.002244934439659119e-02 -1.500333696603775024e-01
7.397726923227310181e-02 -2.362088859081268311e-02 1.707275956869125366e-01
-4.566324353218078613e-01 -6.223145499825477600e-02 -6.347942398861050606e-04
1.468006968498229980e-01 -1.497450843453407288e-02 -2.433547079563140869e-01
-6.903591752052307129e-02 -3.283873200416564941e-02 -3.214206099510192871e-01
1.948030143976211548e-01 -7.236860692501068115e-02 8.369228988885879517e-02
6.135811805725097656e-01 9.226053208112716675e-02 1.616105437278747559e-02
-5.681171268224716187e-02 -5.375900119543075562e-02 7.666089385747909546e-02
6.053075194358825684e-01 2.234408445656299591e-02 8.980438858270645142e-02
-7.591068148612976074e-01 1.227961778640747070e-01 2.262099832296371460e-02
-5.115668177604675293e-01 3.029478155076503754e-02 3.017416037619113922e-02
3.152561187744140625e-01 -8.275420218706130981e-02 2.796287275850772858e-02
2.677506506443023682e-01 -6.893985718488693237e-02 2.842734754085540771e-01
-1.517480164766311646e-01 -3.323626145720481873e-02 -4.917891621589660645e-01
2.643716335296630859e-01 -7.507681101560592651e-02 2.962492406368255615e-01
1.569626629352569580e-01 -2.347181364893913269e-02 1.066499352455139160e-01
-3.076313734054565430e-01 -7.557373493909835815e-02 -4.163058102130889893e-02
-1.825083233416080475e-02 -1.333405226469039917e-01 -1.658850908279418945e-01
2.177596651017665863e-02 -9.617101401090621948e-02 -1.944316364824771881e-02
-1.032239198684692383e-01 -8.390336297452449799e-03 -5.586991906166076660e-01
-2.471077255904674530e-02 -2.255251631140708923e-02 -2.769961059093475342e-01
-6.336349248886108398e-01 5.707869306206703186e-02 -9.577912860549986362e-04
3.432315960526466370e-02 -1.375705190002918243e-02 -3.398562967777252197e-01
1.569626629352569580e-01 -2.347181364893913269e-02 1.066499352455139160e-01
-6.682949662208557129e-01 5.943905934691429138e-02 -1.723187603056430817e-02
1.888400018215179443e-01 8.267000317573547363e-02 4.542956128716468811e-02
8.137896656990051270e-01 8.279423415660858154e-02 2.587581425905227661e-02
8.366718143224716187e-02 -2.558371797204017639e-02 -1.409397721290588379e-01
3.243486955761909485e-02 -8.265481889247894287e-02 5.439893901348114014e-02
-2.257143557071685791e-01 -8.484126627445220947e-02 1.799965463578701019e-02
4.814753830432891846e-01 -5.062841996550559998e-02 -6.988040357828140259e-02
8.660406470298767090e-01 3.971138969063758850e-02 6.709521263837814331e-02
3.038766384124755859e-01 9.002440422773361206e-02 -2.431296557188034058e-02
-8.759681135416030884e-03 -7.197107374668121338e-02 -1.181404688395559788e-03
5.979282855987548828e-01 9.377612918615341187e-02 -1.231096568517386913e-03
-2.666604518890380859e-01 -9.831395000219345093e-03 7.051138281822204590e-01
1.982814520597457886e-01 -2.747200801968574524e-02 -5.748228356242179871e-02
2.649182379245758057e-01 -5.360992625355720520e-02 -1.141806989908218384e-01
-6.739101409912109375e-01 5.295426771044731140e-02 2.577643096446990967e-02
-1.529406160116195679e-01 -1.348374597728252411e-02 5.296519398689270020e-01
4.709396511316299438e-02 -3.619292750954627991e-02 3.155297040939331055e-01
-4.768570065498352051e-01 1.054040268063545227e-01 8.384278044104576111e-03
3.934203833341598511e-02 -4.178326204419136047e-02 2.573653459548950195e-01
-1.191004663705825806e-01 -1.780693978071212769e-02 -4.405071437358856201e-01
-1.012113839387893677e-01 -3.184488788247108459e-02 2.994543612003326416e-01
6.623288393020629883e-01 -4.133604094386100769e-02 8.026355504989624023e-02
-7.084211111068725586e-01 6.329017132520675659e-02 2.304323613643646240e-01
-1.825321167707443237e-01 -7.987207174301147461e-02 -3.144374862313270569e-02
8.366718143224716187e-02 -2.558371797204017639e-02 -1.409397721290588379e-01
6.056046485900878906e-02 -7.997145503759384155e-02 -6.816603243350982666e-02
-6.926191449165344238e-01 1.057767197489738464e-01 3.680802509188652039e-02
4.090246558189392090e-01 4.249413311481475830e-02 -7.939639687538146973e-02
8.875572085380554199e-01 4.318981990218162537e-02 -5.427716299891471863e-02
1.782546192407608032e-02 -2.384450100362300873e-02 2.178106307983398438e-01
-3.964420408010482788e-03 -1.153520718216896057e-01 -2.621053135953843594e-04
-4.689818993210792542e-02 -2.680116333067417145e-02 -2.604486942291259766e-01
-1.202185302972793579e-01 -7.351151853799819946e-02 -5.479892715811729431e-02
4.610023498535156250e-01 2.236892655491828918e-02 8.980438858270645142e-02
-4.147173464298248291e-01 1.783765256404876709e-01 2.388813905417919159e-02
7.119452208280563354e-02 -3.574570268392562866e-02 6.088372692465782166e-02
2.278977930545806885e-01 4.628933500498533249e-03 -8.873847126960754395e-02
-3.444530367851257324e-01 8.674473315477371216e-02 -2.013885043561458588e-02
-5.213063955307006836e-01 4.502841830253601074e-02 -5.151926353573799133e-02
1.744542121887207031e-01 6.043289601802825928e-02 7.126933336257934570e-02
-1.009877845644950867e-01 -1.964553631842136383e-02 -3.998343646526336670e-01
-4.175249338150024414e-01 1.642143577337265015e-01 2.664603851735591888e-02
2.846955955028533936e-01 -3.467733040452003479e-02 9.571772813796997070e-02
-3.334959745407104492e-01 6.965073198080062866e-02 -5.390447005629539490e-02
-1.415114998817443848e-01 -1.810508966445922852e-02 -4.652040004730224609e-01
-2.815928459167480469e-01 -5.107564479112625122e-02 7.273523509502410889e-02
7.629549503326416016e-01 -4.454116523265838623e-02 7.651181519031524658e-02
4.494738280773162842e-01 -8.108952641487121582e-02 -2.856161817908287048e-02
1.890636235475540161e-01 -5.587090551853179932e-02 -2.814932167530059814e-01
-1.066774874925613403e-01 -1.947161927819252014e-02 -4.086298048496246338e-01
3.726502060890197754e-01 -8.630716800689697266e-02 6.893522571772336960e-03
8.769479990005493164e-01 1.874142698943614960e-02 7.357999682426452637e-02
-4.864226877689361572e-01 7.817289233207702637e-02 -1.082021044567227364e-03
4.324285313487052917e-02 -1.174888163805007935e-01 1.699325144290924072e-01
-5.032793153077363968e-03 -7.537496089935302734e-02 -1.821591705083847046e-01
8.078017830848693848e-01 -4.923704639077186584e-02 -6.600444018840789795e-02
7.608181834220886230e-01 6.030866503715515137e-02 6.913258135318756104e-02
-1.868801712989807129e-01 -9.483551606535911560e-03 6.136808395385742188e-01
7.797746360301971436e-02 -5.261609330773353577e-02 -2.477275878190994263e-01
1.970143169164657593e-01 -7.030639052391052246e-02 -7.430297881364822388e-02
3.534184396266937256e-02 -6.476575881242752075e-02 8.354321867227554321e-02
1.346261799335479736e-01 -6.407006829977035522e-02 -1.026770398020744324e-01
-4.780496060848236084e-01 4.373642802238464355e-02 6.148003041744232178e-02
-4.668441116809844971e-01 1.336041688919067383e-01 4.537986963987350464e-02
2.305314689874649048e-01 -5.072779208421707153e-02 2.499861121177673340e-01
1.099790185689926147e-01 -4.394485801458358765e-02 -5.748228356242179871e-02
1.030718535184860229e-01 -4.811897873878479004e-02 -2.027316093444824219e-01
2.768929861485958099e-02 -6.508874893188476562e-02 -1.341816782951354980e-01
-6.091119050979614258e-01 3.491612523794174194e-02 -8.784401416778564453e-02
-4.355879426002502441e-01 -4.553500190377235413e-02 5.459770932793617249e-02
-2.815928459167480469e-01 -5.107564479112625122e-02 7.273523509502410889e-02
-5.052062273025512695e-01 1.790225356817245483e-01 6.073607131838798523e-03
-2.244979515671730042e-02 -3.437918052077293396e-02 -3.247996568679809570e-01
-1.369149982929229736e-01 3.484158962965011597e-02 8.595327287912368774e-02
7.712036967277526855e-01 2.920156158506870270e-02 -8.235305547714233398e-02
9.522063732147216797e-01 -4.883950948715209961e-02 -2.518257312476634979e-02
1.390984505414962769e-01 -3.460279107093811035e-02 -5.748228356242179871e-02
-3.429126143455505371e-01 -4.349763691425323486e-02 7.497137039899826050e-02
-1.012113839387893677e-01 -3.184488788247108459e-02 2.994543612003326416e-01
-2.452432662248611450e-01 7.767596840858459473e-02 -4.928312823176383972e-02
8.381138443946838379e-01 4.214629158377647400e-02 7.139355689287185669e-02
1.212839260697364807e-01 -5.351053923368453979e-02 1.733364164829254150e-01
2.062321603298187256e-01 -1.187311187386512756e-01 -2.766979336738586426e-01
-4.114494367968291044e-04 -6.126248091459274292e-02 -5.748228356242179871e-02
-4.147421717643737793e-01 9.901862591505050659e-02 -7.691038772463798523e-03
2.319218218326568604e-02 -7.413265854120254517e-02 -1.605183482170104980e-01
-6.788544654846191406e-01 4.974914342164993286e-02 -1.719723343849182129e-01
-1.792524456977844238e-01 -1.087492518126964569e-02 -5.852595567703247070e-01
5.883128643035888672e-01 7.094272226095199585e-02 6.145518273115158081e-02
8.053658902645111084e-02 8.927901834249496460e-02 -2.610187232494354248e-02
-5.853095054626464844e-01 3.504035249352455139e-02 -7.720995694398880005e-02
-9.984487295150756836e-02 -3.907506167888641357e-02 9.050007909536361694e-02
7.570167779922485352e-01 -1.532669514417648315e-01 -1.867294125258922577e-02
8.334418386220932007e-02 4.107173066586256027e-03 9.221445024013519287e-02
-6.128636598587036133e-01 5.928998067975044250e-02 1.860326826572418213e-01
-2.650454342365264893e-01 9.404943883419036865e-02 1.526801730506122112e-03
1.493349820375442505e-01 -1.591864973306655884e-02 -2.151545584201812744e-01
-1.280201524496078491e-01 -2.762108296155929565e-02 3.827379345893859863e-01
-5.878934264183044434e-01 1.708482056856155396e-01 -1.589019596576690674e-02
8.021368980407714844e-01 2.994693815708160400e-02 8.135677874088287354e-02
-3.429126143455505371e-01 -4.349763691425323486e-02 7.497137039899826050e-02
-1.352751553058624268e-01 -1.288744807243347168e-02 -6.299076676368713379e-01
-7.899913191795349121e-02 -2.985721826553344727e-02 -4.203073978424072266e-01
8.495429754257202148e-01 -5.828095600008964539e-02 -5.047573149204254150e-02
-5.954217910766601562e-01 1.086526177823543549e-02 4.853530228137969971e-02
7.981606572866439819e-02 -1.867654360830783844e-02 2.152763456106185913e-01
2.053377181291580200e-01 -1.265824288129806519e-01 2.601729333400726318e-01
1.397434156388044357e-02 4.420850425958633423e-02 8.207730948925018311e-02
-6.905817389488220215e-01 3.214890956878662109e-01 -1.007483224384486675e-03
4.192611575126647949e-01 4.900376871228218079e-02 -7.663849741220474243e-02
7.676756381988525391e-01 1.002050098031759262e-02 -8.607995510101318359e-02
-4.801118075847625732e-01 -5.251670256257057190e-02 -2.140599116683006287e-02
1.410612761974334717e-01 5.017152428627014160e-02 7.914548367261886597e-02
-2.161983549594879150e-01 -1.733486540615558624e-02 6.995732188224792480e-01
-3.010233864188194275e-02 -3.405617922544479370e-02 3.314559161663055420e-01
2.236739993095397949e-01 -4.841712862253189087e-02 -2.571690380573272705e-01
-8.337300270795822144e-03 8.550243824720382690e-02 -3.524517640471458435e-02
-5.977821350097656250e-01 1.325606405735015869e-01 -4.108396917581558228e-02
-1.492882668972015381e-01 -7.495880592614412308e-03 6.114198565483093262e-01
5.556643381714820862e-02 -1.666403003036975861e-02 -2.598772346973419189e-01
1.166377291083335876e-01 -2.431657537817955017e-02 1.284149736166000366e-01
-6.535364985466003418e-01 1.364800892770290375e-02 -3.350596129894256592e-02
-5.789986848831176758e-01 4.773662611842155457e-02 1.765166819095611572e-01
-4.280099272727966309e-01 1.374801248311996460e-01 4.552894458174705505e-02
1.842435002326965332e-01 -6.754848361015319824e-02 -8.754586428403854370e-02
-2.652452513575553894e-02 -4.844197258353233337e-02 -1.699101179838180542e-01
8.021368980407714844e-01 -2.558371797204017639e-02 -6.687404960393905640e-02
-6.609653830528259277e-01 2.115706950426101685e-01 -1.951628597453236580e-03
-6.234728693962097168e-01 1.732520200312137604e-02 4.470902681350708008e-02
8.214173316955566406e-01 6.624684482812881470e-02 5.360386893153190613e-02
-4.423957169055938721e-01 9.616134315729141235e-02 1.002410985529422760e-02
1.400922834873199463e-01 -9.664307534694671631e-02 2.769936323165893555e-01
2.371394634246826172e-02 -6.985916942358016968e-02 1.287876665592193604e-01
9.419201016426086426e-01 -1.477573905140161514e-02 -5.263733118772506714e-02
-5.619791746139526367e-01 1.717675179243087769e-01 2.175139077007770538e-02
-2.716793119907379150e-01 -7.023805286735296249e-03 -7.346830368041992188e-01
-5.525625348091125488e-01 1.293306648731231689e-01 3.499427065253257751e-02
1.070968881249427795e-01 -5.840518698096275330e-02 9.261197596788406372e-02
-6.036955118179321289e-01 5.178651213645935059e-02 -1.988307833671569824e-01
-2.423869632184505463e-02 1.230632979422807693e-02 -8.771978318691253662e-02
2.649928033351898193e-01 -8.297782391309738159e-02 -5.457530915737152100e-02
1.508505791425704956e-01 -1.110785678029060364e-01 -2.322237193584442139e-01
5.714424848556518555e-01 2.100240439176559448e-02 8.997831493616104126e-02
6.074691414833068848e-01 -6.436821818351745605e-02 6.066011637449264526e-02
7.401960492134094238e-01 8.326630294322967529e-02 -3.919567912817001343e-02
6.311959773302078247e-02 -4.618099331855773926e-02 -2.102350592613220215e-01
-1.137834340333938599e-01 7.148933410644531250e-02 6.073465570807456970e-02
-6.926191449165344238e-01 1.057767197489738464e-01 3.680802509188652039e-02
5.434659719467163086e-01 -5.055387318134307861e-02 7.335638254880905151e-02
-2.341867983341217041e-01 9.183815866708755493e-02 1.939102634787559509e-02
5.653303861618041992e-01 -8.568602800369262695e-02 -8.237649686634540558e-03
2.197371097281575203e-03 -6.630620360374450684e-02 8.856210112571716309e-02
2.862857580184936523e-01 -5.261609330773353577e-02 -2.583864927291870117e-01
2.531164288520812988e-01 -9.813383966684341431e-02 2.956777811050415039e-01
6.224015355110168457e-01 9.350282698869705200e-02 -3.343001008033752441e-03
-6.208640336990356445e-01 2.197201550006866455e-01 -4.063532687723636627e-03
2.637504935264587402e-01 -6.337438523769378662e-02 1.018298268318176270e-01
-5.623766779899597168e-01 4.840746521949768066e-02 1.062041334807872772e-02
6.940561532974243164e-02 -6.066616624593734741e-02 -1.121681779623031616e-01
2.856645882129669189e-01 4.256866872310638428e-02 -7.934670895338058472e-02
2.888945639133453369e-01 -6.479059904813766479e-02 7.713297009468078613e-02
-6.814881563186645508e-01 5.978689715266227722e-02 -2.263600677251815796e-01
-2.031303942203521729e-02 -3.681407496333122253e-02 2.703100740909576416e-01
-4.312160983681678772e-02 -2.473895624279975891e-02 2.810186743736267090e-01
7.799991965293884277e-01 -3.570223692804574966e-03 8.883539587259292603e-02
3.196279704570770264e-02 -1.335144340991973877e-01 -1.435237377882003784e-01
-2.170927971601486206e-01 -1.229114085435867310e-02 -6.157206296920776367e-01
5.899516865611076355e-02 -5.830579996109008789e-02 -1.259576678276062012e-01
-3.785426542162895203e-02 -1.721064373850822449e-02 3.563266992568969727e-01
2.398983836174011230e-01 -4.757236689329147339e-02 -5.748228356242179871e-02
-7.046942114830017090e-01 9.524204581975936890e-02 -2.180352807044982910e-02
2.845952287316322327e-02 -4.941096529364585876e-02 1.839456111192703247e-01
2.716514766216278076e-01 -7.776016741991043091e-02 2.560485303401947021e-01
3.726502060890197754e-01 -5.177133157849311829e-02 -6.901079416275024414e-02
8.351811021566390991e-02 -6.603290140628814697e-02 -2.518520057201385498e-01
-1.225788965821266174e-01 -1.825416460633277893e-02 4.437347054481506348e-01
-4.371780455112457275e-01 1.510708481073379517e-01 4.493264108896255493e-02
6.045869588851928711e-01 8.632235229015350342e-02 -3.325749933719635010e-02
-1.153238788247108459e-01 -2.819253690540790558e-02 -4.359354674816131592e-01
9.562314152717590332e-01 -2.384450100362300873e-02 -4.322072118520736694e-02
8.743143081665039062e-01 3.444404900074005127e-02 6.791512668132781982e-02
1.656090617179870605e-01 -3.400648757815361023e-02 -2.421869337558746338e-01
8.851720094680786133e-01 -5.338630825281143188e-02 4.980244487524032593e-02
-3.349867463111877441e-01 -8.426981419324874878e-02 -5.653671920299530029e-03
3.758304715156555176e-01 6.485547125339508057e-02 6.789027899503707886e-02
1.316198259592056274e-01 -6.913863867521286011e-02 8.640050143003463745e-02
9.392368197441101074e-01 5.148836225271224976e-02 1.081917993724346161e-02
1.095317974686622620e-01 -8.506486564874649048e-02 1.628528349101543427e-02
2.135865390300750732e-01 -6.086494401097297668e-02 -1.296100169420242310e-01
-1.255355626344680786e-01 -8.357412368059158325e-02 -2.252405881881713867e-02
-6.110002398490905762e-01 3.044385649263858795e-02 -1.225537732243537903e-01
1.290606856346130371e-01 -2.123568020761013031e-02 -1.489898413419723511e-01
-1.454868316650390625e-01 -6.874731276184320450e-03 6.275945305824279785e-01
5.509435757994651794e-02 -1.219362467527389526e-01 1.827530264854431152e-01
7.498362064361572266e-01 4.863107576966285706e-02 -7.571920007467269897e-02
-4.933547079563140869e-01 5.822160840034484863e-02 -1.010109391063451767e-02
-1.352751553058624268e-01 -1.288744807243347168e-02 -6.299076676368713379e-01
-5.256305634975433350e-02 9.007409214973449707e-02 2.756533771753311157e-02
2.069029808044433594e-01 -4.026766493916511536e-02 -2.581131756305694580e-01
-2.491440325975418091e-01 -1.494965609163045883e-02 7.480724453926086426e-01
8.997317552566528320e-01 1.016957499086856842e-02 -6.570629030466079712e-02
-2.902392148971557617e-01 -1.144638005644083023e-02 7.660857439041137695e-01
8.053420186042785645e-01 1.891534402966499329e-02 -8.215429633855819702e-02
6.383774280548095703e-01 -6.056679412722587585e-02 -6.220301240682601929e-02
-5.318658947944641113e-01 -3.355926275253295898e-02 -3.064867854118347168e-02
4.807299971580505371e-01 7.230924814939498901e-02 5.969112366437911987e-02
3.914327174425125122e-02 -8.618293702602386475e-02 -4.361683502793312073e-03
1.399928927421569824e-01 -8.079137653112411499e-02 4.523079097270965576e-02
-1.352751553058624268e-01 -1.288744807243347168e-02 -6.299076676368713379e-01
4.214476048946380615e-01 -7.274128496646881104e-02 -4.635130614042282104e-02
2.396240644156932831e-02 -4.779598116874694824e-02 1.940827667713165283e-01
-5.822793021798133850e-02 -3.013052418828010559e-02 4.304918348789215088e-01
-7.070297002792358398e-01 1.506484746932983398e-01 -2.878523245453834534e-02
-1.331632584333419800e-01 -2.426688000559806824e-02 -5.495061874389648438e-01
6.728884577751159668e-01 8.475706726312637329e-02 4.001314938068389893e-02
2.035736441612243652e-01 -6.603290140628814697e-02 -2.898662686347961426e-01
4.942948371171951294e-02 -1.999337971210479736e-02 2.254134714603424072e-01
1.513474881649017334e-01 -6.496451795101165771e-02 -2.807726562023162842e-01
-5.541526675224304199e-01 1.452817618846893311e-01 3.412466496229171753e-02
-4.199349880218505859e-01 1.533318310976028442e-01 4.354126751422882080e-02
1.341789662837982178e-01 -7.835648208856582642e-02 -3.599055111408233643e-02
-5.961920022964477539e-01 -1.422912720590829849e-02 3.330474719405174255e-02
5.392918586730957031e-01 -2.309912815690040588e-02 8.784156292676925659e-02
7.648431658744812012e-01 2.845618128776550293e-02 8.652472496032714844e-02
4.217447340488433838e-02 -1.328435987234115601e-01 -1.591518372297286987e-01
-8.617960661649703979e-02 -9.259940125048160553e-03 -5.562643408775329590e-01
3.534184396266937256e-02 -6.476575881242752075e-02 8.354321867227554321e-02
-2.062351554632186890e-01 1.849296502768993378e-02 -8.692471683025360107e-02
-5.753214359283447266e-01 1.534809023141860962e-01 3.991376608610153198e-02
8.257395774126052856e-02 -4.521200060844421387e-02 9.534503519535064697e-02
-1.767430007457733154e-01 -1.877593435347080231e-02 -6.688661575317382812e-01
-6.573876142501831055e-01 3.091592714190483093e-02 1.164640784263610840e-01
-6.476231217384338379e-01 2.747041881084442139e-01 -2.697006333619356155e-03
8.766737580299377441e-02 -3.726130723953247070e-02 -2.949099838733673096e-01
-1.430767923593521118e-01 5.635816231369972229e-02 -7.102332264184951782e-02
-2.766733467578887939e-01 -6.570988893508911133e-02 5.879667401313781738e-02
1.544025260955095291e-02 -2.257735840976238251e-02 -2.273787707090377808e-01
5.651057511568069458e-02 -1.314273774623870850e-01 1.786037385463714600e-01
-6.622935645282268524e-03 -5.681505426764488220e-02 1.183772161602973938e-01
5.192908644676208496e-01 9.305559843778610229e-02 1.017318479716777802e-02
-5.526619553565979004e-01 1.337470300495624542e-02 6.461061537265777588e-02
4.787423312664031982e-01 3.777340427041053772e-02 8.473582565784454346e-02
-1.553755104541778564e-01 -6.924425717443227768e-03 6.491856575012207031e-01
-2.335656583309173584e-01 -6.253581494092941284e-03 -7.539882659912109375e-01
-1.517480164766311646e-01 -3.323626145720481873e-02 -4.917891621589660645e-01
-2.672426635399460793e-03 -3.256542608141899109e-02 3.894711732864379883e-01
-5.007587671279907227e-01 7.245832681655883789e-02 2.535405009984970093e-02
2.446688115596771240e-01 -1.020346581935882568e-01 2.944603264331817627e-01
2.808196246623992920e-01 -2.655271068215370178e-02 -5.748228356242179871e-02
5.864732712507247925e-02 -1.663917861878871918e-02 -3.760567903518676758e-01
8.021368980407714844e-01 -2.558371797204017639e-02 -6.687404960393905640e-02
-2.478769123554229736e-01 -4.166521131992340088e-03 7.546317577362060547e-01
2.254132032394409180e-01 -6.961070746183395386e-02 8.249969035387039185e-02
-5.485624074935913086e-01 1.400889456272125244e-01 -3.176674246788024902e-02
-8.401801437139511108e-02 -1.119792554527521133e-02 4.878610670566558838e-01
2.319228500127792358e-01 -1.400551572442054749e-02 -8.655202388763427734e-02
1.616078615188598633e-02 9.203692525625228882e-02 -1.439944002777338028e-02
8.315545320510864258e-01 1.150499680079519749e-03 8.369228988885879517e-02
-6.256096363067626953e-01 -7.123194634914398193e-03 -2.726963162422180176e-02
-3.337941169738769531e-01 -6.675961893051862717e-03 8.836333453655242920e-02
2.734901010990142822e-01 8.040902763605117798e-02 4.910675808787345886e-02
9.814003109931945801e-01 -2.180713415145874023e-02 3.390105068683624268e-02
8.262871503829956055e-01 -7.810802012681961060e-02 -2.075999788939952850e-02
-5.050084739923477173e-02 -2.834161184728145599e-02 -4.745709002017974854e-01
1.427011042833328247e-01 -5.942386761307716370e-02 -2.456405162811279297e-01
3.228579461574554443e-02 -1.181099563837051392e-01 -1.509278267621994019e-01
-4.371780455112457275e-01 1.510708481073379517e-01 4.493264108896255493e-02
4.427654147148132324e-01 4.271774366497993469e-02 -7.929701358079910278e-02
1.576583534479141235e-01 -8.267965912818908691e-02 -5.119626596570014954e-02
8.244485855102539062e-01 -5.177133157849311829e-02 -6.125886738300323486e-02
-4.520110785961151123e-01 1.080625429749488831e-01 1.367646176367998123e-02
3.849727660417556763e-02 -1.365456432104110718e-01 -1.524434387683868408e-01
-2.006199806928634644e-01 -2.260220050811767578e-02 -8.466372638940811157e-02
-6.995759606361389160e-01 3.306572437286376953e-01 -6.596401799470186234e-04
2.150265872478485107e-02 -5.937417969107627869e-02 -1.481947749853134155e-01
-3.329990804195404053e-01 1.844326965510845184e-02 -8.414196968078613281e-02
5.843623876571655273e-01 2.164839766919612885e-02 8.990377932786941528e-02
-1.481453478336334229e-01 -1.343406084924936295e-02 6.499062180519104004e-01
-5.525625348091125488e-01 1.293306648731231689e-01 3.499427065253257751e-02
3.399281203746795654e-01 2.830710634589195251e-02 -8.526003360748291016e-02
-4.458741247653961182e-01 3.013948211446404457e-03 -7.102332264184951782e-02
-6.258580684661865234e-01 1.389708817005157471e-01 -1.875675225164741278e-04
1.637704670429229736e-01 -8.605872094631195068e-02 -2.889966666698455811e-01
1.912003606557846069e-01 -2.260220050811767578e-02 9.127029776573181152e-02
8.021368980407714844e-01 3.136315569281578064e-02 -6.309746205806732178e-02
9.908169507980346680e-01 8.455210365355014801e-03 2.075755409896373749e-02
1.926652528345584869e-02 -5.666597932577133179e-02 -1.820846199989318848e-01
8.302117884159088135e-02 -3.035413473844528198e-02 1.009353697299957275e-01
3.195544481277465820e-01 -7.609548419713973999e-02 -4.056220501661300659e-02
4.771025180816650391e-01 -7.535011321306228638e-02 -4.240080714225769043e-02
-2.980160117149353027e-01 -2.364573068916797638e-02 -8.364505320787429810e-02
-6.074472069740295410e-01 1.969364285469055176e-01 8.036436513066291809e-03
1.208605058491230011e-02 -1.184826567769050598e-01 -1.487413942813873291e-01
-2.244979515671730042e-02 -3.437918052077293396e-02 -3.247996568679809570e-01
-5.878934264183044434e-01 1.708482056856155396e-01 -1.589019596576690674e-02
2.850921265780925751e-02 -6.394583731889724731e-02 -8.304874598979949951e-02
-7.077999711036682129e-01 6.179942190647125244e-02 -2.311553359031677246e-01
1.711993962526321411e-01 -1.698702201247215271e-02 -1.905570924282073975e-01
-4.175746142864227295e-01 3.535717958584427834e-03 7.919517904520034790e-02
-5.708501860499382019e-02 -3.172066435217857361e-02 3.824397623538970947e-01
8.351811021566390991e-02 -6.603290140628814697e-02 -2.518520057201385498e-01
-5.660290122032165527e-01 2.417088001966476440e-01 4.309545736759901047e-03
-2.087694406509399414e-01 -1.596834324300289154e-02 -5.715694427490234375e-01
-5.207597613334655762e-01 3.871754929423332214e-02 -7.308552414178848267e-02
-5.783774852752685547e-01 1.646118760108947754e-01 3.042261861264705658e-02
-1.974645107984542847e-01 -2.225436642765998840e-02 -5.048829317092895508e-01
1.766406446695327759e-01 -6.123762205243110657e-02 -1.258582770824432373e-01
-3.299430310726165771e-01 -5.373416095972061157e-02 6.888411939144134521e-02
8.664879202842712402e-01 -5.410685390233993530e-02 5.521885305643081665e-02
7.792786359786987305e-01 -6.384644657373428345e-02 -5.494800209999084473e-02
-1.299084424972534180e-01 -2.642847783863544464e-02 4.873393177986145020e-01
-6.788544654846191406e-01 4.974914342164993286e-02 -1.719723343849182129e-01
-6.622935645282268524e-03 -5.681505426764488220e-02 1.183772161602973938e-01
2.177596651017665863e-02 -9.617101401090621948e-02 -1.944316364824771881e-02
-5.024979710578918457e-01 6.363801658153533936e-02 -3.720800206065177917e-02
-2.002969533205032349e-01 -2.044061385095119476e-02 6.188240051269531250e-01
-5.112199857831001282e-02 -2.906215004622936249e-02 4.612759351730346680e-01
-6.326410770416259766e-01 -1.097431406378746033e-02 2.277007512748241425e-02
8.796552568674087524e-02 -2.260220050811767578e-02 3.469349741935729980e-01
1.890636235475540161e-01 -5.587090551853179932e-02 -2.814932167530059814e-01
-7.937669157981872559e-01 1.518659144639968872e-01 9.801912819966673851e-04
6.657824516296386719e-01 7.832197099924087524e-02 -4.823959618806838989e-02
8.251194357872009277e-01 -2.697508968412876129e-02 7.897157222032546997e-02
-5.206106901168823242e-01 1.539032906293869019e-01 -2.771685831248760223e-02
-6.573876142501831055e-01 3.091592714190483093e-02 1.164640784263610840e-01
-2.206706255674362183e-01 -1.932254619896411896e-02 -5.612335205078125000e-01
-3.198555707931518555e-01 8.898086845874786377e-02 -1.579081267118453979e-02
8.867372870445251465e-01 -7.184683531522750854e-02 1.054729102179408073e-03
-6.520457267761230469e-01 2.239377796649932861e-02 -3.636324405670166016e-02
7.382819056510925293e-02 -8.426981419324874878e-02 -1.889655366539955139e-02
5.434659719467163086e-01 -5.055387318134307861e-02 7.335638254880905151e-02
1.972130984067916870e-01 -1.117742508649826050e-01 -2.196516692638397217e-01
7.919491082429885864e-02 -2.066422440111637115e-02 -1.921472251415252686e-01
-7.081974744796752930e-01 2.914752066135406494e-01 3.837472992017865181e-03
-2.392305284738540649e-01 -5.731821060180664062e-03 7.187045812606811523e-01
-5.074931308627128601e-02 -3.149704635143280029e-02 -3.919581770896911621e-01
-2.062351554632186890e-01 1.849296502768993378e-02 -8.692471683025360107e-02
3.124733567237854004e-01 5.307849869132041931e-02 -7.353275269269943237e-02
-1.687923222780227661e-01 -1.937223039567470551e-02 -6.576358079910278320e-01
8.642765879631042480e-01 9.101202711462974548e-03 7.740627229213714600e-02
9.177201986312866211e-01 -3.542270138859748840e-02 5.656053870916366577e-02
9.596591442823410034e-02 -3.321141749620437622e-02 -3.231846392154693604e-01
1.386263817548751831e-01 2.699027024209499359e-02 -8.580664545297622681e-02
7.119452208280563354e-02 -3.574570268392562866e-02 6.088372692465782166e-02
1.845168173313140869e-01 -8.513941615819931030e-02 -1.231238245964050293e-02
-6.283675432205200195e-01 4.967460781335830688e-02 3.710617497563362122e-02
2.229037731885910034e-01 -6.387129426002502441e-02 -2.128687351942062378e-01
7.892160862684249878e-02 -4.329886659979820251e-02 2.345319390296936035e-01
-4.489301741123199463e-01 1.601396203041076660e-01 -3.800307214260101318e-02
-5.256305634975433350e-02 9.007409214973449707e-02 2.756533771753311157e-02
2.577615901827812195e-02 -1.976976916193962097e-02 -2.427832335233688354e-01
