-4.504755735397338867e-01 7.477908581495285034e-02 1.591330580413341522e-02
-4.022560119628906250e-01 1.437417715787887573e-01 -1.316962204873561859e-02
-1.906664818525314331e-01 7.841794867999851704e-04 -6.330282241106033325e-02
4.072117805480957031e-02 -7.798307389020919800e-02 3.023954927921295166e-01
3.959978930652141571e-03 -7.280909270048141479e-02 -2.205065488815307617e-01
-4.651469588279724121e-01 8.567041903734207153e-02 1.492103654891252518e-02
-2.350823283195495605e-01 2.242509089410305023e-02 6.649539619684219360e-02
8.113833665847778320e-01 -5.079017952084541321e-02 -5.342738702893257141e-02
5.880519151687622070e-01 5.561884865164756775e-02 -2.588011324405670166e-02
1.874951086938381195e-02 -5.735805258154869080e-02 3.378336727619171143e-01
3.314087092876434326e-01 -7.647103816270828247e-02 1.924449391663074493e-02
-9.826733916997909546e-02 -7.477000355720520020e-02 -1.756395585834980011e-02
8.429941534996032715e-01 8.556950837373733521e-03 -5.765634402632713318e-02
-6.427394747734069824e-01 2.693346738815307617e-01 8.875057101249694824e-02
-2.463988959789276123e-01 5.887276027351617813e-03 -9.477192163467407227e-02
4.986422508955001831e-02 -9.624553471803665161e-02 -1.950383335351943970e-01
-8.156415075063705444e-02 -6.638297438621520996e-02 4.358556568622589111e-01
2.416083663702011108e-01 3.152088820934295654e-02 5.697433650493621826e-02
4.577701911330223083e-02 -5.809044092893600464e-02 -4.232365489006042480e-01
-1.182072237133979797e-01 -6.652472913265228271e-02 -5.257946252822875977e-01
-3.866033628582954407e-02 -7.547876983880996704e-02 -5.225343108177185059e-01
-1.415727883577346802e-01 -7.408487051725387573e-02 4.880915284156799316e-01
-2.774427533149719238e-01 5.739075690507888794e-02 1.948074810206890106e-02
2.158566415309906006e-01 -4.339541494846343994e-02 1.056427583098411560e-01
3.483954071998596191e-01 5.096463486552238464e-02 3.658557310700416565e-02
4.906095936894416809e-02 -6.664285063743591309e-02 -1.943059414625167847e-01
-6.297218799591064453e-01 2.579944431781768799e-01 -1.073406636714935303e-01
5.622529983520507812e-01 -1.216256897896528244e-02 -6.958719342947006226e-02
6.563767790794372559e-01 1.084862090647220612e-02 6.744041293859481812e-02
-6.032140851020812988e-01 2.582779526710510254e-01 2.125265635550022125e-02
9.662481546401977539e-01 -3.047229349613189697e-02 2.529260888695716858e-02
2.694754116237163544e-02 -1.628929227590560913e-01 1.984671652317047119e-01
-3.074943423271179199e-01 5.603772588074207306e-03 -8.321908116340637207e-02
2.499954104423522949e-01 -5.941346660256385803e-02 -4.839516803622245789e-02
5.936165526509284973e-02 -5.360160768032073975e-02 3.440235257148742676e-01
6.560223698616027832e-01 -7.732155919075012207e-02 1.459028106182813644e-02
-5.891333222389221191e-01 2.574746906757354736e-01 -1.201456561684608459e-01
8.768856525421142578e-02 -7.732155919075012207e-02 2.453636825084686279e-01
1.543832272291183472e-01 5.467382818460464478e-02 -2.814815752208232880e-02
6.833932548761367798e-02 -5.447574704885482788e-02 2.453636825084686279e-01
-2.599835395812988281e-01 -2.097485959529876709e-02 -1.374394893646240234e-01
-1.640169769525527954e-01 -7.772319018840789795e-02 6.237488389015197754e-01
2.225190103054046631e-01 -6.402042508125305176e-02 4.289356991648674011e-02
5.026585608720779419e-02 -1.327704787254333496e-01 -2.055988907814025879e-01
-3.203938305377960205e-01 7.304804865270853043e-03 5.260363221168518066e-02
-3.818782791495323181e-02 -6.456381082534790039e-02 3.559071421623229980e-01
1.243788897991180420e-01 -5.575152114033699036e-02 5.213111639022827148e-02
4.937391281127929688e-01 2.745092380791902542e-03 -6.847680360078811646e-02
-2.273331731557846069e-01 3.156813979148864746e-02 -9.448841959238052368e-02
8.051225543022155762e-01 -6.432756036520004272e-02 4.105078428983688354e-02
8.258547633886337280e-02 -1.394801139831542969e-01 2.010895609855651855e-01
-2.306753769516944885e-02 -7.436837255954742432e-02 -3.358200937509536743e-02
2.059575617313385010e-01 -7.732155919075012207e-02 -3.790546953678131104e-02
-7.178322225809097290e-02 -7.401399314403533936e-02 -3.723473250865936279e-01
7.781313359737396240e-02 -1.287305355072021484e-01 -2.123321741819381714e-01
4.433697164058685303e-01 3.485207632184028625e-02 -5.392352491617202759e-02
1.477208435535430908e-01 -4.762436822056770325e-02 -1.918016523122787476e-01
2.734917402267456055e-02 -7.800669223070144653e-02 -3.242222964763641357e-01
-4.516095817089080811e-01 3.771075606346130371e-02 -3.048707731068134308e-02
1.444967463612556458e-02 4.162617027759552002e-03 6.876343488693237305e-02
7.428694963455200195e-01 5.701275169849395752e-02 2.635803306475281715e-03
5.936165526509284973e-02 -5.360160768032073975e-02 3.440235257148742676e-01
4.081441462039947510e-01 -6.217763945460319519e-02 4.527974128723144531e-02
-5.076727867126464844e-01 2.323135882616043091e-01 -7.759394124150276184e-03
-3.894510269165039062e-01 1.654235459864139557e-02 -4.787540808320045471e-02
1.000808738172054291e-02 -4.408055171370506287e-02 2.249040454626083374e-01
7.757687568664550781e-02 -7.143881916999816895e-02 -3.795058429241180420e-01
-6.220436096191406250e-01 2.706576883792877197e-01 -1.449760049581527710e-01
-6.627738475799560547e-01 2.693819105625152588e-01 -1.132942736148834229e-01
-4.940172433853149414e-01 2.558917701244354248e-01 -2.278517931699752808e-02
-3.217404782772064209e-01 -4.672660306096076965e-02 -1.182297151535749435e-02
1.917114257812500000e-01 -4.460031166672706604e-02 1.321741342544555664e-01
1.674133911728858948e-02 -4.386792331933975220e-02 -2.082213312387466431e-01
1.091404780745506287e-01 -9.737956523895263672e-02 2.275264710187911987e-01
9.303374290466308594e-01 -1.105857663787901402e-03 -3.450340405106544495e-02
8.355520963668823242e-01 -9.020380675792694092e-03 -6.313744932413101196e-02
-5.654479563236236572e-02 -7.399036735296249390e-02 -3.463121056556701660e-01
-2.103700935840606689e-01 -7.670729607343673706e-02 -6.612629890441894531e-01
-1.984392255544662476e-01 -4.653759673237800598e-02 4.716977849602699280e-02
-1.493928134441375732e-01 -6.716261059045791626e-02 6.074236631393432617e-01
-1.320044845342636108e-01 -6.560333818197250366e-02 6.018480658531188965e-01
-4.041932523250579834e-01 7.194403558969497681e-02 -1.702057011425495148e-02
4.939171671867370605e-02 -6.652472913265228271e-02 -4.336553812026977539e-01
2.057922035455703735e-01 -7.502988725900650024e-02 -2.221816964447498322e-02
8.768856525421142578e-02 -7.732155919075012207e-02 2.453636825084686279e-01
-2.120112814009189606e-02 -7.536064088344573975e-02 2.685188874602317810e-02
-5.521122813224792480e-01 2.709884345531463623e-01 -4.095314815640449524e-02
-6.297454237937927246e-01 2.613728940486907959e-01 9.510809555649757385e-03
-3.740944564342498779e-01 1.120364218950271606e-01 1.553529873490333557e-02
-7.235384583473205566e-01 2.718153297901153564e-01 -2.657256722450256348e-01
2.314383536577224731e-02 -9.900971502065658569e-02 1.970023661851882935e-01
-1.952498257160186768e-01 3.619872778654098511e-02 -1.016469374299049377e-01
-2.980914115905761719e-01 -1.934470795094966888e-02 9.638158231973648071e-02
2.095486521720886230e-01 -4.563982784748077393e-02 -1.873600631952285767e-01
-5.189058184623718262e-02 -7.635290920734405518e-02 -5.346069335937500000e-01
-1.195774972438812256e-01 -7.739243656396865845e-02 6.220477819442749023e-01
1.027616038918495178e-01 -4.450580477714538574e-02 2.171076536178588867e-01
7.269695997238159180e-01 -7.202945649623870850e-02 3.006494976580142975e-02
9.083075076341629028e-02 -5.376698076725006104e-02 -1.892028450965881348e-01
1.774180233478546143e-01 -7.073006033897399902e-02 2.471119463443756104e-01
9.160913228988647461e-01 1.266778167337179184e-02 3.013810608536005020e-03
4.043168127536773682e-01 -5.069567263126373291e-02 5.600569397211074829e-02
-2.120112814009189606e-02 -7.536064088344573975e-02 2.685188874602317810e-02
3.645552098751068115e-01 -6.669010221958160400e-02 -4.040976613759994507e-02
1.106525063514709473e-01 -5.164068937301635742e-02 -1.929829120635986328e-01
1.180000156164169312e-01 -7.814844697713851929e-02 -2.099460065364837646e-01
-2.904603779315948486e-01 2.176357805728912354e-02 4.086177796125411987e-02
-3.831194043159484863e-01 1.694398745894432068e-02 5.312338843941688538e-02
2.279056012630462646e-01 -7.772319018840789795e-02 -6.996519863605499268e-02
2.189169451594352722e-02 -7.687267661094665527e-02 2.118178084492683411e-02
-7.298812270164489746e-02 -7.318710535764694214e-02 -2.393124252557754517e-01
6.314172595739364624e-02 -6.227214634418487549e-02 -2.448644191026687622e-01
-3.123375177383422852e-01 -2.196712791919708252e-02 1.022879481315612793e-01
3.164538145065307617e-01 -4.278114810585975647e-02 -7.785610854625701904e-02
-5.937166213989257812e-01 2.327861040830612183e-01 5.281853489577770233e-03
-3.828122615814208984e-01 1.581060439348220825e-01 7.927903905510902405e-03
-5.685319304466247559e-01 2.769420444965362549e-01 -6.365492474287748337e-03
6.328348070383071899e-02 -1.093340516090393066e-01 -1.981568783521652222e-01
-6.537253260612487793e-01 2.684368789196014404e-01 1.052670367062091827e-02
-7.043073773384094238e-01 2.673028707504272461e-01 1.253227591514587402e-01
1.048642694950103760e-01 -4.927815124392509460e-02 -5.659319832921028137e-02
6.841020286083221436e-02 -7.666004449129104614e-02 3.531666100025177002e-01
7.443469017744064331e-02 -5.738167464733123779e-02 -1.023556888103485107e-01
5.487281829118728638e-02 -7.056467235088348389e-02 -2.448644191026687622e-01
9.106574654579162598e-01 1.401443034410476685e-02 -9.743932634592056274e-03
7.171776145696640015e-02 5.136626586318016052e-02 -3.556654974818229675e-02
-7.424025982618331909e-02 -9.135507792234420776e-02 -2.380602657794952393e-01
3.474393486976623535e-02 -1.487649083137512207e-01 -2.218295782804489136e-01
5.487281829118728638e-02 -5.414499342441558838e-02 -3.627553880214691162e-01
-5.773679018020629883e-01 2.652238309383392334e-01 -1.223664507269859314e-01
-1.746830716729164124e-02 -7.670729607343673706e-02 3.499535322189331055e-01
3.586488366127014160e-01 -5.662566050887107849e-02 5.144598335027694702e-02
8.400409817695617676e-01 -6.373692303895950317e-02 -3.868510574102401733e-02
-5.420714020729064941e-01 2.504106760025024414e-01 -7.381387054920196533e-03
8.350685983896255493e-02 -9.825369715690612793e-02 -2.411788403987884521e-01
-9.987387061119079590e-02 5.911541357636451721e-02 1.678744889795780182e-02
-4.197388589382171631e-01 2.042701691389083862e-01 2.612177748233079910e-03
-7.304607629776000977e-01 2.627668082714080811e-01 -2.355796098709106445e-01
-6.495908498764038086e-01 2.587741017341613770e-01 -1.468896716833114624e-01
-1.638153940439224243e-02 -6.652472913265228271e-02 -2.759082317352294922e-01
1.473664492368698120e-01 -6.064198538661003113e-02 3.054904341697692871e-01
2.179592847824096680e-01 -1.020165532827377319e-02 -6.984707713127136230e-02
-4.451362192630767822e-01 1.350948512554168701e-01 1.392876822501420975e-02
4.487925022840499878e-02 -7.651829719543457031e-02 4.159417003393173218e-02
-1.561024338006973267e-01 -6.737523525953292847e-02 6.240795850753784180e-01
2.489795237779617310e-01 -7.753418385982513428e-02 -4.619799926877021790e-02
-5.475997924804687500e-01 2.676572501659393311e-01 7.651258260011672974e-02
2.375810407102108002e-02 -5.792506784200668335e-02 -2.448644191026687622e-01
1.365932524204254150e-01 -4.880564287304878235e-02 -1.934790611267089844e-01
4.743080213665962219e-02 -4.424592480063438416e-02 -2.405645847320556641e-01
-3.457911908626556396e-01 4.327995236963033676e-03 4.946144297719001770e-02
-8.109163492918014526e-02 5.946979299187660217e-02 -1.352400425821542740e-02
-1.267123967409133911e-01 -4.398604482412338257e-02 5.794297903776168823e-02
6.406186223030090332e-01 -7.748693227767944336e-02 1.331450697034597397e-02
-1.756643205881118774e-01 -7.762868702411651611e-02 6.969640851020812988e-01
-3.528189286589622498e-02 -8.932328969240188599e-02 -2.423364669084548950e-01
-1.587248742580413818e-01 -1.164280716329813004e-02 -6.467310339212417603e-02
-4.775739312171936035e-01 2.548050284385681152e-01 -5.255097057670354843e-03
-1.532910168170928955e-01 1.578633859753608704e-02 -5.264774709939956665e-02
-1.473878393881022930e-03 5.370518565177917480e-02 -3.048707731068134308e-02
2.406397312879562378e-01 -7.579229306429624557e-03 7.032271474599838257e-02
-6.427394747734069824e-01 2.693346738815307617e-01 8.875057101249694824e-02
2.964083850383758545e-02 -5.589327216148376465e-02 4.080012440681457520e-01
-5.287466645240783691e-01 1.698951274156570435e-01 -9.602179750800132751e-03
-2.733791768550872803e-01 4.801145195960998535e-02 3.575868159532546997e-02
6.568965315818786621e-01 2.979622967541217804e-02 -5.782172456383705139e-02
4.946259036660194397e-02 -5.407411605119705200e-02 -6.864217668771743774e-02
7.868727296590805054e-02 -5.416861549019813538e-02 2.277863472700119019e-01
-4.336069524288177490e-01 1.908981651067733765e-01 -9.838433936238288879e-03
2.914470806717872620e-02 -1.922657713294029236e-02 -6.864217668771743774e-02
2.297720164060592651e-01 5.892641097307205200e-02 1.837035268545150757e-02
-1.355719268321990967e-01 2.769356593489646912e-02 1.134864091873168945e-01
3.568060398101806641e-01 -4.941990226507186890e-02 -5.649869516491889954e-02
6.689817458391189575e-02 -5.369610711932182312e-02 2.856214642524719238e-01
-9.280985593795776367e-02 -6.992679089307785034e-02 4.151597619056701660e-01
-5.911998450756072998e-02 -6.780049949884414673e-02 -5.687670037150382996e-02
-1.435337066650390625e-01 -1.778542250394821167e-02 -1.119712591171264648e-01
-7.219792008399963379e-01 2.631211578845977783e-01 -2.024803608655929565e-01
4.894866347312927246e-01 -6.827300786972045898e-02 -3.686594963073730469e-02
-2.227734774351119995e-01 -5.062479898333549500e-02 3.816848248243331909e-02
8.258547633886337280e-02 -1.394801139831542969e-01 2.010895609855651855e-01
1.361207365989685059e-01 5.594960600137710571e-02 2.555248886346817017e-02
2.907965481281280518e-01 -3.791430592536926270e-02 6.758216023445129395e-02
1.346087008714675903e-01 5.089375749230384827e-02 3.668007627129554749e-02
6.324914097785949707e-01 2.856770902872085571e-02 5.924237892031669617e-02
5.377770066261291504e-01 -5.996326450258493423e-03 -6.961081922054290771e-02
-7.212704420089721680e-01 2.701851725578308105e-01 -1.964558511972427368e-01
-1.150650307536125183e-01 -6.794225424528121948e-02 4.953209161758422852e-01
2.178411781787872314e-01 -2.076223120093345642e-02 6.895244121551513672e-02
-4.966869652271270752e-01 1.138319522142410278e-01 -1.222460437566041946e-02
3.064365983009338379e-01 2.653591893613338470e-02 -6.030239164829254150e-02
3.290461599826812744e-01 -4.415142536163330078e-02 -7.669845223426818848e-02
-5.374172329902648926e-01 2.457328438758850098e-01 1.029272796586155891e-03
2.045400440692901611e-01 -6.669010221958160400e-02 2.299598902463912964e-01
2.576500475406646729e-01 -4.748261347413063049e-02 -5.798710137605667114e-02
1.235283762216567993e-01 -9.853722155094146729e-02 -2.228218615055084229e-01
-1.994315087795257568e-01 1.788900233805179596e-02 -5.940462648868560791e-02
-6.198464035987854004e-01 2.709175646305084229e-01 9.961827099323272705e-02
-3.074943423271179199e-01 5.603772588074207306e-03 -8.321908116340637207e-02
-1.873352974653244019e-01 3.459219634532928467e-02 5.149323120713233948e-02
-3.176060616970062256e-01 5.968242511153221130e-02 1.206235773861408234e-02
1.424051076173782349e-01 -6.534345448017120361e-02 -4.069327190518379211e-02
-1.484005600214004517e-01 -7.784131914377212524e-02 -6.032860875129699707e-01
7.171776145696640015e-02 5.136626586318016052e-02 -3.556654974818229675e-02
2.179718762636184692e-02 -5.820856988430023193e-02 -3.049202859401702881e-01
9.401892423629760742e-01 -6.508357077836990356e-02 -1.066532451659440994e-02
-3.722280561923980713e-01 2.266134507954120636e-02 1.299533545970916748e-01
2.801067754626274109e-02 -1.024117916822433472e-01 -2.036379873752593994e-01
-3.180076777935028076e-01 2.010979689657688141e-02 -8.659752458333969116e-02
-4.915838241577148438e-01 3.043411858379840851e-02 2.765515446662902832e-02
-3.765751123428344727e-01 -2.919651195406913757e-02 -2.363569475710391998e-02
1.999330967664718628e-01 -4.438767582178115845e-02 1.311346292495727539e-01
5.132900178432464600e-02 -5.464112386107444763e-02 3.804303407669067383e-01
4.584789648652076721e-02 -7.710893452167510986e-02 -3.737412691116333008e-01
-2.227734774351119995e-01 -5.062479898333549500e-02 3.816848248243331909e-02
1.915224194526672363e-01 4.886196926236152649e-02 -3.882686048746109009e-02
4.920271039009094238e-02 -5.955521762371063232e-02 -2.103948593139648438e-01
-6.618399173021316528e-02 -7.616391032934188843e-02 -4.087069034576416016e-01
-3.658129647374153137e-02 -5.797231197357177734e-02 -2.422419786453247070e-01
8.346071839332580566e-01 -7.120256870985031128e-02 -2.736851572990417480e-02
-2.046291232109069824e-01 4.224684461951255798e-02 1.236217319965362549e-01
1.657234132289886475e-01 -7.772319018840789795e-02 5.380852892994880676e-02
1.161461696028709412e-02 -7.814844697713851929e-02 -3.917202055454254150e-01
8.785394579172134399e-02 -5.242033302783966064e-02 -2.525899410247802734e-01
-2.031879574060440063e-01 2.244871482253074646e-02 6.394384801387786865e-02
2.031225115060806274e-01 -7.798307389020919800e-02 -6.346820294857025146e-02
7.252103090286254883e-02 -1.202726289629936218e-01 2.415599673986434937e-01
-2.438946068286895752e-01 2.240146510303020477e-02 3.490816801786422729e-02
-4.239914417266845703e-01 7.517432328313589096e-03 -3.759833797812461853e-02
7.705585360527038574e-01 -4.620684310793876648e-02 5.931325629353523254e-02
-4.183685481548309326e-01 9.831003099679946899e-02 -1.557941734790802002e-02
5.785545706748962402e-01 -1.317846029996871948e-02 -6.944544613361358643e-02
5.064386129379272461e-02 -6.040573492646217346e-02 1.948052197694778442e-01
8.024529218673706055e-01 -9.170944988727569580e-02 1.610230840742588043e-02
2.438291460275650024e-01 -7.706167548894882202e-02 -2.765202149748802185e-02
-3.986176848411560059e-01 4.127819836139678955e-02 3.457741066813468933e-02
5.731882527470588684e-03 -9.830095618963241577e-02 2.439225167036056519e-01
-3.135424554347991943e-01 5.339805409312248230e-02 2.744252607226371765e-02
1.311830282211303711e-01 -5.501913279294967651e-02 1.966952532529830933e-01
-6.415218859910964966e-02 -9.747407585382461548e-02 2.291093766689300537e-01
-6.728146672248840332e-01 2.647985816001892090e-01 -5.827060341835021973e-02
8.050642907619476318e-02 -7.644741982221603394e-02 -1.667114347219467163e-01
2.831781283020973206e-02 -1.388658434152603149e-01 2.164697349071502686e-01
-4.156626760959625244e-02 -4.963252693414688110e-02 -2.131354361772537231e-01
1.540760695934295654e-01 -6.494182348251342773e-02 4.171229898929595947e-02
-3.819381296634674072e-01 2.012703334912657738e-03 -4.343382269144058228e-02
2.401908487081527710e-01 -7.699080556631088257e-02 8.069428801536560059e-02
4.120187461376190186e-01 7.895438000559806824e-03 6.829092651605606079e-02
7.372592389583587646e-02 -9.185120463371276855e-02 2.159972190856933594e-01
7.269695997238159180e-01 -7.202945649623870850e-02 3.006494976580142975e-02
-2.587313950061798096e-01 -1.109942328184843063e-02 -8.770791441202163696e-02
-5.803210735321044922e-01 2.558209002017974854e-01 -3.204635530710220337e-02
1.037775054574012756e-01 -8.242464810609817505e-02 1.948052197694778442e-01
-5.183042287826538086e-01 2.577345669269561768e-01 5.503705143928527832e-02
2.157385051250457764e-01 3.305654227733612061e-02 5.579306185245513916e-02
-5.265495181083679199e-01 2.535764873027801514e-01 -2.769927307963371277e-02
-2.543134391307830811e-01 -2.010071836411952972e-02 1.395689100027084351e-01
-2.917125225067138672e-01 8.155318908393383026e-03 5.524967983365058899e-02
-7.450014352798461914e-02 -6.316991150379180908e-02 -4.752597808837890625e-01
1.107123307883739471e-02 -5.707454681396484375e-02 4.359265267848968506e-01
-1.182182226330041885e-02 -5.922446027398109436e-02 4.896530881524085999e-02
-1.952372305095195770e-02 -5.979147553443908691e-02 -3.921454846858978271e-01
2.472674287855625153e-02 -7.817208021879196167e-02 8.140533231198787689e-03
6.867008656263351440e-02 -1.505368351936340332e-01 1.988687813282012939e-01
-1.836261004209518433e-01 -7.614028453826904297e-02 6.056281328201293945e-01
-1.496054530143737793e-01 -3.276395797729492188e-02 6.018739566206932068e-02
7.646993994712829590e-01 -7.904621958732604980e-02 1.525407191365957260e-03
-7.289015054702758789e-01 2.642315626144409180e-01 1.957265883684158325e-01
2.537046074867248535e-01 2.981346566230058670e-03 6.892881542444229126e-02
-1.072686463594436646e-01 -7.606940716505050659e-02 6.190946102142333984e-01
-3.818782791495323181e-02 -6.456381082534790039e-02 3.559071421623229980e-01
-2.836090028285980225e-01 5.131260026246309280e-03 -5.593168735504150391e-02
2.658244669437408447e-01 -7.002129405736923218e-02 1.392617821693420410e-01
6.741793453693389893e-02 -5.400323867797851562e-02 -3.659448325634002686e-01
-1.952372305095195770e-02 -5.979147553443908691e-02 -3.921454846858978271e-01
6.841020286083221436e-02 -7.666004449129104614e-02 3.531666100025177002e-01
-1.412420421838760376e-01 -5.289284139871597290e-02 5.366677418351173401e-02
-6.228704452514648438e-01 2.586323320865631104e-01 -1.553475856781005859e-01
-6.815797090530395508e-01 2.702796757221221924e-01 1.507673859596252441e-01
7.282925844192504883e-01 4.928722605109214783e-02 3.476641699671745300e-02
-1.751556061208248138e-02 -6.203588843345642090e-02 -3.431226611137390137e-01
-1.560079455375671387e-01 -7.120256870985031128e-02 -6.967956423759460449e-01
6.199463009834289551e-01 -7.039929926395416260e-02 3.389227390289306641e-02
-2.844358682632446289e-01 -3.796155750751495361e-02 -3.986638039350509644e-02
-1.984392255544662476e-01 -4.653759673237800598e-02 4.716977849602699280e-02
6.039519309997558594e-01 3.964804485440254211e-02 5.076084285974502563e-02
-3.776146471500396729e-01 1.300390064716339111e-01 -1.326412335038185120e-02
-1.138365119695663452e-01 -7.479363679885864258e-02 -4.594779908657073975e-01
-5.205722451210021973e-01 9.351406991481781006e-02 -1.064169965684413910e-02
-4.425956681370735168e-02 -7.814844697713851929e-02 -4.596906304359436035e-01
-4.822045266628265381e-01 2.662869691848754883e-01 8.116907440125942230e-03
5.855838954448699951e-02 -5.936621129512786865e-02 1.519722640514373779e-01
-3.612658083438873291e-01 -1.531116780824959278e-03 -1.362582147121429443e-01
9.295704215764999390e-02 -9.919872879981994629e-02 -2.076306939125061035e-01
-2.328016608953475952e-02 -7.580953091382980347e-02 3.293285071849822998e-01
1.000446826219558716e-01 -7.755780965089797974e-02 2.780612707138061523e-01
-2.151896804571151733e-01 -4.063123464584350586e-02 7.152265906333923340e-01
1.444967463612556458e-02 4.162617027759552002e-03 6.876343488693237305e-02
-7.178322225809097290e-02 -7.401399314403533936e-02 -3.723473250865936279e-01
-5.344986543059349060e-02 -6.066561862826347351e-02 -5.102963447570800781e-01
-2.246634960174560547e-01 -2.546369098126888275e-02 1.360723376274108887e-01
-6.920694112777709961e-01 2.616800069808959961e-01 2.380633950233459473e-01
-3.274105489253997803e-01 5.299642309546470642e-02 1.957524940371513367e-02
5.601029992103576660e-01 -7.852645963430404663e-02 5.281853489577770233e-03
4.492997229099273682e-01 -3.496112674474716187e-02 -6.436596810817718506e-02
-2.068136632442474365e-02 -8.540146052837371826e-02 1.963172554969787598e-01
-4.195970594882965088e-01 7.598398625850677490e-02 1.707095280289649963e-02
-1.179945915937423706e-01 -6.777687370777130127e-02 -3.034532442688941956e-02
-2.400200217962265015e-01 5.387056246399879456e-02 -2.793552726507186890e-02
6.560223698616027832e-01 -7.732155919075012207e-02 1.459028106182813644e-02
-6.081281900405883789e-01 2.619398832321166992e-01 1.584220081567764282e-01
3.257039561867713928e-02 -7.668367028236389160e-02 -2.687497138977050781e-01
-1.320044845342636108e-01 -6.560333818197250366e-02 6.018480658531188965e-01
9.843814373016357422e-02 -1.458353549242019653e-01 -2.362411022186279297e-01
-6.812726259231567383e-01 2.609240114688873291e-01 -1.542371958494186401e-01
-2.858061492443084717e-01 6.359783932566642761e-03 4.943782091140747070e-02
-3.573204278945922852e-01 6.757332384586334229e-02 1.853572949767112732e-02
-7.345243096351623535e-01 2.697835564613342285e-01 -2.061659395694732666e-01
-1.787356287240982056e-01 -6.957240402698516846e-02 -1.593152061104774475e-03
-2.377283722162246704e-01 -2.948641311377286911e-03 6.049453094601631165e-02
-2.524108253419399261e-02 -9.343411028385162354e-02 2.430483847856521606e-01
5.377770066261291504e-01 -5.996326450258493423e-03 -6.961081922054290771e-02
-5.841120705008506775e-02 -7.528976351022720337e-02 3.775952756404876709e-01
8.697980642318725586e-02 -1.267696171998977661e-01 -2.390052974224090576e-01
1.630773842334747314e-01 -7.791219651699066162e-02 -6.058590114116668701e-02
3.670122623443603516e-01 -2.307752706110477448e-02 6.864530593156814575e-02
2.307295985519886017e-02 -1.024117916822433472e-01 2.068778127431869507e-01
-4.966869652271270752e-01 1.138319522142410278e-01 -1.222460437566041946e-02
-4.049055743962526321e-03 -7.810119539499282837e-02 8.613041602075099945e-03
-3.880807161331176758e-01 3.319829702377319336e-02 3.998763859272003174e-02
2.242436707019805908e-01 -5.154619365930557251e-02 -2.071345597505569458e-01
-5.511907935142517090e-01 1.145170927047729492e-01 -7.357761729508638382e-03
2.115930430591106415e-02 -9.159132093191146851e-02 -2.448644191026687622e-01
1.097547337412834167e-01 -7.715617865324020386e-02 3.238024190068244934e-02
-2.461626678705215454e-01 -6.106724962592124939e-02 2.659429097548127174e-03
-2.417683154344558716e-01 -1.206806581467390060e-02 -7.233506441116333008e-01
4.221304655075073242e-01 5.762701109051704407e-02 -2.103689685463905334e-02
1.037775054574012756e-01 -8.242464810609817505e-02 1.948052197694778442e-01
9.304792284965515137e-01 6.407037377357482910e-03 -1.539041474461555481e-02
-5.706455931067466736e-02 -4.448218271136283875e-02 -6.320831924676895142e-02
-3.398139178752899170e-01 1.911752671003341675e-02 9.354653209447860718e-02
2.375810407102108002e-02 -5.792506784200668335e-02 -2.448644191026687622e-01
7.752127051353454590e-01 9.643723256886005402e-03 -6.424784660339355469e-02
-5.703274607658386230e-01 2.555137574672698975e-01 8.078878372907638550e-02
1.693853735923767090e-01 -3.611876815557479858e-02 -6.389345973730087280e-02
-3.176060616970062256e-01 5.968242511153221130e-02 1.206235773861408234e-02
-1.648674905300140381e-01 -7.186407595872879028e-02 5.594876408576965332e-01
-1.351702958345413208e-01 -7.741605490446090698e-02 5.662681460380554199e-01
-1.422342956066131592e-01 -8.996758610010147095e-03 -6.594888120889663696e-02
7.767720222473144531e-01 -5.915358662605285645e-02 -4.863142222166061401e-02
-1.344142854213714600e-01 -7.611665874719619751e-02 -6.578136086463928223e-01
2.953799068927764893e-01 -7.458100467920303345e-02 -2.328131534159183502e-02
9.045274555683135986e-02 -5.483012646436691284e-02 1.521140336990356445e-01
5.567608028650283813e-02 5.488646030426025391e-02 -2.765202149748802185e-02
3.883114084601402283e-02 -5.509000644087791443e-02 3.386841714382171631e-01
1.688419878482818604e-01 -5.043579265475273132e-02 2.572000324726104736e-01
-1.269250065088272095e-01 -7.720343023538589478e-02 6.369318366050720215e-01
-5.543330311775207520e-01 2.605696320533752441e-01 1.180247776210308075e-02
2.614426799118518829e-02 -7.243108749389648438e-02 9.815349429845809937e-02
-1.967618316411972046e-01 -3.210244700312614441e-02 -5.652232468128204346e-02
-1.002518758177757263e-01 1.214801985770463943e-02 6.569212675094604492e-02
-2.192060053348541260e-01 4.330998659133911133e-02 4.343695566058158875e-02
1.067306846380233765e-01 -5.343622341752052307e-02 -7.596606761217117310e-02
3.519392311573028564e-01 -4.582883045077323914e-02 -6.670489162206649780e-02
-5.698785781860351562e-01 2.548995316028594971e-01 -5.241149291396141052e-02
6.842281669378280640e-03 -5.884645134210586548e-02 -3.325384557247161865e-01
8.350685983896255493e-02 -9.825369715690612793e-02 -2.411788403987884521e-01
2.103519141674041748e-01 -2.027251757681369781e-03 -6.909105926752090454e-02
-6.728146672248840332e-01 2.647985816001892090e-01 -5.827060341835021973e-02
2.962540388107299805e-01 -7.448650151491165161e-02 6.217193603515625000e-02
2.297011315822601318e-01 4.314460977911949158e-02 4.676814377307891846e-02
-1.889890730381011963e-01 -6.997403502464294434e-02 -7.035288810729980469e-01
-6.349067389965057373e-02 -5.232583358883857727e-02 2.159499824047088623e-01
-2.064515836536884308e-03 -7.814844697713851929e-02 -3.866879940032958984e-01
2.223300188779830933e-01 -7.736880332231521606e-02 4.048377275466918945e-02
-8.515521883964538574e-02 -6.340616941452026367e-02 5.051491260528564453e-01
-7.920160144567489624e-02 -7.814844697713851929e-02 5.077242851257324219e-01
-1.296183168888092041e-01 -5.208957567811012268e-02 -5.557730048894882202e-02
-4.169746637344360352e-01 1.209668368101119995e-01 1.506278943270444870e-02
7.252103090286254883e-02 -1.202726289629936218e-01 2.415599673986434937e-01
8.181401491165161133e-01 -1.262498646974563599e-01 -4.050198476761579514e-03
-5.008450746536254883e-01 1.671545952558517456e-01 1.137722004204988480e-02
-3.987121582031250000e-01 -3.870035288855433464e-03 3.906624391674995422e-02
5.245231389999389648e-01 -6.775964517146348953e-03 7.020458579063415527e-02
-1.854452490806579590e-01 4.189246147871017456e-02 -1.208780407905578613e-01
3.278884887695312500e-01 5.375243723392486572e-02 3.089184127748012543e-02
-3.882697522640228271e-01 6.005404982715845108e-03 9.007359296083450317e-02
-9.356588125228881836e-02 -6.376054883003234863e-02 -5.223925709724426270e-01
-7.263373583555221558e-02 -3.236232697963714600e-02 6.446360796689987183e-02
-1.952498257160186768e-01 3.619872778654098511e-02 -1.016469374299049377e-01
-4.471207559108734131e-01 1.096502542495727539e-01 -1.456352323293685913e-02
1.240717619657516479e-01 -7.193495333194732666e-02 -3.096217811107635498e-01
-1.473878393881022930e-03 5.370518565177917480e-02 -3.048707731068134308e-02
8.095531165599822998e-02 -9.057543426752090454e-02 -2.236487418413162231e-01
4.310734570026397705e-02 -7.502988725900650024e-02 1.968842595815658569e-01
7.868727296590805054e-02 -5.416861549019813538e-02 2.277863472700119019e-01
-7.212704420089721680e-01 2.701851725578308105e-01 -1.964558511972427368e-01
7.600215673446655273e-01 4.548352584242820740e-02 3.672732785344123840e-02
-3.866033628582954407e-02 -7.547876983880996704e-02 -5.225343108177185059e-01
8.770148158073425293e-01 -3.966259583830833435e-02 5.345414578914642334e-02
-6.050332784652709961e-01 2.468904703855514526e-01 9.534434415400028229e-03
8.246734738349914551e-02 -7.531339675188064575e-02 -7.499742507934570312e-02
-7.486523389816284180e-01 2.704450488090515137e-01 2.342124730348587036e-01
8.272722363471984863e-02 -7.814844697713851929e-02 2.536089420318603516e-01
-7.758245337754487991e-03 -6.132712960243225098e-02 6.888156384229660034e-02
-3.398139178752899170e-01 1.911752671003341675e-02 9.354653209447860718e-02
5.021498203277587891e-01 3.267853334546089172e-02 5.610019713640213013e-02
-4.431280493736267090e-01 5.318542569875717163e-02 -1.768208295106887817e-02
2.204872220754623413e-01 -7.689629495143890381e-02 -1.735132746398448944e-02
-7.263373583555221558e-02 -3.236232697963714600e-02 6.446360796689987183e-02
6.567075252532958984e-01 -4.875838756561279297e-02 -5.699483305215835571e-02
-4.950441047549247742e-02 -7.807756960391998291e-02 4.902886748313903809e-01
1.106525063514709473e-01 -5.164068937301635742e-02 -1.929829120635986328e-01
-3.210553228855133057e-01 7.848188281059265137e-03 8.938845247030258179e-02
5.731882527470588684e-03 -9.830095618963241577e-02 2.439225167036056519e-01
-1.662613898515701294e-01 -7.765231281518936157e-02 6.859546899795532227e-01
-5.772497057914733887e-01 2.539072334766387939e-01 5.777988582849502563e-03
-4.165021479129791260e-01 8.961586654186248779e-02 1.650394313037395477e-02
-6.364342756569385529e-03 -7.030479609966278076e-02 -1.654828935861587524e-01
6.741793453693389893e-02 -5.400323867797851562e-02 -3.659448325634002686e-01
-6.460470557212829590e-01 2.718861997127532959e-01 1.595087796449661255e-01
-1.014567762613296509e-01 -6.215401738882064819e-02 -2.189709246158599854e-01
-7.639017701148986816e-02 -7.098993659019470215e-02 2.008296847343444824e-01
-1.058747321367263794e-01 -6.860376894474029541e-02 -4.614625573158264160e-01
-2.246871292591094971e-01 -1.419435720890760422e-02 9.125486016273498535e-02
-6.267687082290649414e-01 2.582779526710510254e-01 1.525156497955322266e-01
-5.403231382369995117e-01 2.646568417549133301e-01 5.423606373369693756e-03
-2.583770155906677246e-01 5.325630307197570801e-02 1.780334301292896271e-02
1.988699436187744141e-01 -2.855863049626350403e-02 -6.701202690601348877e-02
9.275698103010654449e-03 5.221678316593170166e-02 3.462466225028038025e-02
3.922914862632751465e-01 -1.211531553417444229e-02 -6.958719342947006226e-02
1.774180233478546143e-01 -7.073006033897399902e-02 2.471119463443756104e-01
-4.950441047549247742e-02 -7.807756960391998291e-02 4.902886748313903809e-01
2.869582176208496094e-02 -1.628220528364181519e-01 -1.978970319032669067e-01
-4.966980218887329102e-02 -9.329235553741455078e-02 -1.987947821617126465e-01
8.538618683815002441e-01 2.814244851469993591e-02 -4.345744848251342773e-02
3.670122623443603516e-01 -2.307752706110477448e-02 6.864530593156814575e-02
6.160954236984252930e-01 4.255397245287895203e-02 -4.704851657152175903e-02
-2.548331916332244873e-01 -4.904188960790634155e-02 3.365601971745491028e-02
1.810056506656110287e-03 -5.272746831178665161e-02 -6.703564524650573730e-02
-2.087871879339218140e-01 -7.580953091382980347e-02 6.362230777740478516e-01
-1.028270646929740906e-01 -6.782412528991699219e-02 -6.310223937034606934e-01
2.064536958932876587e-01 -3.588252142071723938e-02 6.448722630739212036e-02
-1.997622549533843994e-01 5.863648839294910431e-03 -4.430796578526496887e-02
-2.592747807502746582e-01 -2.822787314653396606e-02 1.117144972085952759e-01
-3.210553228855133057e-01 7.848188281059265137e-03 8.938845247030258179e-02
-6.325443834066390991e-02 -7.174594700336456299e-02 4.050740227103233337e-02
6.063742563128471375e-02 -1.335501223802566528e-01 -1.997634321451187134e-01
-5.845972299575805664e-01 2.664759755134582520e-01 1.261496543884277344e-01
-1.656471341848373413e-01 -6.316991150379180908e-02 3.063195943832397461e-02
3.311377763748168945e-02 -7.500626146793365479e-02 2.197064161300659180e-01
-1.304215937852859497e-01 1.736924611032009125e-02 -6.205067783594131470e-02
-6.339272260665893555e-01 2.599553465843200684e-01 1.753378510475158691e-01
-1.028270646929740906e-01 -6.782412528991699219e-02 -6.310223937034606934e-01
7.171776145696640015e-02 5.136626586318016052e-02 -3.556654974818229675e-02
1.885692328214645386e-01 -7.465188205242156982e-02 -2.313956245779991150e-02
4.668770730495452881e-01 -1.634427160024642944e-02 6.951944530010223389e-02
-3.459675610065460205e-02 -6.092549860477447510e-02 4.302564263343811035e-01
1.338999569416046143e-01 -5.024679005146026611e-02 -2.817437350749969482e-01
9.392569214105606079e-02 6.055656448006629944e-02 -5.373223684728145599e-03
6.416108012199401855e-01 6.099903024733066559e-03 -6.802791357040405273e-02
1.683694720268249512e-01 -7.304535806179046631e-02 2.364096343517303467e-01
1.331675648689270020e-01 -4.767161980271339417e-02 -5.782172456383705139e-02
9.302791953086853027e-02 -3.689841181039810181e-02 -6.580711901187896729e-02
-3.542963564395904541e-01 3.322192281484603882e-02 -1.124201342463493347e-01
-6.894815713167190552e-02 -7.306897640228271484e-02 3.478272557258605957e-01
-3.802607059478759766e-01 -1.551737915724515915e-02 -1.109317317605018616e-01
-2.515256404876708984e-01 4.080568999052047729e-02 1.223223358392715454e-01
-6.572455167770385742e-01 2.668776214122772217e-01 6.070715934038162231e-02
9.626460820436477661e-02 -5.681466683745384216e-02 2.453636825084686279e-01
-1.195774972438812256e-01 -7.739243656396865845e-02 6.220477819442749023e-01
-4.812831580638885498e-01 -7.201223634183406830e-03 -5.727605428546667099e-03
-4.651469588279724121e-01 8.567041903734207153e-02 1.492103654891252518e-02
1.973815262317657471e-01 -7.812482118606567383e-02 -1.048363596200942993e-01
-5.686500668525695801e-01 1.702967882156372070e-01 7.313642185181379318e-03
-6.228704452514648438e-01 2.586323320865631104e-01 -1.553475856781005859e-01
6.878931522369384766e-01 1.980266720056533813e-02 -6.323195248842239380e-02
2.987583279609680176e-01 -7.720343023538589478e-02 -1.496515702456235886e-02
5.880519151687622070e-01 5.561884865164756775e-02 -2.588011324405670166e-02
1.052895262837409973e-01 -5.076655000448226929e-02 2.814633548259735107e-01
1.615889817476272583e-01 -4.769524186849594116e-02 8.695503324270248413e-02
2.861187160015106201e-01 -6.775324791669845581e-02 -1.239257305860519409e-01
4.148537814617156982e-01 4.208146408200263977e-02 -4.766277968883514404e-02
1.810056506656110287e-03 -5.272746831178665161e-02 -6.703564524650573730e-02
1.008715704083442688e-01 -8.294441550970077515e-02 -1.943059414625167847e-01
7.469109259545803070e-04 -8.230653405189514160e-02 2.453164011240005493e-01
-5.075310468673706055e-01 2.348887473344802856e-01 8.116907440125942230e-03
6.597678363323211670e-02 -1.198001131415367126e-01 -1.981096267700195312e-01
1.960112601518630981e-01 -7.741605490446090698e-02 -1.325726509094238281e-01
1.323406696319580078e-01 -7.814844697713851929e-02 -1.667114347219467163e-01
-2.016286700963973999e-01 -7.101356238126754761e-02 -6.704769134521484375e-01
3.833610713481903076e-01 -2.619607932865619659e-02 -6.774441152811050415e-02
-1.624340713024139404e-01 1.885764673352241516e-02 -4.990719631314277649e-02
2.469949722290039062e-01 1.526658143848180771e-02 -6.512198597192764282e-02
4.492997229099273682e-01 -3.496112674474716187e-02 -6.436596810817718506e-02
2.723214626312255859e-01 -7.576227188110351562e-02 -8.076202869415283203e-02
-2.515256404876708984e-01 4.080568999052047729e-02 1.223223358392715454e-01
-2.467406727373600006e-02 -7.259646803140640259e-02 -2.630323767662048340e-01
-7.289015054702758789e-01 2.642315626144409180e-01 1.957265883684158325e-01
6.018728613853454590e-01 -4.424592480063438416e-02 6.096703931689262390e-02
1.093058586120605469e-01 -7.784131914377212524e-02 -2.566535174846649170e-01
2.215157449245452881e-02 -7.684905081987380981e-02 -2.909812927246093750e-01
-5.471508502960205078e-01 2.703741788864135742e-01 1.215685997158288956e-02
2.632729113101959229e-01 1.415618229657411575e-02 -6.557086855173110962e-02
-3.819381296634674072e-01 2.012703334912657738e-03 -4.343382269144058228e-02
-5.701857209205627441e-01 2.365425378084182739e-01 6.604878697544336319e-03
1.778432875871658325e-01 -4.613596573472023010e-02 1.845045089721679688e-01
6.129894033074378967e-02 -1.559943109750747681e-01 2.118627876043319702e-01
-1.772944629192352295e-01 4.038042947649955750e-02 1.152110695838928223e-01
6.011641025543212891e-01 -7.857371121644973755e-02 4.998348187655210495e-03
2.209597229957580566e-01 -4.821500554680824280e-02 -1.988656520843505859e-01
-9.989751130342483521e-02 -7.755780965089797974e-02 -5.864884257316589355e-01
-1.824684441089630127e-01 -7.798307389020919800e-02 -6.631293892860412598e-01
1.037538722157478333e-01 -9.799381345510482788e-02 -2.226564735174179077e-01
-5.300099030137062073e-02 -7.814844697713851929e-02 -4.811897873878479004e-01
-4.183685481548309326e-01 9.831003099679946899e-02 -1.557941734790802002e-02
-2.969337403774261475e-01 2.086581103503704071e-02 -5.212798714637756348e-02
-2.171978652477264404e-01 -2.673947252333164215e-02 1.043433621525764465e-01
1.054045162163674831e-03 -7.358873635530471802e-02 -4.605624824762344360e-02
-2.949019372463226318e-01 2.332285791635513306e-02 -1.417865753173828125e-01
6.199463009834289551e-01 -7.039929926395416260e-02 3.389227390289306641e-02
4.854119569063186646e-02 -7.531339675188064575e-02 -1.912582665681838989e-01
6.564602255821228027e-02 -7.075367867946624756e-02 4.004411101341247559e-01
2.706913053989410400e-01 -4.724635556340217590e-02 1.471763104200363159e-01
-3.542490899562835693e-01 8.438826538622379303e-03 -3.719670698046684265e-02
1.338999569416046143e-01 -5.024679005146026611e-02 -2.817437350749969482e-01
-1.772472262382507324e-01 -7.358873635530471802e-02 -5.673281550407409668e-01
7.991579920053482056e-02 -4.651396721601486206e-02 -1.965503394603729248e-01
-2.277584224939346313e-01 -7.469912618398666382e-02 6.728661656379699707e-01
1.383179128170013428e-01 -6.985592097043991089e-02 -2.996281981468200684e-01
5.703092813491821289e-01 1.481769513338804245e-02 -6.531099230051040649e-02
-1.909499913454055786e-01 -2.073860913515090942e-02 9.954740107059478760e-02
-6.456926465034484863e-01 2.689094245433807373e-01 -1.892973333597183228e-01
6.852470636367797852e-01 5.937529727816581726e-02 1.485016103833913803e-02
-1.490856856107711792e-01 -7.814844697713851929e-02 6.272690892219543457e-01
-1.530783921480178833e-01 -7.803031802177429199e-02 -6.501826047897338867e-01
-3.677628338336944580e-01 3.728549554944038391e-02 -3.944112360477447510e-02
7.372592389583587646e-02 -9.185120463371276855e-02 2.159972190856933594e-01
9.737500548362731934e-02 5.507545918226242065e-02 -2.720313891768455505e-02
4.148537814617156982e-01 4.208146408200263977e-02 -4.766277968883514404e-02
-5.702829919755458832e-03 6.043843552470207214e-02 6.770257372409105301e-03
1.569347679615020752e-01 -7.592765986919403076e-02 2.056751959025859833e-02
-3.542490899562835693e-01 8.438826538622379303e-03 -3.719670698046684265e-02
-5.064206123352050781e-01 4.569615796208381653e-02 1.832310110330581665e-02
3.413550555706024170e-01 -4.417504742741584778e-02 6.918869167566299438e-02
3.833610713481903076e-01 -2.619607932865619659e-02 -6.774441152811050415e-02
1.954914927482604980e-01 -7.755780965089797974e-02 4.712252318859100342e-02
-7.077094912528991699e-01 2.642551958560943604e-01 1.420731991529464722e-01
-1.973052173852920532e-01 5.910902749747037888e-03 4.539786651730537415e-02
2.583714202046394348e-02 -5.823219195008277893e-02 -4.436962008476257324e-01
3.455492854118347168e-02 -7.779406756162643433e-02 3.702005445957183838e-01
-5.830615758895874023e-01 2.560335397720336914e-01 2.748977765440940857e-02
5.132900178432464600e-02 -5.464112386107444763e-02 3.804303407669067383e-01
7.792054414749145508e-01 -7.748693227767944336e-02 -1.609917730093002319e-02
-5.701857209205627441e-01 2.365425378084182739e-01 6.604878697544336319e-03
2.403089702129364014e-01 -7.179320603609085083e-02 1.568391025066375732e-01
1.703303903341293335e-01 -7.814844697713851929e-02 1.171719804406166077e-01
3.898344337940216064e-01 4.106556996703147888e-02 4.948506876826286316e-02
-3.819381296634674072e-01 2.012703334912657738e-03 -4.343382269144058228e-02
-1.295238137245178223e-01 -7.814844697713851929e-02 -5.910481214523315430e-01
-2.224663496017456055e-01 -2.721198089420795441e-02 -1.051198765635490417e-01
1.451692879199981689e-01 -4.767161980271339417e-02 2.224233448505401611e-01
-6.511974334716796875e-01 2.711065709590911865e-01 1.352690756320953369e-01
-9.987387061119079590e-02 5.911541357636451721e-02 1.678744889795780182e-02
1.339944452047348022e-01 -7.715617865324020386e-02 8.237169682979583740e-02
4.331997409462928772e-02 -1.318963468074798584e-01 -2.216642200946807861e-01
5.968406200408935547e-01 5.743800476193428040e-02 -2.146215550601482391e-02
3.456312119960784912e-01 5.968242511153221130e-02 -2.313956245779991150e-02
1.811162009835243225e-02 -7.699080556631088257e-02 4.209007620811462402e-01
-6.317300200462341309e-01 2.599553465843200684e-01 -5.106484517455101013e-02
-6.007097959518432617e-01 2.704214453697204590e-01 1.197944059967994690e-01
3.568060398101806641e-01 -4.941990226507186890e-02 -5.649869516491889954e-02
-1.168007124215364456e-02 -7.134431600570678711e-02 5.087874531745910645e-01
-3.802607059478759766e-01 -1.551737915724515915e-02 -1.109317317605018616e-01
6.569327414035797119e-02 -5.445212498307228088e-02 -2.660564184188842773e-01
-4.035317599773406982e-01 7.858278602361679077e-02 1.723633147776126862e-02
-4.244166314601898193e-01 1.169032603502273560e-01 1.511004008352756500e-02
-4.197388589382171631e-01 2.042701691389083862e-01 2.612177748233079910e-03
-4.296017065644264221e-02 -7.814844697713851929e-02 4.449042081832885742e-01
6.426503658294677734e-01 2.792982012033462524e-02 5.973851680755615234e-02
-5.073184370994567871e-01 2.156103998422622681e-01 -8.657161146402359009e-03
7.600215673446655273e-01 4.548352584242820740e-02 3.672732785344123840e-02
-3.457911908626556396e-01 4.327995236963033676e-03 4.946144297719001770e-02
-2.048653811216354370e-01 1.018710713833570480e-02 6.174667924642562866e-02
-2.713001370429992676e-01 6.076280958950519562e-03 -4.681226238608360291e-02
8.051225543022155762e-01 -6.432756036520004272e-02 4.105078428983688354e-02
-7.409977316856384277e-01 2.723823487758636475e-01 2.652090489864349365e-01
2.322527021169662476e-01 2.960722707211971283e-02 -5.796347558498382568e-02
8.534964919090270996e-02 -5.672016739845275879e-02 3.005290627479553223e-01
-3.476811945438385010e-01 1.066498160362243652e-01 -1.354762911796569824e-02
2.603906095027923584e-01 -7.316347211599349976e-02 -1.187517568469047546e-01
-1.341780275106430054e-01 -7.096631079912185669e-02 4.980378448963165283e-01
5.671907067298889160e-01 4.874384030699729919e-02 3.946787863969802856e-02
3.507106900215148926e-01 -7.758144289255142212e-02 -1.213010214269161224e-02
-1.909499913454055786e-01 -2.073860913515090942e-02 9.954740107059478760e-02
-1.530783921480178833e-01 1.311666332185268402e-02 1.303077340126037598e-01
1.184961497783660889e-01 -4.944352433085441589e-02 2.391737848520278931e-01
-4.337486922740936279e-01 2.424425072968006134e-02 3.708171099424362183e-02
-4.337486922740936279e-01 2.424425072968006134e-02 3.708171099424362183e-02
-6.398335695266723633e-01 2.650348246097564697e-01 5.305479280650615692e-03
-6.255401372909545898e-01 2.619162797927856445e-01 -1.756654530763626099e-01
-6.886909604072570801e-01 2.652238309383392334e-01 2.475844621658325195e-01
-2.887829542160034180e-01 -1.187906134873628616e-02 -8.858206123113632202e-02
7.386768609285354614e-02 -8.844914287328720093e-02 -2.448644191026687622e-01
1.856050640344619751e-02 -7.580953091382980347e-02 2.609092295169830322e-01
-1.881621778011322021e-01 -1.747829653322696686e-02 6.271532177925109863e-02
-7.852751761674880981e-03 -7.332886010408401489e-02 -2.509361505508422852e-01
1.651800274848937988e-01 -8.620472252368927002e-02 -2.122612744569778442e-01
-1.532910168170928955e-01 1.578633859753608704e-02 -5.264774709939956665e-02
-8.196578174829483032e-02 -5.586965009570121765e-02 -6.193254888057708740e-02
5.083869695663452148e-01 5.105913430452346802e-02 -3.596818074584007263e-02
-4.966980218887329102e-02 -9.329235553741455078e-02 -1.987947821617126465e-01
-4.589807093143463135e-01 1.761558949947357178e-01 1.175522617995738983e-02
2.518145740032196045e-01 -7.290359586477279663e-02 -1.321001350879669189e-01
8.660180121660232544e-02 -1.636489480733871460e-01 -2.088356167078018188e-01
1.216147094964981079e-01 -5.164068937301635742e-02 -8.621951192617416382e-02
6.416108012199401855e-01 6.099903024733066559e-03 -6.802791357040405273e-02
-6.101363897323608398e-01 2.571203112602233887e-01 7.868612557649612427e-02
-1.587957590818405151e-01 2.771719172596931458e-02 -9.850474447011947632e-02
9.782388061285018921e-02 -1.398108601570129395e-01 2.018928229808807373e-01
1.482169628143310547e-01 -5.560977011919021606e-02 2.964891195297241211e-01
2.775080688297748566e-02 -5.594052746891975403e-02 -5.149010196328163147e-02
-1.824684441089630127e-01 -7.798307389020919800e-02 -6.631293892860412598e-01
-5.564829111099243164e-01 9.138777852058410645e-02 -5.444100126624107361e-03
6.928781270980834961e-01 -7.028117030858993530e-02 -3.372376412153244019e-02
7.463424205780029297e-01 3.539546206593513489e-02 5.054821446537971497e-02
