1.861479133367538452e-02 -6.249308586120605469e-02 2.598438262939453125e-01
-6.080520749092102051e-01 1.442400217056274414e-01 -4.140384029597043991e-03
3.522390127182006836e-02 6.909637898206710815e-02 6.398213654756546021e-02
-3.963110148906707764e-01 3.616211935877799988e-03 -7.488010078668594360e-02
-1.143260020762681961e-02 -6.702284514904022217e-02 -1.203538402915000916e-01
5.518000200390815735e-02 8.905246853828430176e-02 2.281167544424533844e-02
-4.100185632705688477e-02 -5.131968855857849121e-02 6.194375082850456238e-02
-5.180608630180358887e-01 5.085152015089988708e-02 5.109749361872673035e-02
-7.173450589179992676e-01 2.400444000959396362e-01 -5.952286999672651291e-03
-1.015496179461479187e-01 -5.192365124821662903e-02 5.232995748519897461e-01
-2.329629063606262207e-01 2.863054163753986359e-02 -8.655680716037750244e-02
1.978925466537475586e-01 -6.108382716774940491e-02 -8.509722352027893066e-02
4.047514498233795166e-01 -5.131968855857849121e-02 -6.758215278387069702e-02
-1.213722955435514450e-02 -1.482564955949783325e-01 -1.537230610847473145e-01
1.185714378952980042e-01 4.956808313727378845e-02 8.240314573049545288e-02
4.058839082717895508e-01 -1.003668904304504395e-01 -3.194806352257728577e-02
-1.001906916499137878e-01 -9.389939904212951660e-02 -4.752539470791816711e-02
-5.935819745063781738e-01 -6.198265124112367630e-03 -3.003549762070178986e-02
-2.196756303310394287e-01 2.379879541695117950e-02 9.297258406877517700e-02
-2.487415671348571777e-01 4.773101955652236938e-02 -7.699398696422576904e-02
-1.808958500623703003e-01 2.232119441032409668e-03 1.008996665477752686e-01
-6.743123531341552734e-01 2.270339429378509521e-01 2.981401979923248291e-03
5.378760099411010742e-01 -5.763618275523185730e-02 -8.396478742361068726e-02
-1.890242695808410645e-01 -2.529874257743358612e-02 -6.702160835266113281e-01
-1.108029019087553024e-02 -1.558312624692916870e-01 1.885001361370086670e-01
-8.316206932067871094e-01 2.847128510475158691e-01 6.033316627144813538e-02
-4.591740071773529053e-01 -1.228827424347400665e-02 -1.248332709074020386e-01
6.672760248184204102e-01 1.335518900305032730e-02 -9.468521177768707275e-02
6.634761095046997070e-01 6.373616307973861694e-02 -6.690268963575363159e-02
-2.985437214374542236e-01 -6.618945626541972160e-04 1.902114003896713257e-01
6.993367075920104980e-01 1.687833294272422791e-02 -9.423223137855529785e-02
-4.437980055809020996e-01 -5.514481663703918457e-02 -2.069916389882564545e-02
7.805703878402709961e-01 1.453795749694108963e-02 9.186530858278274536e-02
5.115355178713798523e-02 -6.475796550512313843e-02 -1.524144560098648071e-01
-3.418281376361846924e-01 1.239890698343515396e-02 -8.169990777969360352e-02
7.762671113014221191e-01 2.163457870483398438e-02 -8.630516380071640015e-02
7.711081504821777344e-01 -4.361909627914428711e-02 -8.781507611274719238e-02
-1.233176216483116150e-01 -4.485220089554786682e-02 9.337523579597473145e-02
-3.299928084015846252e-02 -6.349969655275344849e-02 1.193458437919616699e-01
-8.874374628067016602e-01 2.782453596591949463e-01 2.375473678112030029e-01
-9.072425365447998047e-01 2.816426753997802734e-01 -2.241104394197463989e-01
-5.422195196151733398e-01 5.465148016810417175e-02 -4.032811522483825684e-02
-5.986402034759521484e-01 5.500379577279090881e-02 3.511751815676689148e-02
2.207929790019989014e-01 -6.060569360852241516e-02 8.572497218847274780e-02
7.314980030059814453e-01 -7.837240397930145264e-02 -6.768281757831573486e-02
-1.514524519443511963e-01 -4.530517384409904480e-02 6.876794695854187012e-01
-8.739914745092391968e-03 -1.484829932451248169e-01 1.631083488464355469e-01
-5.166767239570617676e-01 4.803300648927688599e-02 -4.848168045282363892e-02
-8.828070163726806641e-01 2.840585410594940186e-01 -1.101367250084877014e-01
-2.229219377040863037e-01 -4.268797859549522400e-02 7.483278512954711914e-01
-8.038381934165954590e-01 2.815923392772674561e-01 1.422462761402130127e-01
6.796573996543884277e-01 1.277638785541057587e-02 9.881093353033065796e-02
-8.406047821044921875e-01 2.852161526679992676e-01 -6.911724060773849487e-02
7.428048551082611084e-02 -5.131968855857849121e-02 -6.941922754049301147e-02
-1.797558739781379700e-02 -5.204948037862777710e-02 2.424294203519821167e-01
-8.725572377443313599e-02 -4.002045094966888428e-02 -5.062388777732849121e-01
-8.906585574150085449e-01 2.816175222396850586e-01 -2.279607355594635010e-01
5.956052541732788086e-01 9.139285236597061157e-02 -9.695533080957829952e-04
4.490927457809448242e-01 -7.522674649953842163e-02 7.450124621391296387e-02
-2.621798515319824219e-01 7.762742042541503906e-02 -4.654394835233688354e-02
-3.234498575329780579e-02 -5.074088647961616516e-02 2.848329842090606689e-01
-6.930604577064514160e-01 1.504558622837066650e-01 1.103430427610874176e-02
-9.149934649467468262e-01 2.801579236984252930e-01 -2.500307261943817139e-01
-6.239313483238220215e-01 2.515772730112075806e-02 3.494136035442352295e-02
6.298124790191650391e-02 9.018491208553314209e-02 -1.025555748492479324e-02
2.631713747978210449e-01 -1.100484374910593033e-02 -9.702558815479278564e-02
-4.799781367182731628e-02 -3.702577948570251465e-02 -5.491205453872680664e-01
9.986530542373657227e-01 -5.147067829966545105e-02 6.554876919835805893e-03
-7.009875774383544922e-01 2.339543849229812622e-01 4.793304949998855591e-03
-1.635066270828247070e-01 -3.873702138662338257e-02 -5.245340466499328613e-01
3.279217481613159180e-01 7.241819798946380615e-02 -5.560346320271492004e-02
2.140486836433410645e-01 -8.957096934318542480e-02 -5.328825116157531738e-02
7.191920876502990723e-01 8.296961896121501923e-03 9.938973933458328247e-02
-1.725409924983978271e-01 -4.558199271559715271e-02 6.036021113395690918e-01
-9.634040296077728271e-02 -5.106803029775619507e-02 3.927670419216156006e-01
-1.332000270485877991e-02 -5.904544144868850708e-02 3.455317318439483643e-01
6.182036995887756348e-01 -9.986358135938644409e-02 -3.313083201646804810e-02
-2.487415671348571777e-01 4.773101955652236938e-02 -7.699398696422576904e-02
1.555392891168594360e-01 -4.611046239733695984e-02 1.658010333776473999e-01
3.946853578090667725e-01 -1.048211455345153809e-01 1.969117484986782074e-02
-5.076599866151809692e-02 -4.495285823941230774e-02 -3.055202662944793701e-01
2.478029392659664154e-02 -3.745359182357788086e-02 -3.315915465354919434e-01
-4.431688785552978516e-01 5.382102355360984802e-02 -5.582995340228080750e-02
3.234171569347381592e-01 -6.256858259439468384e-02 -8.016481995582580566e-02
-5.630816221237182617e-01 7.495989650487899780e-02 -5.801294930279254913e-03
5.938261374831199646e-02 -5.142034590244293213e-02 1.634858250617980957e-01
-4.653143584728240967e-01 -2.851990051567554474e-02 5.540076270699501038e-02
2.357160151004791260e-01 7.126059383153915405e-02 -5.711338296532630920e-02
-1.551014333963394165e-01 1.250670291483402252e-03 1.051274314522743225e-01
-2.332145720720291138e-01 -3.068412281572818756e-02 1.118969097733497620e-01
5.496030449867248535e-01 -5.131968855857849121e-02 -3.906984999775886536e-02
6.728124618530273438e-01 -5.131968855857849121e-02 -7.528274506330490112e-02
-7.143251895904541016e-01 1.286375224590301514e-01 1.146211475133895874e-02
-1.591203175485134125e-02 -6.576457619667053223e-02 8.177401125431060791e-02
6.612692028284072876e-02 9.026041626930236816e-02 1.370182912796735764e-02
-8.941993117332458496e-02 -5.620175227522850037e-02 4.165985882282257080e-01
-6.870887428522109985e-02 -5.667989701032638550e-02 4.044437408447265625e-01
-7.146272063255310059e-01 1.514192484319210052e-02 -9.550928138196468353e-03
-6.790358573198318481e-02 5.434949696063995361e-02 7.872901856899261475e-02
5.115355178713798523e-02 -6.475796550512313843e-02 -1.524144560098648071e-01
-7.425103783607482910e-01 2.499343752861022949e-01 6.982687860727310181e-03
-4.738705456256866455e-01 -4.424823075532913208e-02 3.463937714695930481e-02
9.730675071477890015e-02 -4.198335111141204834e-02 -9.053292870521545410e-02
9.304550290107727051e-01 -5.131968855857849121e-02 -3.557186946272850037e-02
-1.783038377761840820e-01 -9.548480808734893799e-02 3.577181696891784668e-02
-7.615352869033813477e-01 1.662596762180328369e-01 -5.599972791969776154e-03
-1.240977421402931213e-01 -9.533381462097167969e-02 4.795183241367340088e-02
-9.085435420274734497e-02 -3.309999406337738037e-02 -4.712339043617248535e-01
-6.402888298034667969e-01 1.819376796483993530e-01 -3.939060959964990616e-03
-1.953583583235740662e-02 -3.408144041895866394e-02 -4.039166867733001709e-01
4.069235641509294510e-03 -4.309062659740447998e-02 3.894200325012207031e-01
1.129344105720520020e-01 5.565809458494186401e-02 7.774756848812103271e-02
7.538775354623794556e-02 -3.846020251512527466e-02 9.601759165525436401e-02
5.338243842124938965e-01 6.283020973205566406e-02 7.213570177555084229e-02
8.180491626262664795e-02 -5.157133564352989197e-02 -8.655680716037750244e-02
-4.552733600139617920e-01 4.876279830932617188e-02 6.239672750234603882e-02
4.625562131404876709e-01 -1.061800792813301086e-01 9.398558177053928375e-03
4.381458461284637451e-01 -5.131968855857849121e-02 -3.119310177862644196e-02
6.186818480491638184e-01 -5.131968855857849121e-02 -4.070559516549110413e-02
9.582199156284332275e-02 -4.173170030117034912e-02 -2.301249653100967407e-01
1.890091747045516968e-01 -6.870892643928527832e-02 1.052532568573951721e-01
-1.391214430332183838e-01 2.042664214968681335e-02 -1.088532805442810059e-01
-2.892073988914489746e-01 6.554806232452392578e-02 -6.146698445081710815e-02
7.792945206165313721e-02 -5.403754115104675293e-02 -3.060739040374755859e-01
-1.233931109309196472e-01 -6.176329404115676880e-02 2.600767090916633606e-02
-8.521052598953247070e-01 2.841088771820068359e-01 1.372887045145034790e-01
-3.813880085945129395e-01 -3.455958515405654907e-02 1.275749057531356812e-01
-1.650417149066925049e-01 8.764322102069854736e-02 -2.525408752262592316e-02
4.852049946784973145e-01 8.042076975107192993e-02 4.707104712724685669e-02
-1.554034054279327393e-01 2.802657335996627808e-02 1.294119656085968018e-01
-1.580709218978881836e-01 -2.517291344702243805e-02 -7.186341881752014160e-01
-2.040731310844421387e-01 -8.473923057317733765e-02 1.755212247371673584e-02
3.274687528610229492e-01 8.731887792237102985e-04 -9.632095694541931152e-02
-1.284185983240604401e-02 -1.005933657288551331e-01 -3.139442577958106995e-02
4.673627912998199463e-01 4.136419296264648438e-02 8.846799284219741821e-02
-3.783681392669677734e-01 -1.689352840185165405e-02 1.024095788598060608e-01
-1.585239022970199585e-01 -2.147361263632774353e-02 -1.346477419137954712e-01
7.294671982526779175e-02 -6.807979196310043335e-02 -1.052798107266426086e-01
-1.602351367473602295e-01 5.082635208964347839e-02 1.598871797323226929e-01
5.456017255783081055e-01 4.400655254721641541e-02 -8.263102173805236816e-02
3.811464011669158936e-01 -5.131968855857849121e-02 4.747369140386581421e-02
-1.960957050323486328e-01 -4.293963685631752014e-02 -1.382967084646224976e-01
-3.067224621772766113e-01 1.944519951939582825e-02 -1.450661867856979370e-01
1.652027815580368042e-01 -4.807335883378982544e-02 1.164518296718597412e-01
-1.216315478086471558e-01 -1.991336233913898468e-02 -6.504613161087036133e-01
-3.118813633918762207e-01 7.692994549870491028e-03 -1.857081800699234009e-01
-5.296872258186340332e-01 -3.737809509038925171e-02 -9.802581742405891418e-03
-1.486087739467620850e-01 4.971908032894134521e-02 -1.362079977989196777e-01
5.954794287681579590e-01 7.730027288198471069e-02 5.328688025474548340e-02
-2.254636436700820923e-01 1.436180062592029572e-02 -9.070909023284912109e-02
-1.233931109309196472e-01 -2.859540469944477081e-02 -3.501823171973228455e-02
-1.841421872377395630e-01 8.419556915760040283e-02 -3.343281522393226624e-02
-7.147278189659118652e-01 1.187223792076110840e-01 6.856861058622598648e-03
1.052338257431983948e-01 -5.074088647961616516e-02 -1.107910200953483582e-01
1.884555369615554810e-01 -6.664536893367767334e-02 1.564143598079681396e-01
4.990459084510803223e-01 -3.667346388101577759e-02 -9.272231161594390869e-02
2.404219359159469604e-01 -5.131968855857849121e-02 -8.341114968061447144e-02
-8.880917429924011230e-01 2.815671861171722412e-01 -1.994232684373855591e-01
-1.213722955435514450e-02 -6.266924738883972168e-02 -9.035677462816238403e-02
7.849491238594055176e-01 4.780651256442070007e-02 7.133041322231292725e-02
-5.365573167800903320e-01 -2.680865861475467682e-02 3.270164877176284790e-02
-2.715916633605957031e-01 -7.668633013963699341e-02 5.092133954167366028e-02
4.364597797393798828e-01 -2.162460424005985260e-02 9.966655820608139038e-02
7.378396391868591309e-01 -5.131968855857849121e-02 -3.662881255149841309e-02
-1.994426995515823364e-01 5.012172088027000427e-02 -1.202783361077308655e-01
4.834182560443878174e-01 -1.188562624156475067e-02 1.009499877691268921e-01
-1.581967622041702271e-01 -6.458181142807006836e-02 7.399793714284896851e-02
-2.153220176696777344e-01 -3.549070283770561218e-02 1.749863624572753906e-01
-1.470409613102674484e-02 -1.224368736147880554e-01 1.871412247419357300e-01
-1.497412025928497314e-01 -1.805113069713115692e-02 -6.977217793464660645e-01
6.726111769676208496e-01 -7.510091364383697510e-02 7.460191100835800171e-02
-3.869243562221527100e-01 3.534968197345733643e-02 1.254861801862716675e-01
-4.293782711029052734e-01 -1.427633501589298248e-02 -1.146916449069976807e-01
7.314980030059814453e-01 -7.837240397930145264e-02 -6.768281757831573486e-02
-4.387070238590240479e-02 9.630721062421798706e-03 9.921358525753021240e-02
1.430824697017669678e-01 -5.441501736640930176e-02 -2.561207413673400879e-01
5.072246193885803223e-01 9.580392390489578247e-03 9.921358525753021240e-02
-2.096849828958511353e-01 -2.522324770689010620e-02 -7.059257030487060547e-01
-3.229465335607528687e-02 -4.548132792115211487e-02 -4.282767176628112793e-01
1.756967157125473022e-01 -6.075668334960937500e-02 -2.074510008096694946e-01
-5.845901090651750565e-03 -4.716740548610687256e-02 3.187810182571411133e-01
-9.656688570976257324e-02 -3.362846001982688904e-02 -5.976393222808837891e-01
-4.016460776329040527e-01 2.349681407213211060e-02 -1.554594635963439941e-01
-1.352459788322448730e-01 -5.446534976363182068e-02 5.162596702575683594e-02
6.869050264358520508e-01 -1.002410650253295898e-01 3.627512231469154358e-02
-5.418848991394042969e-02 -5.129451677203178406e-02 -3.453066349029541016e-01
-1.602351367473602295e-01 5.082635208964347839e-02 1.598871797323226929e-01
-4.094221591949462891e-01 8.333994448184967041e-02 2.268584817647933960e-02
-1.429214030504226685e-01 -3.800722956657409668e-02 -5.353048443794250488e-01
-1.646390706300735474e-01 -2.665766887366771698e-02 -6.973695158958435059e-01
4.090798795223236084e-01 -5.131968855857849121e-02 8.210116624832153320e-02
8.601179718971252441e-01 -1.513769924640655518e-01 -5.524476990103721619e-03
1.949985325336456299e-01 -1.001404002308845520e-01 3.650160878896713257e-02
3.782775402069091797e-01 8.094923943281173706e-02 4.576244950294494629e-02
1.600690484046936035e-01 -9.661725163459777832e-02 -4.100757837295532227e-02
3.912628591060638428e-01 9.149350970983505249e-02 4.315163940191268921e-03
1.216667741537094116e-01 -5.131968855857849121e-02 9.197236038744449615e-03
1.873734444379806519e-01 -8.728092908859252930e-02 6.030800566077232361e-02
6.397452354431152344e-01 7.189684547483921051e-03 -9.549050033092498779e-02
-1.153150498867034912e-01 -4.573298245668411255e-02 -3.798586130142211914e-01
1.703693997114896774e-03 -6.727449595928192139e-02 -1.164783760905265808e-01
4.181393980979919434e-01 -5.866795778274536133e-02 -8.318465948104858398e-02
8.546822071075439453e-01 2.334582433104515076e-02 4.946174845099449158e-02
7.106862068176269531e-01 -8.358162641525268555e-02 6.511458009481430054e-02
-1.971275061368942261e-01 -4.346810281276702881e-02 7.338326573371887207e-01
-2.332145720720291138e-01 -3.068412281572818756e-02 1.118969097733497620e-01
-1.581464111804962158e-01 1.599754951894283295e-02 -1.191710680723190308e-01
8.706370592117309570e-01 -1.684319600462913513e-02 -6.584575027227401733e-02
2.705448269844055176e-01 -5.131968855857849121e-02 -8.166834712028503418e-03
6.062501668930053711e-01 -1.042926907539367676e-01 -1.966738700866699219e-02
3.786046802997589111e-01 7.961548119783401489e-02 -4.495853558182716370e-02
-4.742731750011444092e-01 4.572494421154260635e-03 1.455681025981903076e-01
-5.338319018483161926e-02 -2.700998261570930481e-02 -5.153738856315612793e-01
-6.375961303710937500e-01 4.924093559384346008e-02 3.083941340446472168e-02
-2.482382655143737793e-01 -5.131968855857849121e-02 7.646413892507553101e-02
-6.287051737308502197e-02 -6.138580664992332458e-02 2.876766920089721680e-01
-1.700747758150100708e-01 2.382396347820758820e-02 1.250583678483963013e-01
-1.317983418703079224e-01 -1.034118905663490295e-01 -2.087532170116901398e-02
5.802368000149726868e-02 -5.199914425611495972e-02 -1.270478218793869019e-01
9.421569108963012695e-01 -8.365711569786071777e-02 3.169503435492515564e-02
2.245426177978515625e-01 -1.050979644060134888e-01 -1.360254455357789993e-02
3.279217481613159180e-01 7.241819798946380615e-02 -5.560346320271492004e-02
-9.092985093593597412e-02 -5.189848691225051880e-02 -2.911508381366729736e-01
8.827918767929077148e-01 -1.286527067422866821e-01 9.121740236878395081e-03
-6.724929064512252808e-02 -6.641887128353118896e-02 1.619759052991867065e-01
-1.233931109309196472e-01 -2.859540469944477081e-02 -3.501823171973228455e-02
-1.308672130107879639e-01 9.174516052007675171e-02 2.352269133552908897e-03
-1.553530693054199219e-01 -2.351200580596923828e-02 -6.405965089797973633e-01
-2.153723537921905518e-01 -5.131968855857849121e-02 5.930138751864433289e-02
-3.269730135798454285e-02 -3.388011828064918518e-02 -4.153165817260742188e-01
-8.517529964447021484e-01 2.816175222396850586e-01 -2.250918895006179810e-01
9.955325722694396973e-01 -3.757941722869873047e-02 1.302236411720514297e-02
-4.895409941673278809e-02 -6.709834188222885132e-02 -1.190704032778739929e-01
-1.581464111804962158e-01 1.599754951894283295e-02 -1.191710680723190308e-01
-6.156192719936370850e-02 -1.042423471808433533e-01 2.419576793909072876e-02
4.150188863277435303e-01 9.154384583234786987e-02 3.912518732249736786e-03
5.744488164782524109e-02 -6.750098615884780884e-02 1.354516446590423584e-01
-6.022058427333831787e-03 -1.169508397579193115e-01 -1.382715404033660889e-01
7.846220135688781738e-01 -5.131968855857849121e-02 5.608023330569267273e-02
-6.770226359367370605e-02 -6.445598602294921875e-02 2.110734581947326660e-01
-2.382728010416030884e-01 -4.137938469648361206e-02 -1.265445053577423096e-01
-6.156192719936370850e-02 -1.042423471808433533e-01 2.419576793909072876e-02
-1.089733913540840149e-01 -5.265344306826591492e-02 3.943524658679962158e-01
5.420534610748291016e-01 -2.034117281436920166e-02 9.981755912303924561e-02
9.132419824600219727e-01 1.025985553860664368e-02 -1.554027386009693146e-02
-1.962467133998870850e-01 -2.046700194478034973e-02 -7.708522081375122070e-01
-2.884021103382110596e-01 -5.131968855857849121e-02 3.549499809741973877e-02
-7.595648616552352905e-02 -1.681803353130817413e-02 1.002956926822662354e-01
-3.273077011108398438e-01 3.232984244823455811e-02 -1.751135736703872681e-01
-5.644577089697122574e-03 -2.957684360444545746e-02 -4.510010182857513428e-01
6.007137894630432129e-01 -2.164977416396141052e-02 -9.561632573604583740e-02
-9.445299953222274780e-02 -5.355939641594886780e-02 -8.572635799646377563e-02
3.492191806435585022e-02 -4.163103550672531128e-02 4.057271778583526611e-01
-6.402888298034667969e-01 1.819376796483993530e-01 -3.939060959964990616e-03
2.143003344535827637e-01 -6.216593459248542786e-02 -1.253617405891418457e-01
-2.170005440711975098e-02 -1.106091737747192383e-01 -1.562144160270690918e-01
6.244698762893676758e-01 -7.479892671108245850e-02 -7.080332189798355103e-02
-2.580024003982543945e-01 2.837888337671756744e-02 -1.864127963781356812e-01
-3.783681392669677734e-01 -1.689352840185165405e-02 1.024095788598060608e-01
3.669279813766479492e-01 -5.131968855857849121e-02 3.083941340446472168e-02
8.756776899099349976e-02 -6.674602627754211426e-02 1.537971645593643188e-01
1.439380794763565063e-01 -1.051231324672698975e-01 1.740113086998462677e-02
-7.886132001876831055e-01 2.899975478649139404e-01 -4.168704152107238770e-02
7.135802507400512695e-01 7.324865460395812988e-02 5.857159569859504700e-02
-1.636576205492019653e-01 3.738807141780853271e-02 -1.497217714786529541e-01
4.127036929130554199e-01 -5.131968855857849121e-02 -7.145761698484420776e-02
-2.659546434879302979e-01 9.005908668041229248e-02 -1.121183857321739197e-02
-5.101765319705009460e-02 -5.469183623790740967e-02 -2.966620624065399170e-01
2.713501155376434326e-01 2.535904571413993835e-02 -9.106140583753585815e-02
1.603710353374481201e-01 -4.897931218147277832e-02 1.032148674130439758e-01
-4.641240090131759644e-02 -7.620818167924880981e-02 -6.972120702266693115e-02
6.627790629863739014e-02 1.473928149789571762e-02 9.853411465883255005e-02
-4.643328785896301270e-01 8.322124369442462921e-03 1.480343043804168701e-01
1.789682060480117798e-01 8.900214731693267822e-02 2.323948591947555542e-02
-6.193512678146362305e-01 7.027914375066757202e-02 -9.349605068564414978e-03
2.700163424015045166e-01 4.710188508033752441e-02 -8.026548475027084351e-02
-3.627077117562294006e-02 -8.287699520587921143e-02 -6.199545785784721375e-02
-1.089733913540840149e-01 -5.265344306826591492e-02 3.943524658679962158e-01
-6.676354911178350449e-03 -1.098542213439941406e-01 -1.505773812532424927e-01
-7.741607725620269775e-02 -5.131968855857849121e-02 -1.410585176199674606e-02
7.191920876502990723e-01 8.296961896121501923e-03 9.938973933458328247e-02
-2.657784819602966309e-01 -3.810789436101913452e-02 -1.645693033933639526e-01
8.615851402282714844e-02 -5.131968855857849121e-02 -1.513762958347797394e-02
-1.015496179461479187e-01 -5.192365124821662903e-02 5.232995748519897461e-01
-5.101765319705009460e-02 -3.191721811890602112e-02 -5.970353484153747559e-01
3.894006013870239258e-01 8.839817345142364502e-02 -2.374416589736938477e-02
7.318251729011535645e-01 8.963128179311752319e-02 -5.750964861363172531e-03
-3.243633806705474854e-01 5.000304896384477615e-03 1.871663928031921387e-01
3.278965950012207031e-01 9.015974402427673340e-02 -1.033105235546827316e-02
-9.659204632043838501e-02 -3.986946120858192444e-02 6.678239703178405762e-01
-5.509443208575248718e-02 3.519868850708007812e-02 9.100968390703201294e-02
-7.123622894287109375e-01 1.023146063089370728e-01 -5.952286999672651291e-03
-2.572650276124477386e-02 -1.200713440775871277e-01 -1.639904975891113281e-01
8.358082771301269531e-01 -5.131968855857849121e-02 -6.919273734092712402e-02
3.786046802997589111e-01 7.961548119783401489e-02 -4.495853558182716370e-02
1.831280626356601715e-02 8.927896618843078613e-02 2.115076594054698944e-02
-1.942334771156311035e-01 -5.131968855857849121e-02 -2.856952371075749397e-03
-7.437106966972351074e-02 -5.131968855857849121e-02 6.722846627235412598e-02
-1.427200734615325928e-01 -2.086964994668960571e-02 -6.589671969413757324e-01
2.975472211837768555e-01 -1.039151996374130249e-01 -2.258656173944473267e-02
2.126897424459457397e-01 -6.755131483078002930e-02 1.338158994913101196e-01
8.042081445455551147e-02 -4.540583118796348572e-02 2.611272633075714111e-01
-8.735638111829757690e-02 -4.638728126883506775e-02 -4.152662456035614014e-01
-2.639414072036743164e-01 5.548193678259849548e-02 -1.298663318157196045e-01
-2.591600120067596436e-01 5.580908432602882385e-02 -1.493191272020339966e-01
-8.436170965433120728e-02 -5.298059433698654175e-02 -3.211227655410766602e-01
-1.759634613990783691e-01 -1.852927543222904205e-02 1.585785895586013794e-01
1.345765888690948486e-01 -5.816465243697166443e-02 8.761237561702728271e-02
-8.124120533466339111e-02 -2.781528048217296600e-02 -5.241062641143798828e-01
-2.572650276124477386e-02 -1.200713440775871277e-01 -1.639904975891113281e-01
8.301460146903991699e-01 5.457598716020584106e-02 2.824738621711730957e-02
-1.387187838554382324e-01 -7.026917487382888794e-02 7.696744799613952637e-02
1.170111894607543945e-01 -1.049972996115684509e-01 -1.438266970217227936e-02
1.543062031269073486e-01 8.349093794822692871e-02 3.962210938334465027e-02
-4.779473245143890381e-01 -4.799786210060119629e-02 -1.886209659278392792e-02
6.472193598747253418e-01 6.479310989379882812e-02 -6.551860272884368896e-02
-2.322834432125091553e-01 -5.131968855857849121e-02 6.128944829106330872e-02
2.011891901493072510e-01 5.585941672325134277e-02 -7.354633510112762451e-02
-2.114641480147838593e-02 -5.363489314913749695e-02 4.802668392658233643e-01
4.820920899510383606e-02 -4.636211693286895752e-02 -4.158450365066528320e-01
-1.581967622041702271e-01 -6.458181142807006836e-02 7.399793714284896851e-02
1.555392891168594360e-01 -5.131968855857849121e-02 -4.543667286634445190e-02
-1.489862501621246338e-01 -3.810789436101913452e-02 1.620262414216995239e-01
4.345975220203399658e-01 2.301867119967937469e-02 -9.201768785715103149e-02
-8.213532567024230957e-01 2.863989174365997314e-01 -2.636136114597320557e-02
4.673376381397247314e-01 8.585648238658905029e-02 -2.985933981835842133e-02
1.613776683807373047e-01 -4.465087875723838806e-02 -1.489416360855102539e-01
-4.456098973751068115e-01 2.286767959594726562e-02 -6.808546185493469238e-02
-5.365573167800903320e-01 -2.680865861475467682e-02 3.270164877176284790e-02
-8.340542018413543701e-02 -5.929709225893020630e-02 3.394920825958251953e-01
-1.094012036919593811e-01 -4.736872762441635132e-02 6.366944909095764160e-01
-5.180608630180358887e-01 5.085152015089988708e-02 5.109749361872673035e-02
5.953536033630371094e-01 -5.131968855857849121e-02 -5.633325874805450439e-02
8.069939017295837402e-01 -8.562001585960388184e-02 -5.482334271073341370e-02
-1.085707470774650574e-01 -5.673022940754890442e-02 3.404483497142791748e-01
3.492191806435585022e-02 -4.163103550672531128e-02 4.057271778583526611e-01
-1.240977421402931213e-01 -9.533381462097167969e-02 4.795183241367340088e-02
6.225145608186721802e-02 8.127638697624206543e-02 4.495715722441673279e-02
-1.037893295288085938e-01 -5.441501736640930176e-02 -3.005375266075134277e-01
-3.360149264335632324e-01 -1.812662743031978607e-02 -7.953568547964096069e-02
-1.108607873320579529e-01 -3.088544681668281555e-02 -6.371237039566040039e-01
-6.802941113710403442e-02 -5.169716477394104004e-02 3.350377976894378662e-01
-1.763661205768585205e-01 7.002749294042587280e-02 6.199407950043678284e-02
-2.610725760459899902e-01 -7.154547609388828278e-03 9.372754395008087158e-02
-3.519194126129150391e-01 -5.131968855857849121e-02 3.496652469038963318e-02
-4.265094101428985596e-01 4.596944525837898254e-02 6.695164740085601807e-02
1.028934493660926819e-01 -5.280444398522377014e-02 -3.236644566059112549e-01
-3.958502784371376038e-03 -3.725226595997810364e-02 -5.143421292304992676e-01
-4.057983458042144775e-01 6.932286173105239868e-02 4.941141977906227112e-02
1.129344105720520020e-01 5.565809458494186401e-02 7.774756848812103271e-02
1.884555369615554810e-01 -6.664536893367767334e-02 1.564143598079681396e-01
9.754757881164550781e-01 -5.131968855857849121e-02 2.377434400841593742e-03
1.464546173810958862e-01 9.003391861915588379e-02 1.536273956298828125e-02
-3.037781417369842529e-01 -1.693672384135425091e-03 1.724195033311843872e-01
6.980281472206115723e-01 -6.777065806090831757e-03 -9.732756763696670532e-02
6.154355406761169434e-01 2.279218472540378571e-02 -9.211835265159606934e-02
-3.418281376361846924e-01 1.239890698343515396e-02 -8.169990777969360352e-02
3.499741479754447937e-02 -6.171296164393424988e-02 -8.084428310394287109e-02
6.569582819938659668e-01 -9.754837304353713989e-02 4.279293864965438843e-02
-3.366440534591674805e-01 5.712073179893195629e-04 9.513680636882781982e-02
-2.399009652435779572e-02 -1.248779222369194031e-01 1.869399100542068481e-01
-2.439274452626705170e-02 -3.053313121199607849e-02 -5.359591245651245117e-01
-6.022058427333831787e-03 -1.169508397579193115e-01 -1.382715404033660889e-01
-7.940413802862167358e-02 -3.858603164553642273e-02 -5.269247889518737793e-01
-2.194491326808929443e-01 -5.131968855857849121e-02 -3.355864435434341431e-02
-8.651158213615417480e-01 2.869777381420135498e-01 3.650160878896713257e-02
1.715520210564136505e-02 -5.028790608048439026e-02 -1.762963235378265381e-01
2.436934262514114380e-01 8.291213214397430420e-02 -3.695596009492874146e-02
6.830798983573913574e-01 -1.012728363275527954e-01 -2.975867874920368195e-02
-3.531273305416107178e-01 8.278630673885345459e-02 3.421156480908393860e-02
9.132419824600219727e-01 1.025985553860664368e-02 -1.554027386009693146e-02
4.997077956795692444e-02 -3.234503045678138733e-02 9.825730323791503906e-02
-1.553530693054199219e-01 -4.595946893095970154e-02 6.713974475860595703e-01
6.530576944351196289e-01 8.852399885654449463e-02 2.693878859281539917e-02
-5.170542597770690918e-01 1.949552819132804871e-02 -5.489883571863174438e-02
-3.821177780628204346e-01 -3.345230594277381897e-02 1.368105709552764893e-01
6.524789333343505859e-01 -5.748519301414489746e-02 -8.406544476747512817e-02
5.935919880867004395e-01 -6.757648289203643799e-02 8.036475628614425659e-02
-3.161091506481170654e-01 -4.067475721240043640e-02 1.471535116434097290e-01
-3.042311072349548340e-01 -3.020597808063030243e-02 -1.125525906682014465e-01
5.513898134231567383e-01 -5.131968855857849121e-02 -5.059556290507316589e-02
8.337698578834533691e-01 -7.072214782238006592e-02 -6.569475680589675903e-02
-9.067820012569427490e-02 5.530577898025512695e-02 7.799921929836273193e-02
7.189404964447021484e-01 -7.406200282275676727e-03 -9.742823243141174316e-02
-1.759634613990783691e-01 -1.852927543222904205e-02 1.585785895586013794e-01
-2.992911450564861298e-02 -1.481055021286010742e-01 -1.465761065483093262e-01
-3.878554999828338623e-01 -1.684319600462913513e-02 7.580984383821487427e-02
7.953172326087951660e-01 -5.131968855857849121e-02 4.075454920530319214e-02
-8.035866022109985352e-01 2.834294140338897705e-01 9.239378571510314941e-02
9.730675071477890015e-02 -4.198335111141204834e-02 -9.053292870521545410e-02
-5.630816221237182617e-01 7.495989650487899780e-02 -5.801294930279254913e-03
-4.699119925498962402e-02 -9.228882193565368652e-02 5.376501753926277161e-02
-1.988890618085861206e-01 -9.603844583034515381e-02 3.000895678997039795e-02
3.339441725984215736e-03 -1.456644684076309204e-01 1.673612892627716064e-01
4.858341217041015625e-01 -6.234209612011909485e-02 -8.034098148345947266e-02
3.816748559474945068e-01 7.143674790859222412e-02 6.091197207570075989e-02
-1.387187838554382324e-01 -7.026917487382888794e-02 7.696744799613952637e-02
-3.418281376361846924e-01 1.239890698343515396e-02 -8.169990777969360352e-02
2.469900846481323242e-01 -8.667697012424468994e-02 -5.706305429339408875e-02
-2.664579451084136963e-01 -4.399657249450683594e-02 -1.431032866239547729e-01
-2.229974418878555298e-01 -2.215307950973510742e-02 -7.618178725242614746e-01
5.155292153358459473e-01 -1.051986366510391235e-01 1.684749312698841095e-02
2.420149184763431549e-02 -5.131968855857849121e-02 5.527494102716445923e-02
-6.811069846153259277e-01 3.289059270173311234e-03 1.435612607747316360e-02
4.127036929130554199e-01 -5.131968855857849121e-02 -7.145761698484420776e-02
2.611405588686466217e-02 -3.161523863673210144e-02 -4.038160443305969238e-01
-5.101765319705009460e-02 -5.469183623790740967e-02 -2.966620624065399170e-01
-4.030050039291381836e-01 2.933516725897789001e-02 -1.113446578383445740e-01
-8.526086211204528809e-01 2.769619226455688477e-01 3.107228549197316170e-03
-8.035866022109985352e-01 2.834294140338897705e-01 9.239378571510314941e-02
-3.299928084015846252e-02 -6.349969655275344849e-02 1.193458437919616699e-01
-1.650417149066925049e-01 8.764322102069854736e-02 -2.525408752262592316e-02
4.345975220203399658e-01 2.301867119967937469e-02 -9.201768785715103149e-02
2.558986246585845947e-01 -9.460403025150299072e-02 -4.583931714296340942e-02
2.918850183486938477e-01 -2.232923358678817749e-02 -9.554083645343780518e-02
-7.524254322052001953e-01 2.010381519794464111e-01 1.146211475133895874e-02
-9.930989891290664673e-02 -8.582134544849395752e-02 -5.817032605409622192e-02
6.795315742492675781e-01 -5.131968855857849121e-02 6.800859421491622925e-02
-3.761788010597229004e-01 7.596650719642639160e-02 -4.045394062995910645e-02
9.001638740301132202e-03 -4.306545481085777283e-02 -2.721007168292999268e-01
-2.751324512064456940e-02 -5.501898750662803650e-02 4.460168778896331787e-01
2.080844938755035400e-01 -1.005682051181793213e-01 3.546983376145362854e-02
-1.725409924983978271e-01 -4.558199271559715271e-02 6.036021113395690918e-01
-8.994412422180175781e-01 2.821208238601684570e-01 -2.171899676322937012e-01
-1.841925233602523804e-01 3.003979660570621490e-02 1.910418421030044556e-01
1.753695756196975708e-01 -4.689058661460876465e-02 1.290848255157470703e-01
1.555392891168594360e-01 -4.611046239733695984e-02 1.658010333776473999e-01
4.047514498233795166e-01 -5.131968855857849121e-02 -6.758215278387069702e-02
-5.896989628672599792e-02 -6.070635095238685608e-02 -1.680169403553009033e-01
6.234884262084960938e-01 -5.665473267436027527e-02 -8.444292843341827393e-02
5.566493272781372070e-01 -1.042675077915191650e-01 -1.986870728433132172e-02
2.838572859764099121e-01 -5.131968855857849121e-02 8.960043638944625854e-02
-3.629669845104217529e-01 -3.969330713152885437e-02 6.810925155878067017e-02
1.693299114704132080e-01 -5.471700802445411682e-02 -1.953968107700347900e-01
5.607261061668395996e-01 3.990460187196731567e-02 -8.502173423767089844e-02
-2.940391302108764648e-01 2.747293561697006226e-02 -1.836697757244110107e-01
-6.525443196296691895e-01 9.831330925226211548e-02 1.226740516722202301e-02
-3.738132119178771973e-01 -2.519808523356914520e-02 -1.507032066583633423e-01
8.603695631027221680e-01 -5.131968855857849121e-02 4.266711696982383728e-02
-3.809350132942199707e-01 -1.613856665790081024e-02 -1.618262678384780884e-01
5.513898134231567383e-01 -5.131968855857849121e-02 -5.059556290507316589e-02
7.789346575736999512e-01 7.984197139739990234e-02 -1.564093679189682007e-02
-4.031560122966766357e-01 -4.364426434040069580e-02 -5.283527448773384094e-02
3.002650737762451172e-01 -5.363489314913749695e-02 -8.570118993520736694e-02
-3.142720758914947510e-01 5.528776906430721283e-03 8.944943547248840332e-02
-3.005066215991973877e-01 5.346870794892311096e-02 1.363324373960494995e-01
-4.062765240669250488e-01 -6.007721647620201111e-02 -2.648718655109405518e-02
1.104430407285690308e-01 -4.535550624132156372e-02 2.297461181879043579e-01
-1.195428222417831421e-01 -4.943228513002395630e-02 5.851307511329650879e-01
7.428048551082611084e-02 -5.131968855857849121e-02 -6.941922754049301147e-02
4.580012857913970947e-01 6.142095103859901428e-02 7.331847399473190308e-02
3.141563236713409424e-01 7.868435978889465332e-02 5.122332274913787842e-02
-1.233931109309196472e-01 -9.324511140584945679e-02 -3.569769486784934998e-02
-6.193512678146362305e-01 7.027914375066757202e-02 -9.349605068564414978e-03
-7.292985320091247559e-01 1.687007099390029907e-01 1.146211475133895874e-02
-3.392864167690277100e-01 5.135482549667358398e-02 -1.277021169662475586e-01
1.160800755023956299e-01 -9.498151391744613647e-02 -4.495853558182716370e-02
-3.554173707962036133e-01 4.572494421154260635e-03 8.451703935861587524e-02
-8.154318481683731079e-02 -4.085091128945350647e-02 6.414759159088134766e-01
-9.830328822135925293e-02 -5.225080251693725586e-02 5.146175026893615723e-01
-6.168774887919425964e-02 -5.131968855857849121e-02 5.779147148132324219e-02
2.559316810220479965e-03 -1.058780997991561890e-01 1.178926415741443634e-02
-1.445244252681732178e-02 -9.243981540203094482e-02 5.356369912624359131e-02
-3.023940324783325195e-01 4.730320349335670471e-02 1.496952176094055176e-01
2.928916215896606445e-01 -5.131968855857849121e-02 -1.257076673209667206e-02
-8.958174586296081543e-01 2.797552943229675293e-01 1.838949024677276611e-01
-3.825204372406005859e-01 -2.532390505075454712e-02 -1.528171002864837646e-01
-4.742731750011444092e-01 4.572494421154260635e-03 1.455681025981903076e-01
-1.233931109309196472e-01 2.156624104827642441e-03 8.680707961320877075e-02
6.881632804870605469e-01 6.708315014839172363e-02 -6.254909187555313110e-02
-8.114381432533264160e-01 2.864744067192077637e-01 1.664617098867893219e-02
4.858089685440063477e-01 -9.430204331874847412e-02 5.061935633420944214e-02
6.788772940635681152e-01 -5.131968855857849121e-02 4.299426451325416565e-02
1.543062031269073486e-01 8.349093794822692871e-02 3.962210938334465027e-02
-9.018319845199584961e-01 2.764586210250854492e-01 2.656570374965667725e-01
-7.601009011268615723e-01 1.869707405567169189e-01 1.146211475133895874e-02
4.047514498233795166e-01 -5.131968855857849121e-02 -6.758215278387069702e-02
-4.014447629451751709e-01 -5.131968855857849121e-02 -1.556543912738561630e-02
7.943609356880187988e-01 -6.659503281116485596e-02 7.714360207319259644e-02
-1.233931109309196472e-01 -1.578625105321407318e-02 -3.174673765897750854e-02
9.136772900819778442e-02 -6.148647516965866089e-02 2.848329842090606689e-01
-6.460691988468170166e-02 -5.592494085431098938e-02 4.230912625789642334e-01
5.167874693870544434e-01 -4.918063804507255554e-02 -8.753825724124908447e-02
-1.764416098594665527e-01 -5.131968855857849121e-02 -4.229100793600082397e-02
-8.712812662124633789e-01 2.802585959434509277e-01 -2.574544847011566162e-01
2.556042000651359558e-02 6.861823052167892456e-02 6.461127102375030518e-02
-1.810141094028949738e-02 3.348744660615921021e-02 9.171431511640548706e-02
-1.241480857133865356e-01 1.053667534142732620e-02 9.906259179115295410e-02
3.126715719699859619e-01 4.466084763407707214e-02 -8.212772011756896973e-02
-1.018515974283218384e-01 4.292444512248039246e-02 8.748655021190643311e-02
3.569121956825256348e-01 -5.131968855857849121e-02 2.276134490966796875e-02
-3.453260958194732666e-01 1.504126749932765961e-02 9.589175879955291748e-02
1.216164454817771912e-01 -5.733419209718704224e-02 -2.587379217147827148e-01
-4.014447629451751709e-01 -5.131968855857849121e-02 -1.556543912738561630e-02
-8.685634136199951172e-01 2.844612002372741699e-01 -1.661043912172317505e-01
1.054351478815078735e-01 -6.659503281116485596e-02 1.574713140726089478e-01
-1.097962819039821625e-02 -1.347175538539886475e-01 1.642659455537796021e-01
-8.332992345094680786e-02 -1.044436767697334290e-01 2.253485843539237976e-02
5.792478322982788086e-01 9.144318103790283203e-02 4.617148078978061676e-03
-1.668536067008972168e-01 1.219758298248052597e-02 -1.011526957154273987e-01
8.762488961219787598e-01 -1.273189485073089600e-01 -5.977452732622623444e-03
-5.770405754446983337e-03 -4.608529806137084961e-02 -2.444440126419067383e-01
-4.127866774797439575e-02 -5.381105467677116394e-02 8.965075761079788208e-02
5.513898134231567383e-01 -5.131968855857849121e-02 -5.059556290507316589e-02
3.524906933307647705e-02 4.866213351488113403e-02 -7.908271253108978271e-02
-1.614179015159606934e-01 -5.131968855857849121e-02 5.285906791687011719e-02
-2.870935201644897461e-01 8.970677107572555542e-02 1.785410568118095398e-02
2.591273188591003418e-02 -5.131968855857849121e-02 -6.385768949985504150e-02
1.400877982378005981e-01 -3.362846001982688904e-02 9.800565242767333984e-02
-5.814523100852966309e-01 1.678480533882975578e-03 -3.743410110473632812e-02
-6.082281470298767090e-01 7.173873484134674072e-02 -2.982778707519173622e-03
-3.027387196198105812e-03 7.114188745617866516e-03 9.954074025154113770e-02
6.190341711044311523e-01 4.239596799015998840e-02 8.791435509920120239e-02
8.099131584167480469e-01 -1.053244620561599731e-01 1.601703837513923645e-02
9.423658251762390137e-02 7.138641923666000366e-02 6.098746880888938904e-02
-2.244067043066024780e-01 -5.131968855857849121e-02 6.717813760042190552e-02
-9.545202367007732391e-03 -5.602559819817543030e-02 1.760433167219161987e-01
4.899689462035894394e-03 -6.216593459248542786e-02 -1.898101270198822021e-01
2.580376565456390381e-01 -1.030092388391494751e-01 -2.555607259273529053e-02
4.956988990306854248e-01 1.521742530167102814e-02 -9.443355351686477661e-02
5.947244763374328613e-01 4.591911658644676208e-02 8.522167056798934937e-02
-1.387187838554382324e-01 -7.026917487382888794e-02 7.696744799613952637e-02
-2.635563723742961884e-02 -1.180077791213989258e-01 1.626805365085601807e-01
8.984046871773898602e-04 -5.962424352765083313e-02 1.106889769434928894e-01
-6.463209539651870728e-02 -1.059284284710884094e-01 1.136145368218421936e-02
-3.500823378562927246e-01 8.875048905611038208e-02 -9.399935603141784668e-03
-1.551014333963394165e-01 1.250670291483402252e-03 1.051274314522743225e-01
4.378011077642440796e-02 -5.131968855857849121e-02 7.039929926395416260e-02
-9.192887693643569946e-03 -9.732187539339065552e-02 1.666314750909805298e-01
-2.588580250740051270e-01 -6.248593796044588089e-03 1.930298954248428345e-01
-1.233931109309196472e-01 -7.588104158639907837e-02 8.945582434535026550e-03
1.652027815580368042e-01 -4.807335883378982544e-02 1.164518296718597412e-01
2.713501155376434326e-01 2.535904571413993835e-02 -9.106140583753585815e-02
-7.519976496696472168e-01 1.823151409626007080e-01 1.146211475133895874e-02
8.196269869804382324e-01 -1.000145673751831055e-01 3.436255827546119690e-02
-7.312362790107727051e-01 2.875816822052001953e-01 -6.360187398968264461e-05
-5.575200915336608887e-01 7.536254078149795532e-02 4.944297019392251968e-03
7.243007421493530273e-01 -5.131968855857849121e-02 -5.744053050875663757e-02
-3.091886937618255615e-01 -3.832723246887326241e-03 1.882233470678329468e-01
-1.412529032677412033e-02 -5.131968855857849121e-02 -7.430129498243331909e-02
-7.165900468826293945e-01 2.889909446239471436e-01 1.270160195417702198e-03
-1.140567809343338013e-01 -1.064569056034088135e-01 7.335002068430185318e-03
-1.354976445436477661e-01 -4.641245305538177490e-02 -4.149642586708068848e-01
-1.369823813438415527e-01 -3.126292303204536438e-02 -6.317635178565979004e-01
-8.685634136199951172e-01 2.844612002372741699e-01 -1.661043912172317505e-01
-8.954903483390808105e-01 2.787235081195831299e-01 2.292931377887725830e-01
-4.938190802931785583e-02 -6.860825419425964355e-02 8.690774440765380859e-02
4.426252841949462891e-01 -8.865788578987121582e-03 1.013274714350700378e-01
-2.184676826000213623e-01 5.882892757654190063e-02 7.329331338405609131e-02
-2.329629063606262207e-01 2.863054163753986359e-02 -8.655680716037750244e-02
6.641052961349487305e-01 -1.218760758638381958e-02 -9.687459468841552734e-02
3.343388736248016357e-01 -9.757353365421295166e-02 4.269227758049964905e-02
9.559550881385803223e-02 -6.878442317247390747e-02 -9.513818472623825073e-02
-4.159903228282928467e-01 -5.856730043888092041e-02 -2.553090453147888184e-02
-7.468388080596923828e-01 1.202826350927352905e-01 -3.309928113594651222e-03
-1.029588803648948669e-01 -4.339260980486869812e-02 -4.581479430198669434e-01
6.934807449579238892e-02 -5.265344306826591492e-02 1.281033754348754883e-01
1.540545374155044556e-01 -5.376071855425834656e-02 2.107714563608169556e-01
-1.432233899831771851e-01 -3.549070283770561218e-02 7.037852406501770020e-01
-3.738132119178771973e-01 -2.519808523356914520e-02 -1.507032066583633423e-01
-2.247259719297289848e-03 -6.641887128353118896e-02 8.124554902315139771e-02
-8.914311230182647705e-02 -3.395561128854751587e-02 -5.932353734970092773e-01
1.109715178608894348e-01 9.063789248466491699e-02 1.083298213779926300e-02
-2.331063337624073029e-02 5.825012177228927612e-02 -7.170926779508590698e-02
4.576237797737121582e-01 2.030081860721111298e-02 -9.315012395381927490e-02
-6.037487983703613281e-01 8.573065698146820068e-02 1.088331267237663269e-02
-7.694624066352844238e-01 2.873048782348632812e-01 -5.477300658822059631e-02
2.106513679027557373e-01 -3.420726954936981201e-02 -9.375409781932830811e-02
-1.387363765388727188e-02 -1.292818486690521240e-01 -1.398317962884902954e-01
-3.398073092103004456e-02 -4.064958542585372925e-02 -4.974310100078582764e-01
6.648601889610290527e-01 -4.321645572781562805e-02 -9.000445902347564697e-02
3.581452965736389160e-01 -8.461340516805648804e-02 6.378082185983657837e-02
6.575119495391845703e-01 8.364192396402359009e-02 3.926979750394821167e-02
-9.918408095836639404e-02 6.481827050447463989e-02 6.954367458820343018e-02
-9.721359238028526306e-03 -1.190395504236221313e-01 1.592328846454620361e-01
-5.846659094095230103e-02 -5.751035362482070923e-02 -1.974352002143859863e-01
-2.551083862781524658e-01 5.112833529710769653e-02 7.812505215406417847e-02
4.899689462035894394e-03 -6.216593459248542786e-02 -1.898101270198822021e-01
-4.492764547467231750e-02 -4.266281798481941223e-02 -3.195373713970184326e-01
5.822172760963439941e-01 6.003686040639877319e-02 -7.032517343759536743e-02
2.754520475864410400e-01 9.093987196683883667e-02 8.542938157916069031e-03
9.713059663772583008e-02 -5.131968855857849121e-02 -2.424747496843338013e-02
-1.091998815536499023e-01 -3.521388024091720581e-02 6.768079996109008789e-01
-7.571817040443420410e-01 2.891922593116760254e-01 -1.853494718670845032e-02
1.371937841176986694e-01 -4.288930445909500122e-02 -1.875704079866409302e-01
1.475870609283447266e-01 7.249369472265243530e-02 -5.547763779759407043e-02
-3.500823378562927246e-01 8.875048905611038208e-02 -9.399935603141784668e-03
-2.331138998270034790e-01 3.139872476458549500e-02 1.889531314373016357e-01
-1.233931109309196472e-01 3.074442595243453979e-02 -6.277558207511901855e-02
-7.009875774383544922e-01 2.339543849229812622e-01 4.793304949998855591e-03
1.897641271352767944e-01 7.377712428569793701e-02 5.786696821451187134e-02
-1.035049371421337128e-02 -5.131968855857849121e-02 5.404183641076087952e-02
-7.511420845985412598e-01 1.414214968681335449e-01 1.146211475133895874e-02
-2.474078088998794556e-01 5.039854347705841064e-02 -1.666328459978103638e-01
2.133943736553192139e-01 -6.896056979894638062e-02 -9.252098947763442993e-02
6.439050287008285522e-02 -5.479250103235244751e-02 -8.778991550207138062e-02
-7.984025478363037109e-01 3.043417930603027344e-01 9.178456966765224934e-04
2.126897424459457397e-01 -6.755131483078002930e-02 1.338158994913101196e-01
2.511423528194427490e-01 -5.131968855857849121e-02 1.199058629572391510e-02
1.552624702453613281e-01 -6.679636240005493164e-02 -1.234240084886550903e-01
6.435451507568359375e-01 -6.667052954435348511e-02 -7.701915502548217773e-02
-8.315376937389373779e-02 -5.131968855857849121e-02 -6.415967643260955811e-02
1.054351478815078735e-01 -6.659503281116485596e-02 1.574713140726089478e-01
8.358082771301269531e-01 -5.131968855857849121e-02 -6.919273734092712402e-02
2.059957683086395264e-01 2.880669385194778442e-02 9.365205466747283936e-02
-3.338003754615783691e-01 -3.974363952875137329e-02 -1.394291520118713379e-01
-1.877408325672149658e-01 5.019721761345863342e-02 1.286570131778717041e-01
-2.955994009971618652e-01 5.180780217051506042e-02 1.579494476318359375e-01
-1.520740147680044174e-02 -2.952652052044868469e-02 -5.093593597412109375e-01
2.740427851676940918e-01 5.075800232589244843e-03 9.981755912303924561e-02
-2.151207029819488525e-01 7.875986397266387939e-02 5.006571859121322632e-02
3.460911214351654053e-01 -5.131968855857849121e-02 -2.447396330535411835e-02
5.956052541732788086e-01 9.139285236597061157e-02 -9.695533080957829952e-04
5.623694509267807007e-02 -6.850759685039520264e-02 -7.560989260673522949e-02
9.738652110099792480e-01 -2.620469592511653900e-02 -2.628586627542972565e-02
-1.522829085588455200e-01 -5.131968855857849121e-02 2.875069156289100647e-02
-1.764164417982101440e-01 5.931420251727104187e-03 1.658765226602554321e-01
-2.819270640611648560e-02 -6.888508051633834839e-02 1.008241698145866394e-01
-3.060933351516723633e-01 4.169846419245004654e-03 -1.370636075735092163e-01
7.614195942878723145e-01 -1.068343669176101685e-01 4.541651811450719833e-03
9.474667906761169434e-01 -1.671736687421798706e-02 3.627512231469154358e-02
3.488592803478240967e-01 -1.050476431846618652e-01 1.803026348352432251e-02
-1.540444791316986084e-01 4.803300648927688599e-02 1.340675503015518188e-01
3.141563236713409424e-01 7.868435978889465332e-02 5.122332274913787842e-02
-1.412529032677412033e-02 -5.131968855857849121e-02 -7.430129498243331909e-02
