-7.174758911132812500e-01 -2.011369168758392334e-02 -1.671255975961685181e-01
-5.521000027656555176e-01 2.241269871592521667e-02 2.402084320783615112e-01
-5.478068590164184570e-01 2.589155733585357666e-01 -1.399413794279098511e-01
-3.673774898052215576e-01 -1.086714267730712891e-01 1.378287822008132935e-01
-2.826246023178100586e-01 2.705698609352111816e-01 -9.147715568542480469e-02
1.798790097236633301e-01 -9.813109040260314941e-02 3.538776189088821411e-02
2.903426289558410645e-01 1.676732152700424194e-01 -1.449632644653320312e-01
-6.304243206977844238e-01 2.685253620147705078e-01 -6.326068192720413208e-02
-1.047009706497192383e+00 8.874030411243438721e-02 1.398222446441650391e-01
-2.085993289947509766e-01 2.219812721014022827e-01 1.204170584678649902e-01
-7.109222412109375000e-01 -4.832094907760620117e-02 1.823589503765106201e-01
-3.428062200546264648e-01 4.378200322389602661e-02 2.500520348548889160e-01
-8.008451461791992188e-01 2.442979067564010620e-01 2.307584322988986969e-02
-2.953599095344543457e-01 2.717561125755310059e-01 -2.160508744418621063e-02
-7.774271965026855469e-01 -7.975740730762481689e-02 -3.832275047898292542e-02
3.136878013610839844e-01 7.014753669500350952e-02 -1.737157851457595825e-01
-3.646555840969085693e-01 1.254279762506484985e-01 -2.596023082733154297e-01
-2.873616814613342285e-01 -4.438254982233047485e-02 2.259155213832855225e-01
-3.901669383049011230e-01 9.598979353904724121e-02 -2.587943375110626221e-01
1.643001139163970947e-01 -9.032776951789855957e-02 -3.573526069521903992e-02
-4.731944203376770020e-01 1.913860738277435303e-01 -2.352530658245086670e-01
4.874879121780395508e-02 -1.028441935777664185e-01 -3.716303035616874695e-02
4.382799863815307617e-01 1.279433667659759521e-01 -1.024120748043060303e-01
1.475083827972412109e-01 2.149260342121124268e-01 5.280146747827529907e-02
-2.327701449394226074e-01 1.748371720314025879e-01 1.835625469684600830e-01
-2.315952032804489136e-01 8.983784914016723633e-02 -2.565384805202484131e-01
-2.360396087169647217e-01 1.817409098148345947e-01 -2.391079366207122803e-01
-7.629750967025756836e-01 1.101994067430496216e-01 -2.296051979064941406e-01
-2.561700940132141113e-01 -1.148594021797180176e-01 -4.147069156169891357e-02
-3.480751216411590576e-01 1.790196001529693604e-01 1.831534802913665771e-01
1.914975643157958984e-01 -5.434235930442810059e-02 -1.095301732420921326e-01
-1.343014538288116455e-01 2.527578473091125488e-01 -1.341245174407958984e-01
-5.994279384613037109e-01 -1.485273241996765137e-02 -1.902083009481430054e-01
-4.033875763416290283e-01 1.570688188076019287e-01 -2.531059086322784424e-01
-1.041377305984497070e+00 1.608448326587677002e-01 9.398855268955230713e-02
-3.196079134941101074e-01 2.466346621513366699e-01 7.945720106363296509e-02
-1.059461832046508789e+00 -2.464845776557922363e-02 1.331924088299274445e-02
-3.226371705532073975e-01 -3.744740784168243408e-02 -1.851964294910430908e-01
2.757768630981445312e-01 -2.448823302984237671e-02 -1.255530714988708496e-01
2.646267414093017578e-02 -1.145816445350646973e-01 2.402433566749095917e-02
-7.859650850296020508e-01 1.021073907613754272e-01 2.026232779026031494e-01
2.669729590415954590e-01 1.530702412128448486e-02 1.823526620864868164e-01
-9.300791621208190918e-01 1.792821288108825684e-01 1.134752705693244934e-01
-4.786816239356994629e-01 1.365166753530502319e-01 -2.557161748409271240e-01
1.336366534233093262e-01 -6.097970902919769287e-02 -1.138132512569427490e-01
-9.375518560409545898e-01 7.890024036169052124e-02 -1.880401223897933960e-01
-1.165733098983764648e+00 2.547752484679222107e-02 2.284879423677921295e-02
9.597948193550109863e-02 -1.026554256677627563e-01 9.445807337760925293e-02
-6.372153759002685547e-02 2.467662096023559570e-03 2.357411384582519531e-01
-2.415034174919128418e-02 1.850532591342926025e-01 -2.153019458055496216e-01
-6.823284626007080078e-01 1.340447366237640381e-02 -2.034699022769927979e-01
1.548862755298614502e-01 1.952036023139953613e-01 9.399168938398361206e-02
2.962402105331420898e-01 1.872662305831909180e-01 4.355956986546516418e-02
7.475578784942626953e-02 1.992216706275939941e-01 1.105854436755180359e-01
2.306424975395202637e-01 2.151469290256500244e-01 -6.484184414148330688e-02
-8.209650516510009766e-01 -3.664073348045349121e-02 -1.211805269122123718e-01
-4.230195283889770508e-02 1.804509162902832031e-01 -2.213065475225448608e-01
-3.039148151874542236e-01 -1.222082525491714478e-01 -4.493175074458122253e-03
1.255728900432586670e-01 1.965975463390350342e-01 1.009091064333915710e-01
9.729227423667907715e-02 1.976799666881561279e-01 -1.780700236558914185e-01
-3.116976618766784668e-01 -5.068120360374450684e-02 -1.699083447456359863e-01
-6.766880750656127930e-01 1.822097301483154297e-01 1.622052639722824097e-01
-6.008347272872924805e-01 8.862396329641342163e-02 -2.466950863599777222e-01
-1.648697555065155029e-01 4.671131819486618042e-02 -2.421184480190277100e-01
-9.665911197662353516e-01 2.123546898365020752e-01 -1.151125580072402954e-01
-6.644985079765319824e-02 2.390353754162788391e-02 -2.245136499404907227e-01
1.483421325683593750e-01 1.205101907253265381e-01 1.809353679418563843e-01
-5.948177576065063477e-01 2.703720033168792725e-01 -6.661478430032730103e-02
-5.357527732849121094e-01 2.156870514154434204e-01 1.336914896965026855e-01
-1.972585916519165039e-03 2.522160708904266357e-01 -6.809366494417190552e-02
2.093122005462646484e-01 4.033530503511428833e-02 1.979105770587921143e-01
-8.960959911346435547e-01 -5.183616280555725098e-02 1.134331598877906799e-01
-7.851878404617309570e-01 2.233177572488784790e-01 8.426354825496673584e-02
-6.890908479690551758e-01 2.646118998527526855e-01 -5.501093342900276184e-02
-2.056972235441207886e-01 1.621650904417037964e-01 -2.469123452901840210e-01
-4.480934739112854004e-01 -2.784419059753417969e-02 2.311953455209732056e-01
3.061901926994323730e-01 -3.109671175479888916e-02 1.472081393003463745e-01
-1.817308068275451660e-01 1.485337018966674805e-01 2.037651240825653076e-01
-7.766968011856079102e-01 2.418129593133926392e-01 4.141091555356979370e-02
-8.575148582458496094e-01 1.254637986421585083e-01 -2.121916264295578003e-01
-4.649124145507812500e-01 2.151463925838470459e-01 -2.165600806474685669e-01
2.354393005371093750e-01 1.259754598140716553e-01 -1.919493079185485840e-01
-9.507884979248046875e-01 2.134021371603012085e-01 4.510187357664108276e-02
-3.502812981605529785e-01 8.294813334941864014e-02 -2.571906447410583496e-01
-4.138866961002349854e-01 2.632590532302856445e-01 -1.359477490186691284e-01
-1.049928545951843262e+00 1.546576246619224548e-02 1.241245418787002563e-01
-6.049441099166870117e-01 -1.094867140054702759e-01 1.802564784884452820e-02
2.987350225448608398e-01 -5.203898251056671143e-02 -7.450043410062789917e-02
-4.781012535095214844e-01 1.176888421177864075e-01 2.265390455722808838e-01
3.882650732994079590e-01 -8.386924862861633301e-03 -1.001351773738861084e-01
-5.791200399398803711e-01 1.244662404060363770e-01 2.169860899448394775e-01
-9.331222772598266602e-01 -1.679493486881256104e-02 1.485947370529174805e-01
-1.039418458938598633e+00 -2.585021406412124634e-02 -2.526883594691753387e-02
-1.458069682121276855e-02 1.930028200149536133e-03 2.307326495647430420e-01
3.340238928794860840e-01 -6.472326815128326416e-02 7.096400111913681030e-02
-4.299420416355133057e-01 -1.195557713508605957e-01 1.505923923105001450e-03
1.229485273361206055e-01 1.036700308322906494e-01 -2.210159748792648315e-01
-2.118415981531143188e-01 1.622775495052337646e-01 1.942092031240463257e-01
-7.903695106506347656e-01 -4.653200507164001465e-02 -1.140754893422126770e-01
5.959093570709228516e-03 -7.234913110733032227e-02 1.810338050127029419e-01
-5.406097173690795898e-01 2.243168652057647705e-01 1.197660118341445923e-01
-7.054504752159118652e-01 1.684990674257278442e-01 1.720784902572631836e-01
4.357948899269104004e-01 1.881898939609527588e-02 1.188638359308242798e-01
-5.333433151245117188e-01 1.813736259937286377e-01 1.762679070234298706e-01
-1.192845582962036133e+00 1.062440946698188782e-01 4.268570244312286377e-02
4.324847459793090820e-02 2.473522871732711792e-01 -5.443578958511352539e-02
3.605887293815612793e-01 -2.029698342084884644e-02 -9.827367961406707764e-02
-9.576967358589172363e-01 2.273974567651748657e-01 -6.367675215005874634e-02
-3.857924342155456543e-01 -9.108124673366546631e-02 -1.019432023167610168e-01
-5.209416151046752930e-02 -1.171414107084274292e-01 8.627874404191970825e-02
2.450120449066162109e-02 2.306107804179191589e-02 -2.145323902368545532e-01
-2.141815721988677979e-01 2.545908689498901367e-01 4.699523001909255981e-02
1.662353277206420898e-01 2.132508903741836548e-01 -1.269222199916839600e-01
-3.314394652843475342e-01 -1.253115385770797729e-01 5.282803624868392944e-02
-6.400092840194702148e-01 2.670404911041259766e-01 -2.640533447265625000e-02
-3.610617518424987793e-01 -3.242200613021850586e-02 2.323360592126846313e-01
-6.981076002120971680e-01 -9.206198155879974365e-02 1.040271967649459839e-01
1.783824563026428223e-01 1.968658864498138428e-01 8.226589113473892212e-02
2.620362043380737305e-01 -3.174722194671630859e-02 1.621563434600830078e-01
-1.672859489917755127e-01 2.639902830123901367e-01 -9.668230265378952026e-02
-1.085839152336120605e+00 7.972879707813262939e-02 1.250317096710205078e-01
-6.407729387283325195e-01 1.305168569087982178e-01 2.080511450767517090e-01
-4.124310612678527832e-02 -6.066969037055969238e-02 1.997967213392257690e-01
-1.775093823671340942e-01 4.552447423338890076e-02 2.463565021753311157e-01
-1.126846194267272949e+00 1.347619295120239258e-01 -1.139986887574195862e-01
-1.199836850166320801e+00 9.047884494066238403e-02 4.028536379337310791e-02
2.633846998214721680e-01 2.040947675704956055e-01 -8.556081354618072510e-02
-1.155889987945556641e+00 1.843218877911567688e-02 2.236374188214540482e-03
-4.538629949092864990e-01 -9.427310526371002197e-02 1.613100171089172363e-01
-5.027694106101989746e-01 9.681791067123413086e-03 -2.194633930921554565e-01
-2.747412025928497314e-01 1.366008520126342773e-01 2.167754322290420532e-01
-5.211654305458068848e-02 -8.040395379066467285e-02 -1.132433935999870300e-01
-4.244770407676696777e-01 -3.677246719598770142e-02 -1.825590431690216064e-01
2.605075240135192871e-01 2.098326683044433594e-01 -3.185944259166717529e-02
-8.693635463714599609e-03 2.077472358942031860e-01 1.153170168399810791e-01
-7.059878110885620117e-01 5.994603410363197327e-02 2.244520038366317749e-01
2.747332453727722168e-01 1.958496272563934326e-01 3.346413746476173401e-02
-5.036758780479431152e-01 2.559621930122375488e-01 -1.523095965385437012e-01
3.310750126838684082e-01 1.197028756141662598e-01 -1.633373200893402100e-01
-1.006263017654418945e+00 -3.027979284524917603e-02 8.743071556091308594e-02
-9.644534587860107422e-01 -8.047953248023986816e-03 -1.126556172966957092e-01
-9.381826221942901611e-02 2.608778476715087891e-01 -7.544007152318954468e-02
3.465345501899719238e-01 -1.588668674230575562e-02 -1.099845767021179199e-01
-3.370925784111022949e-02 1.242825388908386230e-01 -2.421099841594696045e-01
-2.203483879566192627e-01 -1.251859217882156372e-01 6.609714031219482422e-02
-3.243267238140106201e-01 2.225029170513153076e-01 -2.091448158025741577e-01
-7.606428861618041992e-02 -1.216851621866226196e-01 5.025826394557952881e-02
-1.052150011062622070e+00 3.104523569345474243e-02 1.325755119323730469e-01
-4.236009716987609863e-01 2.166987210512161255e-01 -2.160900086164474487e-01
3.514797687530517578e-01 -4.733622074127197266e-02 1.043220981955528259e-01
-6.554394960403442383e-01 1.069775670766830444e-01 2.184148877859115601e-01
-9.655407071113586426e-01 1.632557511329650879e-01 -1.728928685188293457e-01
-9.179408550262451172e-01 1.217732578516006470e-01 -1.985128968954086304e-01
-1.133104562759399414e+00 6.330858170986175537e-02 9.916186332702636719e-02
2.303282022476196289e-01 7.206442952156066895e-02 -1.966995894908905029e-01
-8.864001035690307617e-01 -4.635068029165267944e-02 -7.899317890405654907e-02
-5.622509121894836426e-01 -5.024895071983337402e-04 -2.068580090999603271e-01
-5.210432410240173340e-01 -9.381388127803802490e-02 -7.951055467128753662e-02
-7.787621021270751953e-01 -8.885304629802703857e-02 5.009490251541137695e-02
-5.605213642120361328e-01 7.643761485815048218e-02 2.368854135274887085e-01
-2.487531304359436035e-02 -1.012958586215972900e-01 1.370166391134262085e-01
-6.923013329505920410e-01 -7.165288925170898438e-02 -9.331766515970230103e-02
-3.671836256980895996e-01 -7.753522694110870361e-02 -1.290402412414550781e-01
1.272567510604858398e-01 -8.533807098865509033e-02 -6.574405729770660400e-02
-9.480234384536743164e-01 2.242297083139419556e-01 -9.340303391218185425e-02
8.621069788932800293e-02 -1.086383163928985596e-01 6.233849376440048218e-02
-1.036723971366882324e+00 1.314809545874595642e-02 -1.077634841203689575e-01
-8.779509663581848145e-01 3.702434897422790527e-02 1.924405694007873535e-01
-8.004075288772583008e-01 1.459952592849731445e-01 -2.199648171663284302e-01
-4.967823028564453125e-01 -4.452036321163177490e-02 2.170537710189819336e-01
-4.795156717300415039e-01 2.111856937408447266e-01 1.432167142629623413e-01
3.942587971687316895e-02 1.894187331199645996e-01 1.336066722869873047e-01
4.728542566299438477e-01 1.357956826686859131e-01 4.709767643362283707e-03
-3.797302842140197754e-01 -3.769312798976898193e-02 -1.835351437330245972e-01
-1.179534196853637695e-02 -1.952409744262695312e-02 -1.877959817647933960e-01
4.356536269187927246e-01 -2.803605794906616211e-02 -3.459797054529190063e-02
3.156005740165710449e-01 1.210860535502433777e-02 1.672191023826599121e-01
-1.386241614818572998e-01 1.677229404449462891e-01 -2.395459562540054321e-01
-6.847074031829833984e-01 -1.809414476156234741e-02 -1.750052869319915771e-01
-8.380855321884155273e-01 -7.773920893669128418e-02 6.265284121036529541e-02
-4.632671475410461426e-01 -1.007166653871536255e-01 -7.035170495510101318e-02
-7.478395700454711914e-01 2.500650584697723389e-01 -1.184726729989051819e-01
-4.428644776344299316e-01 2.646694183349609375e-01 -1.306339651346206665e-01
-7.435606122016906738e-01 -3.657711297273635864e-02 -1.414030641317367554e-01
-1.532980501651763916e-01 2.374023795127868652e-01 -1.734059602022171021e-01
-3.196070790290832520e-01 -5.880971252918243408e-02 2.146088480949401855e-01
-6.506493091583251953e-01 8.836857974529266357e-02 -2.417062073945999146e-01
-3.436447083950042725e-01 2.099540084600448608e-01 1.462724506855010986e-01
-4.929174184799194336e-01 -6.211343407630920410e-02 -1.446307599544525146e-01
-1.012849330902099609e+00 5.839311704039573669e-02 1.552771180868148804e-01
-2.062910199165344238e-01 2.581549882888793945e-01 -1.331703811883926392e-01
-2.283423840999603271e-01 1.498780250549316406e-01 -2.523185014724731445e-01
-7.491598725318908691e-01 9.641172736883163452e-02 -2.303681373596191406e-01
-1.548695713281631470e-01 -1.069975048303604126e-01 -6.278265267610549927e-02
-5.384802818298339844e-02 2.520042657852172852e-01 1.198580302298069000e-02
4.129894375801086426e-01 3.422856330871582031e-03 1.244404464960098267e-01
-1.000102519989013672e+00 2.153068631887435913e-01 4.851864650845527649e-05
2.045431137084960938e-01 7.564472407102584839e-02 -2.031974792480468750e-01
-9.050056338310241699e-01 2.383223474025726318e-01 -5.090457946062088013e-02
-7.929172515869140625e-01 2.227018028497695923e-01 -1.651479899883270264e-01
-6.048207879066467285e-01 2.701175808906555176e-01 -4.628946259617805481e-02
-3.060636222362518311e-01 2.684101760387420654e-01 -1.094652116298675537e-01
-2.178484797477722168e-01 -8.733184635639190674e-02 -1.126741543412208557e-01
-2.081955969333648682e-01 -9.819385409355163574e-02 1.636528074741363525e-01
-6.085880398750305176e-01 -7.281132042407989502e-02 1.728218495845794678e-01
3.989163041114807129e-01 8.815432339906692505e-02 -1.430844664573669434e-01
-2.006084322929382324e-01 1.931722462177276611e-01 -2.293725907802581787e-01
4.514017701148986816e-01 4.542822390794754028e-02 -1.105687469244003296e-01
-1.016491651535034180e+00 1.304178684949874878e-02 -1.172136440873146057e-01
-2.417179942131042480e-01 2.581840455532073975e-01 3.921997919678688049e-02
2.140408754348754883e-01 2.151395082473754883e-01 7.975237444043159485e-03
4.655660390853881836e-01 1.310548484325408936e-01 -7.175561785697937012e-02
-2.056276798248291016e-02 1.974127590656280518e-01 1.336355656385421753e-01
-6.561578512191772461e-01 2.460598796606063843e-01 6.100346893072128296e-02
-8.506841659545898438e-01 -3.019134700298309326e-02 -1.219168528914451599e-01
-1.260827481746673584e-01 2.596645355224609375e-01 -1.042176261544227600e-01
-1.179630756378173828e-01 -1.221328675746917725e-01 1.327842846512794495e-02
-2.522384226322174072e-01 1.413061618804931641e-01 2.127888202667236328e-01
-1.109567403793334961e+00 1.757989823818206787e-01 -8.155274391174316406e-02
4.095658063888549805e-01 -4.548924416303634644e-02 -2.605117391794919968e-03
-1.063973426818847656e+00 -1.537248492240905762e-03 -6.880519539117813110e-02
1.372871696949005127e-01 -7.505513727664947510e-02 -8.677798509597778320e-02
-9.710024595260620117e-01 -2.237352728843688965e-02 1.250573396682739258e-01
9.324130415916442871e-02 -6.311470270156860352e-02 1.761081069707870483e-01
-6.596131324768066406e-01 -5.991382896900177002e-02 1.799783706665039062e-01
2.908300757408142090e-01 2.022543996572494507e-01 -5.101827159523963928e-02
-3.228523731231689453e-01 -7.931976020336151123e-02 1.929801851511001587e-01
-7.611103057861328125e-01 1.841856092214584351e-01 1.474911421537399292e-01
-4.930123686790466309e-01 2.712505459785461426e-01 -9.612985700368881226e-02
-6.529256701469421387e-01 -1.054909378290176392e-01 3.647692874073982239e-02
4.077200889587402344e-01 1.646389961242675781e-01 -5.744433403015136719e-02
-3.179833590984344482e-01 -1.220765709877014160e-01 9.047520905733108521e-02
-3.616732358932495117e-01 2.746556997299194336e-01 -6.341920047998428345e-02
-2.214447259902954102e-01 -1.201444119215011597e-01 -1.725291833281517029e-02
3.666250109672546387e-01 -6.047458946704864502e-02 3.693087399005889893e-02
-6.536582708358764648e-01 1.408593952655792236e-01 2.001923769712448120e-01
4.619975686073303223e-01 -1.353169977664947510e-02 7.388959079980850220e-02
-7.419914007186889648e-01 2.356114536523818970e-01 6.833551079034805298e-02
-1.655795723199844360e-01 2.601849734783172607e-01 -1.157993227243423462e-01
-4.818353056907653809e-02 1.651380658149719238e-01 1.763776689767837524e-01
-4.754164218902587891e-01 1.651138365268707275e-01 1.944447457790374756e-01
-7.128742933273315430e-01 -6.924632191658020020e-02 -9.280959516763687134e-02
-2.930054068565368652e-01 1.333310082554817200e-02 -2.284692227840423584e-01
3.715845346450805664e-01 -4.207544773817062378e-02 1.005546674132347107e-01
-6.415858268737792969e-01 -3.705009818077087402e-03 2.241370081901550293e-01
-2.581953406333923340e-01 -1.210899949073791504e-01 -1.302720420062541962e-02
-5.069516301155090332e-01 -1.085290014743804932e-01 -3.563771396875381470e-02
-5.816422104835510254e-01 2.713222503662109375e-01 -5.481654778122901917e-02
-3.822439014911651611e-01 -6.465756893157958984e-02 2.072934508323669434e-01
3.071308135986328125e-01 1.783641427755355835e-01 -1.206083968281745911e-01
-3.006448447704315186e-01 -1.246781945228576660e-01 1.608831621706485748e-02
-2.361585497856140137e-01 -6.607505679130554199e-02 2.076951712369918823e-01
-9.038771986961364746e-01 6.269931793212890625e-03 -1.509345024824142456e-01
4.601671099662780762e-01 1.316914409399032593e-01 3.798638284206390381e-02
-1.147021770477294922e+00 4.240734502673149109e-02 7.983715087175369263e-02
1.969577074050903320e-01 -3.226903825998306274e-02 -1.386531889438629150e-01
-3.278392255306243896e-01 1.175680756568908691e-01 2.290600389242172241e-01
-3.625437021255493164e-01 1.084530130028724670e-01 2.336049079895019531e-01
-7.086441516876220703e-01 -8.252334594726562500e-02 1.283605098724365234e-01
-3.134913146495819092e-01 3.504524007439613342e-02 -2.408474683761596680e-01
-2.643408775329589844e-01 -1.192062795162200928e-01 1.077710390090942383e-01
-1.985011696815490723e-01 6.781619042158126831e-02 2.440053373575210571e-01
-3.259609937667846680e-01 1.916440129280090332e-01 -2.363470941781997681e-01
-7.448487877845764160e-01 2.433523684740066528e-01 4.710472002625465393e-02
-2.583892941474914551e-01 2.618781328201293945e-01 -1.296295225620269775e-01
-4.145962595939636230e-01 -4.103451967239379883e-03 2.426768094301223755e-01
3.042825460433959961e-01 1.992875039577484131e-01 -3.300253301858901978e-02
2.969233393669128418e-01 -4.249614477157592773e-02 -9.276284277439117432e-02
1.483830809593200684e-01 1.784154772758483887e-01 1.228839159011840820e-01
-1.987660974264144897e-01 -9.560942649841308594e-02 -9.472259879112243652e-02
-3.142974674701690674e-01 6.083145365118980408e-02 2.482524067163467407e-01
-9.843246638774871826e-02 6.479693949222564697e-02 -2.439511865377426147e-01
-7.522362470626831055e-02 1.913541257381439209e-01 -2.178158909082412720e-01
-4.062435626983642578e-01 2.240539044141769409e-01 -2.083901166915893555e-01
-3.273661434650421143e-01 5.945157259702682495e-02 -2.509993016719818115e-01
-2.296057939529418945e-01 2.706976234912872314e-01 -6.128890812397003174e-02
-2.307470142841339111e-01 -1.140109896659851074e-01 -4.422174766659736633e-02
-9.269029498100280762e-01 3.332243114709854126e-02 -1.676022112369537354e-01
-3.132528066635131836e-01 1.938142478466033936e-01 1.662814319133758545e-01
-3.905301094055175781e-01 -7.636442780494689941e-03 2.423813939094543457e-01
2.018761634826660156e-02 -2.120744436979293823e-02 -1.823945641517639160e-01
-5.885748863220214844e-01 1.515226960182189941e-01 -2.458510249853134155e-01
-2.441737055778503418e-02 1.181952208280563354e-01 2.100433409214019775e-01
-8.239352703094482422e-01 -7.305772602558135986e-02 -3.563331812620162964e-02
-2.044337540864944458e-01 -1.219298541545867920e-01 -5.694180727005004883e-03
-3.748553991317749023e-01 2.590669989585876465e-01 4.773505032062530518e-02
-3.031107485294342041e-01 -1.184024065732955933e-01 1.101141870021820068e-01
3.450276851654052734e-01 1.283090710639953613e-01 1.165401339530944824e-01
3.766515254974365234e-01 1.607172936201095581e-01 5.088252201676368713e-02
4.826862215995788574e-01 7.909327745437622070e-03 8.035615831613540649e-02
-1.097525358200073242e+00 1.184706687927246094e-01 1.053529381752014160e-01
-1.922152787446975708e-01 -2.849251031875610352e-03 2.427650690078735352e-01
-7.987465262413024902e-01 2.536630630493164062e-01 -4.040804877877235413e-02
-5.138352513313293457e-02 8.274915069341659546e-02 2.293483167886734009e-01
-2.568641006946563721e-01 3.110319375991821289e-04 2.454710751771926880e-01
1.522028744220733643e-01 1.402217894792556763e-02 -1.894067823886871338e-01
2.503859996795654297e-02 9.357548505067825317e-02 -2.361416965723037720e-01
-7.158920168876647949e-01 9.154480695724487305e-02 -2.343318462371826172e-01
-2.425572872161865234e-01 1.370993256568908691e-01 -2.559418976306915283e-01
2.744475603103637695e-01 1.652013063430786133e-01 -1.545981764793395996e-01
1.362955570220947266e-02 2.470840364694595337e-01 2.213539555668830872e-04
-3.358618021011352539e-01 -1.103474348783493042e-01 1.355318576097488403e-01
-7.556039094924926758e-01 -4.909338802099227905e-02 -1.194288507103919983e-01
-1.314079761505126953e-01 2.601041197776794434e-01 3.085046540945768356e-03
-1.182799220085144043e+00 1.312013268470764160e-01 -6.536261737346649170e-02
1.854669451713562012e-01 3.175663948059082031e-02 -1.930017620325088501e-01
-6.189920306205749512e-01 2.583784759044647217e-01 3.006275929510593414e-02
1.143798232078552246e-02 -1.025775521993637085e-01 1.254089623689651489e-01
3.249469399452209473e-02 -1.120869964361190796e-01 2.784721553325653076e-03
-6.471633911132812500e-01 -4.222287982702255249e-02 2.002571076154708862e-01
-1.001275062561035156e+00 9.956117719411849976e-02 1.528126597404479980e-01
-9.848480820655822754e-01 1.170622929930686951e-01 1.503204256296157837e-01
-2.327240705490112305e-01 -1.046745479106903076e-01 1.512266695499420166e-01
-1.938374787569046021e-01 1.772352457046508789e-01 1.786714047193527222e-01
-6.409409642219543457e-02 -1.068925261497497559e-01 1.298439353704452515e-01
-8.842977285385131836e-01 -6.949549913406372070e-02 6.017545703798532486e-03
-2.044184952974319458e-01 1.986463814973831177e-01 1.546277403831481934e-01
2.946437597274780273e-01 1.478085815906524658e-01 1.149810776114463806e-01
-7.561321258544921875e-01 -9.084779024124145508e-02 6.686149537563323975e-02
3.003097772598266602e-01 -4.429768770933151245e-02 1.355720609426498413e-01
-1.725480258464813232e-01 -7.585351169109344482e-02 -1.314452588558197021e-01
-2.668358981609344482e-01 1.771349459886550903e-01 -2.430983930826187134e-01
-3.823531568050384521e-01 2.232033312320709229e-01 -2.093988955020904541e-01
1.455001831054687500e-01 -8.271034061908721924e-02 -6.647478044033050537e-02
3.815146088600158691e-01 6.319833546876907349e-02 -1.487047076225280762e-01
-1.044383883476257324e+00 1.847194582223892212e-01 5.610102042555809021e-02
-1.124718904495239258e+00 6.143346428871154785e-03 -2.264900505542755127e-02
-2.117705941200256348e-01 8.646930754184722900e-02 -2.552992999553680420e-01
-3.458282053470611572e-01 2.489011138677597046e-01 7.516261935234069824e-02
-5.546607971191406250e-01 -2.678865939378738403e-02 2.232386022806167603e-01
-9.013951420783996582e-01 1.904562413692474365e-01 -1.730371266603469849e-01
3.309008479118347168e-01 -2.834511548280715942e-02 -1.003033071756362915e-01
-7.507070899009704590e-01 2.555426955223083496e-01 -9.298241883516311646e-02
5.121067166328430176e-02 2.235770523548126221e-01 6.811877340078353882e-02
-8.300757408142089844e-02 -1.205108016729354858e-01 1.163848675787448883e-02
-9.287839531898498535e-01 1.515075564384460449e-03 1.648689955472946167e-01
-9.106158018112182617e-01 7.211638242006301880e-02 1.849997490644454956e-01
7.897123694419860840e-02 2.356389760971069336e-01 1.699508912861347198e-02
-4.597729146480560303e-01 -1.119148433208465576e-01 -3.280249610543251038e-02
-1.001813411712646484e+00 1.754435747861862183e-01 9.256120771169662476e-02
-8.975325226783752441e-01 2.374896109104156494e-01 -1.196238957345485687e-02
-2.024771124124526978e-01 -6.940339505672454834e-02 2.033818513154983521e-01
-4.464358091354370117e-03 -1.018462777137756348e-01 1.312675476074218750e-01
4.875123500823974609e-02 5.907546728849411011e-02 -2.267696410417556763e-01
-4.280276894569396973e-01 1.866934150457382202e-01 -2.394660860300064087e-01
-9.922249317169189453e-01 1.392248272895812988e-01 1.336848735809326172e-01
-1.155309319496154785e+00 7.572010159492492676e-02 8.510021865367889404e-02
-8.889088630676269531e-01 2.357711195945739746e-01 -9.452783316373825073e-02
-9.067080020904541016e-01 -6.204359233379364014e-02 7.276374846696853638e-02
1.776121258735656738e-01 -4.893374443054199219e-02 -1.215726733207702637e-01
-4.549407064914703369e-01 1.907592415809631348e-01 -2.362846732139587402e-01
1.109537780284881592e-01 2.149587571620941162e-01 6.814320385456085205e-02
5.094203352928161621e-02 1.604382097721099854e-01 1.659001559019088745e-01
-1.104082822799682617e+00 1.252071261405944824e-01 -1.308303326368331909e-01
4.807833433151245117e-01 9.483098983764648438e-02 -9.379307180643081665e-02
-6.439676284790039062e-01 2.535021305084228516e-01 -1.386546343564987183e-01
-2.703491747379302979e-01 1.477817893028259277e-01 -2.545553147792816162e-01
-1.059639096260070801e+00 2.296187356114387512e-02 -1.077639907598495483e-01
-3.243436813354492188e-01 1.461664587259292603e-02 -2.292922735214233398e-01
-1.184923648834228516e+00 6.189122796058654785e-02 5.385958030819892883e-02
-6.376541852951049805e-01 5.955694615840911865e-02 -2.347563356161117554e-01
-8.600099682807922363e-01 1.911185085773468018e-01 -1.840558797121047974e-01
2.268145084381103516e-01 -8.338338136672973633e-02 -2.620071358978748322e-02
-9.313943386077880859e-01 2.280838638544082642e-01 8.244272321462631226e-03
-6.848421096801757812e-01 -1.823000609874725342e-03 -1.907211393117904663e-01
-3.992351293563842773e-01 -1.015884429216384888e-01 -7.571785897016525269e-02
4.526189565658569336e-01 -3.075536340475082397e-02 3.202819079160690308e-02
-6.026924848556518555e-01 2.140163928270339966e-01 1.305137425661087036e-01
5.358086824417114258e-01 7.343444973230361938e-02 2.830765955150127411e-02
-9.183292388916015625e-01 4.718508943915367126e-02 1.835166662931442261e-01
-1.509788632392883301e-01 2.365189343690872192e-01 8.515369892120361328e-02
-1.813042908906936646e-01 -1.155288219451904297e-01 1.186231970787048340e-01
1.295424401760101318e-01 -1.317597180604934692e-02 2.050938010215759277e-01
1.814898848533630371e-01 -9.575554728507995605e-02 6.929441541433334351e-02
4.676126837730407715e-01 1.093397513031959534e-01 6.764574348926544189e-02
-1.067752599716186523e+00 5.056460574269294739e-02 -1.289586722850799561e-01
-5.087038874626159668e-02 -1.015816777944564819e-01 1.411311775445938110e-01
4.984061121940612793e-01 4.583150148391723633e-04 -2.688962221145629883e-02
-8.698492646217346191e-01 1.568645238876342773e-01 1.530585438013076782e-01
1.841613650321960449e-02 1.618526279926300049e-01 1.699926704168319702e-01
-3.490788638591766357e-01 -1.246610283851623535e-01 5.958946049213409424e-02
-3.754962384700775146e-01 1.699353754520416260e-01 1.920603662729263306e-01
-8.926620483398437500e-01 2.275535613298416138e-01 -1.195463985204696655e-01
-6.256909370422363281e-01 -1.210796087980270386e-02 -1.895864456892013550e-01
3.002941608428955078e-02 -8.724519610404968262e-02 -8.625989407300949097e-02
-9.092917442321777344e-01 -4.229344427585601807e-02 -7.699519395828247070e-02
3.633898496627807617e-02 2.168795168399810791e-01 8.777211606502532959e-02
1.657537221908569336e-01 -9.843422472476959229e-02 7.680287119001150131e-03
-7.961329221725463867e-01 3.894608095288276672e-02 2.100776433944702148e-01
4.380415081977844238e-01 1.006551086902618408e-03 -8.377527445554733276e-02
-5.072275996208190918e-01 2.036371976137161255e-01 1.520983874797821045e-01
-1.086343526840209961e+00 1.938691139221191406e-01 -4.265384003520011902e-02
-1.008064895868301392e-01 -6.700854003429412842e-02 -1.405479609966278076e-01
-9.706975817680358887e-01 1.446622610092163086e-02 1.578522920608520508e-01
-8.474292755126953125e-01 -7.193262875080108643e-02 -2.290489897131919861e-02
1.901571154594421387e-01 2.229650318622589111e-01 -1.398491300642490387e-02
-5.984306335449218750e-02 1.638742387294769287e-01 -2.331321984529495239e-01
-7.269971370697021484e-01 1.187773048877716064e-01 2.041975557804107666e-01
-7.893352508544921875e-01 -2.520740777254104614e-02 -1.458308994770050049e-01
-4.206464290618896484e-01 7.240371406078338623e-02 -2.535629570484161377e-01
-8.866509795188903809e-01 2.235513925552368164e-02 -1.702386885881423950e-01
-4.524667263031005859e-01 -5.694916844367980957e-02 2.103724777698516846e-01
1.434081792831420898e-02 -1.047050356864929199e-01 -4.096477851271629333e-02
-2.306524366140365601e-01 -1.260543167591094971e-01 4.678031429648399353e-02
-1.859260648488998413e-01 -9.680564701557159424e-02 1.651828140020370483e-01
4.146277904510498047e-02 1.574144363403320312e-01 -2.215961217880249023e-01
1.797413229942321777e-01 9.676732122898101807e-02 -2.100204080343246460e-01
-1.115684986114501953e+00 6.479281187057495117e-02 1.099434047937393188e-01
4.202525019645690918e-01 1.624800264835357666e-01 -2.706757374107837677e-02
-7.710590958595275879e-01 1.140632927417755127e-01 1.999599486589431763e-01
-6.882193088531494141e-01 2.640305161476135254e-01 -3.132404014468193054e-02
3.547955751419067383e-01 -1.299868524074554443e-02 1.417988091707229614e-01
4.934012889862060547e-03 1.493087410926818848e-01 1.837194114923477173e-01
-2.985868453979492188e-01 2.676011323928833008e-01 7.927460595965385437e-03
-2.593857049942016602e-02 -8.197662234306335449e-02 -1.067888587713241577e-01
2.299088835716247559e-01 6.497433781623840332e-02 1.892726868391036987e-01
-6.809203624725341797e-01 -9.440059959888458252e-02 -3.034725785255432129e-02
-5.240174531936645508e-01 6.313139200210571289e-02 -2.458693087100982666e-01
-2.873014509677886963e-01 -1.223688572645187378e-02 -2.095479518175125122e-01
-1.130969882011413574e+00 1.562742143869400024e-01 -9.347340464591979980e-02
-5.115548372268676758e-01 1.199070438742637634e-01 2.238156795501708984e-01
-1.069395303726196289e+00 1.940163522958755493e-01 1.064945943653583527e-02
-5.686473846435546875e-02 1.997114866971969604e-01 -2.079098969697952271e-01
-2.147446870803833008e-01 2.697364091873168945e-01 -3.832905367016792297e-02
-4.986821711063385010e-01 1.607828885316848755e-01 1.971339136362075806e-01
2.568858265876770020e-01 -7.622382044792175293e-02 9.643267840147018433e-02
-2.985998988151550293e-02 2.470432370901107788e-01 -1.186922639608383179e-01
1.132613718509674072e-01 8.564117550849914551e-02 2.062033265829086304e-01
-1.350927650928497314e-01 2.649760842323303223e-01 -6.163949891924858093e-02
-9.046605229377746582e-01 9.056331217288970947e-02 -1.994153112173080444e-01
-7.810155749320983887e-01 -8.881112933158874512e-02 2.826420031487941742e-02
-2.866766750812530518e-01 -1.201975792646408081e-01 -1.737062633037567139e-02
-8.115170001983642578e-01 1.612069457769393921e-02 -1.829514503479003906e-01
-7.092898488044738770e-01 -9.850391745567321777e-02 5.292796343564987183e-02
-8.780508041381835938e-01 2.415257096290588379e-01 -7.081177085638046265e-02
4.509399533271789551e-01 9.685403108596801758e-02 -1.140711531043052673e-01
-1.865054070949554443e-01 2.012084424495697021e-02 2.466166168451309204e-01
-8.739895820617675781e-01 -5.423626303672790527e-02 -6.610423326492309570e-02
-7.796831727027893066e-01 2.001330107450485229e-01 1.239913851022720337e-01
-7.041130065917968750e-01 1.098927035927772522e-01 -2.379957586526870728e-01
2.954890727996826172e-01 -2.306890487670898438e-02 1.575725078582763672e-01
-3.134959936141967773e-01 1.522548794746398926e-01 2.064472436904907227e-01
-7.623161673545837402e-01 -6.717152893543243408e-02 -8.179022371768951416e-02
-2.195776253938674927e-01 2.224023938179016113e-01 -2.031320780515670776e-01
-7.365028262138366699e-01 2.530820965766906738e-01 1.535674557089805603e-02
-5.035935044288635254e-01 5.668182671070098877e-02 -2.448092103004455566e-01
-2.388633191585540771e-01 5.643037706613540649e-02 2.475768476724624634e-01
-1.108753085136413574e+00 -5.632363259792327881e-03 1.860966347157955170e-02
-2.976765036582946777e-01 8.915215730667114258e-02 -2.580307126045227051e-01
-2.236053943634033203e-01 -9.965656697750091553e-02 -8.615766465663909912e-02
-5.784802436828613281e-01 2.690387070178985596e-01 -9.053646028041839600e-02
-9.316994249820709229e-02 -1.117765009403228760e-01 1.200940459966659546e-01
-7.695734500885009766e-02 4.035890102386474609e-03 -2.129947394132614136e-01
2.520669698715209961e-01 7.197918742895126343e-02 -1.913295835256576538e-01
-6.341788768768310547e-01 -2.735629677772521973e-04 -1.990878880023956299e-01
-5.021638274192810059e-01 -1.157501786947250366e-01 1.750575844198465347e-03
-3.468504846096038818e-01 1.498678922653198242e-01 2.087053209543228149e-01
-1.273199915885925293e-01 -3.664160519838333130e-02 -1.810847967863082886e-01
5.320102572441101074e-01 3.795041143894195557e-02 4.230299964547157288e-02
3.418009877204895020e-01 -6.659142673015594482e-02 4.545151442289352417e-02
5.375322699546813965e-02 2.104454338550567627e-01 -1.729915142059326172e-01
-7.532298564910888672e-03 -1.096466034650802612e-01 1.075538843870162964e-01
6.980603933334350586e-02 -9.808936715126037598e-02 1.209817975759506226e-01
-6.915819644927978516e-01 1.357206106185913086e-01 1.991831511259078979e-01
-4.543965756893157959e-01 1.594456285238265991e-01 1.999414563179016113e-01
-5.951840281486511230e-01 1.953546106815338135e-01 1.561446487903594971e-01
9.328103065490722656e-02 -4.477287083864212036e-02 -1.455252170562744141e-01
5.374414920806884766e-01 4.394839704036712646e-02 -3.079959377646446228e-02
-2.281382679939270020e-02 8.929754048585891724e-02 -2.415578067302703857e-01
-3.414144515991210938e-01 -1.210353970527648926e-01 9.400143474340438843e-02
-1.106373310089111328e+00 1.811493933200836182e-01 1.020294427871704102e-02
-4.393620491027832031e-01 2.463626563549041748e-01 8.188644796609878540e-02
2.166646718978881836e-02 -1.081603318452835083e-01 -2.466397546231746674e-02
-1.503098011016845703e-01 -3.939028829336166382e-02 2.251020669937133789e-01
-9.182080626487731934e-01 1.981069892644882202e-02 -1.593887060880661011e-01
-3.874377608299255371e-01 -8.857409656047821045e-02 1.771847307682037354e-01
3.226372003555297852e-01 4.491130262613296509e-02 -1.638316959142684937e-01
-8.758329153060913086e-01 1.990228891372680664e-01 1.022579297423362732e-01
-2.621257007122039795e-01 2.425492405891418457e-01 8.493307977914810181e-02
-1.094106435775756836e+00 9.875714778900146484e-03 -6.709568202495574951e-02
-5.444661378860473633e-01 1.493214517831802368e-01 -2.496780455112457275e-01
1.639211177825927734e-01 -7.020214200019836426e-02 -8.899193257093429565e-02
7.658761739730834961e-02 1.441467404365539551e-01 1.765232831239700317e-01
2.302794456481933594e-01 1.158361211419105530e-01 1.650405675172805786e-01
4.365684986114501953e-01 1.044881567358970642e-01 9.414110332727432251e-02
-1.339649409055709839e-01 -1.134141385555267334e-01 1.208195835351943970e-01
-1.002881526947021484e+00 3.107154741883277893e-02 -1.408311426639556885e-01
2.633106708526611328e-01 -8.431230485439300537e-02 2.789263613522052765e-02
-1.027339220046997070e+00 1.575216501951217651e-01 1.038995087146759033e-01
-6.603561639785766602e-01 -7.945601642131805420e-02 -8.411542326211929321e-02
-1.108168244361877441e+00 1.406003832817077637e-01 8.178059011697769165e-02
-1.072613835334777832e+00 -9.961687028408050537e-03 7.395111024379730225e-02
-3.314651548862457275e-01 -6.302775442600250244e-02 -1.530799865722656250e-01
-2.994462251663208008e-01 1.176108419895172119e-02 2.482950240373611450e-01
-1.197896450757980347e-01 1.438225209712982178e-01 -2.467416226863861084e-01
-5.112139582633972168e-01 -1.021497845649719238e-01 -5.760082602500915527e-02
-4.814031124114990234e-01 2.196635901927947998e-01 -2.113061100244522095e-01
-9.865686297416687012e-01 1.868192255496978760e-01 -1.458685398101806641e-01
3.505702018737792969e-01 1.146205216646194458e-01 1.270152628421783447e-01
2.682726383209228516e-01 7.464818656444549561e-03 -1.582593917846679688e-01
-6.046744585037231445e-01 -8.851200342178344727e-02 1.461122035980224609e-01
2.261030077934265137e-01 -3.043643385171890259e-02 -1.332162618637084961e-01
-2.457526624202728271e-01 -9.727679193019866943e-03 -2.111368775367736816e-01
2.950010895729064941e-01 -6.751440465450286865e-02 -3.738697245717048645e-02
-8.988543152809143066e-01 -6.445400416851043701e-02 -1.021839119493961334e-02
-3.977556228637695312e-01 -1.053380817174911499e-01 1.435909122228622437e-01
-3.169824182987213135e-01 1.657658815383911133e-01 -2.498041540384292603e-01
-4.293209612369537354e-01 1.593552231788635254e-01 2.006634920835494995e-01
-3.558270037174224854e-01 -9.442472457885742188e-02 -9.644787758588790894e-02
-5.536546111106872559e-01 -4.081416130065917969e-02 -1.671984791755676270e-01
-3.603050410747528076e-01 -5.987189710140228271e-02 2.126817852258682251e-01
-4.133102297782897949e-01 -8.320151269435882568e-02 -1.159007772803306580e-01
-6.664568781852722168e-01 2.594804018735885620e-02 -2.142736762762069702e-01
-2.098655700683593750e-01 1.416803151369094849e-01 2.105689346790313721e-01
-1.556464880704879761e-01 1.705999076366424561e-01 -2.396021485328674316e-01
2.418175339698791504e-02 -9.657390415668487549e-02 -6.419920921325683594e-02
-9.932723641395568848e-01 1.566672325134277344e-01 1.179215908050537109e-01
-8.769889473915100098e-01 -3.656957298517227173e-02 -1.023671552538871765e-01
-3.445094823837280273e-02 -4.581796377897262573e-02 2.112236618995666504e-01
6.070518493652343750e-02 1.811374127864837646e-01 -2.030434608459472656e-01
1.878622770309448242e-01 2.450736239552497864e-02 2.024337202310562134e-01
6.419983506202697754e-02 -1.376571506261825562e-02 2.157935798168182373e-01
2.961642146110534668e-01 6.308492273092269897e-02 -1.775668412446975708e-01
-1.856741458177566528e-01 1.471973955631256104e-02 -2.267869114875793457e-01
4.231399297714233398e-02 -9.619171917438507080e-02 1.339171975851058960e-01
-1.186214566230773926e+00 7.470601797103881836e-02 -6.578289717435836792e-02
-3.561554849147796631e-01 1.305027157068252563e-01 2.218939512968063354e-01
-1.100492000579833984e+00 6.628850102424621582e-02 1.183190047740936279e-01
-5.626080036163330078e-01 1.949073076248168945e-01 1.593720912933349609e-01
-4.394475221633911133e-01 1.472883820533752441e-01 -2.550306022167205811e-01
-1.697381585836410522e-01 -1.228227913379669189e-01 8.107366412878036499e-02
-3.429749310016632080e-01 -8.981058001518249512e-02 1.775976717472076416e-01
-3.539393246173858643e-01 2.095814794301986694e-01 -2.229168415069580078e-01
-3.752602338790893555e-01 -1.006492227315902710e-01 -8.023891597986221313e-02
-4.333924949169158936e-01 -7.825444638729095459e-02 -1.234850957989692688e-01
2.459273338317871094e-01 8.880943804979324341e-02 1.767108738422393799e-01
2.141215801239013672e-01 1.245382130146026611e-01 1.628000587224960327e-01
-1.019761562347412109e+00 -3.749562799930572510e-02 2.839376591145992279e-02
-8.967108726501464844e-01 -3.250691294670104980e-02 -1.018416732549667358e-01
-3.482754528522491455e-01 2.563915550708770752e-01 5.500897765159606934e-02
-9.947659373283386230e-01 -4.462141543626785278e-02 1.728453487157821655e-02
5.052729249000549316e-01 -1.084201037883758545e-03 -6.347870454192161560e-03
1.581954360008239746e-01 -6.001588702201843262e-02 -1.092889457941055298e-01
4.550474286079406738e-01 -3.009460121393203735e-02 1.462507247924804688e-02
4.888028502464294434e-01 1.289687305688858032e-01 -2.659698016941547394e-02
5.349218249320983887e-01 7.135821878910064697e-02 -4.174878075718879700e-02
4.168114662170410156e-01 -6.288543343544006348e-03 -8.759258687496185303e-02
1.715275645256042480e-01 -1.677750051021575928e-02 -1.610829830169677734e-01
-3.332274258136749268e-01 -3.492277115583419800e-02 2.314861863851547241e-01
-2.847909927368164062e-01 -1.240082532167434692e-01 7.914649322628974915e-03
4.550599455833435059e-01 -1.824699342250823975e-02 -3.861128166317939758e-02
-1.095006227493286133e+00 3.860206156969070435e-02 1.139474287629127502e-01
3.485233187675476074e-01 -3.984515368938446045e-02 -7.318946719169616699e-02
2.426404356956481934e-01 -8.742363750934600830e-02 5.285763368010520935e-02
-1.790065020322799683e-01 3.328839689493179321e-02 -2.368194162845611572e-01
3.239154815673828125e-01 -5.883851647377014160e-02 -4.402510076761245728e-02
2.054516673088073730e-01 -9.428648650646209717e-02 4.008110612630844116e-02
-8.444757461547851562e-01 -4.870496690273284912e-03 1.856791228055953979e-01
-1.110528945922851562e+00 4.572741687297821045e-03 -3.896298259496688843e-02
-3.451152443885803223e-01 1.604748368263244629e-01 -2.521607279777526855e-01
-8.800485730171203613e-01 6.915728002786636353e-02 -1.989278197288513184e-01
-6.897857785224914551e-02 -9.603098034858703613e-02 1.556970626115798950e-01
-1.386872529983520508e-01 2.446257621049880981e-01 6.297810375690460205e-02
-7.656644582748413086e-01 2.511890530586242676e-01 1.059507951140403748e-02
5.993068218231201172e-02 -1.076861321926116943e-01 8.916020393371582031e-02
-6.165460348129272461e-01 1.524143293499946594e-02 -2.131337523460388184e-01
-9.591433405876159668e-01 1.166841015219688416e-01 1.581739932298660278e-01
-4.317095577716827393e-01 3.172581270337104797e-02 2.481866031885147095e-01
1.993104219436645508e-01 2.227213233709335327e-01 -4.553652927279472351e-02
5.270468592643737793e-01 9.478586167097091675e-02 1.307701505720615387e-02
4.852757453918457031e-01 1.112370938062667847e-02 -6.083227694034576416e-02
-5.756202340126037598e-01 -9.439010918140411377e-02 -6.659364700317382812e-02
-8.569164574146270752e-02 1.803756356239318848e-01 1.649388819932937622e-01
3.885345458984375000e-01 -4.805567115545272827e-02 7.128953933715820312e-02
1.444789171218872070e-01 1.755935549736022949e-01 -1.879529953002929688e-01
-6.819544434547424316e-01 -8.779588341712951660e-02 1.245774626731872559e-01
1.742135882377624512e-01 1.762706637382507324e-01 1.184512972831726074e-01
-1.115618944168090820e+00 1.254520267248153687e-01 9.086378663778305054e-02
3.939069509506225586e-01 -3.089323639869689941e-03 1.303464174270629883e-01
6.773322820663452148e-02 1.863578259944915771e-01 1.318403035402297974e-01
3.865155577659606934e-01 1.641671359539031982e-01 -8.821859210729598999e-02
7.404863834381103516e-02 4.547245055437088013e-02 -2.185161411762237549e-01
-7.529977560043334961e-01 5.471676588058471680e-02 -2.173821181058883667e-01
2.985935807228088379e-01 3.355937823653221130e-02 -1.660208255052566528e-01
5.013786554336547852e-01 8.428119868040084839e-02 -8.004216104745864868e-02
-7.281386852264404297e-02 -4.082432389259338379e-02 -1.722858697175979614e-01
-1.565017849206924438e-01 2.230257391929626465e-01 1.129213571548461914e-01
-1.793568134307861328e-01 2.467727512121200562e-01 6.440517306327819824e-02
-9.873614311218261719e-01 3.424503654241561890e-02 1.600442081689834595e-01
-1.344263702630996704e-01 -8.959187567234039307e-02 -1.037008836865425110e-01
-8.884321451187133789e-01 -2.173922955989837646e-02 -1.219457536935806274e-01
-2.752548456192016602e-01 2.702378928661346436e-01 -1.375776529312133789e-02
-2.941641807556152344e-01 1.197023093700408936e-01 -2.594738900661468506e-01
-5.541106462478637695e-01 -6.931325793266296387e-02 -1.255793422460556030e-01
-3.004106283187866211e-01 -9.943521022796630859e-02 -8.689303696155548096e-02
-1.510065048933029175e-01 -2.189899981021881104e-02 -1.971386969089508057e-01
-6.683915853500366211e-03 2.419449388980865479e-01 3.421666845679283142e-02
-6.220294237136840820e-01 1.066182553768157959e-01 2.219406217336654663e-01
-4.843832254409790039e-01 2.449477016925811768e-01 -1.764945834875106812e-01
-1.021731853485107422e+00 1.738694608211517334e-01 -1.433876305818557739e-01
-1.350833177566528320e-01 -1.211756616830825806e-01 3.193831071257591248e-05
-2.350556552410125732e-01 7.200924307107925415e-02 -2.532448172569274902e-01
-1.663213968276977539e-01 -1.015801876783370972e-01 -7.862112671136856079e-02
-7.801271080970764160e-01 1.649430841207504272e-01 1.638304889202117920e-01
-2.356235384941101074e-01 2.606101036071777344e-01 -1.303272545337677002e-01
-9.343686103820800781e-01 1.930896788835525513e-01 9.263460338115692139e-02
-8.184955120086669922e-01 1.962709128856658936e-01 -1.896889805793762207e-01
-3.258118033409118652e-02 1.495000422000885010e-01 -2.357356995344161987e-01
3.746187686920166016e-01 6.171494722366333008e-03 1.436144560575485229e-01
2.723819017410278320e-01 3.833988308906555176e-02 1.825355738401412964e-01
-2.402298897504806519e-01 -3.519589453935623169e-02 2.310547530651092529e-01
-2.470167726278305054e-01 2.710847258567810059e-01 -3.532437607645988464e-02
-2.467611879110336304e-01 -1.230427771806716919e-01 -4.631644114851951599e-04
-9.648871421813964844e-02 8.983583748340606689e-02 2.309431284666061401e-01
8.587241172790527344e-04 -5.239212512969970703e-02 2.018630057573318481e-01
-4.533867835998535156e-01 6.472471356391906738e-02 -2.501488327980041504e-01
-6.728601455688476562e-01 1.031657233834266663e-01 -2.413510829210281372e-01
-4.605022966861724854e-01 2.663595676422119141e-01 2.002853341400623322e-02
-2.785355448722839355e-01 2.401840537786483765e-01 9.147436171770095825e-02
-4.743534326553344727e-02 1.388468891382217407e-01 1.989567726850509644e-01
-2.018586546182632446e-01 2.441783547401428223e-01 -1.675933450460433960e-01
4.689044952392578125e-01 1.456396654248237610e-02 -7.805179804563522339e-02
-5.717092156410217285e-01 6.031000241637229919e-02 2.388287633657455444e-01
-9.302574396133422852e-02 1.778072118759155273e-02 -2.231647372245788574e-01
-5.164543390274047852e-01 -1.114538311958312988e-01 -1.936045661568641663e-02
-5.611295700073242188e-01 -8.288621902465820312e-04 2.341111004352569580e-01
