-2.096969634294509888e-02 3.007269278168678284e-02 -3.768770396709442139e-02
7.801333814859390259e-02 -1.959512382745742798e-02 -8.392144441604614258e-01
-4.958835244178771973e-02 6.124837324023246765e-03 -6.878411173820495605e-01
3.686976060271263123e-02 2.532815933227539062e-02 9.501859545707702637e-02
-1.707254052162170410e-01 -2.792932838201522827e-02 -3.368437290191650391e-01
1.611771136522293091e-01 -5.626631900668144226e-03 -3.563095331192016602e-01
8.500664681196212769e-02 -3.438610583543777466e-02 3.374358117580413818e-01
2.443042844533920288e-01 -3.545342385768890381e-02 -4.081816077232360840e-01
-5.926251411437988281e-02 -5.396462604403495789e-02 -3.326189517974853516e-01
-9.734521806240081787e-02 -4.105752706527709961e-02 -8.709487915039062500e-01
1.332739740610122681e-02 2.642399072647094727e-02 2.825411856174468994e-01
-1.535317897796630859e-01 2.799549698829650879e-02 -2.526831328868865967e-01
-2.373329550027847290e-02 -5.384857207536697388e-02 -1.511410474777221680e-01
-1.370217949151992798e-01 3.258645907044410706e-02 -8.783327043056488037e-02
1.689823120832443237e-01 -6.403385102748870850e-02 -7.862836122512817383e-02
1.106007471680641174e-01 1.284656673669815063e-02 -4.628883302211761475e-02
1.814819425344467163e-01 -4.136141389608383179e-03 1.582181751728057861e-01
1.191410124301910400e-01 -1.784430816769599915e-03 -4.708310961723327637e-01
1.867900341749191284e-01 -8.105712011456489563e-03 2.129750847816467285e-01
-3.233391791582107544e-02 -5.935117974877357483e-02 -3.792589902877807617e-01
1.837721765041351318e-01 -6.761923432350158691e-02 -1.739832311868667603e-01
5.134636536240577698e-02 -7.026714086532592773e-02 -4.256822466850280762e-01
2.314276695251464844e-01 -6.796422600746154785e-02 -5.400965213775634766e-01
1.518443077802658081e-01 4.450570791959762573e-03 -4.582460224628448486e-02
-1.254279911518096924e-01 2.116118744015693665e-02 -4.515123963356018066e-01
4.791209846735000610e-02 -1.429098285734653473e-02 -8.330562114715576172e-01
-1.192706525325775146e-01 3.287793695926666260e-02 -9.783902764320373535e-02
-8.876860141754150391e-03 -6.522879749536514282e-02 -6.897270679473876953e-01
-5.504172295331954956e-02 3.263363614678382874e-02 -1.591210067272186279e-02
1.829559952020645142e-01 -3.572219982743263245e-03 -7.034137845039367676e-02
-1.933291554450988770e-01 -1.838888414204120636e-02 -5.432219505310058594e-01
-1.994631737470626831e-01 1.905567944049835205e-02 -3.279777765274047852e-01
5.446148291230201721e-02 1.955888792872428894e-02 3.386379778385162354e-01
1.140653789043426514e-01 -7.354007661342620850e-02 -3.841671347618103027e-01
1.633582413196563721e-01 -2.291437238454818726e-03 2.666977941989898682e-01
1.594544351100921631e-01 -5.109981074929237366e-02 1.422267854213714600e-01
2.278089523315429688e-01 -4.220142215490341187e-02 -6.012771129608154297e-01
1.994386464357376099e-01 -4.121340066194534302e-02 1.973002851009368896e-01
-1.512019783258438110e-01 6.094103679060935974e-03 2.762615382671356201e-01
2.462563291192054749e-02 -5.803089216351509094e-02 -1.037342250347137451e-01
2.624139785766601562e-01 -5.066573619842529297e-02 -3.777270913124084473e-01
2.158459872007369995e-01 -5.926926806569099426e-02 -7.211707830429077148e-01
1.490820944309234619e-01 -3.829520195722579956e-03 3.541571795940399170e-01
7.073066383600234985e-02 -6.448557972908020020e-02 -1.604255437850952148e-01
2.075050920248031616e-01 -6.806126236915588379e-02 -2.298793792724609375e-01
2.220139503479003906e-01 -1.727440580725669861e-02 5.592843890190124512e-02
1.987149566411972046e-01 -7.363607734441757202e-02 -5.734899044036865234e-01
-9.836568683385848999e-02 -4.727015644311904907e-02 -3.631332218647003174e-01
9.179159253835678101e-02 -7.115682959556579590e-02 -3.280194997787475586e-01
1.904263645410537720e-01 -4.297292977571487427e-02 -7.641807794570922852e-01
9.061269462108612061e-02 -5.360767245292663574e-02 9.298449754714965820e-02
-3.953810036182403564e-02 1.578561589121818542e-02 -5.184042453765869141e-01
5.563769862055778503e-02 -6.826169788837432861e-02 -3.177134096622467041e-01
-1.501363217830657959e-01 2.486607059836387634e-02 -3.463804125785827637e-01
-7.791749387979507446e-02 3.365221992135047913e-02 -1.053425669670104980e-02
-5.695229768753051758e-02 3.319754824042320251e-02 1.709252595901489258e-01
2.194927930831909180e-01 -1.533346436917781830e-02 -9.477758407592773438e-02
1.487194746732711792e-01 -6.231021136045455933e-03 -4.366423189640045166e-01
2.046013623476028442e-02 2.644897252321243286e-02 2.401532530784606934e-01
2.586324810981750488e-01 -5.779096111655235291e-02 -4.033403992652893066e-01
1.369812339544296265e-01 8.452448993921279907e-03 8.906587958335876465e-02
-1.811394691467285156e-01 2.557390928268432617e-02 -2.434416711330413818e-01
-1.252845674753189087e-01 -3.938951343297958374e-02 -2.861203551292419434e-01
-1.414402574300765991e-01 -3.795352578163146973e-02 -4.113807082176208496e-01
8.504362404346466064e-02 -1.171797513961791992e-02 -7.343362569808959961e-01
6.210893392562866211e-02 -6.577566266059875488e-02 -9.205160140991210938e-01
1.427003741264343262e-01 6.932482123374938965e-03 -1.441836357116699219e-04
1.102733239531517029e-02 -3.175653517246246338e-02 3.036074936389923096e-01
-4.720398783683776855e-02 -2.447811514139175415e-02 2.870816290378570557e-01
4.537127166986465454e-02 -3.214296698570251465e-02 3.370711505413055420e-01
-2.404996007680892944e-02 -9.628811851143836975e-03 -8.582174777984619141e-01
-1.272522062063217163e-01 2.638483047485351562e-02 -3.305266499519348145e-01
-5.400898307561874390e-02 2.281605824828147888e-02 4.305408895015716553e-01
8.274235576391220093e-02 1.775579527020454407e-02 -3.457047045230865479e-02
1.338285058736801147e-01 -5.544017255306243896e-02 8.447524905204772949e-02
-2.058989554643630981e-02 -6.318428367376327515e-02 -5.103560686111450195e-01
1.353715062141418457e-01 7.551483809947967529e-03 2.079263925552368164e-01
3.169068321585655212e-02 -7.024943828582763672e-02 -6.623034477233886719e-01
2.167503833770751953e-01 -1.819821447134017944e-02 1.403543651103973389e-01
-1.893136352300643921e-01 2.691858634352684021e-02 -1.166765987873077393e-01
-4.318168014287948608e-02 2.630429714918136597e-02 -2.695550024509429932e-01
-1.325143128633499146e-01 -3.215921670198440552e-02 -8.136148452758789062e-01
2.276779264211654663e-01 -1.844215020537376404e-02 -3.942549228668212891e-02
6.976804137229919434e-02 -5.475344136357307434e-02 -1.002208948135375977e+00
1.628568917512893677e-01 -3.164559602737426758e-04 -1.733105480670928955e-01
-2.039759755134582520e-01 2.212066948413848877e-02 -1.879967749118804932e-02
1.734822094440460205e-01 -5.238547548651695251e-02 1.148038208484649658e-01
1.119146402925252914e-02 -4.754798114299774170e-02 -1.018333196640014648e+00
2.033586800098419189e-01 -1.076577883213758469e-02 1.123267412185668945e-01
5.297294259071350098e-02 -5.797186866402626038e-02 -3.958702087402343750e-02
-6.497424840927124023e-02 -5.397611483931541443e-02 -7.902016639709472656e-01
-2.897710353136062622e-02 1.446989551186561584e-02 4.888890683650970459e-01
1.226320769637823105e-02 -3.599445894360542297e-02 2.544865906238555908e-01
2.074235379695892334e-01 -1.596582122147083282e-02 1.837836503982543945e-01
-6.567520648241043091e-02 -3.788942843675613403e-02 4.799363017082214355e-02
1.909682005643844604e-01 -6.255471706390380859e-02 -7.998973131179809570e-01
9.314362704753875732e-02 -7.457953691482543945e-02 -7.043975591659545898e-01
-1.764041334390640259e-01 2.493220195174217224e-02 -2.826268374919891357e-01
9.822968393564224243e-02 -4.346320405602455139e-02 -9.709875583648681641e-01
2.443481422960758209e-02 -8.206203579902648926e-03 4.940580427646636963e-01
4.074746742844581604e-03 9.432986378669738770e-03 -5.714700222015380859e-01
-1.877790689468383789e-02 3.093231096863746643e-02 1.647028326988220215e-01
-5.549840629100799561e-02 -4.547832906246185303e-02 -9.507100582122802734e-01
1.313895266503095627e-02 -4.207956790924072266e-02 1.720510423183441162e-01
7.335144281387329102e-02 1.886830851435661316e-02 2.579582631587982178e-01
2.291550636291503906e-01 -5.385402217507362366e-02 -9.481623768806457520e-03
1.070854812860488892e-01 -6.264384090900421143e-02 -9.478539228439331055e-01
2.326208353042602539e-01 -4.644535481929779053e-02 6.059807538986206055e-02
-5.925722420215606689e-02 -3.802913799881935120e-02 6.591367721557617188e-02
1.970528662204742432e-01 -3.134033828973770142e-02 -6.332305073738098145e-01
1.668333262205123901e-01 -3.808414563536643982e-03 -2.669692635536193848e-01
2.015694677829742432e-01 -6.637310981750488281e-02 -7.400115132331848145e-01
-1.056376844644546509e-01 2.103861048817634583e-02 -4.586560726165771484e-01
8.739294856786727905e-02 -1.849084347486495972e-02 4.523342549800872803e-01
-1.664319634437561035e-01 -2.394126728177070618e-02 -1.607605516910552979e-01
8.170722983777523041e-03 -3.797099739313125610e-02 2.221336364746093750e-01
6.263495236635208130e-02 -7.000245153903961182e-02 -8.359708786010742188e-01
1.517271250486373901e-02 2.782922610640525818e-02 8.953502774238586426e-02
-1.621230393648147583e-01 -4.532845690846443176e-03 1.615719199180603027e-01
6.270243786275386810e-03 2.516571432352066040e-02 3.481902182102203369e-01
1.604968309402465820e-02 -6.651570647954940796e-02 -8.080441951751708984e-01
2.225484102964401245e-01 -2.844305709004402161e-02 -4.582136571407318115e-01
-9.888717532157897949e-02 2.926880121231079102e-02 -2.472856193780899048e-01
1.680594980716705322e-01 -3.468375653028488159e-04 1.738767027854919434e-01
6.191860511898994446e-02 -6.987096369266510010e-02 -3.620170950889587402e-01
-8.203714340925216675e-02 3.311231732368469238e-02 2.214457094669342041e-01
-3.399875015020370483e-03 -6.590239703655242920e-02 -5.506184697151184082e-01
9.110520035028457642e-02 1.720902696251869202e-02 5.058956146240234375e-02
-6.049800664186477661e-02 -5.724126473069190979e-02 -6.384751796722412109e-01
2.522611021995544434e-01 -6.127854064106941223e-02 -2.926431894302368164e-01
-1.093953102827072144e-02 3.020666539669036865e-02 5.579379200935363770e-02
8.707381784915924072e-04 -6.088704243302345276e-02 -9.021803140640258789e-01
-1.148147433996200562e-01 -5.215009674429893494e-03 -8.050168752670288086e-01
4.098537936806678772e-02 5.103368312120437622e-03 -5.751276016235351562e-01
-1.277265846729278564e-01 2.841337770223617554e-02 2.819350659847259521e-01
9.922427684068679810e-02 1.670315861701965332e-03 -4.738351702690124512e-01
-6.343326717615127563e-02 -5.438628420233726501e-02 -3.836173415184020996e-01
-2.015386670827865601e-01 2.475088462233543396e-03 1.993018388748168945e-02
1.726539134979248047e-01 -7.564070820808410645e-02 -5.833936929702758789e-01
1.007238477468490601e-01 -4.182015359401702881e-02 2.632400691509246826e-01
1.590263396501541138e-01 -7.400964200496673584e-02 -3.705705404281616211e-01
2.122634835541248322e-02 -2.545754984021186829e-02 3.797093927860260010e-01
5.205429717898368835e-02 -1.896579563617706299e-02 4.492330253124237061e-01
-1.261405795812606812e-01 -9.368825703859329224e-04 3.122366368770599365e-01
8.808965235948562622e-02 7.121941074728965759e-03 4.344314038753509521e-01
1.136828362941741943e-01 -1.463938876986503601e-02 -7.026500701904296875e-01
-1.859092861413955688e-01 2.249706536531448364e-02 -3.118981719017028809e-01
-1.608139425516128540e-01 -3.290569409728050232e-02 -4.935381710529327393e-01
1.660096086561679840e-02 -4.938820376992225647e-03 -7.687164545059204102e-01
-4.380272701382637024e-03 6.766341626644134521e-03 -6.306630373001098633e-01
-1.862974315881729126e-01 -2.285935357213020325e-02 -3.693538010120391846e-01
-5.506931245326995850e-02 -5.624093115329742432e-02 -4.047517180442810059e-01
-7.100259512662887573e-02 -5.501626431941986084e-02 -6.721603870391845703e-01
3.052203357219696045e-02 1.185955479741096497e-02 -4.674622416496276855e-01
5.598194897174835205e-02 2.239751815795898438e-02 2.425819635391235352e-02
1.327254772186279297e-01 -5.403252318501472473e-02 -9.409158229827880859e-01
6.059836968779563904e-02 -7.294595241546630859e-02 -6.172648668289184570e-01
3.225748240947723389e-02 2.575295045971870422e-02 1.760761737823486328e-01
8.416958153247833252e-03 -6.368710845708847046e-02 -3.293814063072204590e-01
5.209882929921150208e-02 -6.619731336832046509e-02 -9.040961265563964844e-01
-3.721116110682487488e-02 2.905954048037528992e-02 -1.553526222705841064e-01
-3.272368013858795166e-02 -5.633888393640518188e-02 -2.634884715080261230e-01
-4.723284393548965454e-02 -1.517709158360958099e-02 3.778832852840423584e-01
1.374496817588806152e-01 -1.087625604122877121e-02 -5.718638896942138672e-01
-1.263244748115539551e-01 3.381780534982681274e-02 1.057922542095184326e-01
5.691924691200256348e-02 -8.047468028962612152e-03 -7.441036701202392578e-01
6.095468997955322266e-04 -6.334178149700164795e-02 -3.547061681747436523e-01
-1.209320425987243652e-01 -1.201488450169563293e-02 -8.429861068725585938e-01
-3.107517585158348083e-02 3.680871799588203430e-03 -7.079176306724548340e-01
-8.007162809371948242e-02 -5.222760140895843506e-03 -8.255784511566162109e-01
2.605558633804321289e-01 -5.194386094808578491e-02 -1.747428029775619507e-01
2.209382951259613037e-01 -4.556960612535476685e-02 -6.614012718200683594e-01
2.194376736879348755e-01 -1.763669587671756744e-02 1.028501987457275391e-01
7.298683375120162964e-02 -4.315296933054924011e-02 2.321294546127319336e-01
6.609354913234710693e-02 1.241436600685119629e-02 4.295703470706939697e-01
-1.267991811037063599e-01 -4.285435378551483154e-02 -5.381375551223754883e-01
-1.915005892515182495e-01 2.585358545184135437e-02 2.267643809318542480e-02
1.288424581289291382e-01 -1.464739441871643066e-03 -4.230390787124633789e-01
6.422494351863861084e-02 2.136776596307754517e-02 1.819131076335906982e-01
-3.413566574454307556e-02 -4.194461554288864136e-02 7.004806399345397949e-02
2.039592862129211426e-01 -1.764935255050659180e-02 -3.706977367401123047e-01
-2.237255573272705078e-01 7.875977084040641785e-03 -2.328161001205444336e-01
7.837170362472534180e-02 -3.475620970129966736e-02 -9.575004577636718750e-01
2.046094983816146851e-01 -4.782809317111968994e-02 1.256866753101348877e-01
1.628365665674209595e-01 -3.164128214120864868e-02 -7.592804431915283203e-01
2.247357517480850220e-01 -1.881114020943641663e-02 -1.935425251722335815e-01
-9.633776545524597168e-02 -4.179218783974647522e-02 -1.634700894355773926e-01
2.444822713732719421e-02 -2.688455954194068909e-02 -9.642580747604370117e-01
7.322778552770614624e-02 -6.819216161966323853e-02 -8.901966810226440430e-01
-1.178772300481796265e-01 -4.417342320084571838e-02 -4.312127828598022461e-01
8.895422518253326416e-02 1.703666523098945618e-02 2.095904052257537842e-01
-1.041891239583492279e-02 -5.356813222169876099e-02 -9.807471930980682373e-02
-3.890171647071838379e-04 2.395277842879295349e-02 -2.335589528083801270e-01
-5.517782270908355713e-02 3.196265175938606262e-02 -6.438978016376495361e-02
-7.576216012239456177e-04 -4.050571471452713013e-03 -7.786364555358886719e-01
3.603176400065422058e-02 -6.618834286928176880e-02 -8.782243728637695312e-01
-1.124522238969802856e-01 -2.036063373088836670e-02 1.645855009555816650e-01
-7.543087750673294067e-02 -5.189896747469902039e-02 -3.683207035064697266e-01
-9.929534047842025757e-02 3.150812909007072449e-02 2.696211040019989014e-01
9.021019935607910156e-02 -4.842578619718551636e-02 1.728584170341491699e-01
2.493209987878799438e-01 -5.962504073977470398e-02 -2.084271460771560669e-01
-1.595522761344909668e-01 1.847619935870170593e-02 -4.657504558563232422e-01
1.765861809253692627e-01 -5.538839474320411682e-02 6.929862499237060547e-02
-1.927329301834106445e-01 -7.611189968883991241e-03 -3.775514662265777588e-02
6.099982932209968567e-02 -7.254231721162796021e-02 -7.115407586097717285e-01
-5.045872926712036133e-02 -5.475975200533866882e-02 -3.060097098350524902e-01
-8.870126307010650635e-02 -4.073626175522804260e-02 -9.900158643722534180e-02
-5.973131209611892700e-02 3.153223544359207153e-02 -1.023433655500411987e-01
-1.215691566467285156e-01 2.814880758523941040e-02 -2.836534678936004639e-01
1.564348638057708740e-01 -7.594041526317596436e-02 -6.336165666580200195e-01
1.168601512908935547e-01 1.260153949260711670e-02 1.116968393325805664e-01
1.608390808105468750e-01 -1.533953845500946045e-02 -5.562080144882202148e-01
1.852924972772598267e-01 -4.599932581186294556e-03 -9.984645247459411621e-02
-4.330878704786300659e-02 -3.829020634293556213e-02 1.074668169021606445e-01
-7.952640205621719360e-02 2.126752957701683044e-02 -4.449096322059631348e-01
7.285806536674499512e-02 -5.032973363995552063e-02 1.291419863700866699e-01
1.261850595474243164e-01 -6.954787671566009521e-02 -8.660372495651245117e-01
-9.670057892799377441e-02 -4.869960993528366089e-02 -4.205864369869232178e-01
-1.038389280438423157e-01 1.430144533514976501e-02 -5.809440612792968750e-01
5.082936957478523254e-02 -4.887457191944122314e-02 1.255769729614257812e-01
-2.201470136642456055e-01 -1.473689451813697815e-03 -3.567382097244262695e-01
1.226657927036285400e-01 1.109766587615013123e-02 1.613941490650177002e-01
1.903702169656753540e-01 -3.321239352226257324e-02 -6.811903715133666992e-01
1.662060916423797607e-01 -5.076939612627029419e-02 -8.692593574523925781e-01
9.946616739034652710e-02 -1.644929684698581696e-02 -7.609800100326538086e-01
-6.323596835136413574e-02 1.672921329736709595e-02 -5.245425701141357422e-01
7.281869649887084961e-02 -5.811015143990516663e-02 -9.856060147285461426e-03
1.296531558036804199e-01 -3.117231093347072601e-02 -8.425254821777343750e-01
1.239941716194152832e-01 -6.698903441429138184e-02 -1.518603563308715820e-01
9.338918328285217285e-02 8.279593661427497864e-03 -3.403189778327941895e-01
-1.745769977569580078e-01 -2.458831667900085449e-02 -2.550070285797119141e-01
7.516076415777206421e-02 -6.366769969463348389e-02 -1.309119462966918945e-01
-1.262156963348388672e-01 2.959915250539779663e-02 -2.351815402507781982e-01
-1.687729358673095703e-01 2.872543781995773315e-02 -1.796548664569854736e-01
1.993922293186187744e-01 -9.565951302647590637e-03 -1.544243693351745605e-01
1.469144225120544434e-01 -6.442478299140930176e-02 -8.178228139877319336e-02
1.993660479784011841e-01 -1.011152751743793488e-02 -1.808972954750061035e-01
2.620498277246952057e-02 -5.967060476541519165e-02 -9.614981412887573242e-01
6.397265195846557617e-02 2.824509516358375549e-03 -5.601325035095214844e-01
1.586119979619979858e-01 -3.184805437922477722e-02 3.283437192440032959e-01
1.429935544729232788e-01 -5.398197844624519348e-02 -9.233590364456176758e-01
-5.151141434907913208e-03 -6.399695575237274170e-02 -8.004040718078613281e-01
-2.148897796869277954e-01 4.789194092154502869e-03 -4.324673414230346680e-01
-1.059233695268630981e-01 2.664773538708686829e-02 -3.274871706962585449e-01
-4.043361172080039978e-02 -5.919736623764038086e-02 -4.369463026523590088e-01
-1.831445693969726562e-01 -8.384305983781814575e-03 -6.706337928771972656e-01
-1.007937118411064148e-01 -2.575179189443588257e-02 1.290436387062072754e-01
1.818294823169708252e-01 -1.585313491523265839e-02 -4.681187570095062256e-01
-1.301613152027130127e-01 -2.138639986515045166e-02 8.505213260650634766e-02
2.198758572340011597e-01 -2.342319488525390625e-02 -3.810501694679260254e-01
-1.308960169553756714e-01 -4.173426702618598938e-02 -5.697294473648071289e-01
-1.044748425483703613e-01 3.156735002994537354e-02 -1.639910340309143066e-01
7.755087688565254211e-03 -2.089074999094009399e-02 4.055448472499847412e-01
1.732062101364135742e-01 -7.426125928759574890e-03 -3.274847567081451416e-01
8.528544008731842041e-02 -2.509414404630661011e-02 4.142673313617706299e-01
-5.173315852880477905e-02 1.894510909914970398e-02 -4.691199660301208496e-01
2.454255372285842896e-01 -2.917500212788581848e-02 -6.542965769767761230e-03
-9.459434449672698975e-02 -3.539207577705383301e-02 -1.085135340690612793e-02
2.195762395858764648e-01 -3.999686986207962036e-02 1.537798047065734863e-01
-1.299446523189544678e-01 -3.980188444256782532e-02 -3.493900597095489502e-01
8.136878907680511475e-02 1.169911026954650879e-02 -2.978402376174926758e-01
1.656177043914794922e-01 1.627381891012191772e-03 1.322755217552185059e-02
2.173285186290740967e-01 -6.860567629337310791e-02 -2.812420427799224854e-01
-1.549681127071380615e-01 -2.899269945919513702e-02 -2.023883610963821411e-01
-9.061895310878753662e-02 -1.705857552587985992e-02 2.678678333759307861e-01
-1.683501899242401123e-01 -2.735346183180809021e-02 -6.471955776214599609e-01
3.921362385153770447e-02 -7.003077119588851929e-02 -7.585947513580322266e-01
-2.592468634247779846e-02 3.118764981627464294e-02 2.450078725814819336e-02
9.164370596408843994e-02 -7.487976551055908203e-02 -5.680336952209472656e-01
-1.559378504753112793e-01 1.423074305057525635e-02 -5.414008498191833496e-01
1.258984357118606567e-01 -7.341124117374420166e-02 -7.880123853683471680e-01
-1.405698359012603760e-01 -3.778396546840667725e-02 -3.860565125942230225e-01
1.463921181857585907e-02 2.081710472702980042e-02 4.168718159198760986e-01
-1.879370510578155518e-01 -1.815713569521903992e-02 -2.074023336172103882e-01
8.775413781404495239e-02 -2.347110398113727570e-02 -8.594049215316772461e-01
-1.330343931913375854e-01 -4.101329296827316284e-02 -4.875449538230895996e-01
1.887880563735961914e-01 -2.569101378321647644e-02 -5.962679386138916016e-01
-9.309887886047363281e-02 -1.032436545938253403e-02 3.260069191455841064e-01
2.386556416749954224e-01 -2.842376939952373505e-02 -3.223111033439636230e-01
9.762591123580932617e-02 1.620280742645263672e-02 8.140629529953002930e-02
-5.197770893573760986e-02 2.825937792658805847e-02 -2.224304974079132080e-01
1.328968163579702377e-02 2.741372585296630859e-02 4.455000162124633789e-03
2.113218456506729126e-01 -3.976624459028244019e-02 1.795487999916076660e-01
1.876386404037475586e-01 -5.649820342659950256e-02 -8.208613395690917969e-01
6.400747597217559814e-02 -6.372800469398498535e-02 -9.471474885940551758e-01
5.914147943258285522e-03 -3.998284786939620972e-02 1.901386678218841553e-01
-1.205811053514480591e-01 2.319775149226188660e-02 -4.104198217391967773e-01
2.157272100448608398e-01 -7.028314471244812012e-02 -3.423489928245544434e-01
-1.954208165407180786e-01 -1.364375092089176178e-02 -5.876610875129699707e-01
1.876906305551528931e-01 -4.909856244921684265e-03 9.534919261932373047e-02
7.016277872025966644e-03 -5.863794684410095215e-02 -1.709945201873779297e-01
-5.728473514318466187e-02 2.771405130624771118e-02 -2.509567737579345703e-01
7.270600646734237671e-02 1.605760678648948669e-02 3.514032661914825439e-01
5.064390599727630615e-02 2.355174720287322998e-02 1.311215758323669434e-01
-1.157034188508987427e-01 -4.119544476270675659e-02 -7.828501462936401367e-01
1.212275922298431396e-01 9.385159239172935486e-03 2.654584944248199463e-01
2.160421758890151978e-01 -6.147911027073860168e-02 -9.566943347454071045e-02
-1.576141715049743652e-01 -2.509828470647335052e-02 -7.502548694610595703e-01
-9.462650120258331299e-02 -7.545755244791507721e-03 3.448239266872406006e-01
6.641814485192298889e-03 1.942611858248710632e-02 4.450219571590423584e-01
6.317768990993499756e-02 -1.882137171924114227e-02 -8.562344312667846680e-01
1.171533986926078796e-01 -3.483455255627632141e-02 -8.965373039245605469e-01
-2.072790265083312988e-01 -9.841143153607845306e-03 -2.238254100084304810e-01
-5.939579755067825317e-02 -4.929106310009956360e-02 -9.058102369308471680e-01
-1.461926251649856567e-01 -3.410852700471878052e-02 -2.880453467369079590e-01
8.109422773122787476e-02 -6.565549969673156738e-02 -9.302347898483276367e-01
-1.726962924003601074e-01 -2.852291241288185120e-02 -5.303808450698852539e-01
-1.583754867315292358e-01 -1.307938527315855026e-02 8.043015003204345703e-02
-7.818676531314849854e-02 -5.303282663226127625e-02 -4.632675647735595703e-01
-1.204122900962829590e-01 -2.583935856819152832e-02 5.503207445144653320e-02
-2.943206205964088440e-02 -5.935788899660110474e-02 -3.598748445510864258e-01
-2.382858470082283020e-02 3.089522942900657654e-02 2.125008404254913330e-01
-8.468696475028991699e-02 -1.994490623474121094e-03 4.020406901836395264e-01
1.665537655353546143e-01 4.712957888841629028e-04 -8.486342430114746094e-02
-1.898749470710754395e-01 -1.258612610399723053e-02 -6.342964172363281250e-01
-5.748120695352554321e-02 -4.307683557271957397e-02 -2.391618490219116211e-02
-2.064068168401718140e-01 1.562669500708580017e-02 -3.559490442276000977e-01
-2.108969390392303467e-01 2.040638402104377747e-02 -1.090044677257537842e-01
2.476958185434341431e-01 -2.853769809007644653e-02 -8.737573027610778809e-02
-9.750787913799285889e-02 1.128225401043891907e-02 -6.281371116638183594e-01
3.257538005709648132e-02 -6.972716748714447021e-02 -7.356492280960083008e-01
-9.224188327789306641e-02 2.860762178897857666e-02 3.369882404804229736e-01
-6.436660885810852051e-02 2.481464669108390808e-02 -3.463174104690551758e-01
-2.187513709068298340e-01 1.504837721586227417e-02 -1.289821118116378784e-01
-1.686288714408874512e-01 2.240706235170364380e-02 2.157010436058044434e-01
-1.366766244173049927e-01 -2.621587365865707397e-02 -2.511639893054962158e-02
-1.621982604265213013e-01 -8.538451045751571655e-03 1.192648708820343018e-01
3.233439102768898010e-02 1.530894264578819275e-02 -3.823166489601135254e-01
-1.501201093196868896e-01 -3.614959120750427246e-02 -5.611879825592041016e-01
1.062844470143318176e-01 -7.561653852462768555e-02 -6.358232498168945312e-01
-1.290511339902877808e-02 -6.398000568151473999e-02 -4.868980646133422852e-01
-1.990895271301269531e-01 -1.063358504325151443e-02 -1.427881419658660889e-01
-5.927315354347229004e-02 -4.728140681982040405e-02 -1.257074773311614990e-01
7.005958817899227142e-03 2.826397120952606201e-02 2.393922209739685059e-02
-3.799144923686981201e-02 -5.389563739299774170e-02 -2.115480899810791016e-01
1.178643628954887390e-01 9.222153574228286743e-03 2.931485474109649658e-01
-2.322969213128089905e-02 -4.479349404573440552e-02 4.805877804756164551e-02
1.633915752172470093e-01 -6.235294416546821594e-02 -4.164613783359527588e-02
1.032297015190124512e-01 -5.293615162372589111e-02 1.132333576679229736e-01
2.197380959987640381e-01 -6.937029957771301270e-02 -3.234509825706481934e-01
-8.439729362726211548e-02 3.356441855430603027e-02 -3.384630382061004639e-02
2.324477769434452057e-02 -6.767192482948303223e-02 -4.369804859161376953e-01
4.334515333175659180e-02 -7.134635001420974731e-02 -5.820707082748413086e-01
1.658383160829544067e-01 -1.641301438212394714e-03 -1.988676488399505615e-01
2.532962858676910400e-01 -3.714392334222793579e-02 -3.407104015350341797e-01
8.789823204278945923e-02 -3.154822438955307007e-02 -9.242879152297973633e-01
-1.666896194219589233e-01 2.148901671171188354e-02 -3.933270573616027832e-01
-3.555107489228248596e-02 3.167342394590377808e-02 3.344535827636718750e-03
1.358261555433273315e-01 -2.437176182866096497e-03 3.869770467281341553e-01
6.023514643311500549e-02 -5.323117226362228394e-02 6.482094526290893555e-02
-4.992122203111648560e-02 2.999892830848693848e-02 3.151741921901702881e-01
-6.505960226058959961e-02 1.154632866382598877e-02 -6.158241033554077148e-01
1.587099283933639526e-01 -6.556095182895660400e-02 -1.080587953329086304e-01
2.147230207920074463e-01 -6.642322242259979248e-02 -6.842370033264160156e-01
-4.037167876958847046e-02 -3.291319683194160461e-02 1.961064636707305908e-01
-2.103952914476394653e-01 1.708162575960159302e-02 -2.932071983814239502e-01
-8.694415912032127380e-03 5.628684535622596741e-03 -6.547467708587646484e-01
9.443727880716323853e-02 1.484916731715202332e-02 -9.719084203243255615e-02
-1.002293378114700317e-01 2.376808971166610718e-02 -3.983692824840545654e-01
-1.746158599853515625e-01 2.831451967358589172e-02 9.748086333274841309e-02
6.179354339838027954e-02 -3.464032337069511414e-02 3.235516250133514404e-01
1.642602086067199707e-01 -7.527734339237213135e-02 -6.617702245712280273e-01
-1.155085861682891846e-01 -1.294998452067375183e-03 -7.705155611038208008e-01
2.241137027740478516e-01 -2.015682309865951538e-02 -2.543206512928009033e-01
-1.045065075159072876e-01 -4.824110120534896851e-02 -5.376819372177124023e-01
3.246011584997177124e-02 -6.794337928295135498e-02 -3.989830315113067627e-01
4.861775040626525879e-02 1.609854027628898621e-02 -3.059964478015899658e-01
-3.121383488178253174e-04 -6.097382679581642151e-02 -2.692993283271789551e-01
5.153115466237068176e-02 2.259613573551177979e-02 2.352859973907470703e-01
-1.470013558864593506e-01 2.748125419020652771e-02 2.425480484962463379e-01
5.813213810324668884e-02 1.741139963269233704e-02 -2.231048047542572021e-01
3.264803811907768250e-02 1.745654642581939697e-02 -3.243120908737182617e-01
-8.414131402969360352e-02 -5.246058478951454163e-02 -6.562629342079162598e-01
-7.408136874437332153e-02 -5.474532395601272583e-02 -5.876665115356445312e-01
7.061201333999633789e-02 -3.806274756789207458e-02 2.920731604099273682e-01
-1.324526965618133545e-01 1.437564939260482788e-02 -5.668191909790039062e-01
-4.686260968446731567e-02 -5.757827311754226685e-03 -8.296140432357788086e-01
-1.158808916807174683e-01 -1.513364166021347046e-02 2.168173193931579590e-01
7.899795472621917725e-02 -6.016136333346366882e-02 -4.365879297256469727e-02
8.932683616876602173e-02 7.371053099632263184e-03 -3.812261223793029785e-01
1.051552593708038330e-01 1.434447243809700012e-02 -3.285914659500122070e-03
1.091411113739013672e-01 -1.963779889047145844e-02 4.369608461856842041e-01
-4.416044056415557861e-02 -1.000809110701084137e-02 -8.692487478256225586e-01
-8.855322003364562988e-02 -2.649120427668094635e-02 1.576541960239410400e-01
-1.790292859077453613e-01 -3.852598369121551514e-03 9.065762162208557129e-02
4.539731144905090332e-02 -5.112189799547195435e-02 7.976990938186645508e-02
-2.045190781354904175e-01 -1.212573330849409103e-02 -5.028383731842041016e-01
-5.857587605714797974e-02 -5.256952345371246338e-02 -2.757950127124786377e-01
-1.203632354736328125e-01 -2.287125587463378906e-02 1.014819145202636719e-01
-1.054290533065795898e-01 6.299881264567375183e-03 -6.941034793853759766e-01
2.445238977670669556e-01 -6.519127637147903442e-02 -3.677285909652709961e-01
1.902772635221481323e-01 -7.370195537805557251e-02 -6.338666677474975586e-01
-1.365482956171035767e-01 3.906264901161193848e-04 2.907590568065643311e-01
2.540674507617950439e-01 -3.284999355673789978e-02 -1.877076774835586548e-01
1.182227283716201782e-01 1.220454275608062744e-02 3.342849016189575195e-02
-7.498856633901596069e-02 -3.235775977373123169e-02 1.116805076599121094e-01
1.124305352568626404e-01 -6.838861107826232910e-02 -8.910577297210693359e-01
-1.369532644748687744e-01 3.182197734713554382e-02 -1.324969381093978882e-01
9.106422960758209229e-02 -3.855478018522262573e-02 2.967298924922943115e-01
1.332302838563919067e-01 -7.496517151594161987e-02 -7.286022901535034180e-01
-1.610485017299652100e-01 -1.719502359628677368e-02 6.679832935333251953e-03
1.492072492837905884e-01 3.209594637155532837e-03 -1.541985124349594116e-01
-3.501978144049644470e-02 -6.099981069564819336e-02 -7.191218137741088867e-01
-1.428288072347640991e-01 1.824047416448593140e-02 -4.931302070617675781e-01
4.267941042780876160e-02 1.858980581164360046e-02 -2.525509297847747803e-01
-1.920239627361297607e-02 -6.024711206555366516e-02 -3.352774381637573242e-01
-1.758808195590972900e-01 2.277407050132751465e-02 -3.408292531967163086e-01
-5.778650194406509399e-02 -5.723265931010246277e-02 -5.035585165023803711e-01
-1.234968304634094238e-01 3.343123570084571838e-02 1.502434015274047852e-01
-2.101933956146240234e-01 -1.017602253705263138e-02 -2.965556681156158447e-01
1.819020360708236694e-01 -7.518676668405532837e-02 -5.636531114578247070e-01
-1.450631320476531982e-01 -3.744912147521972656e-02 -4.522609412670135498e-01
-7.527910917997360229e-02 1.318905502557754517e-02 4.552100598812103271e-01
1.747483313083648682e-01 -3.774347156286239624e-02 -7.766041755676269531e-01
1.158645898103713989e-01 -4.640064388513565063e-02 2.111148834228515625e-01
-1.971894502639770508e-02 -4.427504539489746094e-02 -1.006354331970214844e+00
-1.450487971305847168e-01 -3.781021758913993835e-02 -5.324175953865051270e-01
1.188542786985635757e-02 1.143009588122367859e-02 -5.189641714096069336e-01
1.148583963513374329e-01 -4.612831771373748779e-02 -9.559204578399658203e-01
1.375071704387664795e-01 -7.635024189949035645e-02 -5.798561573028564453e-01
-1.217716783285140991e-01 3.185667842626571655e-02 -1.491308212280273438e-01
1.204797104001045227e-01 -5.824646353721618652e-02 3.281676769256591797e-02
-3.631483763456344604e-03 1.453781127929687500e-02 -4.868724942207336426e-01
-1.029353067278862000e-01 3.418380767107009888e-02 -3.114044666290283203e-04
1.179447621107101440e-01 -7.197556644678115845e-02 -3.112383484840393066e-01
2.188279181718826294e-01 -6.739434599876403809e-02 -2.470629513263702393e-01
-6.934282928705215454e-02 -3.832104429602622986e-02 2.782163023948669434e-02
2.324273735284805298e-01 -3.862056136131286621e-02 -5.389237999916076660e-01
5.520997196435928345e-02 1.640379056334495544e-02 -2.700791656970977783e-01
-2.718864008784294128e-02 -6.346523761749267578e-03 -8.268494606018066406e-01
-3.103603050112724304e-02 5.416484549641609192e-03 -6.832531690597534180e-01
3.673288971185684204e-02 -6.456226110458374023e-02 -2.496384382247924805e-01
-1.811359822750091553e-02 2.667762711644172668e-02 -1.926494836807250977e-01
2.031294107437133789e-01 -7.258838415145874023e-02 -6.056287288665771484e-01
-1.271340996026992798e-03 -2.515887841582298279e-03 5.014334917068481445e-01
-1.844678372144699097e-01 1.959070563316345215e-03 1.162850260734558105e-01
-2.099121958017349243e-01 -1.113331783562898636e-02 -3.825578987598419189e-01
1.402860581874847412e-01 -7.629987597465515137e-02 -6.159468293190002441e-01
-1.047902852296829224e-01 3.381748497486114502e-02 1.693107485771179199e-01
-4.606075584888458252e-02 -5.801988020539283752e-02 -7.774912118911743164e-01
-1.203662008047103882e-01 -4.173159226775169373e-02 -3.326314985752105713e-01
1.265999674797058105e-01 -4.517003893852233887e-02 2.268094122409820557e-01
1.279493886977434158e-02 2.813350781798362732e-02 1.172619760036468506e-01
3.468491137027740479e-02 -6.986951082944869995e-02 -5.055967569351196289e-01
-6.170589476823806763e-04 -5.823986977338790894e-02 -9.387502670288085938e-01
-2.269027009606361389e-02 -3.503261134028434753e-03 -7.923128604888916016e-01
-4.651794582605361938e-02 -5.075434222817420959e-02 -1.607200950384140015e-01
-9.282728284597396851e-02 7.616331800818443298e-03 4.245483577251434326e-01
-4.211366176605224609e-02 1.477265730500221252e-02 -5.407465696334838867e-01
2.031678408384323120e-01 -6.374803185462951660e-02 -1.129520833492279053e-01
2.068430930376052856e-01 -1.076670270413160324e-02 -7.641628384590148926e-02
1.419260501861572266e-01 7.224159315228462219e-03 1.166204214096069336e-01
1.764585971832275391e-01 -6.325095146894454956e-02 -8.365925550460815430e-01
9.484697878360748291e-02 -7.515517622232437134e-02 -6.034038066864013672e-01
-6.941111385822296143e-02 -4.377467930316925049e-02 -9.311774969100952148e-01
1.206341236829757690e-01 -2.518875524401664734e-02 -8.082407712936401367e-01
1.696892231702804565e-01 -1.937664113938808441e-02 -5.845248699188232422e-01
-9.314067661762237549e-02 -4.665520042181015015e-02 -8.071367740631103516e-01
2.830941788852214813e-02 2.281634509563446045e-02 -1.612738668918609619e-01
1.126157939434051514e-01 1.127755269408226013e-02 -1.179549992084503174e-01
-3.440609201788902283e-02 1.873958855867385864e-02 -4.503671228885650635e-01
3.748391941189765930e-02 2.478376775979995728e-02 1.947742700576782227e-02
6.970570981502532959e-02 1.621026173233985901e-02 -2.070768177509307861e-01
2.746017836034297943e-02 2.567100152373313904e-02 -9.744688868522644043e-03
6.233041360974311829e-02 -3.065509535372257233e-02 3.632777631282806396e-01
1.103613749146461487e-01 -2.149164676666259766e-03 -5.111161470413208008e-01
-2.039473801851272583e-01 -1.287361606955528259e-02 -2.639566659927368164e-01
1.447857916355133057e-01 -5.691064149141311646e-02 6.064552068710327148e-02
-2.044061422348022461e-01 -1.378386560827493668e-02 -4.630395770072937012e-01
-1.688832044601440430e-01 -1.778746955096721649e-02 -4.836130142211914062e-02
-2.017077654600143433e-01 1.509212702512741089e-02 7.071092724800109863e-02
-1.541246026754379272e-01 3.151157870888710022e-02 -9.697812795639038086e-02
-1.421484053134918213e-01 -5.641235038638114929e-03 -7.717479467391967773e-01
1.276890486478805542e-01 -2.093977481126785278e-02 -7.443737983703613281e-01
-1.609863042831420898e-01 -3.046892210841178894e-02 -3.120762705802917480e-01
-8.749489486217498779e-02 3.877045586705207825e-03 -7.279500365257263184e-01
9.025016427040100098e-02 1.717988029122352600e-02 2.511143684387207031e-02
-1.247324496507644653e-01 8.092308416962623596e-03 -6.607339382171630859e-01
2.057783305644989014e-01 -2.206644602119922638e-02 -4.509837627410888672e-01
1.134218424558639526e-01 -7.112650573253631592e-02 -8.464988470077514648e-01
1.118701770901679993e-01 -7.428404688835144043e-02 -4.283823370933532715e-01
1.552514731884002686e-03 1.812138408422470093e-02 -3.950926661491394043e-01
3.950267285108566284e-02 -3.584232553839683533e-02 2.910059392452239990e-01
1.990784257650375366e-01 -4.217267408967018127e-02 -7.281107902526855469e-01
4.766596853733062744e-02 -6.639459729194641113e-02 -2.757635414600372314e-01
-7.724268361926078796e-03 1.602308824658393860e-02 -4.632736146450042725e-01
5.891147255897521973e-02 -1.023640576750040054e-02 4.909975826740264893e-01
2.073657214641571045e-01 -5.604049190878868103e-02 1.629713177680969238e-02
-3.681485354900360107e-02 -6.042578071355819702e-02 -4.818375110626220703e-01
2.361803501844406128e-02 -3.085715509951114655e-02 3.290937244892120361e-01
1.822687536478042603e-01 -1.159786898642778397e-02 2.840790450572967529e-01
-1.785967648029327393e-01 -2.654123865067958832e-02 -4.555589556694030762e-01
1.587720513343811035e-01 -6.050787866115570068e-02 -4.813313484191894531e-03
-1.165523007512092590e-02 -6.413669884204864502e-02 -7.494190931320190430e-01
-1.472703665494918823e-01 -3.498816117644309998e-02 -6.742403507232666016e-01
1.291942298412322998e-01 7.098013535141944885e-03 -1.661010533571243286e-01
-9.437680989503860474e-02 -4.918046295642852783e-02 -7.215692996978759766e-01
-4.644817858934402466e-02 2.874484658241271973e-02 3.441145718097686768e-01
7.724467664957046509e-02 -6.653667986392974854e-02 -2.044080197811126709e-01
1.677652820944786072e-03 -6.348588317632675171e-02 -8.474982976913452148e-01
1.395536363124847412e-01 -1.322894264012575150e-02 -6.027420163154602051e-01
-1.781125515699386597e-01 1.408784464001655579e-02 -4.975017905235290527e-01
-1.702365875244140625e-01 -1.602776907384395599e-02 -2.584323287010192871e-02
5.457485467195510864e-02 1.130168884992599487e-02 -4.111487865447998047e-01
-1.102656126022338867e-01 -9.538854472339153290e-03 2.892673909664154053e-01
-9.929601848125457764e-02 -4.744306206703186035e-02 -7.422651052474975586e-01
-4.656033217906951904e-02 2.600666135549545288e-02 3.941365778446197510e-01
6.391602009534835815e-02 -7.319917529821395874e-02 -6.372019052505493164e-01
-3.820613771677017212e-02 -5.748060345649719238e-02 -3.363934755325317383e-01
-6.998523324728012085e-02 3.239562734961509705e-02 -8.035105466842651367e-02
-3.490792214870452881e-02 2.485094591975212097e-02 -2.967973947525024414e-01
2.123217135667800903e-01 -2.162901312112808228e-02 2.033280432224273682e-01
7.061041891574859619e-02 1.494634523987770081e-02 -2.467834055423736572e-01
6.661443412303924561e-02 -7.208250463008880615e-02 -7.686257362365722656e-01
1.607265472412109375e-01 2.454787492752075195e-03 1.308756768703460693e-01
2.043123543262481689e-01 -3.610943257808685303e-02 -6.547050476074218750e-01
1.659856438636779785e-01 -7.306917011737823486e-02 -3.323167562484741211e-01
-7.648892700672149658e-03 -3.933775797486305237e-02 1.740663349628448486e-01
1.388489305973052979e-01 -7.252684235572814941e-02 -3.111546635627746582e-01
1.041265800595283508e-01 8.666019886732101440e-03 -2.764736115932464600e-01
1.270421892404556274e-01 4.040244966745376587e-03 3.491882979869842529e-01
8.932365477085113525e-02 -7.348029315471649170e-02 -4.481054544448852539e-01
-7.917051762342453003e-02 3.305096924304962158e-02 -6.023611128330230713e-02
7.331181317567825317e-02 1.837830245494842529e-02 2.797410786151885986e-01
1.608529984951019287e-01 -6.978884339332580566e-02 -8.149456977844238281e-01
1.487951427698135376e-01 -6.233733147382736206e-02 -8.984371423721313477e-01
1.876475214958190918e-01 -8.132128976285457611e-03 -2.341204881668090820e-01
-2.665245905518531799e-02 3.163817524909973145e-02 9.453439712524414062e-02
1.974405348300933838e-01 -2.505524829030036926e-02 2.727847397327423096e-01
1.190319731831550598e-01 -6.411602348089218140e-02 -9.280078411102294922e-01
1.378312520682811737e-02 -6.091735512018203735e-02 -2.132937312126159668e-01
5.008256062865257263e-03 1.053148135542869568e-02 -5.496095418930053711e-01
2.384749650955200195e-01 -5.710446834564208984e-02 -9.400971233844757080e-02
-4.296859353780746460e-02 -5.502783134579658508e-02 -8.739330768585205078e-01
2.319350540637969971e-01 -6.879971176385879517e-02 -4.755345582962036133e-01
-6.928385794162750244e-02 -1.808695308864116669e-02 3.082830607891082764e-01
-1.514197885990142822e-01 -1.870567165315151215e-02 -7.956796884536743164e-01
-1.620719283819198608e-01 4.172965884208679199e-03 -6.543192267417907715e-01
-1.414801478385925293e-01 2.684951201081275940e-02 -3.058476448059082031e-01
1.702914685010910034e-01 -3.163760900497436523e-02 -7.358815073966979980e-01
-1.303008794784545898e-01 -2.445698343217372894e-02 -8.538510799407958984e-01
-3.468661755323410034e-02 3.106166049838066101e-02 2.481417357921600342e-01
6.643044948577880859e-02 1.526078954339027405e-02 3.886894285678863525e-01
-2.025093585252761841e-01 2.460312098264694214e-03 -5.337504148483276367e-01
1.610441952943801880e-01 -3.786874935030937195e-02 2.822324931621551514e-01
1.550460159778594971e-01 -7.358703017234802246e-02 -7.510662674903869629e-01
-2.211593985557556152e-01 1.175935938954353333e-02 -2.646019160747528076e-01
-8.809804916381835938e-03 -6.248739548027515411e-03 -8.122230768203735352e-01
-1.215565800666809082e-01 3.038540855050086975e-02 -2.097329199314117432e-01
-1.210487931966781616e-01 2.532417699694633484e-02 3.329202830791473389e-01
2.373584657907485962e-01 -2.420768886804580688e-02 1.216930150985717773e-02
-5.964110791683197021e-02 -1.600217074155807495e-03 -7.891026735305786133e-01
-1.134371161460876465e-01 -4.619587957859039307e-02 -5.810544490814208984e-01
5.373419821262359619e-02 -7.205204665660858154e-02 -5.456489324569702148e-01
-6.880222260951995850e-02 3.054849430918693542e-02 -1.675533056259155273e-01
-3.699986264109611511e-02 2.811850979924201965e-02 -1.927324235439300537e-01
1.638142764568328857e-01 -6.644009053707122803e-02 -1.300938427448272705e-01
-1.983709037303924561e-01 2.185744047164916992e-02 -2.617287337779998779e-01
-7.914906740188598633e-02 3.030097484588623047e-02 3.140387237071990967e-01
-7.990049570798873901e-02 -4.918842762708663940e-02 -8.261679410934448242e-01
1.808512806892395020e-01 -7.691276259720325470e-03 -2.791058421134948730e-01
-7.472676783800125122e-02 -1.201502978801727295e-03 4.241724908351898193e-01
6.764307618141174316e-02 -7.341512292623519897e-02 -5.864818692207336426e-01
-6.696588546037673950e-02 2.265432849526405334e-02 -4.031495451927185059e-01
9.561071544885635376e-02 -6.293345242738723755e-02 -8.274026215076446533e-02
7.528530061244964600e-02 -7.388882339000701904e-02 -6.697132587432861328e-01
-2.108778357505798340e-01 1.995005831122398376e-02 -7.569149136543273926e-02
1.870963424444198608e-01 -4.641509056091308594e-02 1.708108186721801758e-01
2.334138005971908569e-01 -6.851686537265777588e-02 -4.312494397163391113e-01
-2.367532625794410706e-02 2.444791048765182495e-02 4.067777693271636963e-01
-9.728126227855682373e-03 2.783547341823577881e-02 3.110480606555938721e-01
2.141328901052474976e-01 -3.049715608358383179e-02 -5.404278635978698730e-01
2.085222005844116211e-01 -1.113440282642841339e-02 -4.839506745338439941e-02
-6.298050284385681152e-02 -3.564558178186416626e-02 9.510761499404907227e-02
-6.859052926301956177e-03 -4.268530383706092834e-02 1.237779259681701660e-01
-2.097995579242706299e-01 -1.647485420107841492e-03 -9.348516166210174561e-02
-1.022412255406379700e-01 3.222877904772758484e-02 -1.330716162919998169e-01
1.196871921420097351e-01 2.500653266906738281e-03 -3.704011440277099609e-01
9.984322637319564819e-02 -3.718571737408638000e-02 -9.408265352249145508e-01
8.340454846620559692e-02 -6.589607149362564087e-02 -1.745896935462951660e-01
2.287093400955200195e-01 -6.516139209270477295e-02 -2.236602157354354858e-01
1.270708590745925903e-01 -4.301454871892929077e-02 -9.240735769271850586e-01
3.690652921795845032e-02 1.998114213347434998e-02 -2.298429906368255615e-01
-1.477256789803504944e-02 -6.452614068984985352e-02 -6.706671714782714844e-01
1.175264865159988403e-01 -6.898475810885429382e-03 -5.734291076660156250e-01
1.844529956579208374e-01 -1.185149233788251877e-02 -3.664752840995788574e-01
-6.994711607694625854e-02 2.692420780658721924e-02 -2.943321764469146729e-01
-3.919497504830360413e-02 -1.377990189939737320e-02 -8.999915122985839844e-01
-5.415587872266769409e-02 3.323184326291084290e-02 6.093803048133850098e-02
1.522231101989746094e-01 -3.073712438344955444e-02 -7.815315723419189453e-01
-1.137050539255142212e-01 -2.205732464790344238e-02 -8.899785280227661133e-01
1.988687515258789062e-01 -2.334398403763771057e-02 -5.126277208328247070e-01
-9.577336162328720093e-02 -4.722471535205841064e-02 -3.371692895889282227e-01
1.862587630748748779e-01 -5.270699039101600647e-03 -1.252175420522689819e-01
1.051294505596160889e-01 -7.001130282878875732e-02 -8.687154054641723633e-01
1.488043367862701416e-01 -5.266285687685012817e-02 1.252291500568389893e-01
1.503427922725677490e-01 5.067400634288787842e-03 -1.928789913654327393e-02
-1.985282823443412781e-02 -3.481296822428703308e-02 2.140621542930603027e-01
-5.638775974512100220e-02 -3.399038687348365784e-03 -8.077745437622070312e-01
-1.486930698156356812e-01 3.008795529603958130e-02 1.873174309730529785e-01
7.409358024597167969e-02 1.106115803122520447e-02 -3.470760583877563477e-01
5.866962298750877380e-02 -7.137951999902725220e-02 -4.541436433792114258e-01
-1.330424547195434570e-01 -2.555444464087486267e-02 4.611641168594360352e-03
-1.614266037940979004e-01 8.295102044939994812e-03 -6.111488342285156250e-01
1.882040351629257202e-01 -5.890255048871040344e-02 1.286536455154418945e-03
1.721665859222412109e-01 -1.266495138406753540e-02 3.312993347644805908e-01
-7.413035631179809570e-02 -2.457499876618385315e-02 2.236959934234619141e-01
-1.237230300903320312e-01 3.293219953775405884e-02 1.767525374889373779e-01
1.915647536516189575e-01 -7.454369217157363892e-02 -5.325586795806884766e-01
1.699381172657012939e-01 -7.248793542385101318e-02 -3.119590878486633301e-01
1.049560159444808960e-01 -6.803767383098602295e-02 -2.004862427711486816e-01
1.464528292417526245e-01 -1.090666092932224274e-02 -5.381116271018981934e-01
-1.027329191565513611e-01 -4.251737147569656372e-02 -8.307242393493652344e-01
2.482371330261230469e-01 -4.365938156843185425e-02 -4.826056361198425293e-01
-2.185996025800704956e-01 1.564550399780273438e-02 -1.487612575292587280e-01
2.011129260063171387e-01 -7.074987888336181641e-02 -3.018086254596710205e-01
5.804374441504478455e-02 -7.185348868370056152e-02 -4.911755919456481934e-01
-9.001994505524635315e-03 -5.903583765029907227e-02 -2.424273341894149780e-01
8.765906840562820435e-02 -7.345329970121383667e-02 -7.599308490753173828e-01
4.471433907747268677e-02 -5.822658538818359375e-02 -6.140208244323730469e-02
2.203873395919799805e-01 -7.027237117290496826e-02 -3.747162520885467529e-01
1.230670064687728882e-01 7.547283545136451721e-03 -1.962055563926696777e-01
1.113013327121734619e-01 1.017690449953079224e-02 -1.784159094095230103e-01
1.343930214643478394e-01 -3.849111497402191162e-03 -4.509097337722778320e-01
