-1.332965046167373657e-01 1.175775565207004547e-02 1.623691618442535400e-01
1.102768257260322571e-02 1.690024323761463165e-02 3.742739558219909668e-01
-2.098905853927135468e-02 2.307431586086750031e-02 5.716757774353027344e-01
6.541362404823303223e-02 -5.866787396371364594e-03 3.217968940734863281e-01
6.812696158885955811e-02 -1.632567867636680603e-02 -3.412022292613983154e-01
-1.180920377373695374e-02 -4.101560264825820923e-02 1.943097412586212158e-01
4.345652833580970764e-02 7.267814595252275467e-03 1.945370435714721680e-02
-1.590964496135711670e-01 4.567714035511016846e-02 4.446057081222534180e-01
6.988227367401123047e-02 -4.781000316143035889e-03 2.371771335601806641e-01
-1.898225098848342896e-01 2.024920098483562469e-02 5.783762335777282715e-01
-1.279285401105880737e-01 2.221181243658065796e-02 1.265604794025421143e-01
6.378930807113647461e-02 -5.174998566508293152e-02 1.159099042415618896e-01
-2.082366943359375000e-01 2.921417914330959320e-02 7.568604350090026855e-01
1.026270240545272827e-01 -1.762243546545505524e-02 -1.451782584190368652e-01
-6.931649148464202881e-02 -1.080642268061637878e-02 8.819926977157592773e-01
-1.892306208610534668e-01 4.834817349910736084e-02 6.223235130310058594e-01
3.301804885268211365e-02 -4.784777387976646423e-02 2.343252599239349365e-01
-1.040101051330566406e-02 -3.659754991531372070e-02 5.136948227882385254e-01
3.791350498795509338e-02 -4.915116354823112488e-02 1.699373722076416016e-01
1.011769473552703857e-01 -4.800956696271896362e-02 -2.849884927272796631e-01
-2.047969400882720947e-01 4.827351495623588562e-02 7.681326866149902344e-01
1.249992102384567261e-02 -1.280428841710090637e-02 7.070960402488708496e-01
1.221782118082046509e-01 -2.926719933748245239e-02 -1.123934388160705566e-01
-1.551474481821060181e-01 1.435765065252780914e-02 1.033613681793212891e+00
1.012908369302749634e-01 -1.834616437554359436e-02 -1.968788206577301025e-01
1.533666253089904785e-02 -4.170253127813339233e-02 4.237324297428131104e-01
-8.716508746147155762e-03 -3.580784797668457031e-02 -7.292923331260681152e-02
-4.692453891038894653e-02 3.332607075572013855e-02 4.591545164585113525e-01
-1.003408432006835938e-02 2.386427856981754303e-02 1.859271079301834106e-01
-6.505819410085678101e-02 3.308397904038429260e-02 1.637372523546218872e-01
-1.992804110050201416e-01 4.881640896201133728e-02 7.145411968231201172e-01
-1.640080362558364868e-01 7.077616173774003983e-03 8.780956268310546875e-01
-4.804094135761260986e-02 -4.468815866857767105e-03 -1.758776605129241943e-01
9.378193318843841553e-02 -5.246234312653541565e-02 5.382388830184936523e-02
-1.113369762897491455e-01 -1.266590878367424011e-02 7.342835664749145508e-01
-2.150633931159973145e-02 2.514837682247161865e-02 5.079331994056701660e-01
-1.409518420696258545e-01 4.968675971031188965e-02 6.835761070251464844e-01
-2.956295013427734375e-02 -2.353770285844802856e-02 -1.416438519954681396e-01
-4.391179606318473816e-02 -2.504697069525718689e-02 -3.649309277534484863e-02
5.604587495326995850e-04 1.559733599424362183e-02 5.465161204338073730e-01
-9.508675336837768555e-02 4.189668968319892883e-02 3.675568699836730957e-01
-3.723878413438796997e-02 1.694873347878456116e-02 7.942751646041870117e-01
4.696295037865638733e-02 6.698639597743749619e-03 8.184322714805603027e-02
-1.159884780645370483e-01 -1.269991509616374969e-02 3.959938585758209229e-01
-1.190898008644580841e-02 -3.705146163702011108e-02 -1.675677299499511719e-02
4.858775809407234192e-02 -5.060843750834465027e-02 1.023140549659729004e-02
-1.029756963253021240e-01 2.103034593164920807e-02 1.021265029907226562e+00
-1.390843987464904785e-01 3.201293200254440308e-02 1.052266001701354980e+00
8.192868530750274658e-02 -5.308044701814651489e-02 -9.209284186363220215e-02
-2.143100351095199585e-01 3.763545304536819458e-02 7.859786152839660645e-01
1.088459044694900513e-01 -2.149911597371101379e-02 2.995613217353820801e-02
2.663124725222587585e-02 -4.180083051323890686e-02 -1.650546491146087646e-01
-9.951001405715942383e-02 4.357058182358741760e-02 4.410565197467803955e-01
-9.006413817405700684e-02 -2.129809372127056122e-02 3.558789789676666260e-01
-5.233473703265190125e-02 3.482428565621376038e-02 3.790363371372222900e-01
6.833507120609283447e-02 -4.799675941467285156e-02 -2.248321473598480225e-01
-1.494860090315341949e-02 -2.808815799653530121e-02 6.732158064842224121e-01
-8.640427887439727783e-02 -1.806495524942874908e-02 7.336919307708740234e-01
1.726219058036804199e-02 -1.006150618195533752e-02 6.851376295089721680e-01
-1.471916586160659790e-01 5.015761032700538635e-02 6.176817417144775391e-01
-1.192125827074050903e-01 3.465386107563972473e-02 9.769469499588012695e-01
-2.797987312078475952e-03 -3.642248362302780151e-02 5.314764976501464844e-01
-8.328685164451599121e-02 3.641238436102867126e-02 7.629168033599853516e-01
-1.198415011167526245e-01 -1.270153932273387909e-02 5.285583734512329102e-01
2.051077410578727722e-02 1.386887580156326294e-02 2.892035245895385742e-02
8.655536174774169922e-02 -1.101292297244071960e-02 -1.598213016986846924e-01
1.523437350988388062e-02 -3.978089429438114166e-03 -2.916440665721893311e-01
-8.266168832778930664e-02 -1.084834150969982147e-02 2.472263574600219727e-02
2.254344150424003601e-02 -4.648903384804725647e-02 2.519744038581848145e-01
-6.622569262981414795e-02 3.765650838613510132e-02 5.001725554466247559e-01
-1.650285124778747559e-01 4.110862314701080322e-02 1.027514576911926270e+00
-1.005507037043571472e-01 -1.131190732121467590e-02 1.656947284936904907e-01
-1.604332029819488525e-01 1.893965154886245728e-02 3.048779666423797607e-01
-1.715683043003082275e-01 5.143483355641365051e-02 6.797553300857543945e-01
-1.463161706924438477e-01 4.425655351951718330e-04 4.071280956268310547e-01
-1.545534729957580566e-01 5.526697495952248573e-04 7.461873292922973633e-01
-1.172893643379211426e-01 2.641171403229236603e-02 1.034099817276000977e+00
6.555534899234771729e-02 -6.729608401656150818e-03 -2.281251251697540283e-01
2.445889636874198914e-02 -4.034608229994773865e-02 4.612743556499481201e-01
-6.687685847282409668e-02 -1.379731111228466034e-03 -1.140145361423492432e-01
4.727644845843315125e-02 -7.713528815656900406e-03 5.051034092903137207e-01
3.261155262589454651e-02 -4.858065769076347351e-02 5.718538165092468262e-02
-2.976123243570327759e-03 -4.225174710154533386e-02 3.119413852691650391e-01
-9.405445307493209839e-02 4.010844603180885315e-02 7.400504350662231445e-01
-6.181829050183296204e-02 -2.656082995235919952e-02 6.103488206863403320e-01
4.311591014266014099e-02 6.373813841491937637e-03 -3.634354472160339355e-02
-1.407240331172943115e-01 4.903839901089668274e-02 7.503335475921630859e-01
-3.386560827493667603e-03 5.545507650822401047e-03 -2.158408463001251221e-01
-9.389027953147888184e-02 4.110423475503921509e-02 3.360590934753417969e-01
-7.628186047077178955e-02 -2.021746709942817688e-02 1.273027062416076660e-01
-1.411060392856597900e-01 -1.722979824990034103e-03 8.333582878112792969e-01
-1.716670393943786621e-01 3.073792904615402222e-02 3.597468733787536621e-01
4.736452177166938782e-02 -4.102744534611701965e-02 -2.702170312404632568e-01
1.293375045061111450e-01 -3.904208168387413025e-02 -8.690565824508666992e-02
-6.699344515800476074e-02 -2.635617181658744812e-02 2.126861512660980225e-01
-1.422596424818038940e-01 4.969826899468898773e-03 9.624187946319580078e-01
-7.616003602743148804e-02 3.986145555973052979e-02 4.661794006824493408e-01
9.248226881027221680e-02 -2.153830416500568390e-02 -3.183509409427642822e-01
1.056160926818847656e-01 -4.118852689862251282e-02 1.874016225337982178e-01
4.739016667008399963e-02 -4.158864729106426239e-03 4.676536917686462402e-01
-2.048339843750000000e-01 3.478406742215156555e-02 6.295295953750610352e-01
-6.937259435653686523e-02 2.124482579529285431e-02 9.089649915695190430e-01
-8.237397670745849609e-02 4.066289588809013367e-02 4.051501452922821045e-01
1.977220550179481506e-02 -3.460745140910148621e-02 5.583685040473937988e-01
9.600553661584854126e-03 2.047367859631776810e-03 6.668312549591064453e-01
-2.314644679427146912e-02 -1.324152387678623199e-02 8.127501010894775391e-01
2.942606806755065918e-04 -3.989633172750473022e-02 4.444307684898376465e-01
-2.051992267370223999e-01 4.448579624295234680e-02 6.782846450805664062e-01
-1.793547533452510834e-02 -3.914784267544746399e-02 1.428192108869552612e-01
-1.082597225904464722e-01 4.276249557733535767e-02 7.657825946807861328e-01
1.229377463459968567e-02 -4.547194391489028931e-02 1.241243928670883179e-01
2.964899316430091858e-02 -4.822997748851776123e-02 7.766065001487731934e-02
6.467968225479125977e-03 1.143394596874713898e-02 -1.228927373886108398e-01
3.863621130585670471e-02 -4.939363896846771240e-02 1.501525640487670898e-01
-1.483172029256820679e-01 4.059720411896705627e-02 9.987906217575073242e-01
7.512712478637695312e-02 -6.625657901167869568e-03 2.090529948472976685e-01
-1.681238710880279541e-01 1.976558752357959747e-02 1.047229766845703125e+00
-1.130254119634628296e-01 4.372552409768104553e-02 3.749557137489318848e-01
-5.850341916084289551e-02 1.033791713416576385e-02 9.275501966476440430e-01
-1.673963367938995361e-01 6.574441678822040558e-03 8.162686824798583984e-01
-2.066911160945892334e-01 2.857207693159580231e-02 8.988164663314819336e-01
-7.443259656429290771e-02 3.505119681358337402e-02 7.302809953689575195e-01
-1.263518035411834717e-01 9.150361642241477966e-03 1.030842185020446777e+00
6.668564677238464355e-02 -5.184780806303024292e-02 -8.215150237083435059e-02
1.121568381786346436e-01 -5.207363516092300415e-02 -1.482186615467071533e-01
-4.725106433033943176e-02 -3.328965231776237488e-02 3.562912344932556152e-01
-1.120972037315368652e-01 4.274568334221839905e-02 3.425208926200866699e-01
-6.008289009332656860e-02 2.821752242743968964e-02 6.062045693397521973e-02
-8.859654515981674194e-02 3.276000544428825378e-02 8.681873083114624023e-01
-1.749058961868286133e-01 1.065461151301860809e-02 8.618465662002563477e-01
-1.597918868064880371e-01 4.567872732877731323e-02 9.522980451583862305e-01
6.069147214293479919e-02 1.729155890643596649e-03 9.407097101211547852e-02
-1.417242288589477539e-01 7.504476699978113174e-03 2.486102283000946045e-01
8.165697753429412842e-02 -1.005570404231548309e-02 -1.867861449718475342e-01
-2.797083556652069092e-02 -3.375463560223579407e-02 2.927473187446594238e-02
-3.156878426671028137e-02 2.798637561500072479e-02 5.249141454696655273e-01
-1.045541241765022278e-01 4.479802772402763367e-02 5.020111203193664551e-01
-9.676636010408401489e-02 -1.859281584620475769e-02 3.305890858173370361e-01
-1.635023020207881927e-02 -3.898631036281585693e-02 1.064433157444000244e-01
-1.659606844186782837e-01 5.062918365001678467e-02 6.144402027130126953e-01
9.208360314369201660e-02 -1.687880232930183411e-02 2.040136158466339111e-01
9.013684093952178955e-02 -4.865609109401702881e-02 -2.663066089153289795e-01
-2.032520622014999390e-01 2.521824277937412262e-02 7.334492206573486328e-01
-5.313516408205032349e-02 2.839235588908195496e-02 7.237303853034973145e-01
-1.022782623767852783e-01 4.371457546949386597e-02 6.612430810928344727e-01
-1.635436117649078369e-01 5.143849179148674011e-02 7.233008146286010742e-01
-7.926250994205474854e-02 3.474675491452217102e-02 1.748793423175811768e-01
-1.336952596902847290e-01 4.058911651372909546e-02 2.983038425445556641e-01
-8.528956025838851929e-02 -2.233313769102096558e-02 5.783866643905639648e-01
4.135072231292724609e-06 -3.591618686914443970e-02 -1.275638043880462646e-01
-1.866209320724010468e-02 2.052943967282772064e-02 6.129467487335205078e-01
-1.958893984556198120e-02 2.653843536972999573e-02 3.897840678691864014e-01
7.968704402446746826e-02 -4.259364306926727295e-02 3.116534948348999023e-01
-1.181982606649398804e-01 -1.217404007911682129e-02 4.138900637626647949e-01
-4.696652293205261230e-03 2.129030786454677582e-02 4.288313090801239014e-01
-1.975577324628829956e-02 -3.550995886325836182e-02 6.480932235717773438e-03
-6.847903132438659668e-02 -6.649281363934278488e-03 9.163246154785156250e-01
-1.494837924838066101e-02 -4.034174233675003052e-02 2.954852581024169922e-01
-3.634515777230262756e-02 -3.078884817659854889e-02 5.975583195686340332e-01
-4.076320677995681763e-03 1.676951721310615540e-02 -4.639169573783874512e-02
2.753065153956413269e-02 9.112409316003322601e-04 -2.368901669979095459e-01
-2.442006208002567291e-02 2.011231891810894012e-02 -3.616312146186828613e-02
-1.687953919172286987e-01 4.572829604148864746e-02 9.723898172378540039e-01
-1.020956933498382568e-01 4.430562630295753479e-02 6.052981615066528320e-01
1.112459897994995117e-01 -3.513912111520767212e-02 -3.379243314266204834e-01
-1.809784770011901855e-01 3.017660602927207947e-02 1.069274187088012695e+00
-3.884828463196754456e-02 2.886698581278324127e-02 1.415825337171554565e-01
-5.253576487302780151e-02 -3.199446573853492737e-02 3.755147457122802734e-01
-8.968438208103179932e-02 -1.515238732099533081e-02 7.890431880950927734e-01
-1.591524668037891388e-02 2.043333649635314941e-02 -3.455013036727905273e-03
-6.474982202053070068e-02 -1.252063922584056854e-02 -6.423497200012207031e-02
5.094430968165397644e-02 -2.090299129486083984e-02 5.390061736106872559e-01
-1.867430508136749268e-01 4.379931837320327759e-02 1.013137340545654297e+00
1.257511675357818604e-01 -4.674224555492401123e-02 -6.090873479843139648e-02
-1.591541767120361328e-01 1.169037260115146637e-02 3.510120213031768799e-01
7.582330703735351562e-02 -3.741576150059700012e-02 -3.671656548976898193e-01
-9.930540621280670166e-02 -1.212334726005792618e-03 3.873893618583679199e-02
-3.850162401795387268e-02 2.388941589742898941e-03 -1.979338824748992920e-01
-1.336535513401031494e-01 -2.930349204689264297e-03 8.553771972656250000e-01
-6.246360391378402710e-02 2.593149617314338684e-02 8.254297971725463867e-01
-7.477822154760360718e-02 -2.569648809731006622e-02 3.188018798828125000e-01
1.137737780809402466e-01 -2.340117283165454865e-02 -4.973432421684265137e-02
-1.551776081323623657e-01 4.963607713580131531e-02 8.215404152870178223e-01
-9.310507029294967651e-02 -1.208443753421306610e-02 8.377362489700317383e-01
-8.693598210811614990e-03 -2.614879049360752106e-02 6.925139427185058594e-01
-7.180279493331909180e-02 3.088071197271347046e-02 1.001507341861724854e-01
-5.314467102289199829e-02 -5.997173488140106201e-03 -1.541513502597808838e-01
-6.522537022829055786e-02 -2.317845076322555542e-02 6.935228109359741211e-01
-1.415645182132720947e-01 4.109894391149282455e-03 2.865481674671173096e-01
6.418837606906890869e-02 -4.226841032505035400e-02 3.679525256156921387e-01
-1.893835216760635376e-01 2.424235455691814423e-02 5.196828842163085938e-01
-3.758408129215240479e-03 2.176881767809391022e-02 3.840260207653045654e-01
-1.301830708980560303e-01 4.130142927169799805e-02 9.267941713333129883e-01
1.000366359949111938e-01 -1.628569699823856354e-02 4.834976792335510254e-02
3.506165370345115662e-02 1.032824628055095673e-02 2.375100106000900269e-01
1.507939770817756653e-02 1.701998338103294373e-02 2.573890686035156250e-01
-1.924678683280944824e-01 2.137137763202190399e-02 5.984577536582946777e-01
-3.019741550087928772e-02 -3.549348190426826477e-02 1.171667277812957764e-01
-7.152121514081954956e-02 2.568798325955867767e-02 1.816636323928833008e-02
-3.461983427405357361e-02 -3.587029129266738892e-02 2.197833061218261719e-01
-1.490273475646972656e-01 4.727115854620933533e-02 8.766560554504394531e-01
1.214216649532318115e-02 -3.731571510434150696e-02 5.212880373001098633e-01
-1.368647962808609009e-01 -6.727750413119792938e-03 6.386151313781738281e-01
-1.899500042200088501e-01 5.038542300462722778e-02 8.706933259963989258e-01
-1.375834345817565918e-01 3.359025344252586365e-02 2.221242487430572510e-01
-4.056552425026893616e-02 2.968825399875640869e-02 5.707139968872070312e-01
-9.664694964885711670e-02 -1.843746379017829895e-02 6.428360939025878906e-01
7.303318381309509277e-02 -4.683290794491767883e-02 2.707206606864929199e-01
5.846913531422615051e-02 -1.014498062431812286e-02 -3.031506240367889404e-01
-6.085591390728950500e-02 3.654564544558525085e-02 4.815813302993774414e-01
-6.836060434579849243e-03 -3.399144858121871948e-02 5.784088969230651855e-01
-9.418278932571411133e-02 -1.816336996853351593e-02 6.799656152725219727e-01
-1.679143160581588745e-01 5.905215162783861160e-03 6.192089915275573730e-01
2.632956579327583313e-02 -1.021056808531284332e-02 6.428402662277221680e-01
-6.487967818975448608e-02 -2.649168111383914948e-02 1.890555918216705322e-01
-7.651524245738983154e-02 -2.698201220482587814e-03 9.477596282958984375e-01
-4.689757525920867920e-02 3.218591213226318359e-02 2.282979488372802734e-01
3.365598991513252258e-02 -3.985233232378959656e-02 -2.337509095668792725e-01
-1.321966350078582764e-01 -7.776861079037189484e-03 6.891072988510131836e-01
8.490438759326934814e-02 -9.002417325973510742e-03 -9.973567724227905273e-02
1.007041931152343750e-01 -3.721294552087783813e-02 2.389406859874725342e-01
-1.109765022993087769e-01 -1.550152897834777832e-02 4.809005260467529297e-01
-1.281395703554153442e-01 3.750345855951309204e-02 2.412117719650268555e-01
1.037782281637191772e-01 -5.170560255646705627e-02 3.410091996192932129e-02
-6.112805753946304321e-02 2.682269364595413208e-02 8.048556447029113770e-01
5.882947519421577454e-02 -2.326550893485546112e-02 4.996632933616638184e-01
1.670028269290924072e-02 1.631335355341434479e-02 2.799654006958007812e-01
1.699950546026229858e-03 -3.397030010819435120e-02 -1.698999702930450439e-01
-1.218251734972000122e-01 3.603274747729301453e-02 2.095322161912918091e-01
-1.793288886547088623e-01 5.171089991927146912e-02 7.597301006317138672e-01
1.130171716213226318e-01 -5.017986148595809937e-02 1.390078663825988770e-02
-5.443111807107925415e-02 -2.293396927416324615e-02 1.602083444595336914e-03
1.105200052261352539e-01 -2.776161767542362213e-02 1.241958290338516235e-01
-8.448085188865661621e-02 -2.162661217153072357e-02 6.261022686958312988e-01
-5.363875627517700195e-02 2.225077152252197266e-02 -3.137195110321044922e-02
-1.870151907205581665e-01 4.424804076552391052e-02 5.351813435554504395e-01
-5.836816132068634033e-02 -3.017024695873260498e-02 4.532530903816223145e-01
9.486047923564910889e-02 -5.120490863919258118e-02 9.712487459182739258e-02
-1.613459289073944092e-01 3.059962298721075058e-03 6.001271009445190430e-01
-1.346118003129959106e-01 1.206075306981801987e-03 9.321150779724121094e-01
-1.656017154455184937e-01 4.481947980821132660e-03 7.000149488449096680e-01
3.848810866475105286e-02 -4.117141664028167725e-02 4.361746907234191895e-01
4.931998625397682190e-02 4.978609737008810043e-03 -1.198837161064147949e-02
5.769462510943412781e-02 -4.437693953514099121e-02 -2.563150823116302490e-01
-2.357627078890800476e-02 1.334038004279136658e-02 7.556440234184265137e-01
-1.249151378870010376e-01 4.753644019365310669e-02 5.319443345069885254e-01
7.421417534351348877e-02 -5.908376071602106094e-03 -1.387656033039093018e-01
-1.119136959314346313e-01 -1.527606695890426636e-02 5.019619464874267578e-01
-1.464430689811706543e-01 2.125613158568739891e-03 8.926349878311157227e-01
-1.658501923084259033e-01 4.579295404255390167e-03 6.739959716796875000e-01
-1.409441083669662476e-01 1.863432675600051880e-02 1.857724636793136597e-01
2.979402616620063782e-02 -4.678798094391822815e-02 2.770218253135681152e-01
-7.486872375011444092e-02 -1.241274178028106689e-02 8.622611761093139648e-01
-1.447710096836090088e-01 5.012560635805130005e-02 6.660932302474975586e-01
-8.687835931777954102e-02 1.352742314338684082e-02 -4.167199134826660156e-02
2.023182809352874756e-03 1.355166174471378326e-02 5.753027200698852539e-01
-5.344652757048606873e-02 3.399116918444633484e-02 5.430995821952819824e-01
-1.635561883449554443e-02 -2.955236844718456268e-02 6.517803668975830078e-01
1.072264760732650757e-01 -2.202523127198219299e-02 -2.192648947238922119e-01
-2.292934060096740723e-02 2.441832050681114197e-02 5.519036054611206055e-01
-1.869042366743087769e-01 1.460166648030281067e-02 7.678655385971069336e-01
1.196110248565673828e-01 -4.544615000486373901e-02 3.909701108932495117e-02
5.339456722140312195e-02 -4.348603077232837677e-03 -2.414334118366241455e-01
-1.332656890153884888e-01 4.356714710593223572e-02 8.961540460586547852e-01
1.045069843530654907e-01 -5.103003606200218201e-02 -2.200863063335418701e-01
1.214331015944480896e-02 -3.410230949521064758e-02 -2.189206779003143311e-01
-1.273741573095321655e-01 -7.202783599495887756e-03 3.645595014095306396e-01
-3.753796592354774475e-02 3.105236217379570007e-02 2.791957259178161621e-01
-1.591147482395172119e-01 5.092839524149894714e-02 7.625907659530639648e-01
-1.480441838502883911e-01 9.968446567654609680e-03 1.007654666900634766e+00
-1.183923035860061646e-01 4.692762717604637146e-02 5.505168437957763672e-01
-2.016804516315460205e-01 4.100912064313888550e-02 6.095972061157226562e-01
-9.042513370513916016e-02 4.237611591815948486e-02 5.628942251205444336e-01
8.323831856250762939e-02 -7.628583814948797226e-03 5.691561102867126465e-02
3.285359218716621399e-02 -4.816870763897895813e-02 2.107503861188888550e-01
-1.403416842222213745e-01 4.649402946233749390e-02 8.568669557571411133e-01
-1.343340277671813965e-01 3.306013345718383789e-02 1.035414695739746094e+00
-9.473804384469985962e-02 -3.190628951415419579e-03 9.489777088165283203e-01
-6.787332147359848022e-02 3.751376271247863770e-02 5.542925596237182617e-01
4.712882265448570251e-02 -6.523407530039548874e-03 -2.879129946231842041e-01
-1.554704010486602783e-01 2.458784729242324829e-03 4.875984191894531250e-01
-6.984125822782516479e-02 -1.821270212531089783e-02 7.838643789291381836e-01
-5.640824511647224426e-02 -2.410135045647621155e-02 3.844562172889709473e-02
-3.906491398811340332e-02 3.177249804139137268e-02 3.483990132808685303e-01
3.146642073988914490e-02 1.169510930776596069e-02 8.809480071067810059e-02
1.988957077264785767e-02 9.984608739614486694e-03 -1.026857197284698486e-01
5.066567286849021912e-02 -4.680196940898895264e-02 -1.775074303150177002e-01
-4.283819347620010376e-03 -2.288511022925376892e-02 7.161478996276855469e-01
8.587127923965454102e-02 -5.125751346349716187e-02 1.270208209753036499e-01
-8.465129137039184570e-02 -1.980994455516338348e-02 2.039464712142944336e-01
-1.252132803201675415e-01 1.602747244760394096e-03 9.639230966567993164e-01
4.748191311955451965e-02 6.434899289160966873e-03 1.598006337881088257e-01
-1.564455628395080566e-01 4.908456280827522278e-02 5.346181392669677734e-01
-3.956874087452888489e-02 -2.862499654293060303e-02 6.419585943222045898e-01
-1.651232242584228516e-01 5.566607229411602020e-03 5.580950379371643066e-01
-1.804102212190628052e-01 2.592559903860092163e-02 4.250939488410949707e-01
1.215690523386001587e-01 -4.686057195067405701e-02 -1.552224159240722656e-03
3.436486795544624329e-02 5.117424763739109039e-03 4.374938905239105225e-01
2.369482442736625671e-02 -1.355982199311256409e-02 -3.382582962512969971e-01
-1.698074787855148315e-01 8.636739104986190796e-03 5.364497900009155273e-01
-1.321116834878921509e-01 4.304326325654983521e-02 3.438683152198791504e-01
-1.365263760089874268e-01 -6.078167818486690521e-03 4.851054847240447998e-01
-1.186146140098571777e-01 -5.040744785219430923e-03 2.180775851011276245e-01
-8.067442476749420166e-02 -2.348839491605758667e-02 2.955453991889953613e-01
-1.226019263267517090e-01 -1.176425442099571228e-02 5.815862417221069336e-01
3.521717712283134460e-02 -4.277733340859413147e-02 4.077455401420593262e-01
1.024248003959655762e-01 -5.075282976031303406e-02 7.305043935775756836e-02
-1.892606317996978760e-01 4.807168617844581604e-02 9.451820850372314453e-01
1.236405372619628906e-01 -4.826941713690757751e-02 -2.045910060405731201e-01
-1.086480766534805298e-01 4.457090422511100769e-02 6.882170438766479492e-01
2.322494611144065857e-02 -3.874462470412254333e-02 4.919043183326721191e-01
6.613133847713470459e-02 -5.073301494121551514e-02 1.743142753839492798e-01
1.716596260666847229e-02 1.653486117720603943e-02 2.012859135866165161e-01
5.272573605179786682e-02 -5.752822849899530411e-03 4.429574608802795410e-01
-2.430444210767745972e-02 2.766881696879863739e-02 4.120620787143707275e-01
-1.163929104804992676e-01 -1.036710292100906372e-02 3.119263052940368652e-01
1.149333417415618896e-01 -2.920094132423400879e-02 8.095332980155944824e-02
1.104990392923355103e-01 -4.618428647518157959e-02 -3.006928265094757080e-01
2.311862632632255554e-02 1.227328926324844360e-02 -1.220354437828063965e-02
3.568132594227790833e-02 -3.111681900918483734e-02 -3.289854824542999268e-01
-3.273762762546539307e-03 2.246777154505252838e-02 2.318683415651321411e-01
-1.026647984981536865e-01 4.421059787273406982e-02 6.278262138366699219e-01
6.692661345005035400e-02 -3.908155485987663269e-02 3.956525027751922607e-01
-1.967404335737228394e-01 2.772510796785354614e-02 9.979594945907592773e-01
-1.963268518447875977e-01 3.592337667942047119e-02 1.038226246833801270e+00
-2.119317278265953064e-02 1.556805148720741272e-02 7.155096530914306641e-01
7.543340325355529785e-02 -8.614325895905494690e-03 -2.043669521808624268e-01
-1.228568553924560547e-01 4.683210328221321106e-02 7.116913795471191406e-01
2.959590032696723938e-02 -4.645691066980361938e-02 -4.944449663162231445e-02
-1.541533917188644409e-01 4.770258069038391113e-02 4.850403666496276855e-01
5.671485140919685364e-02 -4.698874428868293762e-02 -2.014534175395965576e-01
-2.844869345426559448e-02 -3.725177422165870667e-02 2.030071765184402466e-01
2.432193979620933533e-02 -4.244698584079742432e-02 -1.372254788875579834e-01
-2.113931924104690552e-01 3.169637173414230347e-02 8.053687810897827148e-01
-8.756196498870849609e-02 3.571233153343200684e-02 8.087200522422790527e-01
-1.532569378614425659e-01 4.297897964715957642e-02 3.798171281814575195e-01
-2.551542781293392181e-02 -3.826497495174407959e-02 2.685177326202392578e-01
-1.234276294708251953e-01 3.931508213281631470e-02 2.620278298854827881e-01
-3.164596855640411377e-04 -4.076718538999557495e-02 4.653334617614746094e-04
-7.179969549179077148e-02 -2.383036725223064423e-02 6.420160531997680664e-01
-1.224191635847091675e-01 3.338210284709930420e-02 1.789852082729339600e-01
3.101358190178871155e-02 -2.184157446026802063e-02 6.239892840385437012e-01
-1.863751187920570374e-02 2.433580812066793442e-03 8.054710626602172852e-01
-1.388812512159347534e-01 9.588692337274551392e-04 3.095980286598205566e-01
-1.995623111724853516e-01 4.921633005142211914e-02 7.344352602958679199e-01
9.988225996494293213e-02 -5.315859988331794739e-02 -2.066987752914428711e-02
-2.404123917222023010e-02 1.975553855299949646e-02 6.718187332153320312e-01
1.689036935567855835e-02 -4.525483772158622742e-02 2.231270074844360352e-02
3.153454512357711792e-03 1.904785260558128357e-02 4.061062932014465332e-01
-3.529135510325431824e-02 2.292286977171897888e-02 6.986024975776672363e-01
-1.822294443845748901e-01 5.141805112361907959e-02 7.157077193260192871e-01
-7.779160141944885254e-02 3.931457176804542542e-02 5.953782200813293457e-01
-6.977576762437820435e-03 2.186860144138336182e-02 1.026355773210525513e-01
-5.408202856779098511e-02 -2.776389010250568390e-02 1.069386601448059082e-01
2.902246639132499695e-02 9.045405313372612000e-03 4.020275771617889404e-01
2.774972096085548401e-02 -2.478213049471378326e-03 5.923839211463928223e-01
-9.671166539192199707e-02 3.440661355853080750e-02 1.579647511243820190e-01
-9.424483776092529297e-02 1.312736421823501587e-02 -1.859897375106811523e-02
-7.261000573635101318e-03 -3.235237672924995422e-02 -1.460981070995330811e-01
-2.995790168642997742e-02 2.804748527705669403e-02 1.754015684127807617e-01
9.315691888332366943e-03 1.594145409762859344e-02 4.397784471511840820e-01
5.087974295020103455e-02 -3.408729657530784607e-02 -3.466065227985382080e-01
6.262719631195068359e-02 -1.098920404911041260e-02 4.194786250591278076e-01
4.298332706093788147e-02 -1.399586349725723267e-02 -3.493081033229827881e-01
-1.249737739562988281e-01 4.762694612145423889e-02 6.730739474296569824e-01
-1.086038798093795776e-01 -1.478900946676731110e-02 3.587805032730102539e-01
-6.755065172910690308e-02 -1.809194870293140411e-02 1.739048957824707031e-02
-1.748755276203155518e-01 1.690487191081047058e-02 4.431269764900207520e-01
-1.183645427227020264e-01 -8.512498810887336731e-03 8.094433546066284180e-01
3.641631826758384705e-02 1.028219051659107208e-02 1.845780313014984131e-01
-5.393267050385475159e-02 2.599356137216091156e-02 2.621030807495117188e-02
-2.090977579355239868e-01 4.719292372465133667e-02 8.315054178237915039e-01
-5.649064108729362488e-02 -1.342535391449928284e-02 -9.970223903656005859e-02
1.890421286225318909e-02 -4.231876134872436523e-02 -1.056416928768157959e-01
-4.496030509471893311e-02 -3.092250972986221313e-02 5.556110143661499023e-01
-4.946139827370643616e-02 1.413007825613021851e-02 8.763353824615478516e-01
-1.021534726023674011e-01 4.280295968055725098e-02 7.096669673919677734e-01
-1.673686690628528595e-02 2.599539607763290405e-02 2.436018288135528564e-01
-1.845927238464355469e-01 1.842046715319156647e-02 9.556719064712524414e-01
3.095487877726554871e-02 -4.753428325057029724e-02 -8.269131183624267578e-03
-1.329551190137863159e-01 4.573239013552665710e-02 8.387609720230102539e-01
4.049351438879966736e-02 -4.582966491580009460e-02 -1.478641629219055176e-01
2.174327149987220764e-02 1.179254055023193359e-02 -4.128780961036682129e-02
-1.155633777379989624e-01 -1.323960907757282257e-02 6.549586057662963867e-01
-6.410597264766693115e-02 3.740897029638290405e-02 4.404310584068298340e-01
1.175758615136146545e-02 -3.353737294673919678e-02 5.818282365798950195e-01
-1.190605610609054565e-01 2.123524807393550873e-02 8.928593993186950684e-02
3.291172161698341370e-02 -3.461113944649696350e-02 -2.938015162944793701e-01
-1.120520234107971191e-01 4.064253345131874084e-02 2.840300798416137695e-01
-8.758011460304260254e-02 -1.717618294060230255e-02 7.509860992431640625e-01
6.620405614376068115e-02 -5.145126581192016602e-02 1.401028037071228027e-01
-4.905518144369125366e-02 -2.948149107396602631e-02 5.834864377975463867e-01
-1.749687790870666504e-01 2.330970019102096558e-02 3.927975594997406006e-01
1.022819131612777710e-01 -2.307955175638198853e-02 1.706845015287399292e-01
-1.585450917482376099e-01 2.973614633083343506e-02 2.852785289287567139e-01
1.185520142316818237e-01 -5.099366977810859680e-02 -1.036599278450012207e-01
6.519359350204467773e-02 -4.401369392871856689e-02 -2.854679524898529053e-01
6.046589463949203491e-03 1.645297557115554810e-02 -2.011209726333618164e-03
-1.200179457664489746e-01 -1.266792416572570801e-02 5.500420928001403809e-01
-1.380896270275115967e-01 -9.903695899993181229e-04 3.386843204498291016e-01
-2.041283100843429565e-01 2.743736840784549713e-02 9.191752672195434570e-01
-5.075516551733016968e-02 -3.091069683432579041e-02 5.121133923530578613e-01
-1.636354476213455200e-01 4.675091709941625595e-03 7.930388450622558594e-01
-8.745531737804412842e-02 9.100129827857017517e-03 1.001907348632812500e+00
3.723349422216415405e-03 -2.721073850989341736e-02 6.650652885437011719e-01
4.275421425700187683e-02 -2.278986014425754547e-02 -3.685336410999298096e-01
4.955753684043884277e-03 -5.032478831708431244e-03 7.281962633132934570e-01
8.662228286266326904e-02 -3.196926042437553406e-02 3.402207493782043457e-01
-1.955671906471252441e-01 2.905324473977088928e-02 5.499305129051208496e-01
-5.906149744987487793e-02 3.502999991178512573e-02 2.706844508647918701e-01
-1.495098322629928589e-01 1.158450543880462646e-02 2.720265984535217285e-01
1.784358173608779907e-02 -4.343192279338836670e-02 -6.492170691490173340e-02
3.951735794544219971e-03 -3.886546939611434937e-02 4.820820689201354980e-01
5.495439842343330383e-02 -4.986564442515373230e-02 2.032029777765274048e-01
8.659232407808303833e-03 -4.454879835247993469e-02 9.580850601196289062e-02
-2.566725015640258789e-02 -3.772791475057601929e-02 3.702870905399322510e-01
-9.773163497447967529e-02 4.381265118718147278e-02 5.271655917167663574e-01
-1.255282610654830933e-01 -1.021941192448139191e-02 4.702585935592651367e-01
7.111570239067077637e-02 -2.314004581421613693e-03 3.761178255081176758e-02
-1.274722963571548462e-01 4.811120778322219849e-02 5.719013810157775879e-01
7.305574417114257812e-02 -4.186335578560829163e-02 3.447656035423278809e-01
4.972008243203163147e-02 1.629740931093692780e-03 -1.369041502475738525e-01
9.364441037178039551e-02 -4.300539195537567139e-02 -3.415124714374542236e-01
-1.636402457952499390e-01 5.143880471587181091e-02 7.021144032478332520e-01
-1.153327971696853638e-01 2.988578006625175476e-02 1.007741332054138184e+00
-5.840695649385452271e-02 -2.539979107677936554e-02 6.625232100486755371e-01
9.907200932502746582e-02 -5.313944071531295776e-02 -1.282110810279846191e-01
-6.420351564884185791e-02 2.429683133959770203e-02 -2.836495637893676758e-03
3.167387098073959351e-03 -3.811353072524070740e-02 4.995458722114562988e-01
-7.661117613315582275e-02 3.259522095322608948e-02 1.300260424613952637e-01
8.458451926708221436e-02 -5.075147375464439392e-02 1.468165963888168335e-01
7.390025258064270020e-02 -4.550150595605373383e-03 -8.549168705940246582e-02
-1.697383671998977661e-01 1.152125187218189240e-02 4.655287861824035645e-01
-1.179089695215225220e-01 4.694838821887969971e-02 5.961204767227172852e-01
4.842720553278923035e-02 -4.830531775951385498e-02 2.584105730056762695e-01
-1.289567910134792328e-02 1.730808243155479431e-02 -6.338077783584594727e-02
-1.383489072322845459e-01 1.011970452964305878e-02 2.031773924827575684e-01
-4.801199957728385925e-02 2.921827509999275208e-02 1.101387143135070801e-01
-7.896240055561065674e-02 2.131481841206550598e-02 -1.880571246147155762e-02
-1.491900384426116943e-01 5.779253551736474037e-04 4.453121125698089600e-01
-2.456301078200340271e-02 2.653174288570880890e-02 1.520785838365554810e-01
6.079093739390373230e-02 -5.204031988978385925e-02 5.837380886077880859e-02
-1.059801280498504639e-01 2.881461009383201599e-02 9.864737987518310547e-01
-5.135580524802207947e-02 -2.943973988294601440e-02 1.317618936300277710e-01
1.289291679859161377e-02 5.582904443144798279e-03 6.109735369682312012e-01
-1.756191849708557129e-01 1.358414255082607269e-02 5.028268098831176758e-01
4.238073900341987610e-02 -2.450191229581832886e-02 5.729384422302246094e-01
-1.188276410102844238e-01 -3.931301762349903584e-04 1.573866009712219238e-01
-2.597863785922527313e-02 2.627271041274070740e-02 1.277735084295272827e-01
7.759088277816772461e-02 -3.502334654331207275e-02 3.800303637981414795e-01
-3.560857474803924561e-02 2.601205185055732727e-02 6.343832015991210938e-01
1.575526222586631775e-02 7.898658514022827148e-03 5.577025413513183594e-01
1.073355674743652344e-01 -1.971372216939926147e-02 -1.263856291770935059e-01
-4.491112381219863892e-02 2.610723674297332764e-02 4.229688644409179688e-02
-1.146948486566543579e-01 -1.376881636679172516e-02 4.327057600021362305e-01
-6.120199710130691528e-02 3.339374437928199768e-02 1.872672438621520996e-01
1.303900629281997681e-01 -4.258942976593971252e-02 -1.259142160415649414e-01
1.204586774110794067e-02 -4.455056041479110718e-02 4.174655675888061523e-02
4.913941025733947754e-02 2.340218424797058105e-02 -5.489863157272338867e-01
4.672817885875701904e-03 -5.681592226028442383e-02 -3.797818124294281006e-01
-1.758908033370971680e-01 -4.210126586258411407e-03 -8.530931472778320312e-01
-2.422197759151458740e-01 2.515578269958496094e-02 -8.041919469833374023e-01
-1.719544231891632080e-01 -1.666855439543724060e-02 -7.559449672698974609e-01
-1.283462047576904297e-01 6.619012914597988129e-03 -4.198947250843048096e-01
-1.208963990211486816e-01 -2.851274237036705017e-02 -2.528702616691589355e-01
1.707409918308258057e-01 -3.177984431385993958e-02 -9.744220972061157227e-02
1.572045385837554932e-01 -1.135231554508209229e-02 -3.693280220031738281e-01
8.437335491180419922e-03 -4.920532926917076111e-02 -4.593681693077087402e-01
5.612179636955261230e-02 -7.124642282724380493e-02 -2.095893025398254395e-02
8.677218854427337646e-02 -9.516689926385879517e-03 -1.852062344551086426e-01
4.413250088691711426e-02 2.403239160776138306e-02 -7.003379464149475098e-01
-2.609104104340076447e-02 -4.522000625729560852e-02 -6.757563352584838867e-02
8.836109936237335205e-02 -3.953251056373119354e-03 -2.345451563596725464e-01
1.354278028011322021e-01 -6.673724949359893799e-02 -9.987246990203857422e-02
-1.978870034217834473e-01 -2.569370716810226440e-02 -5.679231286048889160e-01
1.683613955974578857e-01 -3.271783515810966492e-02 -3.149717450141906738e-01
-1.509690582752227783e-01 -2.035683020949363708e-02 -3.334598839282989502e-01
-4.884295165538787842e-02 3.566988930106163025e-02 -8.923597335815429688e-01
4.279943555593490601e-02 -6.706307083368301392e-02 -2.237159311771392822e-01
-5.200815945863723755e-02 -4.074687883257865906e-02 -5.641839504241943359e-01
-2.104798555374145508e-01 -2.056811377406120300e-02 -5.956329107284545898e-01
-1.331027746200561523e-01 2.901565283536911011e-02 -6.047642827033996582e-01
-2.452595345675945282e-02 -4.833706840872764587e-02 -4.825910925865173340e-01
6.659847497940063477e-02 -1.547240931540727615e-02 -1.373145282268524170e-01
1.089899763464927673e-01 -1.750678941607475281e-02 -5.384133458137512207e-01
1.337662935256958008e-01 -5.812806542962789536e-03 -4.851222038269042969e-01
-7.988167554140090942e-02 -1.146041695028543472e-02 -2.542812228202819824e-01
1.098274365067481995e-01 -3.647011518478393555e-02 -1.382020115852355957e-02
-7.615106180310249329e-03 2.107848599553108215e-02 -4.565570950508117676e-01
8.376336842775344849e-02 -1.756493933498859406e-03 -6.381736993789672852e-01
-1.473439633846282959e-01 -8.869642391800880432e-03 -3.655368387699127197e-01
-1.133627295494079590e-01 -3.311136364936828613e-02 -6.336585879325866699e-01
-1.693203151226043701e-01 -3.270306065678596497e-02 -5.680782198905944824e-01
-1.288962960243225098e-01 -4.364881664514541626e-02 -4.830231070518493652e-01
-5.796680599451065063e-02 2.193959057331085205e-02 -9.174772500991821289e-01
4.483120888471603394e-02 5.318402312695980072e-03 -3.031641244888305664e-01
-3.756777569651603699e-02 3.985897451639175415e-02 -7.731438875198364258e-01
3.002359718084335327e-02 2.554973587393760681e-02 -5.453839898109436035e-01
5.421888083219528198e-03 1.917309314012527466e-02 -4.370762705802917480e-01
8.122486621141433716e-02 1.541225705295801163e-02 -4.773319363594055176e-01
-8.285813033580780029e-02 -5.046159774065017700e-02 -4.440078139305114746e-01
-9.404231607913970947e-02 -1.596130430698394775e-02 -7.749482393264770508e-01
-1.465971022844314575e-01 4.638180509209632874e-02 -8.939622640609741211e-01
-1.300758123397827148e-01 -8.564889430999755859e-03 -8.314839601516723633e-01
-1.600553393363952637e-01 -9.820474311709403992e-03 -3.858475089073181152e-01
-7.935161888599395752e-02 -5.734019912779331207e-03 -8.318014740943908691e-01
2.570523321628570557e-02 -4.678124189376831055e-02 -4.697953462600708008e-01
-3.300636261701583862e-02 3.753462061285972595e-02 -8.367732167243957520e-01
-2.195635437965393066e-01 -6.026506423950195312e-03 -5.579206943511962891e-01
3.509048372507095337e-02 1.473054569214582443e-02 -3.971536755561828613e-01
-1.303278468549251556e-02 -3.903933987021446228e-02 -5.637351274490356445e-01
9.084475785493850708e-02 1.369422022253274918e-02 -5.718397498130798340e-01
1.459883153438568115e-01 -6.689481437206268311e-02 -4.919242858886718750e-02
-2.126273810863494873e-01 1.267521362751722336e-02 -6.122287511825561523e-01
-1.964689791202545166e-01 -2.488789334893226624e-02 -4.905841350555419922e-01
-4.796956479549407959e-02 -2.461147680878639221e-02 -6.950734257698059082e-01
-1.957118511199951172e-01 -2.441614307463169098e-02 -6.182159185409545898e-01
-1.026767641305923462e-01 4.116734862327575684e-02 -9.525628089904785156e-01
2.810988947749137878e-02 -5.406356602907180786e-02 -3.979784250259399414e-01
-2.274003922939300537e-01 5.066432058811187744e-04 -8.313550949096679688e-01
-2.503176927566528320e-01 1.468345616012811661e-02 -7.715481519699096680e-01
-1.519165635108947754e-01 1.018532644957304001e-02 -4.771054685115814209e-01
1.784634292125701904e-01 -5.335961654782295227e-02 -1.280416846275329590e-01
-5.240645259618759155e-02 -6.228564679622650146e-02 -2.261309027671813965e-01
-8.278481662273406982e-02 2.747844532132148743e-02 -5.460810661315917969e-01
1.229544505476951599e-01 -7.030002027750015259e-02 -4.258406162261962891e-02
-1.663148701190948486e-01 4.384457319974899292e-02 -8.425608873367309570e-01
-2.637482061982154846e-02 2.918861433863639832e-02 -5.526280403137207031e-01
-9.477486461400985718e-02 2.840961888432502747e-02 -5.637452006340026855e-01
1.213540211319923401e-01 -6.154216825962066650e-02 -2.076396346092224121e-01
-5.659326165914535522e-02 1.520871650427579880e-02 -4.141260981559753418e-01
4.631912708282470703e-02 -5.548265203833580017e-02 2.371925115585327148e-02
1.340275704860687256e-01 -9.315090253949165344e-03 -2.337432652711868286e-01
1.686029136180877686e-01 -2.825046703219413757e-02 -1.207656562328338623e-01
-2.709442749619483948e-02 -1.643216796219348907e-02 -1.749104857444763184e-01
-7.519657164812088013e-02 4.188227280974388123e-02 -8.978472352027893066e-01
6.033495068550109863e-02 -2.108074724674224854e-02 -6.093372702598571777e-01
-1.440005451440811157e-01 -1.890929043292999268e-02 -7.526953220367431641e-01
-2.515946924686431885e-01 1.468260306864976883e-02 -8.496116399765014648e-01
1.571173071861267090e-01 -5.465647205710411072e-02 -1.989736855030059814e-01
1.442725658416748047e-01 -2.632905356585979462e-02 -9.411084651947021484e-02
-1.668332517147064209e-01 1.103781070560216904e-02 -5.068615674972534180e-01
7.980344444513320923e-02 1.559442002326250076e-02 -6.174557209014892578e-01
-1.044535636901855469e-01 -4.714693129062652588e-02 -4.691988527774810791e-01
-1.028558686375617981e-01 4.490348696708679199e-02 -8.197129964828491211e-01
4.380774497985839844e-02 -4.405550286173820496e-02 -2.081453800201416016e-03
2.374333143234252930e-02 -6.986220926046371460e-02 -5.943095684051513672e-02
4.864294826984405518e-02 -6.120060011744499207e-02 -3.030629754066467285e-01
-1.579383015632629395e-02 3.676758334040641785e-02 -7.230584025382995605e-01
6.054213643074035645e-02 -6.480001844465732574e-03 -2.035527527332305908e-01
-8.348688483238220215e-02 3.794872760772705078e-02 -9.416734576225280762e-01
7.471589744091033936e-02 8.365889079868793488e-03 -3.532201051712036133e-01
-1.264933347702026367e-01 4.368112608790397644e-02 -7.920012474060058594e-01
1.177764758467674255e-01 5.422483198344707489e-03 -4.948435723781585693e-01
-2.055753767490386963e-01 3.886754810810089111e-02 -9.878180623054504395e-01
-2.335712015628814697e-01 1.907505467534065247e-02 -7.162314653396606445e-01
-2.348164469003677368e-02 -6.579501926898956299e-02 -2.098059654235839844e-01
-1.838108003139495850e-01 3.321304544806480408e-02 -7.199214696884155273e-01
4.683557152748107910e-02 -9.058583527803421021e-03 -1.841843724250793457e-01
1.413796842098236084e-01 -3.534502349793910980e-03 -4.198712408542633057e-01
3.224298357963562012e-02 -2.666608244180679321e-02 -8.075493574142456055e-02
-2.042270638048648834e-02 -1.989539340138435364e-02 -1.511921286582946777e-01
-1.220454722642898560e-01 -3.582801297307014465e-02 -6.001342535018920898e-01
-7.312414050102233887e-02 -5.824001505970954895e-02 -3.017047941684722900e-01
-2.238734625279903412e-02 -3.561638668179512024e-02 -8.692011237144470215e-02
1.407182216644287109e-01 -5.713659524917602539e-02 -2.162446081638336182e-01
4.168815910816192627e-02 -2.031037211418151855e-02 -6.392929553985595703e-01
1.002720817923545837e-01 6.496901623904705048e-03 -3.693867623805999756e-01
-4.515658318996429443e-02 -6.447244901210069656e-03 -2.476291358470916748e-01
-2.125391066074371338e-01 4.014685004949569702e-02 -9.539719820022583008e-01
1.653447151184082031e-01 -1.658122055232524872e-02 -3.417788445949554443e-01
3.267900645732879639e-02 -6.956142932176589966e-02 -3.395494818687438965e-02
8.055667579174041748e-02 -3.109215945005416870e-02 -5.227507948875427246e-01
1.358291506767272949e-01 -7.157486863434314728e-03 -2.640606760978698730e-01
-1.846775710582733154e-01 7.259844802320003510e-03 -5.169295668601989746e-01
-3.214776515960693359e-02 -2.450237050652503967e-03 -8.119718432426452637e-01
1.402821242809295654e-01 -3.436354175209999084e-02 -3.902100324630737305e-01
-8.284012973308563232e-02 4.414621740579605103e-02 -8.181145191192626953e-01
-1.188033595681190491e-01 -4.738499969244003296e-02 -4.352646172046661377e-01
2.837315574288368225e-02 2.824201807379722595e-02 -6.036507487297058105e-01
1.261696517467498779e-01 -1.174081955105066299e-02 -1.958957612514495850e-01
1.004076823592185974e-01 4.354136995971202850e-03 -3.389327526092529297e-01
1.637925505638122559e-01 -5.324405804276466370e-02 1.672133803367614746e-02
-2.720299735665321350e-02 2.387639507651329041e-02 -4.877686202526092529e-01
1.122815683484077454e-01 -5.373634397983551025e-02 -3.046419024467468262e-01
-5.337540060281753540e-03 3.118555620312690735e-02 -5.963532328605651855e-01
-8.359055221080780029e-02 -3.994934633374214172e-02 -5.723515748977661133e-01
5.677725374698638916e-02 1.400809641927480698e-02 -4.047014117240905762e-01
-1.386089771986007690e-01 -3.566953353583812714e-03 -8.640099763870239258e-01
1.312860101461410522e-02 -3.098006546497344971e-02 -6.052224636077880859e-01
1.272536516189575195e-01 -1.557691115885972977e-02 -1.620092093944549561e-01
-1.290567815303802490e-01 4.529617726802825928e-02 -9.436707496643066406e-01
-2.099946737289428711e-01 -3.674451261758804321e-03 -8.274071216583251953e-01
1.094744130969047546e-01 -7.031849771738052368e-02 -8.936077356338500977e-02
9.784898906946182251e-02 -4.451536014676094055e-02 2.108719944953918457e-02
9.965904802083969116e-02 5.695479921996593475e-03 -5.922220349311828613e-01
-9.982955455780029297e-02 4.083371907472610474e-02 -7.264689207077026367e-01
9.819098562002182007e-02 -2.596397697925567627e-02 -7.069849967956542969e-02
-2.051388844847679138e-02 1.905415952205657959e-02 -4.355635344982147217e-01
1.344312429428100586e-01 -6.262312829494476318e-02 -1.669451892375946045e-01
-1.170260384678840637e-01 -4.961287975311279297e-02 -3.037130832672119141e-01
-1.365391910076141357e-01 -1.578174158930778503e-02 -3.185680508613586426e-01
1.947496458888053894e-02 3.022834286093711853e-02 -6.296300888061523438e-01
7.427887618541717529e-02 -6.149443984031677246e-02 -2.760244607925415039e-01
4.820354282855987549e-02 -7.005551457405090332e-02 -1.632535457611083984e-01
-7.958027720451354980e-02 1.765051111578941345e-02 -4.509750008583068848e-01
-2.900551632046699524e-02 3.258825466036796570e-02 -6.007793545722961426e-01
-1.480952799320220947e-01 2.049989625811576843e-02 -5.471165180206298828e-01
2.911975607275962830e-02 -1.757843978703022003e-02 -6.699173450469970703e-01
1.029641255736351013e-01 -6.168319284915924072e-02 -2.369429469108581543e-01
9.606128185987472534e-02 -1.669103652238845825e-02 -1.327421665191650391e-01
2.621918916702270508e-02 4.117359407246112823e-03 -2.906973958015441895e-01
1.413079723715782166e-02 -6.437658518552780151e-02 -2.378657460212707520e-02
-1.327283084392547607e-01 -4.465313255786895752e-02 -4.501509964466094971e-01
-4.482289403676986694e-02 -4.230140522122383118e-02 -5.478395223617553711e-01
-6.360992789268493652e-02 -5.979981645941734314e-02 -1.927063465118408203e-01
3.892311453819274902e-02 -1.242345198988914490e-02 -1.621128618717193604e-01
-5.415264517068862915e-02 -5.433276295661926270e-02 -4.089213311672210693e-01
-1.191101670265197754e-01 2.344142645597457886e-02 -5.372719764709472656e-01
-1.067587733268737793e-01 4.419317469000816345e-02 -7.967916131019592285e-01
-9.866789728403091431e-02 -1.594803296029567719e-03 -3.313249051570892334e-01
-1.392614468932151794e-02 -6.540154665708541870e-02 -2.427777498960494995e-01
-1.621226966381072998e-01 3.394777327775955200e-02 -6.928312778472900391e-01
-4.501883313059806824e-02 4.035132378339767456e-02 -7.548708915710449219e-01
-1.469428539276123047e-01 4.592563584446907043e-02 -8.695162534713745117e-01
1.575905829668045044e-02 -1.778189279139041901e-02 -1.378211677074432373e-01
