-5.210297703742980957e-01 -1.083225458860397339e-01 -1.008778959512710571e-01
5.289997458457946777e-01 1.165477782487869263e-01 2.225603209808468819e-03
1.008034944534301758e-01 -6.371843814849853516e-02 1.285957694053649902e-01
2.751538753509521484e-01 -5.243578553199768066e-02 2.032069303095340729e-02
-1.171091318130493164e+00 1.769841313362121582e-01 -5.433963984251022339e-02
3.142017126083374023e-02 1.929919719696044922e-01 2.406726777553558350e-01
2.841952443122863770e-01 9.046920388936996460e-02 2.162299454212188721e-01
2.509572505950927734e-01 2.219143658876419067e-01 1.235304325819015503e-01
3.949518799781799316e-01 1.177934259176254272e-01 1.624064892530441284e-01
-3.878113329410552979e-01 2.887361347675323486e-01 1.047638207674026489e-01
-6.855286359786987305e-01 2.785087823867797852e-01 -6.551416218280792236e-02
-6.581863164901733398e-01 2.525922656059265137e-01 -1.617372781038284302e-01
-1.233911216259002686e-01 -2.773210406303405762e-02 2.450968176126480103e-01
-6.933526396751403809e-01 1.414638310670852661e-01 2.914062440395355225e-01
2.176320552825927734e-01 -9.582363069057464600e-03 -1.876449882984161377e-01
-2.200962901115417480e-01 2.959824204444885254e-01 -2.670832723379135132e-02
-4.981613159179687500e-01 -1.016361415386199951e-01 -1.293285489082336426e-01
2.947031855583190918e-01 3.566279634833335876e-02 -1.991703510284423828e-01
2.597260475158691406e-01 2.364166676998138428e-01 -6.807823479175567627e-02
-4.795338511466979980e-01 -4.769782721996307373e-02 -2.386913746595382690e-01
-5.002267360687255859e-01 4.881167411804199219e-02 -3.062979876995086670e-01
-2.869117856025695801e-01 1.352016180753707886e-01 -3.055951297283172607e-01
-6.984661817550659180e-01 -1.051613539457321167e-01 -6.094357743859291077e-02
-1.154583692550659180e-01 -7.937164604663848877e-02 1.595750153064727783e-01
-7.273412942886352539e-01 -5.589582026004791260e-02 1.998885273933410645e-01
-1.966022104024887085e-01 1.170488968491554260e-01 -3.068034052848815918e-01
-8.521947860717773438e-01 -5.926263332366943359e-02 1.606741100549697876e-01
-9.822121262550354004e-02 2.858546972274780273e-01 -6.337627768516540527e-02
-1.405431330204010010e-01 -8.852860331535339355e-02 -1.467179507017135620e-01
2.863968610763549805e-01 1.656964719295501709e-01 1.875660866498947144e-01
-2.965902388095855713e-01 -1.120880693197250366e-01 8.198006451129913330e-02
-6.019034981727600098e-01 -9.410385787487030029e-02 1.385365277528762817e-01
-8.499373197555541992e-01 2.406258583068847656e-01 1.458958089351654053e-01
4.496713280677795410e-01 1.078179851174354553e-01 1.289465576410293579e-01
2.427524328231811523e-02 2.608286738395690918e-01 -1.232192218303680420e-01
-5.852666497230529785e-02 -8.442597091197967529e-02 1.311784088611602783e-01
-6.196250915527343750e-01 2.789390683174133301e-01 -9.155392646789550781e-02
-5.230550765991210938e-01 2.196423262357711792e-01 2.480837851762771606e-01
-7.781480550765991211e-01 1.313408017158508301e-01 -2.705897986888885498e-01
9.956115484237670898e-02 1.152114123106002808e-01 -2.686887979507446289e-01
-4.806582629680633545e-01 2.962022423744201660e-01 -2.198090963065624237e-02
2.502117753028869629e-01 1.842302978038787842e-01 1.846289783716201782e-01
-6.519678235054016113e-01 1.490546762943267822e-01 2.930977344512939453e-01
-9.811695814132690430e-01 1.415945887565612793e-01 -2.136544585227966309e-01
4.232981801033020020e-02 2.131551206111907959e-01 -2.120966613292694092e-01
-1.995647400617599487e-01 9.378872811794281006e-03 2.859077751636505127e-01
-2.834606170654296875e-01 -9.327232837677001953e-04 -2.845596969127655029e-01
1.760304570198059082e-01 1.620781123638153076e-01 2.295234650373458862e-01
-5.768376588821411133e-01 -1.126782447099685669e-01 -6.426294147968292236e-02
-1.021930873394012451e-01 1.155109554529190063e-01 -2.993419170379638672e-01
-3.905847072601318359e-01 2.502217590808868408e-01 -1.977369040250778198e-01
8.514046669006347656e-03 1.380667090415954590e-02 -2.642964720726013184e-01
-9.032758474349975586e-01 2.509106099605560303e-01 -5.860332772135734558e-02
-8.270627260208129883e-01 2.652848064899444580e-01 -4.353361204266548157e-02
-1.058388471603393555e+00 -5.157978832721710205e-02 -3.740002959966659546e-02
-5.605063438415527344e-01 2.978041768074035645e-03 2.849308252334594727e-01
-2.432248592376708984e-01 5.033066496253013611e-02 3.088630437850952148e-01
-5.453654527664184570e-01 -8.567485213279724121e-02 -1.684899777173995972e-01
-8.918843269348144531e-01 -8.401930332183837891e-02 5.317787453532218933e-02
-4.281390607357025146e-01 -7.364490628242492676e-02 1.999108642339706421e-01
-6.765758991241455078e-01 1.701247692108154297e-02 2.831394970417022705e-01
-1.703909784555435181e-01 -1.098830252885818481e-01 6.007412448525428772e-02
-3.355806469917297363e-01 -1.181002408266067505e-01 4.568508267402648926e-02
4.500162601470947266e-02 7.929955422878265381e-02 2.799882590770721436e-01
-5.713005661964416504e-01 2.654387354850769043e-01 1.624013483524322510e-01
-8.935442566871643066e-01 2.528133988380432129e-01 7.573889195919036865e-02
-1.645630747079849243e-01 2.469793111085891724e-01 -1.943711489439010620e-01
-1.149470090866088867e+00 1.946486532688140869e-01 2.144768834114074707e-03
-4.903497099876403809e-01 -7.646617293357849121e-02 1.924855560064315796e-01
2.570797204971313477e-01 2.440681010484695435e-01 -4.292219411581754684e-03
-1.061330914497375488e+00 4.300051927566528320e-02 2.051979303359985352e-01
3.795331120491027832e-01 -1.625489443540573120e-02 5.446206033229827881e-02
-1.074819326400756836e+00 -3.954160213470458984e-02 -7.411682605743408203e-02
2.595739960670471191e-01 2.389278411865234375e-01 5.700410902500152588e-02
-9.708780646324157715e-01 -7.372927665710449219e-02 6.959605030715465546e-03
1.351304054260253906e-01 -6.980209052562713623e-02 -9.847246110439300537e-02
-2.304932475090026855e-01 1.699347645044326782e-01 -2.861216664314270020e-01
-4.489519596099853516e-01 2.559904158115386963e-01 1.962932646274566650e-01
-7.464109659194946289e-01 -7.848411798477172852e-02 1.490452438592910767e-01
-2.693673968315124512e-02 2.542248368263244629e-01 1.625377982854843140e-01
-7.442181110382080078e-01 -8.695435523986816406e-02 1.254307925701141357e-01
3.661110997200012207e-02 6.686620414257049561e-03 -2.540567517280578613e-01
-4.438467025756835938e-01 -8.179935812950134277e-02 -1.845733821392059326e-01
-9.396572113037109375e-01 -2.278917282819747925e-02 1.919657140970230103e-01
-6.692811846733093262e-02 -1.039933264255523682e-01 4.341588541865348816e-02
-1.015585660934448242e+00 1.889620125293731689e-01 -1.534063220024108887e-01
-6.697188615798950195e-01 -3.290107101202011108e-02 -2.374991178512573242e-01
-6.976563930511474609e-01 2.350371927022933960e-01 2.027168124914169312e-01
-1.047323584556579590e+00 1.649178564548492432e-01 1.851783543825149536e-01
1.066295802593231201e-01 -8.595511317253112793e-03 2.188522666692733765e-01
-2.759594917297363281e-01 2.949761748313903809e-01 6.388151645660400391e-02
2.199592590332031250e-01 -2.814485132694244385e-02 1.509449779987335205e-01
4.126564264297485352e-01 -1.030329614877700806e-02 -1.575317233800888062e-02
-9.988200664520263672e-01 -6.177641451358795166e-02 -6.235756352543830872e-02
-5.917004346847534180e-01 1.156700551509857178e-01 3.097563683986663818e-01
-1.796235442161560059e-01 -2.318005263805389404e-02 2.568135857582092285e-01
-9.863892197608947754e-01 7.382258772850036621e-03 2.088637351989746094e-01
-5.860803723335266113e-01 -4.567006230354309082e-02 -2.328755557537078857e-01
-3.309768438339233398e-01 2.883564233779907227e-01 1.066396534442901611e-01
8.757185935974121094e-02 2.728583514690399170e-01 7.103249430656433105e-03
-6.146841645240783691e-01 6.847646832466125488e-02 3.084530830383300781e-01
-4.046198725700378418e-01 -7.365342974662780762e-02 2.000267952680587769e-01
-7.182954549789428711e-01 -1.007267981767654419e-01 -7.752482593059539795e-02
-1.740364730358123779e-01 2.808879017829895020e-01 1.186172515153884888e-01
-1.714264750480651855e-01 1.732171475887298584e-01 2.854499816894531250e-01
-7.857154607772827148e-01 2.530473768711090088e-01 1.386082470417022705e-01
2.173456549644470215e-02 1.268195807933807373e-01 -2.800626158714294434e-01
-3.416924476623535156e-01 -1.178421229124069214e-01 -5.320445075631141663e-02
-1.196608304977416992e+00 -3.204584121704101562e-03 -3.348845243453979492e-02
-1.780804991722106934e-02 -7.425615191459655762e-02 -1.531952768564224243e-01
2.189185619354248047e-01 2.303103953599929810e-01 -1.197707056999206543e-01
-1.109657287597656250e+00 2.014246881008148193e-01 -5.340797081589698792e-02
-8.949364423751831055e-01 2.299261540174484253e-01 -1.345287710428237915e-01
-9.592740535736083984e-01 -2.380017191171646118e-02 1.834392249584197998e-01
-1.578368246555328369e-01 -1.118302941322326660e-01 -4.151586815714836121e-02
-4.626846313476562500e-02 1.992985606193542480e-02 -2.767477631568908691e-01
-6.233210563659667969e-01 -9.655015170574188232e-02 -1.260772645473480225e-01
-3.832788467407226562e-01 -8.744747936725616455e-02 1.709329783916473389e-01
-7.138159871101379395e-01 4.125565290451049805e-02 -2.828214764595031738e-01
-1.054059505462646484e+00 -5.412963032722473145e-02 3.283649310469627380e-02
-9.096646308898925781e-02 -7.890568673610687256e-02 -1.610022634267807007e-01
-8.323436975479125977e-01 3.284812346100807190e-02 2.668431699275970459e-01
-2.282416522502899170e-01 -5.987773835659027100e-02 2.145677357912063599e-01
-1.315212398767471313e-01 2.520498633384704590e-01 -1.805083751678466797e-01
2.837764620780944824e-01 2.134847342967987061e-01 1.222053766250610352e-01
-9.883544445037841797e-01 3.228240832686424255e-02 2.261664569377899170e-01
-1.133903503417968750e+00 2.004304379224777222e-01 1.368227321654558182e-02
-1.993912607431411743e-01 -1.158120632171630859e-01 -2.428791485726833344e-04
-1.139195322990417480e+00 -5.865573883056640625e-03 -1.011266559362411499e-01
-1.141038417816162109e+00 1.752420663833618164e-01 -9.365171194076538086e-02
-6.690479516983032227e-01 2.847527861595153809e-01 4.288960993289947510e-02
-6.959226727485656738e-02 2.589711546897888184e-01 1.616907268762588501e-01
2.479693889617919922e-01 -6.687186658382415771e-03 -1.787467300891876221e-01
-2.478974610567092896e-01 -1.152038872241973877e-01 4.908353462815284729e-02
-6.296040415763854980e-01 2.420381456613540649e-01 -1.887203454971313477e-01
3.054558634757995605e-01 -2.542308717966079712e-02 1.046295911073684692e-01
-9.596626162528991699e-01 2.244517952203750610e-01 -1.138634383678436279e-01
-5.871836543083190918e-01 2.653978466987609863e-01 -1.451711654663085938e-01
-1.180380821228027344e+00 1.821234524250030518e-01 9.489662013947963715e-03
-1.200676798820495605e+00 -2.557635307312011719e-04 4.990392923355102539e-02
-4.190741181373596191e-01 1.168939918279647827e-01 3.173504471778869629e-01
-1.103628039360046387e+00 2.105030417442321777e-01 1.439218036830425262e-02
-6.943495273590087891e-01 2.025620341300964355e-01 -2.339089661836624146e-01
1.175720691680908203e-01 5.704977735877037048e-02 -2.628884911537170410e-01
-5.368283390998840332e-02 -9.568266570568084717e-02 8.791716396808624268e-02
-9.477472305297851562e-01 2.123880684375762939e-01 -1.467036157846450806e-01
1.593217849731445312e-01 1.368241459131240845e-01 -2.481122910976409912e-01
-9.241400957107543945e-01 1.799015700817108154e-01 -2.015301138162612915e-01
-1.120176911354064941e+00 8.978141099214553833e-02 -1.750675439834594727e-01
3.891091942787170410e-01 1.904174536466598511e-01 -9.208752214908599854e-02
5.250531435012817383e-02 1.857719123363494873e-01 2.427417784929275513e-01
-9.389576315879821777e-01 -5.320037901401519775e-02 -1.319929659366607666e-01
-3.685420453548431396e-01 2.907785773277282715e-01 9.535470604896545410e-02
-1.383142471313476562e-01 2.288312166929244995e-01 -2.206717729568481445e-01
-3.950180709362030029e-01 1.171003282070159912e-02 -2.941121757030487061e-01
-1.244373321533203125e+00 5.425138399004936218e-02 9.164252877235412598e-02
-1.226983308792114258e+00 7.832623273134231567e-02 -1.042834520339965820e-01
-2.511040568351745605e-01 2.423376590013504028e-01 -2.094336599111557007e-01
-2.544528841972351074e-01 -2.053801715373992920e-02 -2.672950625419616699e-01
-6.619542241096496582e-01 1.562709659337997437e-01 -2.770321071147918701e-01
-2.178630232810974121e-02 1.584388911724090576e-01 2.755437493324279785e-01
-7.752274870872497559e-01 2.659953236579895020e-01 9.696583449840545654e-02
-5.741361975669860840e-01 1.025035977363586426e-01 3.129167258739471436e-01
-1.447339951992034912e-01 2.195305377244949341e-01 2.406035512685775757e-01
-7.502720355987548828e-01 2.162805646657943726e-01 -2.055012881755828857e-01
1.538488864898681641e-01 2.190402150154113770e-01 -1.720063090324401855e-01
-3.940754830837249756e-01 1.962134540081024170e-01 2.774412035942077637e-01
-1.937813609838485718e-01 2.683291435241699219e-01 1.606725007295608521e-01
-7.471562027931213379e-01 -5.378279089927673340e-02 1.993274241685867310e-01
-7.652671337127685547e-01 2.366779297590255737e-01 -1.677398830652236938e-01
-7.908227443695068359e-01 2.596574425697326660e-01 1.148131191730499268e-01
7.514449954032897949e-02 1.804318279027938843e-01 2.421914339065551758e-01
-8.864809274673461914e-01 2.586932182312011719e-01 -1.891066320240497589e-02
-8.167557120323181152e-01 2.698039412498474121e-01 -4.681514110416173935e-03
-6.121773123741149902e-01 1.188496872782707214e-01 -2.982774376869201660e-01
-1.125388503074645996e+00 -3.488086163997650146e-02 -1.968803349882364273e-03
-4.274296164512634277e-01 -1.183703541755676270e-01 -5.115348473191261292e-02
-3.297670483589172363e-01 3.353967890143394470e-02 -3.045883476734161377e-01
-5.847358703613281250e-01 -6.974472105503082275e-02 -1.964236944913864136e-01
-1.233345270156860352e-01 2.173346281051635742e-01 -2.342451661825180054e-01
-9.768062829971313477e-01 2.360354810953140259e-01 -6.056645885109901428e-02
-8.413403034210205078e-01 -7.838574051856994629e-02 -1.103432327508926392e-01
-6.931227445602416992e-01 -7.458594441413879395e-02 -1.686851531267166138e-01
-6.676791906356811523e-01 -1.108186542987823486e-01 2.993675135076045990e-02
-6.751781702041625977e-01 -1.007157117128372192e-01 -9.574511647224426270e-02
-8.055230379104614258e-01 -6.044524908065795898e-02 -1.684061437845230103e-01
-7.436885237693786621e-01 2.315402776002883911e-02 2.774997949600219727e-01
4.593563079833984375e-02 -3.066921979188919067e-02 2.087336033582687378e-01
-2.432613670825958252e-01 -2.412088215351104736e-03 2.808490991592407227e-01
-5.923119187355041504e-02 -6.876264512538909912e-02 1.706207394599914551e-01
-8.141621947288513184e-01 -4.416990280151367188e-02 -1.936868131160736084e-01
-1.560501456260681152e-01 2.827272415161132812e-01 -9.786784648895263672e-02
-3.536893427371978760e-01 -1.290979236364364624e-02 2.773475348949432373e-01
-1.965854167938232422e-01 2.365648895502090454e-01 2.230571508407592773e-01
2.888629436492919922e-01 2.302338182926177979e-01 -6.439293920993804932e-02
-3.099955320358276367e-01 -1.193280965089797974e-01 2.271875180304050446e-02
-8.172976970672607422e-02 2.885693013668060303e-01 3.764090687036514282e-02
-5.963932275772094727e-01 2.877843677997589111e-01 6.624457240104675293e-02
-2.296663522720336914e-01 -9.928874671459197998e-02 -1.300397515296936035e-01
-8.961728215217590332e-01 2.120606005191802979e-01 1.855002343654632568e-01
-2.451846301555633545e-01 2.945516109466552734e-01 6.120082363486289978e-02
-8.969524502754211426e-01 2.002353221178054810e-02 -2.360516041517257690e-01
-3.552148342132568359e-01 2.226571738719940186e-02 3.015779256820678711e-01
-8.301833271980285645e-01 2.672529518604278564e-01 3.684501349925994873e-02
-1.969159841537475586e-01 3.737271204590797424e-02 -3.006225228309631348e-01
-9.593772292137145996e-01 1.589952111244201660e-01 -2.089422643184661865e-01
-6.164849400520324707e-01 -4.369899630546569824e-02 -2.318678200244903564e-01
-1.840235590934753418e-01 2.953378558158874512e-01 -1.300732512027025223e-02
1.148815155029296875e-01 1.571129560470581055e-01 -2.482610344886779785e-01
7.275551557540893555e-02 -7.205814123153686523e-02 1.176004707813262939e-01
-1.048521518707275391e+00 -6.301611661911010742e-03 1.687407344579696655e-01
-4.934003949165344238e-02 -5.513922870159149170e-02 -1.998401284217834473e-01
-7.053400278091430664e-01 1.604992747306823730e-01 2.802180945873260498e-01
1.582270860671997070e-01 -1.493381708860397339e-02 1.956646293401718140e-01
-2.471936941146850586e-01 2.977525889873504639e-01 -5.905241705477237701e-03
-3.711014389991760254e-01 -7.989354431629180908e-02 -1.895033121109008789e-01
6.212469935417175293e-02 2.416008263826370239e-01 -1.596155613660812378e-01
-4.003280401229858398e-01 -6.797407567501068115e-02 -2.114575505256652832e-01
4.340252876281738281e-01 2.798698842525482178e-03 -4.687578231096267700e-02
-5.566055178642272949e-01 2.381874322891235352e-01 -2.060964405536651611e-01
-6.176877021789550781e-01 1.678089499473571777e-01 2.864699065685272217e-01
1.087981462478637695e-02 6.271712481975555420e-03 2.547287046909332275e-01
-5.800246000289916992e-01 -5.885350704193115234e-02 2.166142016649246216e-01
-1.033760666847229004e+00 -1.767687499523162842e-03 1.810539513826370239e-01
-3.279697597026824951e-01 2.258207052946090698e-01 -2.360153645277023315e-01
-8.429331779479980469e-01 1.811820268630981445e-02 2.564319968223571777e-01
-1.150792598724365234e+00 -2.414547652006149292e-02 3.688586875796318054e-02
-5.341722965240478516e-01 2.941948175430297852e-01 -1.910218037664890289e-02
-2.390305995941162109e-01 -4.145014286041259766e-02 -2.441000789403915405e-01
-9.988681077957153320e-01 -3.009477257728576660e-02 -1.483829766511917114e-01
-9.587444067001342773e-01 2.428705692291259766e-01 6.195459142327308655e-02
-1.171746015548706055e+00 1.632799208164215088e-02 1.215712130069732666e-01
-8.216585516929626465e-01 -8.280199766159057617e-02 -1.047338992357254028e-01
-5.091512799263000488e-01 -2.736601978540420532e-02 -2.599674463272094727e-01
1.997671723365783691e-01 2.081421762704849243e-02 2.173910439014434814e-01
-1.599605530500411987e-01 1.492420285940170288e-01 -2.931585311889648438e-01
-5.791850090026855469e-01 7.190725207328796387e-02 -3.050386309623718262e-01
-4.086162149906158447e-01 2.975664734840393066e-01 4.141542315483093262e-02
-4.213121235370635986e-01 -7.974267005920410156e-02 -1.894819587469100952e-01
-1.176726102828979492e+00 1.561269462108612061e-01 -9.497186541557312012e-02
4.069930315017700195e-01 1.264907866716384888e-01 -1.563807725906372070e-01
-5.115292072296142578e-01 2.930922806262969971e-01 5.921578407287597656e-02
-5.254089832305908203e-01 2.441325187683105469e-01 -1.995934993028640747e-01
1.818135976791381836e-01 -2.031913399696350098e-02 1.799195557832717896e-01
-1.109253466129302979e-01 2.283071577548980713e-01 2.247549295425415039e-01
-3.588407039642333984e-01 1.954694241285324097e-01 -2.693464159965515137e-01
-2.779895067214965820e-01 -1.159700900316238403e-01 -5.688782781362533569e-02
-1.133453845977783203e-02 2.702553868293762207e-01 -1.041692942380905151e-01
2.890074849128723145e-01 -1.102596521377563477e-02 1.441985219717025757e-01
2.820412516593933105e-01 2.332632988691329956e-01 5.894486233592033386e-02
-1.029315948486328125e+00 1.579856276512145996e-01 1.995002031326293945e-01
-8.592096567153930664e-01 2.184982895851135254e-01 -1.713097542524337769e-01
-1.852878928184509277e-02 2.708551287651062012e-01 1.116867661476135254e-01
-2.264208793640136719e-01 2.828140258789062500e-01 -1.097310185432434082e-01
-5.105074048042297363e-01 2.925972938537597656e-01 -4.916592314839363098e-02
2.396782636642456055e-01 2.108811438083648682e-01 1.520822197198867798e-01
-6.516436338424682617e-01 9.544986486434936523e-02 3.065555095672607422e-01
-2.482080906629562378e-01 1.548508405685424805e-01 3.013064563274383545e-01
3.806594014167785645e-02 6.579266488552093506e-02 -2.807886302471160889e-01
-1.953886598348617554e-01 2.099263370037078857e-01 -2.495950162410736084e-01
-9.421721100807189941e-02 1.995266377925872803e-01 -2.506283819675445557e-01
-1.405773013830184937e-01 2.640316784381866455e-01 1.634649634361267090e-01
-9.807221889495849609e-01 9.003524482250213623e-02 -2.305762022733688354e-01
2.789143919944763184e-01 1.150612384080886841e-01 2.162767648696899414e-01
-9.002986550331115723e-01 -6.552387773990631104e-02 -1.200815439224243164e-01
-7.561141848564147949e-01 1.774050146341323853e-01 -2.469590455293655396e-01
-9.397333860397338867e-01 2.014425396919250488e-01 1.855119168758392334e-01
-4.743471145629882812e-01 -1.130039840936660767e-01 8.206571638584136963e-02
-5.402181744575500488e-01 -1.097701638936996460e-01 8.970440924167633057e-02
-8.445063829421997070e-01 -2.741310000419616699e-02 2.144920229911804199e-01
-5.199705958366394043e-01 -7.325878739356994629e-02 -1.967132240533828735e-01
-8.261187672615051270e-01 2.640833258628845215e-01 7.088725268840789795e-02
-1.058405160903930664e+00 1.192244067788124084e-01 2.109714448451995850e-01
-1.172150135040283203e+00 1.414651274681091309e-01 1.356142014265060425e-01
-2.503126859664916992e-03 -7.970787584781646729e-02 -1.332625746726989746e-01
-5.435975193977355957e-01 2.085233628749847412e-01 -2.474168986082077026e-01
-2.753869891166687012e-01 -8.560736477375030518e-02 -1.729980707168579102e-01
-3.156036138534545898e-01 -1.201033145189285278e-01 -4.601000342518091202e-03
2.593952417373657227e-01 -4.250514507293701172e-02 9.310938417911529541e-02
1.864203810691833496e-01 2.404919117689132690e-01 -1.099346578121185303e-01
1.355732679367065430e-01 1.496213674545288086e-01 -2.477469742298126221e-01
-1.029348373413085938e+00 6.059597432613372803e-02 2.240906953811645508e-01
3.437015414237976074e-01 2.205019444227218628e-01 -3.251461684703826904e-02
-7.963651418685913086e-01 -8.505156636238098145e-02 1.120237708091735840e-01
-1.224260568618774414e+00 1.560393273830413818e-01 4.456502571702003479e-02
-5.279496312141418457e-01 2.825781106948852539e-01 -1.004592478275299072e-01
-8.941330909729003906e-01 2.584233582019805908e-01 6.555606145411729813e-03
-2.153666019439697266e-01 -2.678238600492477417e-02 -2.586933672428131104e-01
-3.748707473278045654e-01 2.984345555305480957e-01 -2.016653493046760559e-02
-3.541835546493530273e-01 1.575350761413574219e-03 2.887456715106964111e-01
-1.618189662694931030e-01 2.366089522838592529e-01 -2.115900814533233643e-01
-6.154937744140625000e-01 2.453194707632064819e-01 1.992741972208023071e-01
-3.218606710433959961e-01 -8.869738876819610596e-02 1.655182093381881714e-01
-8.818359971046447754e-01 1.043672859668731689e-01 -2.562401294708251953e-01
-2.448416352272033691e-01 -9.447786211967468262e-02 -1.470914781093597412e-01
-2.972904145717620850e-01 2.826746702194213867e-01 1.277301013469696045e-01
-1.015193164348602295e-01 2.494175285100936890e-01 1.885971724987030029e-01
1.526628732681274414e-01 2.072976678609848022e-01 1.925872266292572021e-01
-1.166852474212646484e+00 -1.963499933481216431e-02 1.848724856972694397e-02
3.135899901390075684e-01 4.464206099510192871e-02 -1.966346055269241333e-01
3.671258091926574707e-01 1.994594335556030273e-01 8.965376019477844238e-02
-3.410050570964813232e-01 4.112098738551139832e-02 3.097944855690002441e-01
2.976145744323730469e-01 1.960797607898712158e-02 -1.854609847068786621e-01
-4.707082509994506836e-01 7.162108272314071655e-02 3.172487318515777588e-01
-2.292156219482421875e-02 2.831144928932189941e-01 4.462432488799095154e-02
-3.656212091445922852e-01 2.952046692371368408e-01 -5.539419874548912048e-02
4.191558957099914551e-01 -2.459846436977386475e-03 -5.436666682362556458e-02
-1.006787776947021484e+00 1.933726370334625244e-01 1.684945225715637207e-01
1.635746955871582031e-01 -7.488100230693817139e-02 3.101238049566745758e-02
-3.724291622638702393e-01 -1.191999614238739014e-01 -4.262724891304969788e-02
4.600092172622680664e-01 3.603119030594825745e-02 8.439622819423675537e-02
3.667057156562805176e-01 1.190848797559738159e-01 -1.814798563718795776e-01
-8.452291488647460938e-01 2.064501941204071045e-01 2.100243866443634033e-01
-3.851816058158874512e-01 2.633569240570068359e-01 1.829759776592254639e-01
1.845249533653259277e-02 2.752005159854888916e-01 -6.669189035892486572e-02
-3.443404138088226318e-01 9.822883456945419312e-02 -3.145689666271209717e-01
-1.067220807075500488e+00 2.035641819238662720e-01 -9.223756194114685059e-02
-8.687548637390136719e-01 -2.595009654760360718e-02 -2.031045705080032349e-01
-4.331083297729492188e-01 2.283692806959152222e-01 -2.307388037443161011e-01
-5.505431890487670898e-01 -1.139851957559585571e-01 6.216083839535713196e-02
-3.104479908943176270e-01 2.871904373168945312e-01 1.108542680740356445e-01
-2.774247825145721436e-01 1.010008975863456726e-01 -3.131197690963745117e-01
-2.483202219009399414e-01 2.912353575229644775e-01 8.456005156040191650e-02
2.166610956192016602e-02 1.092429086565971375e-01 -2.841681540012359619e-01
-5.041717290878295898e-01 2.829756438732147217e-01 -1.033366769552230835e-01
-7.434761524200439453e-01 6.886181235313415527e-02 -2.846468091011047363e-01
-1.986096054315567017e-01 2.815824747085571289e-01 1.204970479011535645e-01
5.030035972595214844e-01 7.667519897222518921e-02 -8.121535181999206543e-02
-7.722990512847900391e-01 6.756412982940673828e-02 -2.796447575092315674e-01
-1.142135858535766602e+00 -2.711609750986099243e-02 -2.794340066611766815e-02
3.063470721244812012e-01 -4.541665315628051758e-02 -7.655212655663490295e-03
-5.264592766761779785e-01 1.112619414925575256e-01 -3.072252571582794189e-01
-4.313372075557708740e-01 -8.812543749809265137e-02 1.693184822797775269e-01
-1.166051745414733887e+00 6.468185782432556152e-02 1.620387285947799683e-01
-4.183152318000793457e-02 5.367860943078994751e-02 -2.903011739253997803e-01
-9.034816622734069824e-01 1.307443678379058838e-01 2.562631070613861084e-01
4.160644412040710449e-01 -8.889652788639068604e-03 5.933557637035846710e-03
-8.198850154876708984e-01 4.813719168305397034e-02 2.755643725395202637e-01
-6.069808006286621094e-01 -8.236148953437805176e-02 -1.677486449480056763e-01
-9.627996683120727539e-01 -3.255524486303329468e-02 1.686886399984359741e-01
-5.586891174316406250e-01 1.329572200775146484e-01 -2.988988459110260010e-01
3.377327322959899902e-02 -9.577088057994842529e-02 -8.078555576503276825e-03
-7.572325468063354492e-01 -1.237931847572326660e-02 2.492351979017257690e-01
3.829771280288696289e-02 -8.666747808456420898e-02 -8.850267529487609863e-02
-6.373019218444824219e-01 2.327306568622589111e-01 -2.032706290483474731e-01
1.691829562187194824e-01 -4.927884042263031006e-02 -1.404577344655990601e-01
-6.049749851226806641e-01 -1.064001768827438354e-01 9.183132648468017578e-02
-1.094929575920104980e-01 2.339676022529602051e-01 -2.094508856534957886e-01
-4.677277207374572754e-01 1.319008022546768188e-01 3.126909136772155762e-01
-1.722981184720993042e-01 2.910877466201782227e-01 6.641225516796112061e-02
-1.074733495712280273e+00 1.880818307399749756e-01 -1.208612322807312012e-01
-1.090039730072021484e+00 4.563599824905395508e-03 1.609144955873489380e-01
-4.358159005641937256e-01 2.813030481338500977e-01 1.316163539886474609e-01
-7.885199785232543945e-01 -9.360593557357788086e-02 7.933489978313446045e-02
9.482315182685852051e-02 1.665062904357910156e-01 -2.465686649084091187e-01
2.994740009307861328e-02 -9.345863759517669678e-02 -5.289183557033538818e-02
-7.938047647476196289e-01 2.726628184318542480e-01 -8.319828659296035767e-03
-3.554356396198272705e-01 2.954321727156639099e-02 -3.031797409057617188e-01
1.036139130592346191e-01 -8.463577926158905029e-02 3.224429488182067871e-02
-9.712505340576171875e-01 -6.945179402828216553e-02 -5.177200213074684143e-02
-8.308145999908447266e-01 -8.126820623874664307e-02 1.097319424152374268e-01
-4.729410111904144287e-01 2.493952512741088867e-01 2.073884606361389160e-01
-4.760871529579162598e-01 1.807117462158203125e-01 2.878321111202239990e-01
-4.850133657455444336e-01 -8.516575396060943604e-02 1.743084639310836792e-01
1.637021899223327637e-01 2.026153206825256348e-01 -1.931356042623519897e-01
-7.089561223983764648e-02 2.026497423648834229e-01 -2.444113641977310181e-01
-1.262401819229125977e+00 6.389202177524566650e-02 7.349394261837005615e-02
-6.166105866432189941e-01 -1.138823181390762329e-01 3.287443891167640686e-02
-4.447173476219177246e-01 -1.174195855855941772e-01 -5.806664377450942993e-02
-7.468107342720031738e-01 1.570530235767364502e-01 2.758570909500122070e-01
2.580999135971069336e-01 1.549883484840393066e-01 -2.082574516534805298e-01
9.045585989952087402e-02 -8.811767399311065674e-02 5.036796908825635910e-03
-5.721067786216735840e-01 8.503344655036926270e-02 3.134776353836059570e-01
-1.220433115959167480e-01 3.325445950031280518e-02 -2.926031351089477539e-01
-4.268857836723327637e-02 -8.341446518898010254e-02 -1.358674764633178711e-01
-1.010715961456298828e+00 -1.771615445613861084e-02 -1.617910861968994141e-01
-7.830653190612792969e-01 -9.830725193023681641e-02 5.292890220880508423e-02
3.225203752517700195e-01 2.279786765575408936e-01 -1.302108075469732285e-02
-4.914195835590362549e-01 -1.183080524206161499e-01 -4.132264852523803711e-02
-1.818389445543289185e-01 5.797892808914184570e-04 2.780531048774719238e-01
-1.183735013008117676e+00 -1.282727718353271484e-02 -1.049631042405962944e-03
-3.022184073925018311e-01 1.946295797824859619e-01 2.775773108005523682e-01
7.023751735687255859e-03 -9.822854399681091309e-02 2.105658687651157379e-02
-1.014405786991119385e-01 2.861418128013610840e-01 7.175897061824798584e-02
4.389059543609619141e-01 1.874740421772003174e-01 1.178373489528894424e-02
-2.754514813423156738e-01 6.891523301601409912e-02 3.150958418846130371e-01
-1.095068812370300293e+00 1.316619664430618286e-01 1.890533119440078735e-01
-9.625741243362426758e-01 1.153753623366355896e-01 -2.314899712800979614e-01
-1.115013837814331055e+00 5.173227190971374512e-02 -1.719347238540649414e-01
-8.748788833618164062e-01 1.320767253637313843e-01 2.626841366291046143e-01
-1.240250587463378906e+00 7.388542592525482178e-02 -9.043848514556884766e-02
-1.552760601043701172e-03 -8.228138089179992676e-03 -2.490145266056060791e-01
-1.152677297592163086e+00 1.650987565517425537e-01 -1.020589470863342285e-01
-1.042303562164306641e+00 2.081484943628311157e-01 1.187424510717391968e-01
-8.007469773292541504e-02 9.299531579017639160e-03 2.722606360912322998e-01
-8.315055370330810547e-01 2.678963541984558105e-01 1.845796965062618256e-02
-2.796264886856079102e-01 5.192277953028678894e-02 3.113062977790832520e-01
-2.353770583868026733e-01 -1.013516187667846680e-01 1.189251095056533813e-01
-2.807834744453430176e-01 2.399212867021560669e-01 2.240886092185974121e-01
1.571965813636779785e-01 2.475848048925399780e-01 1.081445813179016113e-01
4.912864565849304199e-01 8.925180882215499878e-02 -9.921784698963165283e-02
5.147629976272583008e-01 6.528418511152267456e-02 4.269100353121757507e-02
-1.205258667469024658e-01 -1.383916288614273071e-02 2.589340209960937500e-01
-4.794129133224487305e-01 2.848275005817413330e-01 1.136598885059356689e-01
3.188562393188476562e-02 2.764059305191040039e-01 5.489527061581611633e-02
-1.086809933185577393e-01 2.699496150016784668e-01 1.412816643714904785e-01
-9.428859353065490723e-01 -1.318663358688354492e-02 -1.944687813520431519e-01
-5.719998478889465332e-01 -1.784604042768478394e-02 2.671728730201721191e-01
-6.092306375503540039e-01 -1.132575422525405884e-01 -4.529197886586189270e-02
-9.997962117195129395e-01 -6.789305806159973145e-02 -7.073523011058568954e-04
-5.207517147064208984e-01 -1.186739355325698853e-01 -2.388057298958301544e-02
-3.119212985038757324e-01 2.069419473409652710e-01 -2.579318284988403320e-01
6.691542267799377441e-02 2.683096826076507568e-01 7.968275249004364014e-02
1.251009106636047363e-02 2.675640583038330078e-01 1.114857643842697144e-01
-3.783631026744842529e-01 -2.638643234968185425e-02 2.651603519916534424e-01
-9.117660522460937500e-01 2.494607716798782349e-01 7.660543918609619141e-02
-6.688998937606811523e-01 7.948511838912963867e-02 3.043990433216094971e-01
-3.818761408329010010e-01 -6.701070070266723633e-02 2.116675078868865967e-01
-2.505871653556823730e-02 2.448057532310485840e-01 1.819941550493240356e-01
-1.100405454635620117e-01 2.577995061874389648e-01 -1.648623347282409668e-01
1.150771379470825195e-01 -7.471950352191925049e-02 8.354890346527099609e-02
nan nan nan
1.256338059902191162e-01 -2.812025137245655060e-02 2.335736155509948730e-02
1.731707900762557983e-02 -3.176356479525566101e-02 4.144863486289978027e-01
-2.890611812472343445e-02 -2.099353447556495667e-02 5.845091342926025391e-01
-8.777743577957153320e-02 -5.770116113126277924e-03 2.574858665466308594e-01
-3.228972479701042175e-02 -2.334976941347122192e-02 1.555333137512207031e-01
1.546529680490493774e-01 -2.666537463665008545e-02 1.550392806529998779e-02
-6.733056902885437012e-02 -2.363631874322891235e-02 3.852540552616119385e-01
8.626042306423187256e-02 -2.887010946869850159e-02 4.893013238906860352e-01
3.438758105039596558e-02 3.486630506813526154e-03 3.786528110504150391e-02
1.890684813261032104e-01 -2.615546807646751404e-02 7.905091345310211182e-02
4.672313481569290161e-02 -2.108988724648952484e-02 5.968837738037109375e-01
-7.549826055765151978e-03 -2.640559896826744080e-02 1.415492892265319824e-01
1.477609723806381226e-01 -2.180076576769351959e-02 -5.174690485000610352e-02
-1.001069545745849609e-01 -9.445547126233577728e-03 4.302373528480529785e-01
-6.536711752414703369e-02 -2.261871844530105591e-02 2.858662307262420654e-01
1.004074513912200928e-01 -2.056734636425971985e-02 -6.484925746917724609e-02
3.335554525256156921e-02 8.697667159140110016e-03 2.074102312326431274e-01
1.770318895578384399e-01 -2.868575602769851685e-02 2.682991921901702881e-01
7.673437148332595825e-02 -4.893148317933082581e-03 -7.318732142448425293e-02
5.554714053869247437e-02 -4.349310882389545441e-03 5.707278251647949219e-01
3.435667604207992554e-02 8.309018798172473907e-03 1.752294749021530151e-01
-4.590745642781257629e-02 -2.689878456294536591e-02 3.968981504440307617e-01
1.516402363777160645e-01 -8.760151453316211700e-03 -8.290472626686096191e-02
7.413361966609954834e-02 7.774994708597660065e-03 1.373617500066757202e-01
-6.184362992644309998e-02 -8.249730803072452545e-03 1.375780552625656128e-01
-8.266253769397735596e-02 -1.854343339800834656e-02 2.996315658092498779e-01
2.039276361465454102e-01 -7.503556087613105774e-03 2.497002184391021729e-01
1.538269221782684326e-02 -2.397299744188785553e-03 -3.250837326049804688e-03
3.382486104965209961e-02 -3.060865402221679688e-02 1.484815776348114014e-01
-8.492375910282135010e-02 -1.957752555608749390e-02 4.056397676467895508e-01
-6.060681119561195374e-02 -1.507128588855266571e-02 5.794930458068847656e-01
9.448067843914031982e-02 -2.333026193082332611e-02 -3.828883171081542969e-02
7.919061928987503052e-03 8.466391824185848236e-03 2.857912480831146240e-01
1.750378310680389404e-02 -2.716505154967308044e-02 5.402861833572387695e-01
-7.752013206481933594e-02 -7.434802595525979996e-03 1.970089972019195557e-01
4.271305352449417114e-02 -2.626114338636398315e-02 4.315301775932312012e-02
1.520830541849136353e-01 -7.964549586176872253e-04 -1.114061474800109863e-02
8.023901283740997314e-02 -2.138471230864524841e-02 -4.853710532188415527e-02
1.708595454692840576e-02 -2.551373466849327087e-02 7.204739749431610107e-02
-6.733086705207824707e-02 1.920557580888271332e-03 4.122417867183685303e-01
2.054193466901779175e-01 -2.381100133061408997e-02 2.274748980998992920e-01
-6.231846287846565247e-02 -1.919945515692234039e-02 1.986621171236038208e-01
-2.204185351729393005e-02 -2.672759070992469788e-02 5.092910528182983398e-01
3.094109892845153809e-02 3.800605423748493195e-03 4.831449091434478760e-01
9.116244316101074219e-02 7.119377143681049347e-03 3.025130033493041992e-01
1.271310597658157349e-01 -2.997433766722679138e-02 6.415568292140960693e-02
8.460848778486251831e-02 9.271847084164619446e-04 -2.733492851257324219e-02
1.545445770025253296e-01 -3.097481280565261841e-02 2.893446385860443115e-01
4.221213608980178833e-02 6.501815281808376312e-03 9.485375881195068359e-02
-2.149991318583488464e-02 -2.598281390964984894e-02 1.729793250560760498e-01
1.585265994071960449e-01 -3.020460531115531921e-02 3.060931563377380371e-01
1.416382491588592529e-01 3.162895329296588898e-03 2.912966907024383545e-01
1.675058305263519287e-01 -4.362054169178009033e-04 2.902619242668151855e-01
1.918228566646575928e-01 -2.143735066056251526e-03 1.517662256956100464e-01
1.172461211681365967e-01 -3.306084871292114258e-02 1.745634824037551880e-01
1.042265743017196655e-01 5.987313576042652130e-03 3.176594972610473633e-01
3.152114897966384888e-02 -2.999471500515937805e-02 4.895996451377868652e-01
-2.131258323788642883e-02 -2.881587669253349304e-02 4.443838894367218018e-01
-5.821691825985908508e-02 -2.241776138544082642e-02 5.099664926528930664e-01
-6.027908250689506531e-02 2.405805513262748718e-03 4.306521415710449219e-01
3.546967357397079468e-02 -3.133410960435867310e-02 4.540656208992004395e-01
1.923995018005371094e-01 -2.698994055390357971e-02 1.363883018493652344e-01
-1.148660853505134583e-02 -2.360942587256431580e-02 5.730530023574829102e-01
1.258419454097747803e-01 -3.327704593539237976e-02 2.336891144514083862e-01
3.314284607768058777e-02 8.747807703912258148e-03 2.988065481185913086e-01
-2.384712919592857361e-02 5.765543319284915924e-03 2.007881999015808105e-01
1.768714934587478638e-01 -2.529893442988395691e-02 2.451503276824951172e-02
1.036911159753799438e-01 -2.852714061737060547e-02 4.740909934043884277e-01
1.689458042383193970e-01 -1.989317126572132111e-03 2.565860748291015625e-03
1.985229849815368652e-01 -9.000267833471298218e-03 3.020487129688262939e-01
-7.810609042644500732e-02 5.566682666540145874e-04 3.842380344867706299e-01
5.869558081030845642e-02 -3.196078166365623474e-02 4.376752972602844238e-01
1.906983852386474609e-01 -1.473575085401535034e-02 3.665359616279602051e-01
-4.192690178751945496e-02 1.084582880139350891e-03 1.466540098190307617e-01
4.127310961484909058e-02 8.899430744349956512e-03 2.273021042346954346e-01
1.330755650997161865e-01 -3.215840831398963928e-02 1.471122205257415771e-01
-5.713767930865287781e-02 3.989511169493198395e-03 3.396862149238586426e-01
6.061770394444465637e-02 -8.096633478999137878e-03 5.903502702713012695e-01
7.071421295404434204e-02 -2.484968677163124084e-02 5.537160038948059082e-01
1.445271968841552734e-01 -2.968616783618927002e-02 3.714950084686279297e-01
2.745394036173820496e-02 -2.348128333687782288e-02 2.761694788932800293e-02
9.259050339460372925e-02 3.307810984551906586e-03 8.904695510864257812e-03
5.066096782684326172e-04 8.098912425339221954e-03 2.470222115516662598e-01
-1.975367590785026550e-02 -2.369458042085170746e-02 1.251638978719711304e-01
8.916164189577102661e-02 -1.404153183102607727e-03 5.042065382003784180e-01
1.730789244174957275e-01 -2.882849797606468201e-02 2.867424786090850830e-01
2.149511128664016724e-02 7.726469077169895172e-03 1.629943847656250000e-01
2.844140306115150452e-02 -3.293553739786148071e-02 3.548718094825744629e-01
1.702239513397216797e-01 -2.140725031495094299e-03 3.196970820426940918e-01
5.123687908053398132e-02 -1.715627685189247131e-02 -5.262356996536254883e-02
5.915844812989234924e-02 -2.455757185816764832e-02 8.122622966766357422e-04
3.169734030961990356e-02 -2.023932337760925293e-02 -1.014164090156555176e-02
-3.922012820839881897e-02 4.389300011098384857e-03 4.297952651977539062e-01
7.517572492361068726e-02 -3.160059824585914612e-02 1.186986863613128662e-01
-1.204261556267738342e-02 3.261295147240161896e-03 1.059187799692153931e-01
-3.145619854331016541e-02 6.056712009012699127e-03 3.732452392578125000e-01
4.456704109907150269e-02 -3.244798630475997925e-02 1.939093172550201416e-01
1.216802150011062622e-01 -2.596498653292655945e-02 -1.222449541091918945e-02
5.662838369607925415e-02 -2.344747260212898254e-02 5.755378603935241699e-01
9.611479192972183228e-02 -3.371518477797508240e-02 2.042472064495086670e-01
5.881558731198310852e-02 4.315097816288471222e-03 3.326378762722015381e-02
3.216432034969329834e-02 7.568773813545703888e-03 1.409803330898284912e-01
9.938257932662963867e-02 6.531979888677597046e-04 4.599371552467346191e-01
1.048254966735839844e-01 -3.308293223381042480e-02 3.510172367095947266e-01
6.432400643825531006e-02 8.221943862736225128e-03 3.047319948673248291e-01
2.116818279027938843e-01 -2.270638570189476013e-02 1.877255737781524658e-01
1.133187934756278992e-01 -3.341746516525745392e-03 -6.967785954475402832e-02
1.995464265346527100e-01 -5.159960128366947174e-03 2.269330173730850220e-01
1.193605512380599976e-01 -3.646859899163246155e-03 4.795279502868652344e-01
4.031602293252944946e-02 -3.350865468382835388e-02 3.097797632217407227e-01
4.684817045927047729e-02 -2.762614376842975616e-02 6.000696122646331787e-02
-6.759162992238998413e-03 -2.660156600177288055e-02 5.336195230484008789e-01
4.310119152069091797e-02 -1.489201933145523071e-02 6.172711253166198730e-01
1.970456689596176147e-01 -3.987832926213741302e-03 7.649943232536315918e-02
-1.827702298760414124e-02 6.924941204488277435e-03 2.368414700031280518e-01
-1.598288491368293762e-02 7.453202269971370697e-03 3.142307400703430176e-01
1.664924621582031250e-01 4.770802333950996399e-04 5.521409213542938232e-02
-8.934883773326873779e-02 -1.718754507601261139e-02 4.549996256828308105e-01
2.060477063059806824e-02 7.119917310774326324e-03 3.972954750061035156e-01
1.762676090002059937e-01 -2.947435528039932251e-02 1.742036640644073486e-01
5.890602990984916687e-02 5.064786411821842194e-03 4.328438043594360352e-01
-2.699870988726615906e-02 -2.914023026823997498e-02 3.415290713310241699e-01
2.219449132680892944e-01 -1.653948053717613220e-02 1.737642288208007812e-01
-4.631623998284339905e-02 -2.563378028571605682e-02 4.694802165031433105e-01
5.651254579424858093e-02 -3.260338678956031799e-02 4.143661260604858398e-01
-2.620503678917884827e-02 6.804938428103923798e-03 2.844131290912628174e-01
1.330385059118270874e-01 -2.903383597731590271e-02 4.141563773155212402e-01
-4.182498529553413391e-02 -2.626181766390800476e-02 2.661851942539215088e-01
1.156789585947990417e-01 4.389909096062183380e-03 3.425101637840270996e-01
8.033832907676696777e-02 6.429535336792469025e-03 8.268304169178009033e-02
1.158017367124557495e-01 -3.081985935568809509e-02 4.094384312629699707e-01
1.125122457742691040e-01 6.360531784594058990e-03 1.272075027227401733e-01
-3.917923942208290100e-02 -2.713358774781227112e-02 4.415387809276580811e-01
5.207766592502593994e-02 -2.659109234809875488e-02 5.460703372955322266e-01
1.113279536366462708e-01 3.492512740194797516e-03 2.181081473827362061e-02
1.267865598201751709e-01 1.583037897944450378e-03 -2.836108207702636719e-03
4.059837013483047485e-02 8.502089418470859528e-03 3.190262615680694580e-01
1.030489802360534668e-03 -3.156774677336215973e-03 5.847550630569458008e-01
6.773158907890319824e-03 -1.091669872403144836e-02 6.256260871887207031e-01
4.331084340810775757e-02 -3.312823921442031860e-02 3.786878585815429688e-01
2.536233142018318176e-02 -1.014568377286195755e-02 6.196876764297485352e-01
3.052769228816032410e-02 -1.059484202414751053e-02 -4.733237624168395996e-02
1.071670651435852051e-01 -3.188780322670936584e-02 3.945547640323638916e-01
-2.156417816877365112e-03 -2.598451264202594757e-02 1.198912709951400757e-01
1.872678250074386597e-01 -4.069606773555278778e-03 2.805496156215667725e-01
1.096505001187324524e-01 -3.796610981225967407e-04 -4.189452528953552246e-02
1.763770133256912231e-01 -7.509994786232709885e-03 3.752397894859313965e-01
1.556671559810638428e-01 -3.118790313601493835e-02 1.603387296199798584e-01
1.691426634788513184e-01 -2.118726819753646851e-02 -3.948876261711120605e-02
1.563102379441261292e-02 -6.502587348222732544e-04 5.570677518844604492e-01
-3.516826778650283813e-03 4.587735049426555634e-03 4.690726995468139648e-01
1.403129547834396362e-01 1.261994242668151855e-03 8.237749338150024414e-03
6.061831489205360413e-02 3.310731612145900726e-03 1.466001570224761963e-02
8.236308395862579346e-02 8.137448690831661224e-03 1.840713918209075928e-01
6.070737913250923157e-02 -3.399149700999259949e-02 2.793750464916229248e-01
1.313189417123794556e-01 -2.397225797176361084e-02 4.835168123245239258e-01
1.027062833309173584e-01 1.779501326382160187e-03 4.347980618476867676e-01
-1.966062933206558228e-03 -3.126283362507820129e-02 3.653899729251861572e-01
-2.841386944055557251e-03 6.447021849453449249e-03 4.138872325420379639e-01
2.988775074481964111e-02 -2.783621288836002350e-02 8.956708014011383057e-02
-6.877811253070831299e-02 2.292333170771598816e-03 3.263332247734069824e-01
-6.611278653144836426e-02 -1.995415985584259033e-02 5.265698432922363281e-01
-4.899099841713905334e-02 -2.007348462939262390e-02 1.607966423034667969e-01
1.496019214391708374e-02 -3.238636627793312073e-02 3.374964594841003418e-01
6.633795797824859619e-02 -3.273820877075195312e-02 1.694805920124053955e-01
4.602201282978057861e-02 1.048585399985313416e-04 5.325120687484741211e-01
1.568251252174377441e-01 -4.062420688569545746e-03 3.968129158020019531e-01
1.372645199298858643e-01 -7.808422669768333435e-04 4.020926952362060547e-01
9.064939618110656738e-02 -3.375172615051269531e-02 3.341310918331146240e-01
-5.220594629645347595e-02 3.681785427033901215e-03 2.501821517944335938e-01
1.514680385589599609e-01 3.650735132396221161e-03 1.680748760700225830e-01
4.359639808535575867e-02 -3.217731788754463196e-02 4.280768930912017822e-01
-5.132358521223068237e-03 -3.061318770051002502e-02 2.748977243900299072e-01
1.080786287784576416e-01 -6.487525068223476410e-03 5.237676501274108887e-01
-2.338563278317451477e-02 4.511459730565547943e-03 1.601058840751647949e-01
-1.843806356191635132e-03 7.646380923688411713e-03 3.556752204895019531e-01
5.989588797092437744e-02 -2.929844707250595093e-02 7.615673542022705078e-02
9.020188450813293457e-02 -3.181234002113342285e-02 4.208901524543762207e-01
2.180674523115158081e-01 -1.001293305307626724e-02 1.192225813865661621e-01
1.801342368125915527e-01 -6.381254643201828003e-04 8.716848492622375488e-02
1.435134112834930420e-01 4.296396858990192413e-03 1.366949379444122314e-01
1.915849596261978149e-01 -3.702577203512191772e-03 4.808723926544189453e-02
3.226388245820999146e-02 -2.900477498769760132e-02 5.113377571105957031e-01
5.231330543756484985e-02 -2.999100089073181152e-02 4.904214441776275635e-01
-4.727993533015251160e-02 1.361690461635589600e-03 4.943223595619201660e-01
1.253760159015655518e-01 5.953540094196796417e-03 1.950393915176391602e-01
2.181928306818008423e-01 -1.764680817723274231e-02 2.174210399389266968e-01
-1.688471809029579163e-02 -3.004863485693931580e-02 3.239275813102722168e-01
9.295523166656494141e-02 -3.409564867615699768e-02 2.542440295219421387e-01
-8.145897090435028076e-02 -5.770197603851556778e-03 2.225762307643890381e-01
-3.165498748421669006e-02 -2.820348739624023438e-02 2.959679663181304932e-01
2.779252827167510986e-03 7.892928086221218109e-03 2.171663045883178711e-01
1.055850833654403687e-01 -2.695839665830135345e-02 4.937130212783813477e-01
1.125320047140121460e-01 -3.365283831954002380e-02 2.221919596195220947e-01
2.131281942129135132e-01 -2.035596780478954315e-02 7.082472741603851318e-02
5.067061632871627808e-03 -3.177357837557792664e-02 3.199608027935028076e-01
-2.752531319856643677e-03 -3.041329234838485718e-02 4.317350983619689941e-01
-2.280328050255775452e-02 3.523156046867370605e-04 8.758655190467834473e-02
4.867941141128540039e-03 -3.034856170415878296e-02 4.531567990779876709e-01
7.507160305976867676e-02 -2.878892421722412109e-02 5.098856985569000244e-02
1.690369397401809692e-01 -2.728804945945739746e-02 3.468311429023742676e-01
-6.905457377433776855e-02 -8.882265537977218628e-04 4.867432117462158203e-01
1.046645790338516235e-01 6.173609755933284760e-03 9.686480462551116943e-02
4.888523370027542114e-03 -2.156519144773483276e-02 6.000314354896545410e-01
1.957297325134277344e-03 7.162283174693584442e-03 3.881770074367523193e-01
-5.031284317374229431e-02 4.259084351360797882e-03 3.931367993354797363e-01
