8.969773650169372559e-01 -1.653907746076583862e-01 8.609825372695922852e-02
1.001949608325958252e-01 -2.258287221193313599e-01 1.312548518180847168e-01
-1.453885808587074280e-02 1.649518162012100220e-01 6.006038784980773926e-01
-9.072499871253967285e-01 3.424132242798805237e-02 -1.968906074762344360e-01
-9.398624300956726074e-02 2.296558022499084473e-01 1.193627268075942993e-01
-1.156225204467773438e-01 -1.745064556598663330e-01 4.456313252449035645e-01
-4.963754415512084961e-01 -7.750850170850753784e-02 -5.686407089233398438e-01
3.480896651744842529e-01 -2.115489542484283447e-01 3.956105411052703857e-01
-2.731350958347320557e-01 -1.794094890356063843e-01 -2.061432600021362305e-01
1.206461042165756226e-01 -2.299330532550811768e-01 -6.336089968681335449e-02
-7.625980973243713379e-01 1.411421298980712891e-01 4.520755708217620850e-01
-6.525362133979797363e-01 2.255662381649017334e-01 2.882306091487407684e-02
-6.251574754714965820e-01 1.130550727248191833e-02 6.227877736091613770e-01
-4.172414541244506836e-01 -1.422590166330337524e-01 2.964088320732116699e-01
-1.959589570760726929e-01 2.374230027198791504e-01 -2.332406304776668549e-02
2.545608282089233398e-01 1.922588348388671875e-01 3.497752919793128967e-02
1.253490000963211060e-01 1.535457670688629150e-01 -5.794462561607360840e-01
-3.888330757617950439e-01 2.411232143640518188e-01 -2.083500847220420837e-02
8.417776226997375488e-02 -1.009807512164115906e-01 -7.960080504417419434e-01
-5.305949449539184570e-01 2.274089753627777100e-01 -2.250255644321441650e-01
2.232722342014312744e-01 1.969687789678573608e-01 3.899640962481498718e-02
-6.860265731811523438e-01 2.002391070127487183e-01 -3.088960945606231689e-01
-1.609620153903961182e-01 -1.761284619569778442e-01 3.924234807491302490e-01
2.466336488723754883e-01 -2.341811060905456543e-01 1.192170456051826477e-01
-9.304114580154418945e-01 1.200406551361083984e-01 -1.784172058105468750e-01
5.435168743133544922e-01 -1.785266995429992676e-01 -5.279189348220825195e-01
-1.822393834590911865e-01 2.140024304389953613e-01 3.849133849143981934e-01
9.502420425415039062e-01 -1.107805669307708740e-01 -1.600822955369949341e-01
-8.342674374580383301e-02 -1.775303035974502563e-01 4.519569277763366699e-01
1.457441300153732300e-01 -1.418055295944213867e-01 -7.078704237937927246e-01
-5.916271805763244629e-01 -9.215031564235687256e-02 3.382135927677154541e-01
-6.798601150512695312e-01 1.823386996984481812e-01 4.076166749000549316e-01
1.730718761682510376e-01 2.016689777374267578e-01 -1.271159499883651733e-01
-5.667943358421325684e-01 2.075680643320083618e-01 -3.693414032459259033e-01
-3.166352510452270508e-01 -1.511857211589813232e-01 3.882868587970733643e-01
-6.791612505912780762e-02 -1.547774821519851685e-01 -6.021301150321960449e-01
2.782553136348724365e-01 1.884742081165313721e-01 3.670414909720420837e-02
2.701566927134990692e-02 -2.149824351072311401e-01 2.192592024803161621e-01
5.348191857337951660e-01 1.040285304188728333e-01 4.197911024093627930e-01
9.138970077037811279e-02 -4.591451585292816162e-02 8.516470193862915039e-01
-6.592454910278320312e-01 1.883019953966140747e-01 -4.043006896972656250e-01
1.391242630779743195e-02 -2.155508846044540405e-01 -2.185720354318618774e-01
8.915481567382812500e-01 -1.357998549938201904e-01 2.743538022041320801e-01
-5.556655526161193848e-01 -3.395347669720649719e-02 6.100021004676818848e-01
-6.066733598709106445e-01 -8.275658823549747467e-03 6.114574074745178223e-01
3.355775773525238037e-01 6.608447432518005371e-02 7.302902936935424805e-01
8.945335149765014648e-01 1.152103999629616737e-03 8.831960707902908325e-02
7.284169197082519531e-01 -1.764992028474807739e-01 -3.952621817588806152e-01
-5.286249332129955292e-03 1.737769544124603271e-01 -5.537620782852172852e-01
3.890040814876556396e-01 1.614516973495483398e-01 2.200428545475006104e-01
-2.653234601020812988e-01 1.219794750213623047e-01 -7.528611421585083008e-01
7.010363936424255371e-01 8.740898221731185913e-02 1.073058024048805237e-01
4.154717549681663513e-02 1.233464255928993225e-01 7.213283777236938477e-01
-3.705201745033264160e-01 -1.024169325828552246e-01 5.783698558807373047e-01
-8.785879611968994141e-01 1.418761909008026123e-01 -2.717558443546295166e-01
4.825770258903503418e-01 -2.283416241407394409e-01 2.168110758066177368e-01
-2.350053191184997559e-01 2.389556914567947388e-01 -2.736656554043292999e-02
-8.700149059295654297e-01 1.691536158323287964e-01 1.416050791740417480e-01
-2.930931150913238525e-01 -5.290064588189125061e-02 7.565634846687316895e-01
2.954302728176116943e-02 2.199399620294570923e-01 9.275755286216735840e-02
-4.318026304244995117e-01 9.573405236005783081e-02 -7.546829581260681152e-01
2.022840082645416260e-01 -2.470298204571008682e-05 8.503667116165161133e-01
-3.424153923988342285e-01 2.293225228786468506e-01 2.748285233974456787e-01
2.312185466289520264e-01 -1.615074723958969116e-01 6.337780952453613281e-01
-6.616438627243041992e-01 -9.328296035528182983e-02 1.024382039904594421e-01
5.326332449913024902e-01 -1.971196532249450684e-01 -4.510180354118347168e-01
8.051365613937377930e-01 -1.215831339359283447e-01 -4.576769769191741943e-01
-6.412209272384643555e-01 -6.375268101692199707e-02 -4.288223087787628174e-01
-4.415021240711212158e-01 -1.483127027750015259e-01 -1.873072236776351929e-01
-2.447998672723770142e-01 -1.893667280673980713e-01 -5.706370249390602112e-02
-5.415886640548706055e-01 1.654201447963714600e-01 5.653335452079772949e-01
6.748331189155578613e-01 7.599133998155593872e-02 3.233349919319152832e-01
5.076887011528015137e-01 2.490853331983089447e-02 -6.928056478500366211e-01
2.004442736506462097e-02 -1.960338801145553589e-01 -4.250201880931854248e-01
3.296652734279632568e-01 1.711785942316055298e-01 -2.313169687986373901e-01
-6.534426212310791016e-01 -2.129923738539218903e-02 5.332746505737304688e-01
-1.943878382444381714e-01 -1.199046298861503601e-01 -6.651020646095275879e-01
5.900411009788513184e-01 -1.928997039794921875e-01 -4.396712481975555420e-01
-4.935760051012039185e-02 -2.122706621885299683e-01 -1.600855886936187744e-01
-1.590103805065155029e-01 -1.570712178945541382e-01 -5.357177853584289551e-01
3.949460014700889587e-02 -2.235601246356964111e-01 -7.210201025009155273e-02
-3.151419386267662048e-02 8.668550103902816772e-02 -8.137383460998535156e-01
-2.566756606101989746e-01 1.004876196384429932e-02 8.328217864036560059e-01
7.227519154548645020e-01 6.179068982601165771e-02 -2.934259772300720215e-01
2.194288000464439392e-02 1.715221703052520752e-01 5.563555955886840820e-01
7.290483117103576660e-01 -2.116139978170394897e-01 -1.204116269946098328e-01
3.396347463130950928e-01 1.477998048067092896e-01 4.299974739551544189e-01
-5.717141553759574890e-02 1.725372225046157837e-01 5.828112959861755371e-01
-3.160658180713653564e-01 -1.349937468767166138e-01 4.869249463081359863e-01
7.999857068061828613e-01 -1.945114433765411377e-01 1.420898437500000000e-01
-3.756415545940399170e-01 2.070184201002120972e-01 4.461405575275421143e-01
7.102421522140502930e-01 8.653358370065689087e-02 1.603838242590427399e-02
-6.932172179222106934e-01 5.171826109290122986e-02 5.912354588508605957e-01
-7.917134165763854980e-01 -4.756117984652519226e-02 -6.312633305788040161e-02
-3.784178793430328369e-01 -1.659719347953796387e-01 2.653767168521881104e-02
3.610679507255554199e-01 -1.843994855880737305e-01 5.416707992553710938e-01
-3.830021917819976807e-01 2.412488609552383423e-01 -2.351362258195877075e-03
-3.899000585079193115e-01 -1.535354107618331909e-01 -2.663469016551971436e-01
8.598892688751220703e-01 2.129496540874242783e-03 2.525630295276641846e-01
8.973894715309143066e-01 -5.686805024743080139e-02 3.188801407814025879e-01
5.644799470901489258e-01 -2.320143431425094604e-01 6.054542958736419678e-02
-1.388817131519317627e-01 1.405194550752639771e-01 -7.094389200210571289e-01
8.857942819595336914e-01 3.908904734998941422e-03 1.247361376881599426e-01
3.409019410610198975e-01 1.773793250322341919e-01 6.417337805032730103e-02
4.293731451034545898e-01 1.389699429273605347e-01 3.616312742233276367e-01
1.265677958726882935e-01 -1.522122472524642944e-01 6.540486812591552734e-01
3.364387154579162598e-01 4.292040318250656128e-02 7.693805098533630371e-01
-6.991457939147949219e-02 -1.512564271688461304e-01 5.932939648628234863e-01
-9.535718709230422974e-03 2.239306718111038208e-01 -7.386898994445800781e-02
2.305650897324085236e-02 2.171330749988555908e-01 1.808950304985046387e-01
-1.100008934736251831e-01 -1.947391480207443237e-01 -3.143689036369323730e-01
-5.870990082621574402e-02 1.787361055612564087e-01 5.550554990768432617e-01
2.029464244842529297e-01 -2.303557246923446655e-01 -1.881569325923919678e-01
-2.447805255651473999e-01 2.281941920518875122e-01 2.720249593257904053e-01
3.852599859237670898e-01 1.417282372713088989e-01 4.096224308013916016e-01
2.511535882949829102e-01 1.149092428386211395e-02 -8.380791544914245605e-01
-6.995368599891662598e-01 -8.311732113361358643e-02 3.241901472210884094e-02
-1.791221648454666138e-01 -1.540030539035797119e-01 5.119252800941467285e-01
-7.079678773880004883e-01 4.834938049316406250e-02 -5.903737545013427734e-01
-8.968189954757690430e-01 6.568862497806549072e-02 2.874036729335784912e-01
-7.779178023338317871e-01 1.852163076400756836e-01 2.654668688774108887e-01
-4.721677303314208984e-02 -2.525844983756542206e-02 8.582956790924072266e-01
3.018566966056823730e-01 -1.068549677729606628e-01 -7.773680686950683594e-01
-1.741039007902145386e-02 2.075452953577041626e-01 3.478206992149353027e-01
7.063136696815490723e-01 8.317132294178009033e-02 1.521869152784347534e-01
-5.788869261741638184e-01 1.922176480293273926e-01 -4.463365674018859863e-01
3.055337071418762207e-01 8.001200854778289795e-02 7.172079682350158691e-01
-1.745277047157287598e-01 2.118288725614547729e-01 3.990474939346313477e-01
-2.926036342978477478e-02 2.072036713361740112e-01 3.600326478481292725e-01
6.547549366950988770e-01 -1.902010291814804077e-01 3.895355761051177979e-01
9.081642627716064453e-01 -1.424507051706314087e-02 -1.437335014343261719e-01
8.368251919746398926e-01 1.017370726913213730e-02 2.837476134300231934e-01
-7.013790011405944824e-01 1.088799238204956055e-01 -5.778070688247680664e-01
5.406850576400756836e-01 -2.338688969612121582e-01 4.565654695034027100e-02
7.246670126914978027e-01 -2.073954492807388306e-01 -1.938187777996063232e-01
3.312629163265228271e-01 -1.930290013551712036e-01 -5.240235328674316406e-01
-1.424719840288162231e-01 -1.940639466047286987e-01 -2.745235264301300049e-01
-7.194811701774597168e-01 1.269158124923706055e-01 -5.354187488555908203e-01
-8.114010095596313477e-01 1.961559206247329712e-01 2.323152497410774231e-02
-7.425295710563659668e-01 9.756361134350299835e-03 -5.038025975227355957e-01
-1.800365000963211060e-01 -1.916210502386093140e-01 -2.385686933994293213e-01
-2.201197296380996704e-01 7.909270375967025757e-02 -8.237344622611999512e-01
4.920720756053924561e-01 1.008334457874298096e-01 -4.896672368049621582e-01
-3.722261786460876465e-01 -1.595687121152877808e-01 -2.347699552774429321e-01
-9.071031212806701660e-02 9.157548099756240845e-02 8.073975443840026855e-01
4.910035729408264160e-01 -1.875142455101013184e-01 -5.143860578536987305e-01
9.249221086502075195e-01 -3.575282916426658630e-02 1.822736561298370361e-01
3.126037120819091797e-01 1.826485097408294678e-01 -3.554260358214378357e-02
4.071879684925079346e-01 -1.808032840490341187e-01 5.492441654205322266e-01
1.317072212696075439e-01 -2.309460639953613281e-01 1.149220764636993408e-02
-6.615391969680786133e-01 -6.833796203136444092e-02 -3.668650686740875244e-01
7.885464429855346680e-01 -1.102731376886367798e-01 4.871333241462707520e-01
4.193486273288726807e-02 -4.231340438127517700e-02 -8.657225370407104492e-01
-6.124784350395202637e-01 -1.069755256175994873e-01 1.278285235166549683e-01
7.511841058731079102e-01 5.536812916398048401e-02 -2.585229873657226562e-01
-5.792939290404319763e-02 2.269590944051742554e-01 1.196838170289993286e-01
-7.892516255378723145e-01 1.247361674904823303e-01 -4.621580541133880615e-01
1.827472150325775146e-01 -1.829671859741210938e-01 -5.629310011863708496e-01
6.540307402610778809e-01 9.071701765060424805e-02 2.641682028770446777e-01
3.741090595722198486e-01 -3.408448398113250732e-02 -8.119068145751953125e-01
5.760750174522399902e-01 1.221409365534782410e-01 1.607975810766220093e-01
6.475313305854797363e-01 8.969860523939132690e-02 -2.834179997444152832e-01
-5.102421641349792480e-01 -1.248163208365440369e-01 -2.819972932338714600e-01
-2.319289147853851318e-01 2.371638566255569458e-01 -1.070993393659591675e-01
4.239592850208282471e-01 -1.754909753799438477e-01 5.661478638648986816e-01
-4.447299242019653320e-01 2.149715274572372437e-01 -3.786219060420989990e-01
-7.697055339813232422e-01 8.653956651687622070e-02 -5.243542194366455078e-01
3.621455132961273193e-01 2.485563233494758606e-02 -7.820876836776733398e-01
4.069440811872482300e-02 2.189989537000656128e-01 -7.679460197687149048e-02
-4.497493803501129150e-01 -1.213314011693000793e-01 3.982994854450225830e-01
6.834591180086135864e-02 -1.401727795600891113e-01 6.812487840652465820e-01
-9.319142997264862061e-02 1.195859387516975403e-01 7.559347748756408691e-01
-1.073629856109619141e-01 2.096509933471679688e-01 3.879063427448272705e-01
-4.167307540774345398e-02 -1.251982152462005615e-01 -7.153953909873962402e-01
-2.134186625480651855e-01 1.753787547349929810e-01 -5.997066497802734375e-01
5.691589713096618652e-01 -1.491288840770721436e-01 5.925379395484924316e-01
-8.140948414802551270e-02 -2.108468711376190186e-01 -9.602373838424682617e-02
-9.167660772800445557e-02 -2.024921029806137085e-01 2.206344455480575562e-01
-9.033917188644409180e-01 1.014664173126220703e-01 2.780637443065643311e-01
5.887472033500671387e-01 -2.041447013616561890e-01 -3.781508207321166992e-01
2.278528660535812378e-01 1.768183559179306030e-01 -3.506186008453369141e-01
2.410828620195388794e-01 1.414620727300643921e-01 5.597820878028869629e-01
6.608828306198120117e-01 1.024430915713310242e-01 -1.460764929652214050e-02
9.228905439376831055e-01 -1.452540308237075806e-01 1.358341723680496216e-01
-2.920290529727935791e-01 -1.805109828710556030e-01 -1.107677444815635681e-01
5.406639575958251953e-01 1.352683305740356445e-01 -4.178449138998985291e-02
9.430615603923797607e-02 1.382750421762466431e-01 -6.549578905105590820e-01
6.938426196575164795e-02 1.453908234834671021e-01 6.434081792831420898e-01
4.678125381469726562e-01 1.471177637577056885e-01 1.861003488302230835e-01
-7.483847737312316895e-01 7.516138255596160889e-02 5.372887849807739258e-01
-7.569195032119750977e-01 -5.726356804370880127e-02 -1.605886071920394897e-01
-4.577383995056152344e-01 -2.311489172279834747e-02 -7.272944450378417969e-01
-4.481275379657745361e-01 -9.207078069448471069e-02 -5.664392113685607910e-01
-6.162517070770263672e-01 1.692085117101669312e-01 -5.140473842620849609e-01
-5.170595645904541016e-01 -9.888161718845367432e-02 -4.521892964839935303e-01
6.970158815383911133e-01 -1.925481259822845459e-01 3.358430564403533936e-01
-3.337949514389038086e-02 -1.817064136266708374e-01 -4.855754971504211426e-01
9.286399930715560913e-03 7.280577719211578369e-02 -8.292745947837829590e-01
5.353559851646423340e-01 5.307962000370025635e-02 6.127861142158508301e-01
4.145573079586029053e-01 -2.080738246440887451e-01 4.108937382698059082e-01
-9.180039167404174805e-02 -1.873739659786224365e-01 3.756096959114074707e-01
-4.709616899490356445e-01 -1.464736461639404297e-01 -5.928265675902366638e-02
-2.490485459566116333e-01 2.395326197147369385e-01 -1.044986490160226822e-02
5.711601376533508301e-01 -2.141198366880416870e-01 -3.204074203968048096e-01
6.739262938499450684e-01 -2.036148458719253540e-01 2.888776659965515137e-01
-5.818828940391540527e-01 2.081509232521057129e-01 3.532954454421997070e-01
-4.616177976131439209e-01 3.429229557514190674e-02 -7.703121900558471680e-01
7.300336956977844238e-01 -2.086619287729263306e-01 -1.657399535179138184e-01
8.486568927764892578e-01 8.237305097281932831e-03 -2.539743781089782715e-01
-6.682766079902648926e-01 1.811452656984329224e-01 4.235675036907196045e-01
5.355720520019531250e-01 -2.142850756645202637e-01 -3.425311148166656494e-01
2.463135570287704468e-01 -1.336974650621414185e-01 7.148180007934570312e-01
-4.987877607345581055e-01 2.134555578231811523e-01 -3.683583140373229980e-01
-5.973696708679199219e-01 1.191820874810218811e-01 -6.430017948150634766e-01
-2.705055475234985352e-01 1.802037507295608521e-01 -5.825394392013549805e-01
-3.077729418873786926e-02 1.718084812164306641e-01 5.769958496093750000e-01
-8.015777170658111572e-02 2.178881466388702393e-01 2.944630980491638184e-01
2.869223058223724365e-01 -1.545837521553039551e-01 -6.732901930809020996e-01
-6.290796399116516113e-01 1.753224134445190430e-01 4.784755706787109375e-01
8.180333673954010010e-02 1.974151283502578735e-01 -3.416821360588073730e-01
5.864438414573669434e-01 -2.295974493026733398e-01 -1.053778156638145447e-01
8.311065435409545898e-01 3.583773598074913025e-02 9.936136752367019653e-02
-9.460188746452331543e-01 9.003857523202896118e-02 1.311602890491485596e-01
-2.331850379705429077e-01 2.303746938705444336e-01 -2.352178990840911865e-01
2.653613090515136719e-01 1.796240508556365967e-01 2.717433571815490723e-01
-1.333897262811660767e-01 -1.536903232336044312e-01 5.461961627006530762e-01
6.288576126098632812e-01 3.901058435440063477e-02 -5.477393269538879395e-01
8.107202649116516113e-01 -1.924164295196533203e-01 1.331490427255630493e-01
-5.034349560737609863e-01 3.356485441327095032e-02 7.327197790145874023e-01
3.879602253437042236e-01 7.740504294633865356e-02 6.717642545700073242e-01
-6.008908748626708984e-01 1.999632567167282104e-01 3.886033594608306885e-01
-2.391606420278549194e-01 8.752486668527126312e-03 8.373557329177856445e-01
4.741946458816528320e-01 1.511784493923187256e-01 2.403680421411991119e-02
-5.115463137626647949e-01 -1.373481452465057373e-01 -1.222895458340644836e-02
-5.806922316551208496e-01 -1.111633181571960449e-01 -2.263401746749877930e-01
4.690335392951965332e-01 -2.345236986875534058e-01 -1.463921219110488892e-01
-7.872943282127380371e-01 -3.366191312670707703e-02 2.335854023694992065e-01
8.114688098430633545e-02 -1.736049205064773560e-01 5.588856339454650879e-01
6.176893115043640137e-01 8.964832127094268799e-02 3.585813939571380615e-01
6.790027618408203125e-01 -1.075455173850059509e-02 -5.932570695877075195e-01
4.067402184009552002e-01 1.623212248086929321e-01 -1.348669379949569702e-01
-1.645349115133285522e-01 2.017370760440826416e-01 4.644305408000946045e-01
-2.698132991790771484e-01 2.320730835199356079e-01 -2.262522131204605103e-01
-2.582782506942749023e-01 2.398355007171630859e-01 5.769078154116868973e-03
-4.423589110374450684e-01 1.627124994993209839e-01 -6.176133155822753906e-01
-5.570735931396484375e-01 3.903247416019439697e-02 -7.146207690238952637e-01
-4.692595005035400391e-01 -1.292380690574645996e-01 -3.335871398448944092e-01
7.480946183204650879e-01 -1.655195653438568115e-01 -4.163087606430053711e-01
7.310783863067626953e-01 -2.007272094488143921e-01 -2.480088621377944946e-01
-1.578527688980102539e-01 1.933213174343109131e-01 -5.074760913848876953e-01
5.851982235908508301e-01 -1.540017724037170410e-01 -5.839470624923706055e-01
7.587360143661499023e-01 -1.353162676095962524e-01 4.789784550666809082e-01
3.960133790969848633e-01 -2.283539921045303345e-01 -2.661871016025543213e-01
-5.593216419219970703e-01 2.326620519161224365e-01 -1.038381382822990417e-01
8.564391136169433594e-01 -7.263816148042678833e-02 -4.142215847969055176e-01
4.539263248443603516e-01 -2.352160960435867310e-01 1.200193390250205994e-01
-6.632884740829467773e-01 -3.894603345543146133e-03 -5.789331793785095215e-01
4.625664651393890381e-01 -2.373260706663131714e-01 -6.418594717979431152e-02
1.514473259449005127e-01 2.022450864315032959e-01 1.850357353687286377e-01
-8.905967473983764648e-01 1.661376953125000000e-01 5.897124856710433960e-02
8.497887849807739258e-02 2.118619382381439209e-01 1.542780101299285889e-01
9.556077122688293457e-01 -8.646912872791290283e-02 1.554029434919357300e-01
4.127689301967620850e-01 -1.163971647620201111e-01 -7.358483672142028809e-01
-4.298965334892272949e-01 1.534931808710098267e-01 6.440339684486389160e-01
-5.082504153251647949e-01 -1.149143949151039124e-01 3.432038128376007080e-01
-1.336227655410766602e-01 -2.037609964609146118e-01 -1.214610263705253601e-01
-3.457467257976531982e-01 2.308466881513595581e-01 2.573581337928771973e-01
-4.456825554370880127e-01 -1.373519897460937500e-01 -3.101816773414611816e-01
2.885640561580657959e-01 1.062053069472312927e-01 -6.546173691749572754e-01
2.344399839639663696e-01 1.843493878841400146e-01 2.735511362552642822e-01
-1.015175282955169678e-01 2.318681031465530396e-01 4.719403758645057678e-02
4.965423606336116791e-03 -1.561140120029449463e-01 6.065076589584350586e-01
-6.139386296272277832e-01 -1.102861016988754272e-01 -3.574974089860916138e-02
4.505830705165863037e-01 1.548920869827270508e-01 1.001533493399620056e-01
7.637691497802734375e-02 -1.990285068750381470e-01 4.128652513027191162e-01
-1.280965656042098999e-01 -1.353857964277267456e-01 -6.473883986473083496e-01
-4.087685346603393555e-01 -1.568776369094848633e-01 -1.565528661012649536e-01
2.867381572723388672e-01 -2.238775789737701416e-01 -3.112392127513885498e-01
-6.099801063537597656e-01 -1.111989691853523254e-01 2.725202031433582306e-02
-9.005349278450012207e-01 1.620440334081649780e-01 -4.301049560308456421e-02
1.137391477823257446e-01 -1.611876040697097778e-01 -6.400755047798156738e-01
-1.664461642503738403e-01 -2.006281167268753052e-01 4.407389834523200989e-02
7.194318175315856934e-01 -1.810433119535446167e-01 -3.849084377288818359e-01
2.022959589958190918e-01 -1.199341844767332077e-02 -8.598279953002929688e-01
-5.265290737152099609e-01 -3.339898213744163513e-02 6.379160284996032715e-01
-6.218122839927673340e-01 -1.029856577515602112e-01 1.487674713134765625e-01
-2.391998916864395142e-01 -1.593104749917984009e-01 -4.517423212528228760e-01
8.887849450111389160e-01 -1.444704085588455200e-01 -2.593512833118438721e-01
7.503558993339538574e-01 -6.832188367843627930e-02 -5.587866306304931641e-01
9.078747034072875977e-01 -1.628217548131942749e-01 -3.865031898021697998e-02
1.463893242180347443e-02 1.583937555551528931e-01 6.163240075111389160e-01
-8.868767321109771729e-02 1.622775048017501831e-01 -6.305340528488159180e-01
5.444036722183227539e-01 1.223670616745948792e-01 2.652240693569183350e-01
-9.555640816688537598e-01 1.074641942977905273e-01 2.004975266754627228e-02
-5.402465462684631348e-01 2.281151562929153442e-01 2.083099931478500366e-01
1.918914914131164551e-01 1.965161561965942383e-01 -1.807994395494461060e-01
5.961685180664062500e-01 -1.306278537958860397e-02 6.716759204864501953e-01
-2.287462800741195679e-01 1.342581361532211304e-01 7.261248826980590820e-01
-7.303500175476074219e-02 1.906584203243255615e-01 4.986707568168640137e-01
1.115425378084182739e-01 -2.230050563812255859e-01 -2.248856425285339355e-01
2.391428872942924500e-02 -2.130053490400314331e-01 2.423395514488220215e-01
6.939936280250549316e-01 7.142695784568786621e-02 -3.014416396617889404e-01
7.476830482482910156e-02 -6.829773634672164917e-02 8.295384049415588379e-01
-7.349193096160888672e-01 1.682346165180206299e-01 -4.128008782863616943e-01
2.438971698284149170e-01 -1.785232871770858765e-01 5.694202780723571777e-01
9.437376260757446289e-02 -2.214244604110717773e-01 -2.306213229894638062e-01
9.157648086547851562e-01 -2.539571560919284821e-02 -1.740750372409820557e-01
7.092446088790893555e-02 1.857475936412811279e-01 -4.418936967849731445e-01
-2.405070513486862183e-01 9.035224467515945435e-02 8.017339110374450684e-01
-1.979635283350944519e-02 1.266533881425857544e-01 7.279433608055114746e-01
-6.736199557781219482e-02 -1.400828659534454346e-01 -6.589711904525756836e-01
-3.975704014301300049e-01 4.646713286638259888e-02 7.878481149673461914e-01
-5.834119915962219238e-01 2.139348089694976807e-01 -3.120737075805664062e-01
2.716246545314788818e-01 1.807038038969039917e-01 -2.370678335428237915e-01
7.653590440750122070e-01 6.430201232433319092e-02 -9.426538646221160889e-02
-3.023985028266906738e-01 2.343811243772506714e-01 2.059774696826934814e-01
5.332318544387817383e-01 1.297659426927566528e-01 -2.043588459491729736e-01
-5.318880081176757812e-01 2.320500761270523071e-01 -1.568162739276885986e-01
1.894374042749404907e-01 1.112520769238471985e-01 6.980255246162414551e-01
-4.394225180149078369e-01 2.017215825617313385e-02 -7.774168252944946289e-01
-2.018249183893203735e-01 9.119648486375808716e-02 -8.104345798492431641e-01
-1.319148540496826172e-01 2.294439971446990967e-01 1.808241903781890869e-01
-3.580199480056762695e-01 -1.548945903778076172e-01 2.924432158470153809e-01
2.283673733472824097e-02 6.382004916667938232e-02 8.350185155868530273e-01
8.963612318038940430e-01 -4.464395344257354736e-03 -1.343710869550704956e-01
7.480178773403167725e-02 1.747642159461975098e-01 5.111661553382873535e-01
-3.133303523063659668e-01 2.145656645298004150e-01 -3.997876346111297607e-01
2.570340037345886230e-01 1.718410849571228027e-01 -3.535732328891754150e-01
9.544340968132019043e-01 -5.559758469462394714e-02 9.816500544548034668e-02
-4.217339754104614258e-01 2.044159471988677979e-01 -4.511012434959411621e-01
7.476997375488281250e-02 -3.720348700881004333e-02 8.576399087905883789e-01
-8.032207489013671875e-01 -3.799124807119369507e-02 -1.495682448148727417e-01
-6.199685335159301758e-01 -1.083426550030708313e-01 -5.256757140159606934e-02
-3.997736573219299316e-01 1.575066894292831421e-01 -6.447038650512695312e-01
6.617839932441711426e-01 -1.039067730307579041e-01 -6.230149269104003906e-01
7.045696973800659180e-01 8.775354921817779541e-02 6.268571317195892334e-02
8.443409800529479980e-01 -1.794069111347198486e-01 -1.757812350988388062e-01
5.525729060173034668e-01 -1.551043689250946045e-01 -5.986475944519042969e-01
-9.540904760360717773e-01 9.222516417503356934e-02 -9.029372036457061768e-02
-4.087809324264526367e-01 -1.586340069770812988e-01 -1.116840094327926636e-01
-5.688819885253906250e-01 -1.222334578633308411e-01 4.401332885026931763e-02
-2.575828135013580322e-02 -2.049778401851654053e-01 -3.068238794803619385e-01
8.454968929290771484e-01 -1.537050902843475342e-01 -3.177289068698883057e-01
-1.951631605625152588e-01 -8.065602183341979980e-02 7.482050657272338867e-01
5.920346379280090332e-01 -2.136795073747634888e-01 2.900006175041198730e-01
-8.663114905357360840e-02 2.052674293518066406e-01 4.109259843826293945e-01
-8.327532559633255005e-03 -1.935570836067199707e-01 3.987250924110412598e-01
-6.160415410995483398e-01 1.630049496889114380e-01 -5.339953899383544922e-01
5.723461508750915527e-01 -1.616691648960113525e-01 5.558471083641052246e-01
4.118061363697052002e-01 5.106952041387557983e-02 -7.132512927055358887e-01
-6.762257218360900879e-02 -1.172781512141227722e-01 -7.286844253540039062e-01
-5.253990888595581055e-01 2.032925635576248169e-01 -4.191241264343261719e-01
7.703475952148437500e-01 6.448529660701751709e-02 -2.008544839918613434e-02
7.440173029899597168e-01 -1.864926666021347046e-01 -3.268750607967376709e-01
1.040463000535964966e-01 -2.184280455112457275e-01 -2.803647816181182861e-01
8.709187507629394531e-01 1.645434647798538208e-02 7.173962146043777466e-02
-3.851750791072845459e-01 -1.644983738660812378e-01 -6.494301557540893555e-02
3.182314038276672363e-01 1.687367260456085205e-01 2.927432060241699219e-01
-3.662272393703460693e-01 -7.080086320638656616e-02 6.773827672004699707e-01
-1.840831935405731201e-01 -2.312321588397026062e-02 8.340312242507934570e-01
-4.769365303218364716e-03 1.375059336423873901e-01 -6.930040121078491211e-01
-8.574271202087402344e-02 2.245739847421646118e-01 2.122991085052490234e-01
1.345586180686950684e-01 -2.144853770732879639e-01 3.191974759101867676e-01
9.155911207199096680e-01 -1.067973673343658447e-01 -2.818565070629119873e-01
-9.235171675682067871e-01 1.479534059762954712e-01 -2.863472513854503632e-02
3.134164810180664062e-01 1.825668364763259888e-01 4.001436010003089905e-02
1.872644126415252686e-01 -2.236445993185043335e-01 2.521137893199920654e-01
-6.783576309680938721e-02 7.134764641523361206e-02 8.333037495613098145e-01
-3.441931307315826416e-01 2.190369665622711182e-01 -3.662066161632537842e-01
1.951393205672502518e-03 2.214107215404510498e-01 -1.227273046970367432e-01
-8.817660808563232422e-01 6.629881262779235840e-02 -3.420019745826721191e-01
7.917301654815673828e-01 4.922147840261459351e-02 1.650246083736419678e-01
5.071869492530822754e-01 1.156269293278455734e-02 7.115525603294372559e-01
9.195238947868347168e-01 -1.042421832680702209e-01 2.702696621417999268e-01
-8.894824385643005371e-01 6.744911521673202515e-02 3.076719343662261963e-01
1.371299326419830322e-01 -7.746792864054441452e-03 8.623527884483337402e-01
-5.970255136489868164e-01 -1.114267557859420776e-01 1.275769919157028198e-01
-6.906826496124267578e-01 2.202308773994445801e-01 -4.637736454606056213e-02
-4.053022861480712891e-01 -1.226592063903808594e-01 4.515023827552795410e-01
-5.498216152191162109e-01 -1.084225252270698547e-01 3.083010017871856689e-01
2.418766468763351440e-01 4.904005303978919983e-02 8.008582592010498047e-01
-9.045842885971069336e-01 1.519323438405990601e-01 -1.400636732578277588e-01
1.743422821164131165e-02 2.215237766504287720e-01 7.612338662147521973e-02
5.055617168545722961e-02 2.147878408432006836e-01 -1.638964414596557617e-01
-9.226157069206237793e-01 1.477399319410324097e-01 4.047102481126785278e-02
9.037550687789916992e-01 -1.590445488691329956e-01 1.195104941725730896e-01
-3.083962202072143555e-01 2.392537295818328857e-01 -1.021513119339942932e-01
8.176911473274230957e-01 -1.305713206529617310e-01 4.171167910099029541e-01
-3.748359978199005127e-01 -1.519811749458312988e-01 -3.152692317962646484e-01
-4.915768802165985107e-01 2.225800901651382446e-01 3.005920350551605225e-01
5.020787119865417480e-01 6.844113022089004517e-02 6.025188565254211426e-01
-1.932275891304016113e-01 2.303929030895233154e-01 2.184199392795562744e-01
4.267821013927459717e-01 -2.373594939708709717e-01 -9.911615401506423950e-02
-2.166864424943923950e-01 -1.934971213340759277e-01 -6.879569590091705322e-02
1.113664954900741577e-01 2.030890136957168579e-01 2.497498244047164917e-01
-8.161988854408264160e-01 1.108896285295486450e-01 4.328698217868804932e-01
-5.469972491264343262e-01 2.151126265525817871e-01 3.289088308811187744e-01
-3.231922686100006104e-01 -1.712915748357772827e-01 1.690400242805480957e-01
-2.179799824953079224e-01 2.275822162628173828e-01 -2.638526260852813721e-01
-2.862698733806610107e-01 -1.883428730070590973e-02 8.043725490570068359e-01
2.108996808528900146e-01 -2.107001394033432007e-01 3.840709924697875977e-01
2.200320810079574585e-01 -1.816308796405792236e-01 5.536165237426757812e-01
-4.370059669017791748e-01 -1.519409418106079102e-01 -1.330736577510833740e-01
2.076070308685302734e-01 9.300753474235534668e-02 -7.351555228233337402e-01
-5.056196451187133789e-01 2.161766588687896729e-01 3.454396128654479980e-01
-7.390195727348327637e-01 -6.839769333600997925e-02 5.434489622712135315e-02
-7.706019878387451172e-01 -5.535521358251571655e-02 -9.667879343032836914e-02
4.556007385253906250e-01 -1.525183469057083130e-01 6.310449838638305664e-01
-8.224501609802246094e-01 3.788392525166273117e-03 -3.445519208908081055e-01
3.374363183975219727e-01 -2.344288825988769531e-01 -1.802665591239929199e-01
4.100161790847778320e-02 1.667208820581436157e-01 5.697191953659057617e-01
4.708448648452758789e-01 1.352425366640090942e-01 -3.068934679031372070e-01
6.016454100608825684e-01 9.570854157209396362e-02 3.515792191028594971e-01
1.881484538316726685e-01 1.872123330831527710e-01 -3.085584342479705811e-01
6.476846933364868164e-01 1.010754778981208801e-01 1.698965579271316528e-01
-6.271206140518188477e-01 2.234512418508529663e-01 1.619456112384796143e-01
3.620282746851444244e-03 1.978081911802291870e-01 -4.059035480022430420e-01
-3.916325047612190247e-02 -8.614162355661392212e-02 7.873213291168212891e-01
6.635510921478271484e-01 7.192507386207580566e-02 -3.662462830543518066e-01
-3.858268857002258301e-01 1.675397753715515137e-01 -6.169373393058776855e-01
6.497220396995544434e-01 -4.115612246096134186e-03 -6.141110658645629883e-01
1.960926055908203125e-01 -2.155259698629379272e-01 3.396792113780975342e-01
6.720361709594726562e-01 -2.045434862375259399e-01 -2.997518777847290039e-01
6.735997200012207031e-01 -1.752046793699264526e-01 4.410123825073242188e-01
6.050114631652832031e-01 -7.971947640180587769e-02 -6.826560497283935547e-01
4.024932384490966797e-01 1.205564215779304504e-01 -5.017537474632263184e-01
-2.070378661155700684e-01 -1.592836976051330566e-01 -4.838532507419586182e-01
-2.128864079713821411e-01 -1.751065403223037720e-01 3.393042683601379395e-01
-1.179452836513519287e-01 -2.030161470174789429e-01 -1.867675036191940308e-01
-4.746056199073791504e-01 1.555947810411453247e-01 6.229738593101501465e-01
8.430693745613098145e-01 -1.861879676580429077e-01 -9.705202281475067139e-02
-9.241079092025756836e-01 3.477798774838447571e-02 -9.728355705738067627e-02
7.693736553192138672e-01 6.436745822429656982e-02 5.499951168894767761e-02
7.142930626869201660e-01 -1.204433292150497437e-01 5.497487187385559082e-01
-9.094184637069702148e-01 9.666828066110610962e-02 -2.803926467895507812e-01
3.231436014175415039e-02 -2.056083679199218750e-01 3.305648565292358398e-01
5.021905153989791870e-02 -2.240378260612487793e-01 6.720092147588729858e-02
-5.113587379455566406e-01 -6.578877102583646774e-03 6.946439146995544434e-01
-2.317949533462524414e-01 1.550115942955017090e-01 -6.718902587890625000e-01
-2.872016131877899170e-01 2.382721453905105591e-01 1.246061697602272034e-01
4.705128073692321777e-01 1.446994096040725708e-01 2.131329178810119629e-01
1.483123749494552612e-01 2.074877470731735229e-01 1.431096158921718597e-02
-7.131950855255126953e-01 -7.467745244503021240e-02 -1.498089581727981567e-01
-4.886212348937988281e-01 2.080663293600082397e-01 4.076250493526458740e-01
1.266057044267654419e-01 1.303749978542327881e-01 6.696926951408386230e-01
1.328610628843307495e-02 -1.463377773761749268e-01 -6.668270826339721680e-01
6.249306797981262207e-01 1.106441169977188110e-01 -1.112195700407028198e-01
4.913364052772521973e-01 1.068977117538452148e-01 -4.611963331699371338e-01
4.740261435508728027e-01 1.481965035200119019e-01 -1.311121881008148193e-01
2.570253014564514160e-01 1.865580081939697266e-01 -1.847222894430160522e-01
-2.089323252439498901e-01 1.571684777736663818e-01 -6.646437048912048340e-01
1.953774243593215942e-01 -2.014583945274353027e-01 -4.661151766777038574e-01
2.471265494823455811e-01 1.839579194784164429e-01 -2.457170933485031128e-01
-7.780431509017944336e-01 3.626398742198944092e-02 4.762888252735137939e-01
3.044619858264923096e-01 -2.256735712289810181e-01 2.727158069610595703e-01
7.347214818000793457e-01 7.089907675981521606e-02 1.803739964962005615e-01
5.502561330795288086e-01 -5.927722901105880737e-02 7.185008525848388672e-01
-9.002987146377563477e-01 2.272272855043411255e-02 -1.702816635370254517e-01
-1.415256559848785400e-01 -1.594608575105667114e-01 5.120520591735839844e-01
6.317475438117980957e-02 2.126662284135818481e-01 -1.787302345037460327e-01
-1.682639420032501221e-01 -1.793205440044403076e-01 3.594409525394439697e-01
7.264180779457092285e-01 4.446543380618095398e-02 3.852575421333312988e-01
6.967616677284240723e-01 -1.193521395325660706e-01 5.667092800140380859e-01
4.180017486214637756e-02 1.748614311218261719e-01 5.297921895980834961e-01
4.237850904464721680e-01 -2.107512503862380981e-01 3.915802538394927979e-01
-7.256135940551757812e-01 -5.693489685654640198e-02 -2.834711372852325439e-01
3.087438642978668213e-01 -2.005655914545059204e-01 4.645277559757232666e-01
5.586437582969665527e-01 -2.071996927261352539e-01 3.609959781169891357e-01
3.556247353553771973e-01 1.663486808538436890e-01 2.408444136381149292e-01
-1.901207268238067627e-01 2.289102785289287567e-02 8.508834242820739746e-01
1.321117579936981201e-01 -1.696682572364807129e-01 -6.110016703605651855e-01
-3.542684614658355713e-01 -8.611342310905456543e-02 -6.663548946380615234e-01
4.036071598529815674e-01 1.616786420345306396e-01 -1.606108844280242920e-01
8.132935166358947754e-01 7.544971071183681488e-03 -3.505264520645141602e-01
-2.608031332492828369e-01 2.055461890995502472e-02 -8.458980917930603027e-01
4.478910267353057861e-01 1.994560472667217255e-02 -7.408863902091979980e-01
7.682062983512878418e-01 -2.040998488664627075e-01 -1.219305619597434998e-01
9.039573371410369873e-02 1.336306333541870117e-01 6.746265888214111328e-01
-5.718772411346435547e-01 -8.155989646911621094e-02 4.324462115764617920e-01
-1.973752528429031372e-01 2.375839799642562866e-01 9.909385815262794495e-03
-8.581684827804565430e-01 -1.135996077209711075e-02 1.024843975901603699e-01
3.514455258846282959e-02 -1.872405111789703369e-01 -4.916645586490631104e-01
-5.714532136917114258e-01 2.141705751419067383e-01 3.185126781463623047e-01
9.191116690635681152e-01 -1.420882046222686768e-01 1.702551841735839844e-01
1.547901332378387451e-01 -2.324502468109130859e-01 -7.648893631994724274e-03
4.153040647506713867e-01 -1.266182363033294678e-01 -7.169900536537170410e-01
-2.934566885232925415e-02 -2.074178010225296021e-01 2.476388961076736450e-01
-3.901799619197845459e-01 -1.167042776942253113e-01 4.994361400604248047e-01
5.454692840576171875e-01 -2.245451360940933228e-01 -2.403775602579116821e-01
-5.256159901618957520e-01 1.308579444885253906e-01 6.557337641716003418e-01
5.739601328969001770e-02 2.156561613082885742e-01 -1.278209090232849121e-01
4.559864103794097900e-02 2.164519876241683960e-01 -1.389476805925369263e-01
-7.656063437461853027e-01 -4.818521812558174133e-02 -2.203640043735504150e-01
-4.629567861557006836e-01 -1.434423476457595825e-01 1.613533198833465576e-01
-8.200643658638000488e-01 1.928559541702270508e-01 -6.436488777399063110e-02
-2.284082323312759399e-01 4.099958389997482300e-02 -8.502324223518371582e-01
3.641501814126968384e-02 -2.091293036937713623e-01 2.996855378150939941e-01
-4.507311284542083740e-01 -1.437109112739562988e-01 -2.262641936540603638e-01
3.488661646842956543e-01 -1.045107468962669373e-01 -7.713859081268310547e-01
-1.248226463794708252e-01 2.059337496757507324e-01 4.235119223594665527e-01
3.254336072131991386e-03 -2.073127925395965576e-01 2.868112027645111084e-01
-4.210745692253112793e-01 2.259897589683532715e-01 2.972415089607238770e-01
3.225331008434295654e-02 2.074430137872695923e-01 -2.950828671455383301e-01
-7.552467584609985352e-01 -5.512307956814765930e-02 -1.947492063045501709e-01
-1.437513679265975952e-01 -2.088675275444984436e-02 8.454306125640869141e-01
8.820587396621704102e-02 1.499952524900436401e-01 6.178275346755981445e-01
1.633675843477249146e-01 1.186994835734367371e-01 6.889029145240783691e-01
-7.658715248107910156e-01 1.960599869489669800e-01 2.084026038646697998e-01
-1.971140354871749878e-01 1.336346268653869629e-01 7.285181879997253418e-01
6.951890885829925537e-02 7.232525199651718140e-02 -8.195469379425048828e-01
8.131134510040283203e-01 -1.655971445143222809e-02 4.212850332260131836e-01
-3.780635595321655273e-01 2.251198589801788330e-01 -3.117431104183197021e-01
-4.295427203178405762e-01 8.117223531007766724e-02 -7.697995901107788086e-01
6.630216836929321289e-01 -1.626395583152770996e-01 -5.067091584205627441e-01
-4.144201576709747314e-01 -8.085273206233978271e-02 6.131768226623535156e-01
8.307716846466064453e-01 -1.871009469032287598e-01 -1.404283493757247925e-01
3.048475980758666992e-01 7.540191058069467545e-03 -8.226510286331176758e-01
-3.542338311672210693e-02 1.288016438484191895e-01 7.255474328994750977e-01
6.952120065689086914e-01 -2.130183130502700806e-01 -1.841240376234054565e-01
-8.315001726150512695e-01 5.499698966741561890e-02 -4.305478334426879883e-01
-3.616353571414947510e-01 -1.296784877777099609e-01 -4.906774759292602539e-01
1.966805756092071533e-01 -3.369611129164695740e-02 8.502035737037658691e-01
7.030732035636901855e-01 -1.946915686130523682e-01 -3.304686844348907471e-01
3.094213008880615234e-01 1.484177261590957642e-01 4.615389704704284668e-01
-5.577707290649414062e-01 -1.151764988899230957e-01 2.261444777250289917e-01
8.797230720520019531e-01 -3.323506563901901245e-03 -2.073626220226287842e-01
-3.652421832084655762e-01 2.411916404962539673e-01 -2.740839123725891113e-02
-2.522607743740081787e-01 2.289205491542816162e-01 -2.611032128334045410e-01
5.768374800682067871e-01 5.993973091244697571e-02 5.501293540000915527e-01
-1.512776762247085571e-01 1.380601227283477783e-01 -7.172329425811767578e-01
-1.047698408365249634e-01 1.589597910642623901e-01 6.476672291755676270e-01
7.971491664648056030e-03 1.863783895969390869e-01 -4.794639945030212402e-01
9.541285037994384766e-02 1.902501732110977173e-01 -3.888699412345886230e-01
4.147830605506896973e-01 1.528820097446441650e-01 2.621347308158874512e-01
4.006437361240386963e-01 -2.246173173189163208e-01 -3.053883612155914307e-01
5.583230257034301758e-01 1.301804333925247192e-01 8.038502186536788940e-02
8.856628835201263428e-02 -6.807839870452880859e-02 -8.439394831657409668e-01
1.384647339582443237e-01 2.079486399888992310e-01 -6.979019194841384888e-02
-4.417170956730842590e-02 1.464705616235733032e-01 -6.751314997673034668e-01
-4.363848865032196045e-01 -1.223158314824104309e-01 -4.374418854713439941e-01
-9.374716281890869141e-01 5.385691672563552856e-02 -1.194576770067214966e-01
-3.513837754726409912e-01 2.302527725696563721e-01 -2.607101500034332275e-01
-2.270629256963729858e-01 2.031205892562866211e-01 -4.660332798957824707e-01
-8.173081874847412109e-01 4.193872958421707153e-02 -4.403840005397796631e-01
3.935807943344116211e-01 -2.228791117668151855e-01 -3.231035470962524414e-01
-2.901994884014129639e-01 -1.698739975690841675e-01 2.670293748378753662e-01
2.576888725161552429e-02 -1.732278764247894287e-01 5.394584536552429199e-01
9.404672384262084961e-01 -1.170073673129081726e-01 -1.874231845140457153e-01
2.492850124835968018e-01 1.917205452919006348e-01 1.042513772845268250e-01
-1.206446439027786255e-01 1.551571190357208252e-01 6.631785035133361816e-01
-4.626878201961517334e-01 2.396024018526077271e-01 1.929888129234313965e-02
-5.751883387565612793e-01 -7.767203450202941895e-02 4.457196295261383057e-01
8.583049774169921875e-01 -9.111780673265457153e-02 4.059706628322601318e-01
2.854529619216918945e-01 -2.315552979707717896e-01 -2.156109660863876343e-01
-1.587712764739990234e-01 -1.835264712572097778e-01 3.347638547420501709e-01
-1.727029681205749512e-01 2.213471941649913788e-02 -8.643652796745300293e-01
-8.397255539894104004e-01 1.760848760604858398e-01 -1.960936933755874634e-01
-6.380403637886047363e-01 -1.093178894370794296e-02 5.740739703178405762e-01
-2.154278457164764404e-01 -1.836373209953308105e-01 2.483954876661300659e-01
6.180798411369323730e-01 2.861848846077919006e-02 5.880255699157714844e-01
2.521000504493713379e-01 -1.424198001623153687e-01 6.922168135643005371e-01
1.057541966438293457e-01 1.818159669637680054e-01 -4.407526254653930664e-01
-7.987486720085144043e-01 -2.293164841830730438e-02 2.652176022529602051e-01
1.308651417493820190e-01 -1.587545871734619141e-01 6.320454478263854980e-01
-9.005514979362487793e-01 1.319604068994522095e-01 2.334860861301422119e-01
3.519007936120033264e-02 -2.212291955947875977e-01 -1.429314613342285156e-01
-4.647176563739776611e-01 2.280193269252777100e-01 2.604594826698303223e-01
8.211953043937683105e-01 9.107307530939579010e-03 3.294039070606231689e-01
8.735449910163879395e-01 6.369953509420156479e-03 1.727144718170166016e-01
6.615850925445556641e-01 -2.239010334014892578e-01 -2.129883691668510437e-02
-6.956314668059349060e-03 1.963161379098892212e-01 -4.239022135734558105e-01
-8.104214668273925781e-01 1.595703959465026855e-01 3.338477015495300293e-01
-8.811428546905517578e-01 1.258111838251352310e-02 -2.008667439222335815e-01
8.756245374679565430e-01 -9.427178651094436646e-02 -3.780041635036468506e-01
5.407783985137939453e-01 -2.308492958545684814e-01 1.322080045938491821e-01
-7.442107796669006348e-02 -1.440267264842987061e-02 -8.725694417953491211e-01
1.931121200323104858e-01 -2.344968020915985107e-01 -2.544720284640789032e-02
4.699766933917999268e-01 -1.327019184827804565e-01 6.737996935844421387e-01
1.542556881904602051e-01 7.871589064598083496e-02 7.850018739700317383e-01
-5.236305594444274902e-01 7.933323085308074951e-02 -7.278313636779785156e-01
-1.836573779582977295e-01 -1.041479259729385376e-01 -7.171890139579772949e-01
8.951800465583801270e-01 3.391565755009651184e-03 -1.942347735166549683e-02
-7.132630944252014160e-01 -6.800528615713119507e-02 -2.310246080160140991e-01
4.301958084106445312e-01 1.442055851221084595e-01 3.166631162166595459e-01
-5.020654201507568359e-02 2.036027014255523682e-01 -3.975148200988769531e-01
-8.840752840042114258e-01 1.679088771343231201e-01 -9.196633100509643555e-02
-6.589409112930297852e-01 -8.768986910581588745e-02 1.976163983345031738e-01
-3.407490253448486328e-01 5.685855820775032043e-02 -8.160131573677062988e-01
8.331695199012756348e-01 3.585853800177574158e-02 -7.318969815969467163e-02
5.368222594261169434e-01 7.352305203676223755e-02 5.508026480674743652e-01
-1.900471299886703491e-01 -1.644747257232666016e-01 -4.682547450065612793e-01
6.324781775474548340e-01 -2.103275060653686523e-01 2.808838784694671631e-01
-8.035112917423248291e-02 1.321351528167724609e-01 7.244815230369567871e-01
6.988309025764465332e-01 4.067511484026908875e-02 -4.453176558017730713e-01
3.331593573093414307e-01 5.334039404988288879e-02 7.548962831497192383e-01
7.788684964179992676e-01 -1.512525826692581177e-01 -4.257574379444122314e-01
-3.615684807300567627e-01 1.244189217686653137e-01 -7.320997118949890137e-01
3.494907617568969727e-01 1.538397818803787231e-01 3.741816282272338867e-01
-2.076206803321838379e-01 -1.922127753496170044e-01 1.293595731258392334e-01
-7.508105039596557617e-02 -1.959908753633499146e-01 -3.438408970832824707e-01
-1.761577129364013672e-01 2.180651575326919556e-01 3.487542569637298584e-01
1.190702021121978760e-01 1.989253908395767212e-01 -2.812770307064056396e-01
-3.148076832294464111e-01 2.325351387262344360e-01 2.345228046178817749e-01
-1.135734915733337402e-01 1.890913248062133789e-01 -5.176013708114624023e-01
-4.687393605709075928e-01 -7.340276241302490234e-02 5.874315500259399414e-01
7.804403305053710938e-01 -1.971915960311889648e-01 -1.800193339586257935e-01
2.522196173667907715e-01 7.490243762731552124e-02 -7.545577883720397949e-01
-3.747233152389526367e-01 4.124517738819122314e-02 7.973740696907043457e-01
-5.457608699798583984e-01 -1.168453171849250793e-01 -2.694709897041320801e-01
-3.252520561218261719e-01 1.042230725288391113e-01 -7.742598056793212891e-01
-7.267296314239501953e-01 -3.429144248366355896e-02 3.799354434013366699e-01
9.221072793006896973e-01 -4.483306035399436951e-02 -2.240960299968719482e-01
6.072326302528381348e-01 9.228536486625671387e-02 -3.559621870517730713e-01
-3.639705479145050049e-01 2.241029292345046997e-01 -3.225203454494476318e-01
-1.820070445537567139e-01 -1.727654933929443359e-01 -4.206773340702056885e-01
1.983580738306045532e-01 1.721880398690700531e-02 8.438192605972290039e-01
-1.553982943296432495e-01 -1.409697830677032471e-01 5.881607532501220703e-01
-4.201079010963439941e-01 2.147026062011718750e-01 3.884783387184143066e-01
5.011245608329772949e-01 -2.288661301136016846e-01 1.990554332733154297e-01
3.481796681880950928e-01 -1.388058960437774658e-01 6.919727921485900879e-01
7.253892421722412109e-01 8.104854822158813477e-02 3.934964910149574280e-02
9.399468302726745605e-01 -1.246496811509132385e-01 -1.670468747615814209e-01
9.529518485069274902e-01 -1.061900481581687927e-01 1.523187011480331421e-01
-4.384108185768127441e-01 -1.369139105081558228e-01 -3.291486203670501709e-01
8.374407887458801270e-02 -1.323303729295730591e-01 7.071918249130249023e-01
4.873836934566497803e-01 -2.249277234077453613e-01 2.538466453552246094e-01
-8.766617774963378906e-01 1.737114191055297852e-01 -3.804624453186988831e-02
