1.874837875366210938e-01 -1.489839330315589905e-02 -1.452943235635757446e-01
1.172422766685485840e-01 -8.539134263992309570e-02 1.359588354825973511e-01
1.569198071956634521e-01 -7.216665148735046387e-02 2.129328250885009766e-01
1.461699604988098145e-01 -7.803946733474731445e-02 1.981040090322494507e-01
1.283215135335922241e-01 -6.808082759380340576e-02 -1.011395454406738281e-01
1.649958789348602295e-01 -4.802371561527252197e-02 2.177853286266326904e-01
1.015963405370712280e-01 -8.716537058353424072e-02 1.471535265445709229e-01
5.115156620740890503e-02 -4.991165176033973694e-02 -9.525708854198455811e-02
1.532005518674850464e-01 -4.888366907835006714e-03 -1.343230307102203369e-01
1.040763929486274719e-01 -1.016195863485336304e-02 -1.874912232160568237e-01
1.403798758983612061e-01 -2.598894201219081879e-02 -3.406939208507537842e-01
6.495180726051330566e-02 -6.193779036402702332e-02 -1.586545854806900024e-01
1.641295403242111206e-01 -5.122546106576919556e-03 -1.459684073925018311e-01
1.064145416021347046e-01 -2.704705297946929932e-02 5.500968918204307556e-02
5.818572640419006348e-02 -4.885805025696754456e-02 1.691270992159843445e-02
1.447072774171829224e-01 -3.949530422687530518e-03 -1.584876477718353271e-01
1.723048537969589233e-01 -8.493646979331970215e-03 -1.027037501335144043e-01
5.915433913469314575e-02 -3.695204481482505798e-02 -1.763497591018676758e-01
1.011229231953620911e-01 -6.839863210916519165e-02 -1.390099227428436279e-01
5.818378925323486328e-02 -5.020296946167945862e-02 -1.923341602087020874e-01
1.264173388481140137e-01 -3.558229655027389526e-03 -2.480637580156326294e-01
8.002714812755584717e-02 -8.540084958076477051e-02 1.510480791330337524e-01
1.795223802328109741e-01 -9.034749120473861694e-03 -1.743190288543701172e-01
1.666226536035537720e-01 -6.040579825639724731e-02 -3.139396756887435913e-02
5.897526443004608154e-02 -6.899115443229675293e-02 -7.509474456310272217e-02
5.399383604526519775e-02 -4.423476383090019226e-02 -1.411748826503753662e-01
1.630700230598449707e-01 -6.098803132772445679e-03 -2.794277369976043701e-01
1.101622506976127625e-01 -5.308539047837257385e-02 -2.493047565221786499e-01
6.517419219017028809e-02 -5.361294001340866089e-02 9.767401218414306641e-02
1.457473337650299072e-01 -7.758762687444686890e-02 1.167645305395126343e-01
1.146511510014533997e-01 -6.551293283700942993e-02 2.826454937458038330e-01
1.681085973978042603e-01 -6.626973301172256470e-02 8.142015337944030762e-02
1.463615000247955322e-01 -2.422064356505870819e-02 9.216974675655364990e-02
9.691748023033142090e-02 -8.565863221883773804e-02 8.597820997238159180e-02
7.910974323749542236e-02 -7.991907000541687012e-02 2.134262323379516602e-01
1.212231889367103577e-01 -2.968243509531021118e-02 1.099656820297241211e-01
6.865196675062179565e-02 -6.542732566595077515e-02 -1.424492448568344116e-01
1.084810942411422729e-01 -7.337442040443420410e-02 -8.283439278602600098e-02
1.111459732055664062e-01 -1.431985758244991302e-02 -7.219944894313812256e-02
1.426584571599960327e-01 -6.499280780553817749e-02 -9.152017533779144287e-02
1.357906758785247803e-01 -5.323946475982666016e-03 -3.279749453067779541e-01
1.584822684526443481e-01 -3.543024137616157532e-02 1.687250286340713501e-01
1.172585412859916687e-01 -4.740677028894424438e-02 2.188588082790374756e-01
1.185475289821624756e-01 -3.268978372216224670e-02 1.285199373960494995e-01
7.071721553802490234e-02 -8.221901208162307739e-02 6.816352903842926025e-02
1.224929913878440857e-01 -2.698178961873054504e-02 9.008181095123291016e-02
1.575321406126022339e-01 -5.816471949219703674e-02 -1.032202839851379395e-01
6.235921755433082581e-02 -4.094699025154113770e-02 -2.336851209402084351e-01
1.311668157577514648e-01 -6.316587328910827637e-02 -1.413893401622772217e-01
8.689361810684204102e-02 -8.400703966617584229e-02 5.145711079239845276e-02
1.798986643552780151e-01 -4.556752368807792664e-02 -9.985629469156265259e-02
9.145258367061614990e-02 -5.187647044658660889e-02 -2.601887881755828857e-01
1.630553752183914185e-01 -6.490355730056762695e-02 5.284864455461502075e-03
1.246330887079238892e-01 -3.046742640435695648e-02 -3.465581834316253662e-01
1.069279909133911133e-01 -3.453484177589416504e-02 -3.407314717769622803e-01
8.435915410518646240e-02 -3.589285537600517273e-02 5.865177139639854431e-02
1.537432670593261719e-01 -6.752934306859970093e-02 -1.538146473467350006e-02
1.117623895406723022e-01 -5.227725952863693237e-02 2.346748709678649902e-01
1.624824851751327515e-01 -1.064911112189292908e-02 -4.785605892539024353e-02
8.825004100799560547e-02 -3.578878194093704224e-02 -3.245154023170471191e-01
8.091117441654205322e-02 -1.961763203144073486e-02 -1.918063163757324219e-01
1.843864619731903076e-01 -5.234896019101142883e-02 2.687434479594230652e-02
1.313457041978836060e-01 -7.797902822494506836e-02 2.728610336780548096e-01
5.198403447866439819e-02 -6.614832580089569092e-02 3.410514816641807556e-02
1.774001270532608032e-01 -2.346049435436725616e-02 5.818754807114601135e-02
1.018350571393966675e-01 -8.017882704734802246e-02 -7.585061714053153992e-03
1.922974884510040283e-01 -4.184684157371520996e-02 1.217962801456451416e-02
6.937932968139648438e-02 -3.333474695682525635e-02 -5.192676559090614319e-02
1.855157166719436646e-01 -2.268060110509395599e-02 2.110498026013374329e-02
9.764892607927322388e-02 -8.177354931831359863e-02 1.226449385285377502e-02
1.519106924533843994e-01 -2.274196594953536987e-03 -2.171445637941360474e-01
1.400209218263626099e-01 -7.436063140630722046e-03 -9.825128316879272461e-02
1.196459680795669556e-01 -1.909009926021099091e-02 1.005366817116737366e-02
1.539694368839263916e-01 -7.023590803146362305e-02 2.480457127094268799e-01
1.191429421305656433e-01 -4.091335460543632507e-02 -3.096218407154083252e-01
9.706357121467590332e-02 -5.856899917125701904e-02 2.344984710216522217e-01
1.176875233650207520e-01 -1.595529727637767792e-02 -3.681781291961669922e-01
1.213249787688255310e-01 -8.225934952497482300e-02 7.019832730293273926e-02
1.449016630649566650e-01 -2.692499570548534393e-02 1.132030040025711060e-01
9.070329368114471436e-02 -4.869249463081359863e-02 1.709389686584472656e-01
1.370144039392471313e-01 -7.895027846097946167e-02 7.915396988391876221e-02
6.231899932026863098e-02 -7.826955616474151611e-02 1.048584431409835815e-01
1.932632923126220703e-01 -3.141393885016441345e-02 -8.051203191280364990e-02
7.954725623130798340e-02 -7.550065964460372925e-02 -6.511127203702926636e-02
1.826433539390563965e-01 -5.526338517665863037e-02 6.117557361721992493e-02
1.757519096136093140e-01 -1.474052667617797852e-02 -2.277746051549911499e-02
1.748313158750534058e-01 -1.229861378669738770e-02 -2.550383806228637695e-01
1.122081354260444641e-01 -6.398160010576248169e-02 -1.673387587070465088e-01
1.190542131662368774e-01 -8.564646542072296143e-02 1.816473752260208130e-01
1.321917623281478882e-01 -6.221652030944824219e-02 2.838755846023559570e-01
1.535948216915130615e-01 -7.502734661102294922e-02 1.401001363992691040e-01
1.744603514671325684e-01 -3.309527039527893066e-02 1.320114433765411377e-01
9.228161722421646118e-02 -6.345199048519134521e-02 -1.830818951129913330e-01
8.183735609054565430e-02 -6.470122188329696655e-02 -1.687213927507400513e-01
1.310056447982788086e-01 -7.811063528060913086e-02 3.319137170910835266e-02
1.014202162623405457e-01 -6.602050364017486572e-02 2.662988603115081787e-01
9.862814843654632568e-02 -1.104615628719329834e-02 -2.287016212940216064e-01
1.305825412273406982e-01 -6.598854809999465942e-02 -1.164111942052841187e-01
7.190657407045364380e-02 -7.261788100004196167e-02 -8.393563330173492432e-02
1.164065003395080566e-01 -9.009316563606262207e-03 -3.397631943225860596e-01
1.088298633694648743e-01 -8.437250554561614990e-02 2.475274503231048584e-01
8.852028846740722656e-02 -4.307836666703224182e-02 1.290168464183807373e-01
9.789165854454040527e-02 -4.867373406887054443e-02 -2.793195247650146484e-01
1.409479379653930664e-01 -7.800355553627014160e-02 2.432411015033721924e-01
1.466436833143234253e-01 -3.889661282300949097e-02 -2.759021818637847900e-01
1.524418294429779053e-01 -1.991829834878444672e-02 5.607825890183448792e-02
5.626975744962692261e-02 -4.755821451544761658e-02 -1.333218812942504883e-02
1.147471666336059570e-01 -3.996830806136131287e-02 1.722650527954101562e-01
1.583481431007385254e-01 -5.206222459673881531e-02 -1.541537344455718994e-01
9.413215517997741699e-02 -8.630358427762985229e-02 1.036178767681121826e-01
1.864826083183288574e-01 -5.026366561651229858e-02 1.059614717960357666e-01
1.098737269639968872e-01 -5.659290403127670288e-02 -2.261732369661331177e-01
1.079517304897308350e-01 -5.980785936117172241e-02 -2.046147733926773071e-01
1.339136809110641479e-01 -2.310542762279510498e-02 7.313096523284912109e-02
1.626906841993331909e-01 -5.192887783050537109e-02 -1.376779973506927490e-01
5.719745904207229614e-02 -7.044593989849090576e-02 -4.682490602135658264e-02
7.802591472864151001e-02 -5.325399339199066162e-02 1.545463353395462036e-01
9.005373716354370117e-02 -8.621153980493545532e-02 1.951095312833786011e-01
9.401051700115203857e-02 -4.276335239410400391e-02 1.436916440725326538e-01
1.924273073673248291e-01 -2.477164193987846375e-02 -1.560847274959087372e-02
1.225469261407852173e-01 -4.677291959524154663e-02 -2.752546370029449463e-01
5.137868225574493408e-02 -6.620375812053680420e-02 1.692421734333038330e-02
1.438274979591369629e-01 -3.593079745769500732e-03 -3.035677969455718994e-01
7.073193788528442383e-02 -7.887600362300872803e-02 1.772131770849227905e-01
5.769775062799453735e-02 -6.638793647289276123e-02 -9.297307580709457397e-02
1.513979583978652954e-01 -7.271204143762588501e-02 5.085605755448341370e-02
1.370666623115539551e-01 -1.347452960908412933e-02 -2.055232413113117218e-02
1.403989791870117188e-01 -8.022982627153396606e-02 1.546369045972824097e-01
nan nan nan
1.994797587394714355e-01 -1.469043828547000885e-02 -5.999141931533813477e-02
-1.005636304616928101e-01 3.185735642910003662e-02 6.255438327789306641e-01
-8.439877629280090332e-02 -1.372867636382579803e-02 8.254621028900146484e-01
-1.069564186036586761e-02 -4.007345065474510193e-02 5.513796806335449219e-01
2.555333450436592102e-02 -4.575660824775695801e-02 4.328437447547912598e-01
-1.249550282955169678e-01 -6.262427195906639099e-04 3.487289249897003174e-01
1.841861754655838013e-02 -4.344151914119720459e-02 4.790320694446563721e-01
6.127971038222312927e-02 -1.755777001380920410e-02 6.534352302551269531e-01
9.367954730987548828e-02 -5.153534188866615295e-02 1.385839730501174927e-01
2.069976180791854858e-01 -8.778097108006477356e-03 1.081731021404266357e-01
-4.072987660765647888e-02 -2.528890594840049744e-02 7.296478748321533203e-01
-1.510040611028671265e-01 1.957959681749343872e-02 6.969494819641113281e-01
6.489150226116180420e-02 -3.878946602344512939e-02 4.741044044494628906e-01
-7.184681296348571777e-02 -2.674658317118883133e-03 1.696343868970870972e-01
2.005378603935241699e-01 -3.078476060181856155e-03 1.685892045497894287e-01
-4.124762490391731262e-03 -6.687296088784933090e-03 8.055817484855651855e-01
6.966662406921386719e-02 -4.614742845296859741e-02 -5.307018756866455078e-02
3.510800004005432129e-02 6.858727894723415375e-03 1.622226834297180176e-02
-1.244838535785675049e-01 -3.527455730363726616e-03 8.618103861808776855e-01
2.752362750470638275e-02 3.247175365686416626e-02 3.176881372928619385e-01
1.951362937688827515e-02 -2.612259984016418457e-02 -6.511408090591430664e-02
1.743660718202590942e-01 -9.539518505334854126e-03 -1.046300530433654785e-01
6.939344108104705811e-02 -4.161523282527923584e-02 4.297580718994140625e-01
-8.143611252307891846e-02 3.393872827291488647e-02 7.495428323745727539e-01
-6.891629099845886230e-02 -1.621229574084281921e-02 8.081183433532714844e-01
-5.053585395216941833e-03 3.286086395382881165e-02 3.579235672950744629e-01
1.716077327728271484e-03 3.305799141526222229e-02 7.254009842872619629e-01
-1.476463079452514648e-01 -2.026164717972278595e-02 6.429989337921142578e-01
2.947141230106353760e-02 3.698956593871116638e-02 4.796314835548400879e-01
-1.687737405300140381e-01 4.168425686657428741e-03 7.407333850860595703e-01
-1.693004742264747620e-02 2.161979302763938904e-02 2.167605012655258179e-01
1.453988403081893921e-01 -3.708598762750625610e-02 2.777682244777679443e-01
-9.700879454612731934e-02 3.300338238477706909e-02 6.626883745193481445e-01
-2.718441560864448547e-02 -4.110748693346977234e-02 5.404157638549804688e-01
1.760976910591125488e-01 8.820350281894207001e-03 2.903936803340911865e-01
-7.303482294082641602e-02 -4.187308624386787415e-02 4.538119733333587646e-01
-1.008931398391723633e-01 2.624566853046417236e-02 4.911966919898986816e-01
-1.228806376457214355e-01 -2.218534797430038452e-02 3.401527106761932373e-01
-6.085557118058204651e-02 -4.341356456279754639e-02 2.720220386981964111e-01
1.234792172908782959e-01 2.477591484785079956e-02 4.065907299518585205e-01
2.705613151192665100e-02 3.632486239075660706e-02 5.941514968872070312e-01
1.243281811475753784e-01 2.539614960551261902e-02 2.820478677749633789e-01
1.240388751029968262e-01 1.366673503071069717e-02 3.716176748275756836e-02
1.276112794876098633e-01 -4.850216582417488098e-02 9.936887025833129883e-02
-8.532239496707916260e-02 -3.606532886624336243e-02 2.676338553428649902e-01
1.559255123138427734e-01 -4.301556572318077087e-02 -4.679057002067565918e-02
1.457436829805374146e-01 1.960516721010208130e-02 3.564164340496063232e-01
1.959369331598281860e-01 -4.605541471391916275e-03 -7.967561483383178711e-03
3.205309435725212097e-02 -4.620163515210151672e-02 4.176020622253417969e-01
-1.657799333333969116e-01 -6.359336897730827332e-03 5.857616066932678223e-01
-7.598901167511940002e-03 1.158277597278356552e-02 1.109914183616638184e-01
-1.182661354541778564e-01 2.699758112430572510e-02 5.903711318969726562e-01
1.556727737188339233e-01 -4.279379174113273621e-02 1.229985952377319336e-01
-1.547842919826507568e-01 1.691269129514694214e-02 6.628759503364562988e-01
2.639969810843467712e-02 2.375760301947593689e-02 1.805739700794219971e-01
1.445615291595458984e-01 1.405743043869733810e-02 4.414862394332885742e-01
-1.591082513332366943e-01 1.555779483169317245e-02 7.352023124694824219e-01
1.998494938015937805e-02 -4.424297437071800232e-02 5.614876747131347656e-03
1.188941001892089844e-01 4.463906399905681610e-03 -5.239480733871459961e-02
-1.081497520208358765e-01 -2.003466337919235229e-02 2.652810811996459961e-01
1.075683236122131348e-01 2.848624810576438904e-02 4.049624204635620117e-01
-6.290252506732940674e-02 -2.728092484176158905e-03 1.462278962135314941e-01
4.098878428339958191e-02 3.406651318073272705e-02 3.552842438220977783e-01
-5.346416309475898743e-02 3.717358782887458801e-02 6.132822036743164062e-01
7.555947452783584595e-02 -4.267062246799468994e-02 4.026094675064086914e-01
6.165824458003044128e-02 -3.175288811326026917e-02 5.526751875877380371e-01
-9.333653748035430908e-02 2.145894244313240051e-02 3.991826176643371582e-01
1.323091331869363785e-02 7.968928664922714233e-03 5.268412828445434570e-02
6.560218334197998047e-02 1.990498602390289307e-02 1.051284372806549072e-01
7.684439420700073242e-02 -5.251464247703552246e-02 1.352125108242034912e-01
-1.790343225002288818e-02 -2.469008043408393860e-02 7.188543677330017090e-01
7.847745716571807861e-02 -1.682207360863685608e-02 6.221957206726074219e-01
4.910103231668472290e-02 2.468631602823734283e-03 -2.727499604225158691e-02
-8.147291839122772217e-02 2.339030802249908447e-02 3.850086331367492676e-01
1.916953772306442261e-01 -4.251283593475818634e-03 -2.462300658226013184e-02
3.127219155430793762e-03 2.583814039826393127e-02 7.876073718070983887e-01
-9.389521181583404541e-02 3.136625885963439941e-02 7.887554168701171875e-01
-9.038619697093963623e-02 -3.515789657831192017e-02 5.870040059089660645e-01
-1.083971261978149414e-01 -2.388683706521987915e-02 7.259335517883300781e-01
1.522810459136962891e-01 -3.473220765590667725e-02 -1.426740288734436035e-01
-1.300911009311676025e-01 1.136736664921045303e-02 8.839236497879028320e-01
-1.504693925380706787e-01 2.174759283661842346e-03 4.798950254917144775e-01
-4.871603474020957947e-02 3.675500303506851196e-02 5.578413009643554688e-01
6.800075061619281769e-03 -4.563405364751815796e-02 4.502781629562377930e-01
9.840022027492523193e-02 -4.703674465417861938e-02 -6.014364957809448242e-02
2.813169732689857483e-02 -7.765128742903470993e-03 7.555663585662841797e-01
-5.172198638319969177e-02 -2.820117771625518799e-02 7.069359421730041504e-01
4.011973366141319275e-02 2.699265256524085999e-03 7.608052492141723633e-01
-5.345982685685157776e-02 3.705333918333053589e-02 6.743727922439575195e-01
2.888476103544235229e-02 3.595569729804992676e-02 4.158632159233093262e-01
-8.231398463249206543e-02 -1.568168029189109802e-02 1.715307980775833130e-01
2.042142450809478760e-01 -1.651246659457683563e-02 -3.808912634849548340e-02
-5.934215709567070007e-02 -2.153616026043891907e-02 7.674620747566223145e-01
1.227668076753616333e-01 -4.076730459928512573e-02 -1.230783462524414062e-01
-6.875324249267578125e-02 3.618788719177246094e-02 6.704921126365661621e-01
8.950122632086277008e-03 -5.098509415984153748e-02 2.998355627059936523e-01
7.679720968008041382e-02 3.274594619870185852e-02 4.733950197696685791e-01
-1.358993351459503174e-01 2.017227932810783386e-02 5.647482275962829590e-01
-2.554724365472793579e-02 -3.360924124717712402e-02 6.407145261764526367e-01
-1.627562493085861206e-01 -5.027786828577518463e-03 7.561039924621582031e-01
-8.389301598072052002e-02 -3.903488814830780029e-02 5.086684226989746094e-01
-1.056596487760543823e-01 2.234285324811935425e-02 4.531875550746917725e-01
-3.415301442146301270e-03 -4.036863800138235092e-03 1.502448320388793945e-02
1.867002695798873901e-01 4.538028500974178314e-03 2.454430758953094482e-01
-1.325379759073257446e-01 2.355089783668518066e-02 6.059730052947998047e-01
-1.572168171405792236e-01 -1.414846722036600113e-02 5.360097885131835938e-01
-1.925990357995033264e-02 2.881111949682235718e-02 8.006103038787841797e-01
-2.640371024608612061e-02 -1.224259659647941589e-02 8.057973384857177734e-01
-4.181677475571632385e-03 -3.684817627072334290e-02 7.068246603012084961e-03
1.450883746147155762e-01 1.844402775168418884e-02 1.525629162788391113e-01
-1.700687557458877563e-01 -1.669392455369234085e-03 6.524500250816345215e-01
-1.272621303796768188e-01 -2.954817935824394226e-02 5.341998934745788574e-01
-8.276484906673431396e-02 -3.883631527423858643e-02 3.005276918411254883e-01
1.560489982366561890e-01 -1.582277752459049225e-02 4.095706045627593994e-01
4.306950420141220093e-02 -4.607141390442848206e-02 4.057921767234802246e-01
-6.029020622372627258e-02 1.640521734952926636e-02 2.566967308521270752e-01
7.607584446668624878e-02 1.874677836894989014e-02 8.775749802589416504e-02
3.703659772872924805e-02 2.832068130373954773e-03 -1.134490966796875000e-02
-1.341548189520835876e-02 2.744200080633163452e-02 2.814652621746063232e-01
6.372787803411483765e-02 2.676430717110633850e-02 6.454300284385681152e-01
2.171757444739341736e-02 3.748326376080513000e-02 5.094554424285888672e-01
-1.250433176755905151e-01 2.728627622127532959e-02 7.677217721939086914e-01
1.601129584014415741e-02 -4.764001071453094482e-02 5.452689528465270996e-02
8.977019786834716797e-02 -3.162481263279914856e-02 4.960228204727172852e-01
7.644855976104736328e-02 4.777281545102596283e-03 -3.666517138481140137e-02
-6.615972518920898438e-02 -7.746961899101734161e-03 8.538737297058105469e-01
2.184563316404819489e-02 1.566576957702636719e-02 7.920913696289062500e-01
-4.577501490712165833e-02 2.620409429073333740e-02 3.276210427284240723e-01
6.283307075500488281e-02 3.240918368101119995e-02 3.219653367996215820e-01
2.066318392753601074e-01 -1.538425870239734650e-02 -1.386576890945434570e-02
-5.925886705517768860e-02 2.698242664337158203e-02 3.703780770301818848e-01
2.484391815960407257e-02 3.733095154166221619e-02 5.359978675842285156e-01
1.017351914197206497e-02 -3.484265133738517761e-02 5.984113216400146484e-01
-2.279099449515342712e-02 3.406230360269546509e-02 7.480588555335998535e-01
-1.024002730846405029e-01 2.923767268657684326e-02 5.554336905479431152e-01
-1.153324842453002930e-01 2.103869616985321045e-02 4.749430418014526367e-01
9.414863586425781250e-02 1.483378466218709946e-02 4.131889343261718750e-02
-1.419008150696754456e-02 -5.008904263377189636e-02 2.594337463378906250e-01
1.293803453445434570e-01 -2.478441968560218811e-02 -1.686984300613403320e-01
-5.065035447478294373e-02 -3.603662550449371338e-02 1.276808977127075195e-01
1.170665770769119263e-01 2.669978514313697815e-02 3.919789493083953857e-01
1.542611569166183472e-01 -2.523521706461906433e-02 3.615132570266723633e-01
6.677430868148803711e-02 -4.030050337314605713e-02 4.520315229892730713e-01
7.501353509724140167e-03 -4.857018589973449707e-02 9.253504872322082520e-02
5.444477498531341553e-02 2.698481827974319458e-02 6.697298288345336914e-01
7.849170267581939697e-02 -2.293547242879867554e-02 5.869447588920593262e-01
-1.391654908657073975e-01 1.039910223335027695e-02 4.727060496807098389e-01
-1.360770910978317261e-01 -2.535687759518623352e-02 6.088926792144775391e-01
8.589961566030979156e-03 -1.500944420695304871e-02 7.523035407066345215e-01
7.108734548091888428e-02 2.131167054176330566e-02 1.201848536729812622e-01
-1.112460792064666748e-01 -2.051300555467605591e-02 7.581729888916015625e-01
8.402773737907409668e-02 3.220997005701065063e-02 4.143187999725341797e-01
-1.592790633440017700e-01 -7.505496032536029816e-04 5.252939462661743164e-01
-9.835518896579742432e-02 2.768554911017417908e-02 8.374611139297485352e-01
1.705441921949386597e-01 1.265588309615850449e-02 1.484582275152206421e-01
-2.066182345151901245e-02 2.771094068884849548e-02 2.976052761077880859e-01
1.737803518772125244e-01 -3.485880792140960693e-02 1.759412884712219238e-01
-1.450770050287246704e-01 2.213973179459571838e-02 7.279878854751586914e-01
-1.220171600580215454e-01 5.117251537740230560e-03 3.639466464519500732e-01
1.631448119878768921e-01 1.190524455159902573e-02 3.535184264183044434e-01
1.189824193716049194e-01 -2.849868312478065491e-02 4.488892555236816406e-01
-1.128590553998947144e-01 -3.378767147660255432e-02 5.042245388031005859e-01
1.606984585523605347e-01 -3.191694617271423340e-02 2.773630321025848389e-01
-6.225306913256645203e-02 -4.441270604729652405e-02 3.589678108692169189e-01
-3.475665301084518433e-02 -4.756317660212516785e-02 2.470578700304031372e-01
-2.383574843406677246e-02 1.663381233811378479e-02 1.807952970266342163e-01
3.681597858667373657e-02 -3.747723996639251709e-02 5.357763171195983887e-01
-6.930580362677574158e-03 3.524262458086013794e-02 4.149306416511535645e-01
2.036522328853607178e-01 -1.964050158858299255e-02 1.351177692413330078e-01
-1.049073785543441772e-02 -4.936296492815017700e-02 1.774549633264541626e-01
-1.218163594603538513e-02 3.621350973844528198e-02 4.503839015960693359e-01
-1.299733072519302368e-01 -2.629123628139495850e-02 6.290184259414672852e-01
6.300928443670272827e-02 -4.203394800424575806e-02 -8.049064874649047852e-02
9.714724123477935791e-02 3.023242577910423279e-02 3.510522246360778809e-01
1.905883848667144775e-01 4.192358814179897308e-03 1.994341015815734863e-01
1.907950490713119507e-01 -3.015060722827911377e-02 1.305124461650848389e-01
-1.124643906950950623e-02 2.655858546495437622e-02 2.659409046173095703e-01
6.296786665916442871e-02 3.398093953728675842e-02 5.145040154457092285e-01
-5.560716614127159119e-02 3.646327182650566101e-02 5.715788602828979492e-01
-1.311463564634323120e-01 -2.022180706262588501e-02 3.751972913742065430e-01
4.879845306277275085e-02 2.785989642143249512e-02 2.217587232589721680e-01
8.476638793945312500e-02 3.205650299787521362e-02 4.300234913825988770e-01
2.087066471576690674e-01 -1.153492741286754608e-02 7.974886894226074219e-02
-1.563964784145355225e-01 1.126688811928033829e-02 8.166290521621704102e-01
1.685740500688552856e-01 1.021465566009283066e-02 3.340432047843933105e-01
1.120298355817794800e-01 -2.652677893638610840e-02 4.828795194625854492e-01
-1.093653291463851929e-01 2.982323989272117615e-02 6.120889186859130859e-01
2.493803575634956360e-02 3.583357483148574829e-02 6.182180643081665039e-01
7.488133013248443604e-02 -3.049598634243011475e-02 5.379619598388671875e-01
5.976599454879760742e-02 -4.445699602365493774e-02 4.062145948410034180e-01
1.431041806936264038e-01 1.238563749939203262e-02 4.600069522857666016e-01
-1.298774331808090210e-01 -2.451380714774131775e-02 6.654747724533081055e-01
4.695717990398406982e-02 -5.287915095686912537e-02 1.789584606885910034e-01
-1.398999541997909546e-01 -2.240498363971710205e-02 4.558472633361816406e-01
-4.866138473153114319e-02 3.194880113005638123e-02 4.244188666343688965e-01
5.150223150849342346e-02 1.695232838392257690e-02 7.300609350204467773e-01
4.891352728009223938e-02 3.518836572766304016e-02 5.425751805305480957e-01
-7.403586804866790771e-02 -1.411406230181455612e-02 1.480771154165267944e-01
-1.626211255788803101e-01 1.259620208293199539e-02 6.773005127906799316e-01
9.583678841590881348e-02 -4.910152405500411987e-02 2.309275269508361816e-01
-1.264974623918533325e-01 -2.185868285596370697e-02 7.161180973052978516e-01
-1.117059588432312012e-01 2.850694581866264343e-02 8.012539148330688477e-01
-1.239364594221115112e-02 -4.588241130113601685e-02 4.501268565654754639e-01
-1.455797702074050903e-01 1.269940193742513657e-02 5.273221731185913086e-01
-1.338392496109008789e-01 1.571726799011230469e-02 4.961633086204528809e-01
1.112952083349227905e-01 -4.996081441640853882e-02 1.765951514244079590e-02
-6.620220839977264404e-02 -4.376022517681121826e-02 3.808044195175170898e-01
2.274118550121784210e-02 -3.676454722881317139e-02 5.627163648605346680e-01
-2.667647227644920349e-02 -3.500620648264884949e-02 6.251515746116638184e-01
1.182961612939834595e-01 1.794268935918807983e-02 5.293214917182922363e-01
3.468682244420051575e-02 -1.855877041816711426e-02 6.947213411331176758e-01
5.073239095509052277e-03 3.798232972621917725e-02 5.233991146087646484e-01
7.739393413066864014e-02 6.874039769172668457e-03 6.843876838684082031e-01
-6.167162209749221802e-03 2.553362771868705750e-02 2.446184158325195312e-01
-9.614367783069610596e-02 -2.510811015963554382e-02 2.327163964509963989e-01
3.712002187967300415e-03 3.212283179163932800e-02 3.320913910865783691e-01
-3.052129969000816345e-02 -3.736050054430961609e-02 5.966461300849914551e-01
-3.795279562473297119e-02 -9.728424251079559326e-03 8.277958631515502930e-01
2.559640817344188690e-02 2.120696380734443665e-02 1.516622304916381836e-01
-2.443140372633934021e-02 2.057087421417236328e-02 8.490600585937500000e-01
-1.389573216438293457e-01 1.487988885492086411e-02 5.132653117179870605e-01
-7.233145833015441895e-02 -2.639142051339149475e-02 7.251391410827636719e-01
9.266616404056549072e-02 3.068452700972557068e-03 -5.726051330566406250e-02
-1.075956970453262329e-01 1.850649341940879822e-02 4.157505333423614502e-01
-3.186202794313430786e-02 3.329158201813697815e-02 4.129228889942169189e-01
1.362518966197967529e-01 1.585932075977325439e-02 8.046576380729675293e-02
1.773739159107208252e-01 -1.431339420378208160e-02 -1.202241778373718262e-01
-5.298579856753349304e-02 -4.577594995498657227e-02 3.400073051452636719e-01
1.548503786325454712e-01 -2.248137816786766052e-02 3.782424628734588623e-01
1.632987335324287415e-02 1.511987764388322830e-02 1.033478975296020508e-01
1.383293271064758301e-01 5.548851564526557922e-03 5.041887760162353516e-01
8.115244656801223755e-02 -5.012508109211921692e-02 -1.486510038375854492e-03
1.530661880970001221e-01 -4.411323368549346924e-02 9.680646657943725586e-02
3.666985034942626953e-02 3.272754698991775513e-02 6.504013538360595703e-01
1.590458750724792480e-01 1.673738285899162292e-02 1.915927082300186157e-01
4.257460124790668488e-03 2.883192524313926697e-02 7.650233507156372070e-01
-1.533091515302658081e-01 9.758218191564083099e-03 5.472742319107055664e-01
1.144719868898391724e-01 8.301320485770702362e-03 -2.123376727104187012e-02
1.510197222232818604e-01 1.322085689753293991e-02 6.970271468162536621e-02
1.129430904984474182e-02 3.345469012856483459e-02 3.512026965618133545e-01
1.621502041816711426e-01 1.612327620387077332e-02 2.668415009975433350e-01
-3.879606723785400391e-02 1.157287415117025375e-02 1.697318106889724731e-01
8.050280809402465820e-02 2.969530597329139709e-02 5.476024150848388672e-01
6.220541149377822876e-02 2.663653716444969177e-02 1.982553005218505859e-01
-1.147817671298980713e-01 -2.791130542755126953e-02 6.582973003387451172e-01
1.047121137380599976e-01 -4.635455459356307983e-02 2.681562900543212891e-01
4.005642980337142944e-02 3.634532541036605835e-02 4.620269536972045898e-01
-3.578688204288482666e-02 -3.615729883313179016e-02 8.326715230941772461e-02
3.222323209047317505e-02 -3.165115043520927429e-02 6.020658016204833984e-01
-3.013616427779197693e-02 -2.182384207844734192e-02 7.503534555435180664e-01
1.986982524394989014e-01 -1.471379306167364120e-03 5.880096554756164551e-02
-1.659174561500549316e-01 5.562148056924343109e-03 7.717426419258117676e-01
-1.329389214515686035e-02 3.668082132935523987e-02 4.676871001720428467e-01
8.248309791088104248e-02 1.686641573905944824e-02 6.495249271392822266e-02
3.897970169782638550e-02 -4.913426935672760010e-02 3.479890823364257812e-01
-1.308509409427642822e-01 -2.820583805441856384e-02 5.540593862533569336e-01
4.189398884773254395e-02 2.483193576335906982e-02 7.172042131423950195e-01
-2.425781264901161194e-02 -4.684981703758239746e-02 4.189159572124481201e-01
1.543432474136352539e-03 -4.782444238662719727e-02 4.045282900333404541e-01
-1.191578805446624756e-01 -2.909971028566360474e-02 3.795656263828277588e-01
1.762679964303970337e-01 9.817519225180149078e-03 2.717505693435668945e-01
8.527541160583496094e-02 8.457168005406856537e-03 -1.456338167190551758e-02
-4.079382866621017456e-02 1.530485507100820541e-02 2.031240463256835938e-01
1.710342615842819214e-01 -3.048367425799369812e-02 -1.351951360702514648e-01
-5.720667913556098938e-02 -4.333984851837158203e-02 4.640553593635559082e-01
5.243291705846786499e-02 -1.112595293670892715e-02 -9.164807200431823730e-02
-1.539442315697669983e-02 -4.214005917310714722e-02 7.081899046897888184e-02
1.365344524383544922e-01 -4.735618084669113159e-02 8.696633577346801758e-02
1.623560301959514618e-02 -5.079012736678123474e-02 1.214429736137390137e-01
-4.818729683756828308e-02 -4.487648233771324158e-02 2.346848547458648682e-01
-1.569075584411621094e-01 -1.281562075018882751e-02 7.107083797454833984e-01
-9.560060501098632812e-02 -3.774018958210945129e-02 4.848088920116424561e-01
1.851469725370407104e-01 -2.736549824476242065e-02 -1.133524179458618164e-01
-6.778033077716827393e-02 -3.122693300247192383e-02 1.561303883790969849e-01
7.616326212882995605e-02 -4.719604924321174622e-02 3.258327841758728027e-01
5.639084801077842712e-02 -5.213894695043563843e-02 7.728666067123413086e-02
-2.751705422997474670e-02 -4.739955440163612366e-02 3.956033885478973389e-01
-2.308841794729232788e-02 -4.783324152231216431e-02 1.871017068624496460e-01
3.993915766477584839e-02 2.990731596946716309e-02 2.608915567398071289e-01
1.645744293928146362e-01 8.954920805990695953e-03 3.715796470642089844e-01
8.314111828804016113e-02 -5.209109932184219360e-02 7.224401831626892090e-02
6.421475857496261597e-02 1.491814013570547104e-02 5.342653393745422363e-02
-6.186966225504875183e-02 -3.140267357230186462e-02 1.374232918024063110e-01
3.323625028133392334e-02 -5.103521794080734253e-02 2.988481521606445312e-01
1.882016956806182861e-01 2.316483296453952789e-04 9.017318487167358398e-03
-8.062851428985595703e-02 -3.770620375871658325e-02 5.552538633346557617e-01
-5.315484479069709778e-02 -4.285440966486930847e-02 4.874686300754547119e-01
1.624708324670791626e-01 1.019558962434530258e-02 5.350217223167419434e-02
-4.146029800176620483e-02 -2.620457857847213745e-02 6.327560544013977051e-02
4.074639827013015747e-02 2.086044475436210632e-02 1.327593028545379639e-01
-1.440329402685165405e-01 -1.236860081553459167e-02 4.222570359706878662e-01
-5.443918332457542419e-02 -4.535778611898422241e-02 3.061755597591400146e-01
-3.716843947768211365e-02 2.775477617979049683e-02 8.282595872879028320e-01
1.125622242689132690e-01 -5.026973038911819458e-02 4.514068365097045898e-02
1.657274216413497925e-01 -4.206937551498413086e-02 1.780390739440917969e-03
3.593923524022102356e-03 -3.650426864624023438e-02 -1.134765148162841797e-02
1.140627562999725342e-01 -3.988254442811012268e-02 3.455488085746765137e-01
1.866275668144226074e-01 6.954526528716087341e-03 1.552313417196273804e-01
9.496379643678665161e-04 2.943990752100944519e-02 2.893260717391967773e-01
-3.286747634410858154e-02 -4.799668863415718079e-02 3.460157513618469238e-01
-8.294156193733215332e-02 2.737889066338539124e-02 8.498261570930480957e-01
1.887958794832229614e-01 -2.678652107715606689e-02 1.873911768198013306e-01
-4.416182637214660645e-03 -5.085170269012451172e-02 2.400938272476196289e-01
1.062209755182266235e-01 -3.056120127439498901e-02 -1.588872671127319336e-01
-1.056793779134750366e-01 -1.715791597962379456e-02 7.934144139289855957e-01
4.399266093969345093e-02 -4.311179742217063904e-03 7.393035292625427246e-01
6.999799609184265137e-02 2.628939971327781677e-02 6.309268474578857422e-01
9.022386372089385986e-02 2.901592105627059937e-02 2.663780748844146729e-01
6.664291024208068848e-02 -5.113723129034042358e-02 3.261420130729675293e-02
-1.481969952583312988e-01 1.233678963035345078e-02 8.450542092323303223e-01
-7.220593094825744629e-02 -4.258118942379951477e-02 4.166576266288757324e-01
1.785479038953781128e-01 9.217924438416957855e-03 1.149811446666717529e-01
1.488550454378128052e-01 -3.834062069654464722e-02 -1.245435178279876709e-01
1.115089654922485352e-01 -4.890238493680953979e-02 -1.934283971786499023e-02
1.503158956766128540e-01 1.971607282757759094e-02 2.567640542984008789e-01
7.863447070121765137e-02 1.156744640320539474e-02 1.459911465644836426e-02
7.467953115701675415e-02 -5.261087045073509216e-02 1.151452064514160156e-01
-7.541996240615844727e-02 4.186142235994338989e-03 2.102769464254379272e-01
-3.479728475213050842e-02 3.663354553282260895e-03 1.112998425960540771e-01
-9.155504405498504639e-02 -2.452739700675010681e-02 7.358958721160888672e-01
-5.214210972189903259e-02 -3.970327228307723999e-02 5.563681721687316895e-01
8.419953286647796631e-02 -4.810485988855361938e-02 2.880271971225738525e-01
3.289731964468955994e-02 3.199688717722892761e-02 6.715459823608398438e-01
1.601184904575347900e-01 -3.460005670785903931e-02 2.488555312156677246e-01
6.211790814995765686e-02 2.564492076635360718e-02 1.826373636722564697e-01
1.273996829986572266e-01 -1.470776926726102829e-02 5.085215568542480469e-01
1.090237498283386230e-01 -5.054691061377525330e-02 1.094034016132354736e-01
-1.371277421712875366e-01 8.796754293143749237e-03 4.507907032966613770e-01
1.197703629732131958e-01 4.291440360248088837e-03 5.687457323074340820e-01
-1.415113508701324463e-01 -5.606160499155521393e-03 4.085534214973449707e-01
1.428477615118026733e-01 1.995144784450531006e-02 1.835230737924575806e-01
1.506791263818740845e-01 1.067458000034093857e-02 3.267940878868103027e-02
5.131341516971588135e-02 3.484765067696571350e-02 3.961524665355682373e-01
1.855842769145965576e-01 -3.613260388374328613e-02 1.241838932037353516e-02
1.966553479433059692e-01 6.226403638720512390e-05 1.844337880611419678e-01
-6.593575701117515564e-03 -5.037529021501541138e-02 3.016180396080017090e-01
-1.250495761632919312e-01 -7.772306445986032486e-03 3.302205801010131836e-01
-7.903364300727844238e-02 2.233463898301124573e-02 8.810718059539794922e-01
-2.498804032802581787e-02 1.346709113568067551e-02 8.626950979232788086e-01
7.786782085895538330e-02 -5.180563405156135559e-02 5.075472593307495117e-02
8.680526912212371826e-02 2.017881348729133606e-02 1.037827730178833008e-01
-1.005818396806716919e-01 -3.561103343963623047e-02 3.592532575130462646e-01
1.151926070451736450e-01 -4.819481447339057922e-02 1.858384311199188232e-01
1.440253555774688721e-01 -4.561589658260345459e-02 -2.624300122261047363e-02
1.366032063961029053e-01 -4.492129385471343994e-02 -6.549656391143798828e-02
6.643084436655044556e-02 3.164154291152954102e-02 3.034943640232086182e-01
-9.896995499730110168e-03 3.555066511034965515e-02 7.040544748306274414e-01
1.695891767740249634e-01 -2.976521849632263184e-02 2.604793608188629150e-01
-1.185082048177719116e-01 -2.975722029805183411e-02 6.083561182022094727e-01
1.088433414697647095e-01 -1.355793327093124390e-02 -1.444459557533264160e-01
-7.288299500942230225e-02 3.047331422567367554e-02 8.210179805755615234e-01
-1.876615360379219055e-02 -4.282063618302345276e-02 8.713755011558532715e-02
1.283166706562042236e-01 -4.008699953556060791e-02 2.982992529869079590e-01
-1.003598868846893311e-01 -2.530477941036224365e-02 2.505223751068115234e-01
-1.625835150480270386e-02 2.958929166197776794e-02 3.177573084831237793e-01
1.069124639034271240e-01 -4.385432973504066467e-02 3.074904382228851318e-01
1.749066114425659180e-01 -3.648317977786064148e-02 1.402865052223205566e-01
1.813676208257675171e-03 -4.218387976288795471e-02 5.124641060829162598e-01
-3.550143167376518250e-02 -4.028198122978210449e-02 5.535181760787963867e-01
5.322469025850296021e-02 2.083171531558036804e-02 1.228472590446472168e-01
2.492284215986728668e-02 -5.053786560893058777e-02 8.924534916877746582e-02
7.165223360061645508e-02 1.341875363141298294e-02 3.490206599235534668e-02
-1.142565459012985229e-01 -3.259393572807312012e-02 4.092790782451629639e-01
2.662882395088672638e-02 -3.477134928107261658e-02 5.793274044990539551e-01
1.605423092842102051e-01 1.636838912963867188e-02 2.856737673282623291e-01
1.420660465955734253e-01 -4.363831877708435059e-02 1.814138144254684448e-01
6.367588043212890625e-02 -3.905325895175337791e-03 -7.564011216163635254e-02
-6.820170581340789795e-02 -4.249960556626319885e-02 2.968360185623168945e-01
1.605385988950729370e-01 -4.274030029773712158e-02 8.196848630905151367e-02
5.118954554200172424e-02 2.365591377019882202e-02 1.590209752321243286e-01
1.261232793331146240e-01 1.583925448358058929e-03 -7.265746593475341797e-02
8.473114669322967529e-02 -8.337342180311679840e-03 -1.124684512615203857e-01
-1.536563485860824585e-01 1.668879762291908264e-02 7.890284061431884766e-01
-1.499672979116439819e-01 -2.503013238310813904e-04 8.325070142745971680e-01
-1.217394471168518066e-01 1.317851152271032333e-02 4.189167618751525879e-01
1.592777222394943237e-01 -4.104461520910263062e-02 -7.449659705162048340e-02
2.545623667538166046e-02 -4.012891277670860291e-02 5.185990333557128906e-01
2.981323748826980591e-03 2.746405825018882751e-02 2.571854591369628906e-01
1.750301867723464966e-01 -1.293467357754707336e-04 3.537088632583618164e-01
8.454678952693939209e-02 1.746810972690582275e-02 6.448595523834228516e-01
-1.044277697801589966e-01 -3.519267216324806213e-02 5.275416374206542969e-01
-6.875689327716827393e-02 -4.057627171277999878e-02 5.139387249946594238e-01
-1.100894808769226074e-01 1.999699696898460388e-02 8.822986483573913574e-01
-1.606096699833869934e-02 -3.064035624265670776e-02 6.654096245765686035e-01
-5.000674352049827576e-02 -3.126483038067817688e-02 6.746045351028442383e-01
1.860820651054382324e-01 -3.574266657233238220e-02 4.009124636650085449e-02
1.136536151170730591e-01 -1.046596094965934753e-02 5.637384653091430664e-01
1.315326094627380371e-01 -4.706655442714691162e-02 1.406219154596328735e-01
-2.436875179409980774e-02 2.284923195838928223e-02 2.435568273067474365e-01
1.487520337104797363e-01 -4.539974033832550049e-02 -2.881705760955810547e-03
1.148221939802169800e-01 -4.481936246156692505e-02 -8.727312088012695312e-02
3.309097141027450562e-02 1.700908690690994263e-02 1.002971529960632324e-01
-1.168021559715270996e-01 -3.106768801808357239e-02 5.833128690719604492e-01
-2.456469461321830750e-03 3.737926483154296875e-02 4.827241897583007812e-01
7.445829920470714569e-03 -3.422290086746215820e-02 -2.805063128471374512e-02
1.135440021753311157e-01 -4.404225945472717285e-02 2.842450737953186035e-01
1.986280232667922974e-01 -2.651926875114440918e-02 1.122106313705444336e-01
1.635143160820007324e-01 -4.264126718044281006e-02 3.781414031982421875e-02
-1.257131993770599365e-01 -2.287639677524566650e-02 3.597085773944854736e-01
-7.709413766860961914e-02 2.265633270144462585e-02 3.634589314460754395e-01
6.103070825338363647e-02 -5.102483928203582764e-02 2.621611654758453369e-01
-2.919431775808334351e-02 3.722533211112022400e-02 5.199322700500488281e-01
1.778565347194671631e-02 -5.040490254759788513e-02 1.051300466060638428e-01
-7.388271391391754150e-02 -3.447615355253219604e-02 6.250020861625671387e-01
-2.965870127081871033e-02 3.775447234511375427e-02 6.570580005645751953e-01
-1.065764278173446655e-01 -3.124096989631652832e-02 3.246632218360900879e-01
-3.159715607762336731e-02 3.635449707508087158e-02 4.916896820068359375e-01
-1.158456504344940186e-01 -3.312780335545539856e-02 4.891408681869506836e-01
-3.956922516226768494e-02 -4.742681607604026794e-02 2.897297143936157227e-01
1.674277335405349731e-01 -2.160077355802059174e-02 3.349421620368957520e-01
4.265822470188140869e-03 3.104817867279052734e-02 3.117346763610839844e-01
8.060829341411590576e-02 3.098061680793762207e-02 5.177768468856811523e-01
6.176598370075225830e-02 -3.786306455731391907e-02 4.906475841999053955e-01
-1.467927694320678711e-01 2.126675844192504883e-02 7.507887482643127441e-01
-1.050242967903614044e-02 -4.671828076243400574e-02 4.310370385646820068e-01
-1.214216500520706177e-01 -3.110381215810775757e-02 4.518493413925170898e-01
6.884045898914337158e-02 -2.503240481019020081e-02 -1.329398751258850098e-01
6.495736539363861084e-02 3.063049539923667908e-02 2.760819792747497559e-01
-9.335242211818695068e-02 2.936170995235443115e-02 5.173751115798950195e-01
6.747794151306152344e-02 -1.850634813308715820e-02 6.361172199249267578e-01
-9.472836554050445557e-02 2.960435673594474792e-02 8.176885843276977539e-01
5.211696401238441467e-02 -3.249676525592803955e-02 -1.059808135032653809e-01
1.554844379425048828e-01 1.501015108078718185e-02 1.162400841712951660e-01
1.135483384132385254e-01 2.209648117423057556e-02 1.493722945451736450e-01
1.597185805439949036e-02 -4.720515012741088867e-02 4.128685295581817627e-01
-1.080460101366043091e-01 1.655006036162376404e-02 3.977710008621215820e-01
6.761677563190460205e-02 9.887916035950183868e-03 7.059407234191894531e-01
1.190811097621917725e-01 -3.252746537327766418e-02 4.134821891784667969e-01
9.510147571563720703e-02 3.065914660692214966e-02 3.721310198307037354e-01
-4.733441397547721863e-02 3.486596792936325073e-02 7.531571388244628906e-01
3.933641314506530762e-02 -4.778430983424186707e-02 8.406251668930053711e-03
-6.146344169974327087e-02 -2.509522438049316406e-02 7.378592491149902344e-01
-5.126120522618293762e-03 3.693645074963569641e-02 6.607326269149780273e-01
1.107105463743209839e-01 -4.820550978183746338e-02 2.038201838731765747e-01
-1.909612119197845459e-02 3.233066946268081665e-02 3.696031272411346436e-01
7.117957621812820435e-02 -5.250171944499015808e-02 8.973351120948791504e-02
1.477836817502975464e-01 -4.580396413803100586e-02 5.255520343780517578e-02
5.225869640707969666e-02 -1.016070973128080368e-02 7.046054005622863770e-01
-5.547788366675376892e-02 2.597913146018981934e-02 3.473628163337707520e-01
-1.208569109439849854e-02 5.223227664828300476e-03 7.629266381263732910e-02
1.024935096502304077e-01 1.681922748684883118e-02 6.425896286964416504e-02
-1.608971506357192993e-04 1.597616076469421387e-02 1.346233189105987549e-01
-5.724510177969932556e-02 5.182543769478797913e-03 1.697448045015335083e-01
-2.265684306621551514e-02 -2.306642383337020874e-02 7.353236675262451172e-01
1.321990787982940674e-01 -4.357531294226646423e-02 2.265991121530532837e-01
1.064037978649139404e-01 2.399631962180137634e-02 5.211842656135559082e-01
1.837281733751296997e-01 5.089147016406059265e-03 5.901080369949340820e-02
-3.485462069511413574e-02 3.560189157724380493e-02 4.756968617439270020e-01
-1.068110316991806030e-01 3.118197247385978699e-02 6.488755941390991211e-01
-1.398930698633193970e-02 -4.821876809000968933e-02 1.575546115636825562e-01
-1.526546329259872437e-01 1.536713074892759323e-02 6.088612079620361328e-01
-7.992418482899665833e-03 -4.779053106904029846e-02 1.254468560218811035e-01
-1.009129881858825684e-01 -3.470844402909278870e-02 5.633217096328735352e-01
1.342172324657440186e-01 2.508555538952350616e-03 5.221396684646606445e-01
1.524369865655899048e-01 -4.477039352059364319e-02 6.773942708969116211e-02
-2.046499401330947876e-03 2.689147368073463440e-04 8.233664035797119141e-01
1.210804134607315063e-01 6.462853401899337769e-03 -3.596317768096923828e-02
-5.046973004937171936e-02 -4.565970227122306824e-02 3.923223316669464111e-01
6.821750104427337646e-02 -2.760328724980354309e-02 5.748112797737121582e-01
-6.956292688846588135e-02 1.961409673094749451e-02 3.100684881210327148e-01
2.277323044836521149e-02 2.491683140397071838e-02 1.990006715059280396e-01
-4.654962196946144104e-02 -4.252381622791290283e-02 5.049076676368713379e-01
-6.907723844051361084e-02 -2.804475650191307068e-02 7.087473273277282715e-01
-3.156825527548789978e-02 3.337630629539489746e-02 7.674922943115234375e-01
-1.562209576368331909e-01 7.956959307193756104e-04 5.092988014221191406e-01
1.280069649219512939e-01 -6.635437253862619400e-03 -1.211850345134735107e-01
8.030496537685394287e-02 2.460299432277679443e-02 1.663763225078582764e-01
-3.055127337574958801e-03 3.820253536105155945e-02 5.834549069404602051e-01
1.194438990205526352e-02 3.761239722371101379e-02 4.947703480720520020e-01
-1.706376373767852783e-01 8.488502353429794312e-04 6.854891180992126465e-01
-9.540370106697082520e-02 -7.081250660121440887e-03 2.245161831378936768e-01
4.557720199227333069e-02 -5.289344862103462219e-02 1.578233689069747925e-01
1.273131370544433594e-01 1.505400333553552628e-02 5.119972229003906250e-01
1.503169089555740356e-01 7.343100383877754211e-03 -7.018238306045532227e-03
3.303170576691627502e-02 -4.549629054963588715e-03 -4.331699013710021973e-02
3.448114916682243347e-02 -4.903385043144226074e-02 3.650611639022827148e-02
-2.642105147242546082e-02 3.822241723537445068e-02 6.060667634010314941e-01
-6.606717407703399658e-02 3.642814233899116516e-02 6.533470153808593750e-01
5.941815301775932312e-02 -4.795901104807853699e-02 3.436675071716308594e-01
2.088048309087753296e-01 -1.226628571748733521e-02 4.315891861915588379e-02
-8.635810017585754395e-02 3.395993262529373169e-02 7.318593263626098633e-01
3.951901197433471680e-02 -4.618271812796592712e-02 -1.151219010353088379e-02
-9.402738511562347412e-02 -3.709189826622605324e-03 8.757090568542480469e-01
9.583804011344909668e-02 -4.977671056985855103e-02 2.107966393232345581e-01
1.127357929944992065e-01 2.769920602440834045e-02 3.176858723163604736e-01
-8.658106625080108643e-02 5.206186324357986450e-04 8.895533680915832520e-01
1.068478375673294067e-01 -5.087345466017723083e-02 8.796024322509765625e-02
1.286804676055908203e-01 -3.683434799313545227e-02 3.392756283283233643e-01
1.387746930122375488e-01 3.886306658387184143e-03 -5.027693510055541992e-02
7.583573460578918457e-02 -4.803473874926567078e-02 -3.541868925094604492e-02
4.548117890954017639e-02 -4.952900484204292297e-02 2.523055672645568848e-02
1.166346967220306396e-01 1.729809120297431946e-02 7.749363780021667480e-02
-6.924133747816085815e-03 9.661138989031314850e-03 8.413426876068115234e-01
-7.906551659107208252e-02 3.287627175450325012e-02 5.410893559455871582e-01
-7.767421007156372070e-02 3.509046882390975952e-02 6.219475269317626953e-01
1.133608818054199219e-01 2.607233449816703796e-02 4.474600255489349365e-01
3.864612430334091187e-02 1.451086718589067459e-02 7.143175601959228516e-02
1.449342221021652222e-01 -4.092511162161827087e-02 -1.066298484802246094e-01
1.223307400941848755e-01 -4.937184974551200867e-02 7.851779460906982422e-02
-1.160999238491058350e-01 2.634007483720779419e-02 5.629386901855468750e-01
-1.588693708181381226e-01 1.574281230568885803e-02 7.094163298606872559e-01
3.560562431812286377e-02 1.897580549120903015e-02 1.172453165054321289e-01
