2.674808800220489502e-01 -4.018539562821388245e-03 -7.090833038091659546e-02
-1.091638356447219849e-01 2.145842462778091431e-02 -3.726169234141707420e-03
5.474095419049263000e-02 2.832835912704467773e-02 3.897019475698471069e-02
6.472019851207733154e-02 -1.671061292290687561e-02 -1.013264209032058716e-01
3.365281224250793457e-02 -6.988200545310974121e-02 3.812936693429946899e-02
1.381769180297851562e-01 -5.533279106020927429e-02 8.066831529140472412e-02
1.408399790525436401e-01 -6.833525002002716064e-02 -4.209931194782257080e-02
3.134663701057434082e-01 -5.968697369098663330e-02 3.963428735733032227e-02
2.126377671957015991e-01 2.499570325016975403e-02 -4.215227812528610229e-02
2.759452462196350098e-01 6.654091179370880127e-03 -5.912567302584648132e-02
2.252974212169647217e-01 -7.140334695577621460e-02 1.518103666603565216e-02
-1.502764075994491577e-01 -5.118137970566749573e-02 1.328911352902650833e-02
2.713228762149810791e-01 -2.199462056159973145e-02 -7.379442453384399414e-02
3.208349645137786865e-01 1.958175003528594971e-02 6.826310418546199799e-03
-3.159096837043762207e-02 -6.058882176876068115e-02 -5.929331853985786438e-02
3.418881297111511230e-01 -4.613598436117172241e-02 -3.017634339630603790e-02
-1.573658138513565063e-01 -2.048809081315994263e-03 3.236798569560050964e-02
9.846023470163345337e-02 -7.563334703445434570e-02 7.286441978067159653e-03
6.052625179290771484e-02 -7.480740547180175781e-02 -1.012095715850591660e-02
1.063986122608184814e-02 1.626124233007431030e-02 6.090735644102096558e-02
7.666169106960296631e-02 1.285047084093093872e-02 -8.379168063402175903e-02
1.868902891874313354e-01 -3.807981312274932861e-02 9.640115499496459961e-02
-9.992302954196929932e-02 1.340688019990921021e-02 3.432566300034523010e-02
-1.986557394266128540e-01 -3.258526325225830078e-03 -4.033290222287178040e-02
-8.566759526729583740e-02 -4.920843988656997681e-02 5.227332934737205505e-02
-4.917089641094207764e-02 -6.766670197248458862e-02 -2.666717208921909332e-02
3.451200723648071289e-01 -2.966580912470817566e-03 -4.258949682116508484e-02
2.577473968267440796e-02 2.639584988355636597e-02 4.021595418453216553e-02
-1.058522760868072510e-01 1.181991025805473328e-02 -6.594476103782653809e-02
4.104627370834350586e-01 -2.259037457406520844e-02 -6.017454899847507477e-03
2.356361597776412964e-01 -2.225317806005477905e-02 9.787143766880035400e-02
1.987571120262145996e-01 -1.117856334894895554e-02 -8.816292136907577515e-02
1.945300102233886719e-01 -6.818769872188568115e-02 -3.179753571748733521e-02
-4.941421747207641602e-02 1.141482964158058167e-02 5.543875321745872498e-02
2.000060528516769409e-01 -2.288076281547546387e-02 1.000805199146270752e-01
-2.006625682115554810e-01 -3.886000066995620728e-02 -2.121404558420181274e-02
3.218892812728881836e-01 -9.245781227946281433e-03 -5.658544600009918213e-02
1.105245128273963928e-01 -2.259663492441177368e-02 9.954532980918884277e-02
-1.910324394702911377e-02 -3.540328517556190491e-02 -9.444198012351989746e-02
1.788816750049591064e-01 -6.716085225343704224e-02 5.529609695076942444e-02
1.879647076129913330e-01 -7.337260246276855469e-02 -1.118913525715470314e-03
1.755176484584808350e-02 -3.343971818685531616e-02 8.853950351476669312e-02
4.060946702957153320e-01 -2.265950478613376617e-02 4.768656566739082336e-02
-1.459091305732727051e-01 -2.034977078437805176e-03 -7.181943207979202271e-02
-1.649264246225357056e-01 7.882617413997650146e-03 6.866113748401403427e-03
3.238434195518493652e-01 -5.496723949909210205e-02 -1.962467469274997711e-02
-5.646054446697235107e-02 2.746427804231643677e-02 -3.019968792796134949e-02
2.908312529325485229e-02 3.290044143795967102e-02 9.737108834087848663e-03
-3.297153115272521973e-02 -4.457068443298339844e-02 -8.551385998725891113e-02
-1.757808029651641846e-02 3.131105378270149231e-02 -1.921297237277030945e-02
2.939819693565368652e-01 -6.564732640981674194e-03 8.526597917079925537e-02
3.550395369529724121e-01 -5.416350811719894409e-02 1.422403939068317413e-02
1.395321190357208252e-01 -7.530551403760910034e-02 7.078243885189294815e-03
1.036449447274208069e-01 8.500322699546813965e-03 8.242481201887130737e-02
2.235901504755020142e-01 -4.314536228775978088e-02 9.094971418380737305e-02
3.709521293640136719e-01 -3.859344124794006348e-02 -2.482250332832336426e-02
2.686296105384826660e-01 -6.355996429920196533e-02 4.755769297480583191e-02
1.137614622712135315e-01 2.963451296091079712e-02 -4.650436714291572571e-02
3.912280127406120300e-02 -7.425163686275482178e-02 1.062304154038429260e-02
2.310810834169387817e-01 -6.831519305706024170e-02 4.054617136716842651e-02
1.707290709018707275e-01 -5.461318418383598328e-02 8.146665990352630615e-02
8.817091584205627441e-03 -6.840649247169494629e-02 -4.185406118631362915e-02
2.555696964263916016e-01 -5.588382855057716370e-02 -4.749459773302078247e-02
-1.580630242824554443e-02 -6.398611515760421753e-02 4.478321969509124756e-02
-7.823744416236877441e-02 2.548893168568611145e-02 -1.644051750190556049e-03
1.209910809993743896e-01 -7.446879893541336060e-02 2.488149888813495636e-02
2.773196250200271606e-02 -5.449238419532775879e-02 7.249921560287475586e-02
3.248341083526611328e-01 1.594144850969314575e-02 3.743559122085571289e-02
-6.469053030014038086e-02 -1.020061410963535309e-02 7.214633375406265259e-02
3.926212191581726074e-01 -4.981752485036849976e-03 -1.316720992326736450e-02
1.559154987335205078e-01 1.790406554937362671e-02 6.975330412387847900e-02
1.824242174625396729e-01 -5.420937389135360718e-02 -6.714882701635360718e-02
1.478746384382247925e-01 -2.048849873244762421e-02 1.006751880049705505e-01
2.232336997985839844e-01 -5.662665516138076782e-02 -5.489840731024742126e-02
-1.314669847488403320e-02 2.890906110405921936e-02 1.932767964899539948e-02
3.652174025774002075e-02 -3.759272769093513489e-02 -9.508085995912551880e-02
1.929643750190734863e-01 3.021903708577156067e-02 2.978421561419963837e-02
1.829298585653305054e-02 2.389720454812049866e-02 -6.358760595321655273e-02
1.458634436130523682e-01 3.434156998991966248e-02 -1.036176551133394241e-02
-1.125021278858184814e-01 -5.843816697597503662e-02 -3.796760365366935730e-02
-8.446669578552246094e-02 -6.327396631240844727e-02 -3.219505026936531067e-02
3.004216402769088745e-02 1.674954593181610107e-02 6.329301744699478149e-02
-1.855074614286422729e-01 -7.102666422724723816e-03 -5.768893659114837646e-02
2.158192396163940430e-01 -5.640128627419471741e-02 7.589257508516311646e-02
3.134676069021224976e-02 3.398849442601203918e-02 -1.015682052820920944e-02
3.842402100563049316e-01 -2.609341219067573547e-02 6.218096986413002014e-02
1.039089858531951904e-01 -5.603291466832160950e-02 7.842978835105895996e-02
2.380790412425994873e-01 1.234471425414085388e-02 -6.228227913379669189e-02
1.423320472240447998e-01 2.441226318478584290e-02 5.582267418503761292e-02
3.005984425544738770e-01 2.139083668589591980e-02 -1.045213826000690460e-02
1.948699355125427246e-01 3.252287581562995911e-02 -2.425623126327991486e-03
9.071369469165802002e-02 1.994134113192558289e-02 6.421060115098953247e-02
-1.369429826736450195e-01 -3.104188293218612671e-02 4.985558986663818359e-02
1.206606924533843994e-01 -6.789502501487731934e-02 5.496239662170410156e-02
-7.973252236843109131e-02 -2.474018931388854980e-02 -9.272471815347671509e-02
7.242280244827270508e-02 -5.300265923142433167e-02 -7.911052554845809937e-02
3.690497279167175293e-01 -5.071531236171722412e-02 2.227232046425342560e-02
1.832000166177749634e-01 2.552279084920883179e-02 5.040368437767028809e-02
2.432909756898880005e-01 -6.947648525238037109e-02 2.551558054983615875e-02
-7.498541474342346191e-02 -5.703090503811836243e-02 -5.829609185457229614e-02
2.689360082149505615e-02 -6.333480775356292725e-02 5.644808337092399597e-02
3.339776396751403809e-01 -1.711188629269599915e-02 8.112431317567825317e-02
3.620160222053527832e-01 7.188610732555389404e-03 -1.483728364109992981e-02
5.094145610928535461e-02 3.452675789594650269e-02 -1.270476635545492172e-02
-1.816012412309646606e-01 -1.860846579074859619e-02 2.972830273211002350e-02
2.265132665634155273e-01 -6.491880118846893311e-02 -3.368435800075531006e-02
2.668075263500213623e-01 2.383129671216011047e-02 3.602046892046928406e-02
-8.966490626335144043e-02 -3.682565689086914062e-02 6.348515301942825317e-02
1.115233823657035828e-01 -4.446075111627578735e-02 9.142504632472991943e-02
7.228415459394454956e-02 2.994850650429725647e-02 3.534787893295288086e-02
-1.648955494165420532e-01 -5.102402716875076294e-02 -1.186797674745321274e-02
2.244634479284286499e-01 -6.347438693046569824e-02 5.977884680032730103e-02
-1.221286356449127197e-01 -5.958528816699981689e-02 -2.344792708754539490e-03
1.535743474960327148e-01 2.095031738281250000e-02 -6.456449627876281738e-02
-7.899440824985504150e-02 2.592846378684043884e-02 -1.923204958438873291e-02
5.323185399174690247e-02 -4.385750740766525269e-02 -9.000049531459808350e-02
1.402338147163391113e-01 -6.563705205917358398e-02 6.132391467690467834e-02
1.807930022478103638e-01 -3.451962769031524658e-02 -8.709340542554855347e-02
1.543288677930831909e-01 1.016643457114696503e-02 -8.070539683103561401e-02
6.146898865699768066e-02 -7.162959873676300049e-02 -3.371132165193557739e-02
7.826209068298339844e-02 -3.311570361256599426e-02 -9.705942869186401367e-02
-6.480322778224945068e-02 -6.736716628074645996e-02 -1.383319403976202011e-02
-1.816264539957046509e-01 -4.594104737043380737e-02 -7.914347574114799500e-03
3.557754755020141602e-01 1.207809895277023315e-02 1.259956334251910448e-04
2.665117979049682617e-01 2.683827280998229980e-02 2.485439181327819824e-03
3.383418321609497070e-01 -5.417018011212348938e-02 -1.152146421372890472e-02
-1.850254088640213013e-01 -4.235194250941276550e-02 -3.675737231969833374e-02
4.765043035149574280e-02 -1.817399635910987854e-02 -1.016478613018989563e-01
5.066781863570213318e-02 3.177656233310699463e-02 -3.853612020611763000e-02
-3.928223252296447754e-02 -2.843403443694114685e-02 -9.636985510587692261e-02
3.852253556251525879e-01 -2.183218300342559814e-02 -2.832940965890884399e-02
1.053542941808700562e-01 -5.322956480085849762e-03 9.433665126562118530e-02
1.524034589529037476e-01 2.814248949289321899e-02 -4.640092328190803528e-02
-7.629784941673278809e-02 2.409638091921806335e-02 -3.985673934221267700e-02
2.409359067678451538e-01 2.922604978084564209e-02 1.013060379773378372e-02
3.614506125450134277e-01 1.122654229402542114e-02 1.985564269125461578e-02
-2.046845108270645142e-01 -3.306970000267028809e-02 -3.745672479271888733e-02
4.399344325065612793e-03 -7.300060242414474487e-02 -1.305340207181870937e-03
-7.065151631832122803e-02 2.468522638082504272e-03 -8.632688224315643311e-02
-7.524530589580535889e-02 -2.652524039149284363e-02 6.831035017967224121e-02
3.687216434627771378e-03 -2.645167894661426544e-02 -7.741326093673706055e-02
5.439653247594833374e-02 -3.196215257048606873e-02 -2.467591315507888794e-01
5.015186220407485962e-02 -2.931538410484790802e-02 5.215234756469726562e-01
8.702058345079421997e-02 -4.505161941051483154e-02 1.540535837411880493e-01
-3.167672082781791687e-02 -2.703196182847023010e-02 -9.252396225929260254e-02
-5.127692222595214844e-02 -4.434088617563247681e-02 3.298260569572448730e-01
-1.242476049810647964e-03 -4.614604264497756958e-02 2.450512945652008057e-01
-1.028163544833660126e-02 -3.778520971536636353e-02 -3.100162744522094727e-01
-8.249691128730773926e-02 -4.409158602356910706e-02 1.003898680210113525e-02
3.135607764124870300e-02 -4.605998843908309937e-02 2.447182983160018921e-01
-2.244479488581418991e-03 -4.638563469052314758e-02 2.059873491525650024e-01
2.056599408388137817e-02 -2.505935728549957275e-02 3.119183778762817383e-01
5.170687660574913025e-02 -4.505743086338043213e-02 3.141331374645233154e-01
-4.554341360926628113e-02 -3.735496476292610168e-02 -2.866380214691162109e-01
-1.171224787831306458e-01 -3.629560768604278564e-02 4.082966446876525879e-01
1.462313234806060791e-01 -3.340145945549011230e-02 2.981588840484619141e-01
4.301227629184722900e-02 -4.632022976875305176e-02 5.081032961606979370e-02
1.439380086958408356e-02 -2.492297440767288208e-02 7.377174496650695801e-02
8.836936950683593750e-02 -4.204653948545455933e-02 4.079714417457580566e-01
9.543416649103164673e-02 -2.949747070670127869e-02 -9.414128959178924561e-02
2.986133098602294922e-02 -2.496146596968173981e-02 2.780867218971252441e-01
3.800739347934722900e-02 -2.501372992992401123e-02 2.613674700260162354e-01
-6.491146981716156006e-02 -4.521904140710830688e-02 6.784980744123458862e-02
6.385972350835800171e-02 -4.447140544652938843e-02 3.340821266174316406e-01
9.119289368391036987e-02 -4.456833004951477051e-02 1.108971238136291504e-02
-4.649322107434272766e-02 -2.628063783049583435e-02 -1.568529009819030762e-02
2.240567840635776520e-02 -4.663155972957611084e-02 1.250660717487335205e-01
-3.847580403089523315e-02 -2.501977235078811646e-02 1.407734006643295288e-01
3.526918590068817139e-02 -4.620429128408432007e-02 2.158127725124359131e-01
-6.730531156063079834e-02 -4.187910631299018860e-02 -1.803129464387893677e-01
1.747451350092887878e-02 -2.721615135669708252e-02 -1.186325103044509888e-01
1.128315478563308716e-01 -4.303326457738876343e-02 2.470794916152954102e-01
2.762536890804767609e-02 -4.470963776111602783e-02 -1.428043395280838013e-01
2.051069401204586029e-02 -4.363780841231346130e-02 4.318489432334899902e-01
-4.620338976383209229e-02 -2.548355236649513245e-02 2.930347919464111328e-01
-3.637563809752464294e-02 -4.526800662279129028e-02 2.878725826740264893e-01
1.296523064374923706e-01 -3.661088645458221436e-02 4.085351228713989258e-01
6.008958071470260620e-02 -2.541454136371612549e-02 1.487110555171966553e-01
-5.323049798607826233e-02 -3.400387614965438843e-02 -2.672266960144042969e-01
7.342603802680969238e-02 -4.543457180261611938e-02 1.944094747304916382e-01
-4.396271333098411560e-02 -4.426994174718856812e-02 -1.240335255861282349e-01
6.457616388797760010e-02 -4.591540247201919556e-02 9.720106422901153564e-02
1.491017639636993408e-03 -4.084412008523941040e-02 5.321660041809082031e-01
-9.624300897121429443e-02 -2.789181657135486603e-02 3.033799529075622559e-01
3.586284071207046509e-02 -4.627496004104614258e-02 1.354992389678955078e-02
-7.004131376743316650e-02 -4.416567087173461914e-02 2.815043926239013672e-01
-5.130808334797620773e-03 -2.643843740224838257e-02 4.359400868415832520e-01
1.287706792354583740e-01 -4.222266376018524170e-02 1.693113297224044800e-01
2.694955281913280487e-02 -4.644961282610893250e-02 2.952490746974945068e-02
-5.946747492998838425e-03 -4.622288793325424194e-02 -1.535582542419433594e-02
9.276013821363449097e-02 -4.483022913336753845e-02 1.273501515388488770e-01
-1.028508245944976807e-01 -4.211214929819107056e-02 -3.808994591236114502e-02
-1.045936197042465210e-01 -3.269176557660102844e-02 4.493052363395690918e-01
1.260902285575866699e-01 -4.229628667235374451e-02 2.029598057270050049e-01
-7.018053438514471054e-03 -4.435432329773902893e-02 -1.641651540994644165e-01
-8.935993909835815430e-02 -4.215545207262039185e-02 -1.030697822570800781e-01
-6.533699482679367065e-02 -4.511103779077529907e-02 1.798089593648910522e-01
5.043463781476020813e-02 -4.566622897982597351e-02 2.562121748924255371e-01
-3.533492982387542725e-02 -2.614389732480049133e-02 3.883145451545715332e-01
5.084435269236564636e-02 -4.576353728771209717e-02 -2.360022068023681641e-02
7.482868432998657227e-02 -4.307938367128372192e-02 3.931266069412231445e-01
9.156231582164764404e-02 -2.675012126564979553e-02 1.200909614562988281e-01
-9.228594601154327393e-02 -3.861809149384498596e-02 4.586707949638366699e-01
6.227213423699140549e-03 -4.627323150634765625e-02 2.304537892341613770e-01
4.815949127078056335e-02 -4.433053731918334961e-02 -1.423483639955520630e-01
-1.392534226179122925e-01 -3.674885630607604980e-02 2.166051417589187622e-02
1.081530973315238953e-01 -2.762374840676784515e-02 1.854158639907836914e-01
1.014209687709808350e-01 -2.726143412292003632e-02 2.253760248422622681e-01
1.037995964288711548e-01 -4.415677860379219055e-02 1.642435789108276367e-01
6.092208623886108398e-02 -3.065101802349090576e-02 -2.080913037061691284e-01
-1.196666806936264038e-01 -2.958684414625167847e-02 7.888097316026687622e-02
1.041229590773582458e-01 -2.810287848114967346e-02 3.198433816432952881e-01
-4.638752713799476624e-02 -2.707623317837715149e-02 4.280604124069213867e-01
-8.633919060230255127e-02 -3.326466307044029236e-02 5.073081851005554199e-01
-1.157206445932388306e-01 -4.180992022156715393e-02 5.617308616638183594e-02
-4.367272835224866867e-03 -2.536407113075256348e-02 1.264156401157379150e-02
6.622935645282268524e-03 -3.005588985979557037e-02 5.647086501121520996e-01
2.034968510270118713e-02 -4.660662263631820679e-02 1.479839384555816650e-01
-3.494156524538993835e-02 -4.560467228293418884e-02 -3.665527701377868652e-02
-8.695966005325317383e-02 -2.813073247671127319e-02 3.710319399833679199e-01
6.930626183748245239e-02 -2.830763719975948334e-02 4.563091397285461426e-01
-6.628184765577316284e-02 -4.462562873959541321e-02 2.509952187538146973e-01
1.456069499254226685e-01 -3.927223011851310730e-02 2.441240847110748291e-01
-2.635226026177406311e-02 -4.523405060172080994e-02 -8.994521200656890869e-02
1.040702313184738159e-01 -3.158200904726982117e-02 -1.415000110864639282e-01
-9.445691853761672974e-02 -2.716100215911865234e-02 1.692554205656051636e-01
6.992320716381072998e-02 -4.291198030114173889e-02 -1.707535237073898315e-01
8.219156414270401001e-02 -2.702572755515575409e-02 3.421326279640197754e-01
3.177693486213684082e-02 -3.833333775401115417e-02 -3.028264045715332031e-01
8.249192684888839722e-02 -4.428856074810028076e-02 -6.235793232917785645e-02
-4.514594003558158875e-02 -3.159246221184730530e-02 5.616690516471862793e-01
-6.022625043988227844e-02 -4.537851363420486450e-02 1.601328551769256592e-01
-1.635297201573848724e-02 -2.583653852343559265e-02 -2.475057542324066162e-02
7.906860858201980591e-02 -2.612406015396118164e-02 1.335396617650985718e-01
-1.547204330563545227e-02 -2.484239824116230011e-02 9.686559438705444336e-02
7.041732221841812134e-02 -4.017817601561546326e-02 5.035195350646972656e-01
4.448888357728719711e-03 -2.678550407290458679e-02 4.561886191368103027e-01
-3.858148306608200073e-02 -3.911297768354415894e-02 5.468623042106628418e-01
1.030404195189476013e-01 -4.341832920908927917e-02 2.740893959999084473e-01
2.444588346406817436e-03 -2.491435781121253967e-02 3.025553822517395020e-01
8.863415569067001343e-02 -2.677293680608272552e-02 2.752632200717926025e-01
-8.840611577033996582e-02 -4.390368610620498657e-02 3.648845851421356201e-02
2.609577402472496033e-02 -2.621654793620109558e-02 4.136826395988464355e-01
1.510943323373794556e-01 -3.326347842812538147e-02 7.948426157236099243e-02
-2.231677435338497162e-02 -2.857436984777450562e-02 5.180613994598388672e-01
-1.005984768271446228e-01 -3.207505121827125549e-02 -1.377229243516921997e-01
1.535843685269355774e-02 -4.657375812530517578e-02 1.674936264753341675e-01
-8.036285638809204102e-02 -2.878355979919433594e-02 -8.572924137115478516e-02
-4.698656499385833740e-02 -2.859946712851524353e-02 4.923866987228393555e-01
-5.073276907205581665e-02 -4.535191506147384644e-02 -1.182729005813598633e-02
7.256092131137847900e-02 -2.581128105521202087e-02 1.596607267856597900e-01
4.022050648927688599e-02 -4.252712056040763855e-02 4.673151373863220215e-01
-6.496418267488479614e-02 -4.523419588804244995e-02 1.445925086736679077e-01
7.920233905315399170e-02 -4.365921020507812500e-02 3.498246967792510986e-01
1.345087960362434387e-02 -4.627342894673347473e-02 -1.597449183464050293e-02
9.166139364242553711e-02 -4.177659004926681519e-02 -1.607677787542343140e-01
-3.374441713094711304e-02 -2.646069414913654327e-02 -5.312852561473846436e-02
2.246705815196037292e-02 -2.473582327365875244e-02 2.438217699527740479e-01
8.213604986667633057e-02 -3.063509613275527954e-02 -1.703686267137527466e-01
-2.650480717420578003e-02 -3.422195464372634888e-02 -2.947712540626525879e-01
6.178883835673332214e-02 -3.794974833726882935e-02 5.561236739158630371e-01
-5.813918635249137878e-02 -2.689177729189395905e-02 -3.520950675010681152e-02
2.400078810751438141e-02 -2.926773764193058014e-02 -2.016921490430831909e-01
5.608644708991050720e-02 -4.577338322997093201e-02 2.240636646747589111e-01
1.121675968170166016e-02 -4.645102471113204956e-02 1.329234242439270020e-02
-7.119276374578475952e-02 -2.598951943218708038e-02 1.520159989595413208e-01
2.440960146486759186e-02 -2.474096231162548065e-02 1.350712180137634277e-01
1.243769563734531403e-02 -4.029205441474914551e-02 5.460075139999389648e-01
8.334114402532577515e-02 -3.727990388870239258e-02 5.318684577941894531e-01
-2.965214475989341736e-02 -2.527143806219100952e-02 3.145447373390197754e-01
-3.725648298859596252e-02 -4.486399516463279724e-02 3.217765092849731445e-01
2.366800047457218170e-02 -2.525335550308227539e-02 3.711143881082534790e-02
9.875576943159103394e-02 -3.037933632731437683e-02 -1.193637698888778687e-01
4.261616244912147522e-02 -2.809193730354309082e-02 4.904950261116027832e-01
-3.340057283639907837e-02 -4.234988242387771606e-02 4.636709094047546387e-01
1.692491397261619568e-02 -2.551080659031867981e-02 1.741737127304077148e-03
-2.600980550050735474e-02 -4.637102782726287842e-02 1.162683889269828796e-01
9.754776954650878906e-02 -2.851297333836555481e-02 3.818003535270690918e-01
1.044957414269447327e-01 -3.385727852582931519e-02 4.946338534355163574e-01
5.431943386793136597e-02 -2.540187351405620575e-02 2.664093673229217529e-01
-4.829889629036188126e-03 -2.924464270472526550e-02 5.450519323348999023e-01
6.161627173423767090e-02 -2.725834771990776062e-02 4.220010638236999512e-01
-1.184498220682144165e-01 -2.914328128099441528e-02 2.044891119003295898e-01
1.084114089608192444e-01 -2.874844893813133240e-02 2.352431416511535645e-03
-4.717972502112388611e-02 -4.451907426118850708e-02 -1.009276509284973145e-01
-7.853714749217033386e-03 -2.602062746882438660e-02 4.083895087242126465e-01
-7.263349741697311401e-02 -3.871048614382743835e-02 -2.357741147279739380e-01
-8.961640298366546631e-02 -3.784214332699775696e-02 4.799642562866210938e-01
-4.215602204203605652e-02 -3.626607358455657959e-02 5.786623358726501465e-01
-8.892930299043655396e-02 -2.684114128351211548e-02 1.968325376510620117e-01
-5.673150066286325455e-03 -4.354004561901092529e-02 -2.012245804071426392e-01
-9.818803519010543823e-02 -4.346437752246856689e-02 1.320328861474990845e-01
-5.764375254511833191e-02 -2.581785991787910461e-02 7.256531715393066406e-02
1.942662522196769714e-02 -4.503129050135612488e-02 -1.278184503316879272e-01
9.177561849355697632e-02 -2.665741927921772003e-02 2.000214159488677979e-01
2.940240316092967987e-02 -4.515120387077331543e-02 -1.136222928762435913e-01
-3.961740806698799133e-02 -2.800076082348823547e-02 -1.329560428857803345e-01
3.500321879982948303e-02 -3.894034028053283691e-02 5.651353597640991211e-01
8.316427469253540039e-03 -2.595228515565395355e-02 -4.113674163818359375e-02
-1.262356042861938477e-01 -3.000989183783531189e-02 1.410897225141525269e-01
-2.201016247272491455e-02 -4.637680202722549438e-02 5.782651156187057495e-02
-6.878913938999176025e-02 -2.645036205649375916e-02 4.205662757158279419e-02
-7.081794738769531250e-02 -2.629243209958076477e-02 2.855019569396972656e-01
-2.945986390113830566e-02 -2.665388211607933044e-02 4.301099181175231934e-01
-3.411311656236648560e-02 -2.614588290452957153e-02 -2.863872051239013672e-02
5.660931393504142761e-02 -4.455791041254997253e-02 -1.149712949991226196e-01
8.360751718282699585e-02 -4.345715418457984924e-02 -1.126871258020401001e-01
6.615854054689407349e-02 -2.597865834832191467e-02 6.404441595077514648e-02
7.447907328605651855e-02 -4.494651034474372864e-02 2.600450813770294189e-01
-2.460673451423645020e-02 -4.018998518586158752e-02 5.366564393043518066e-01
1.232839934527873993e-02 -4.657812416553497314e-02 4.399092495441436768e-02
6.472487747669219971e-02 -4.577375203371047974e-02 1.800674647092819214e-01
5.776724219322204590e-02 -4.536684602499008179e-02 -4.863663017749786377e-02
1.174193173646926880e-01 -4.307581484317779541e-02 4.321312159299850464e-02
-2.031281217932701111e-02 -4.562619328498840332e-02 2.834813892841339111e-01
2.489250153303146362e-02 -2.768342383205890656e-02 4.900174736976623535e-01
-3.798739239573478699e-02 -2.496481314301490784e-02 2.031496018171310425e-01
-3.051717579364776611e-02 -4.617165029048919678e-02 4.093533754348754883e-02
-1.034731939435005188e-01 -2.779174968600273132e-02 1.533958315849304199e-01
-5.465769767761230469e-02 -4.230794683098793030e-02 4.338628649711608887e-01
5.864455923438072205e-02 -2.885167673230171204e-02 -1.516156047582626343e-01
-7.972258329391479492e-02 -2.731106430292129517e-02 6.146907806396484375e-03
-7.790744304656982422e-02 -2.652564644813537598e-02 8.754328638315200806e-02
-1.618947461247444153e-02 -4.498470574617385864e-02 -1.210234016180038452e-01
6.010394915938377380e-02 -2.538868412375450134e-02 2.041740417480468750e-01
-6.815838813781738281e-02 -4.512545838952064514e-02 9.059898555278778076e-02
1.005076691508293152e-01 -4.430018737912178040e-02 5.404649674892425537e-02
-3.824148327112197876e-02 -2.757245860993862152e-02 -1.138896793127059937e-01
6.312502175569534302e-02 -4.592732340097427368e-02 1.434412598609924316e-01
-1.350091695785522461e-01 -3.666550666093826294e-02 3.010708391666412354e-01
-8.388616889715194702e-02 -2.782531268894672394e-02 -1.665547490119934082e-02
-1.385020557790994644e-03 -4.285760223865509033e-02 4.662471413612365723e-01
2.351847290992736816e-02 -2.699312940239906311e-02 -1.029968112707138062e-01
-1.766945049166679382e-02 -2.896201238036155701e-02 -1.909819692373275757e-01
1.747441105544567108e-02 -2.590603381395339966e-02 3.984381556510925293e-01
-6.960184127092361450e-02 -4.035267233848571777e-02 4.716340899467468262e-01
-1.073143444955348969e-02 -2.461140230298042297e-02 2.119004726409912109e-01
3.032339178025722504e-02 -4.603995382785797119e-02 -3.236661851406097412e-02
-3.652310743927955627e-02 -4.542003571987152100e-02 2.717668116092681885e-01
1.591403968632221222e-03 -4.544641822576522827e-02 -9.989531338214874268e-02
1.033664345741271973e-01 -4.328206554055213928e-02 -4.520297050476074219e-02
8.258799090981483459e-03 -2.565201371908187866e-02 3.825168609619140625e-01
-6.335966289043426514e-02 -2.773465961217880249e-02 -7.656581699848175049e-02
-1.733282208442687988e-02 -4.314031451940536499e-02 4.465300440788269043e-01
5.155555531382560730e-02 -4.323688149452209473e-02 4.257430434226989746e-01
5.040347203612327576e-02 -3.081559762358665466e-02 -2.255506664514541626e-01
9.729134850203990936e-03 -2.734405174851417542e-02 4.819579720497131348e-01
5.670678243041038513e-02 -4.606929421424865723e-02 6.256122887134552002e-02
1.161086708307266235e-01 -2.863384410738945007e-02 6.899268925189971924e-02
5.878553539514541626e-02 -4.511064291000366211e-02 2.938179969787597656e-01
1.137595996260643005e-01 -4.181812331080436707e-02 3.301093876361846924e-01
-4.740137606859207153e-02 -4.218707978725433350e-02 4.510988593101501465e-01
-4.061726480722427368e-02 -2.507228776812553406e-02 2.317703962326049805e-01
-1.156388819217681885e-01 -3.147005289793014526e-02 3.806952238082885742e-01
1.178375035524368286e-01 -4.320570454001426697e-02 7.731574028730392456e-02
-6.834895163774490356e-02 -2.650612592697143555e-02 3.246676623821258545e-01
5.088174343109130859e-02 -2.530733868479728699e-02 1.049222573637962341e-01
4.074236750602722168e-02 -2.560917101800441742e-02 2.522187680006027222e-02
6.336095742881298065e-03 -2.457677759230136871e-02 2.147865295410156250e-01
8.971393853425979614e-02 -4.044371843338012695e-02 4.601377844810485840e-01
4.482836648821830750e-02 -2.558745443820953369e-02 3.303221464157104492e-01
-2.826207503676414490e-02 -2.545984089374542236e-02 2.722030878067016602e-02
-2.895904704928398132e-02 -4.590410366654396057e-02 -1.526775956153869629e-02
4.163699969649314880e-02 -2.869937196373939514e-02 -1.676764935255050659e-01
8.883363753557205200e-02 -4.482265561819076538e-02 3.380659967660903931e-02
-5.698153749108314514e-02 -2.716230228543281555e-02 -5.686622858047485352e-02
-4.800381138920783997e-02 -4.583017155528068542e-02 1.405182927846908569e-01
4.710858315229415894e-02 -2.539102174341678619e-02 2.972640097141265869e-01
-1.428809016942977905e-01 -3.424662351608276367e-02 7.592963427305221558e-02
-6.208891049027442932e-02 -3.140499070286750793e-02 -2.130343765020370483e-01
-3.675001114606857300e-02 -4.519515857100486755e-02 -7.303711771965026855e-02
4.433163627982139587e-02 -3.997881338000297546e-02 5.385396480560302734e-01
3.938825801014900208e-03 -2.513697557151317596e-02 3.325803875923156738e-01
-9.247148782014846802e-02 -4.280377179384231567e-02 2.882298827171325684e-01
1.722147874534130096e-02 -2.833135053515434265e-02 -1.702712625265121460e-01
4.353352356702089310e-03 -2.801056578755378723e-02 -1.595678776502609253e-01
-2.567593473941087723e-03 -3.040687739849090576e-02 -2.397668510675430298e-01
-1.309567503631114960e-02 -2.988759987056255341e-02 -2.227414995431900024e-01
-1.089154481887817383e-01 -2.958277985453605652e-02 -9.234666824340820312e-03
1.190179809927940369e-01 -2.902251854538917542e-02 5.291402339935302734e-02
1.078802347183227539e-01 -4.246338456869125366e-02 -7.518073916435241699e-02
-9.570313245058059692e-02 -4.353308677673339844e-02 5.957780778408050537e-02
1.164679452776908875e-01 -2.863722294569015503e-02 2.751740217208862305e-01
6.833788752555847168e-02 -4.564187303185462952e-02 3.472162038087844849e-02
7.463817298412322998e-02 -4.527116566896438599e-02 2.162536680698394775e-01
-9.961370378732681274e-02 -4.210683703422546387e-02 -5.769515037536621094e-02
1.001001298427581787e-01 -4.439172148704528809e-02 7.328193634748458862e-02
4.273993894457817078e-02 -4.554728046059608459e-02 2.857118248939514160e-01
-4.584078490734100342e-02 -2.531000599265098572e-02 2.632362544536590576e-01
-2.994650602340698242e-02 -2.635302767157554626e-02 4.110437035560607910e-01
1.310554891824722290e-01 -4.097620025277137756e-02 2.760328650474548340e-01
-4.197724163532257080e-02 -4.578528553247451782e-02 1.506422460079193115e-02
8.815073221921920776e-02 -2.685235813260078430e-02 6.921764463186264038e-02
8.316235244274139404e-02 -4.452704265713691711e-02 -3.889058530330657959e-02
1.530239731073379517e-01 -3.546565398573875427e-02 2.596835494041442871e-01
1.295822113752365112e-02 -4.567190632224082947e-02 3.010285496711730957e-01
-1.145022548735141754e-02 -2.578865364193916321e-02 3.893494009971618652e-01
-9.845370799303054810e-02 -4.094638675451278687e-02 -1.169079691171646118e-01
-7.482199370861053467e-02 -2.792998217046260834e-02 -5.634163320064544678e-02
8.354800939559936523e-02 -2.732307091355323792e-02 -4.595607519149780273e-03
2.022049389779567719e-02 -4.665259644389152527e-02 9.965867549180984497e-02
3.479627147316932678e-02 -4.373272135853767395e-02 -1.856221109628677368e-01
5.437178164720535278e-02 -2.792979776859283447e-02 -1.171637922525405884e-01
-8.966299146413803101e-02 -4.278604313731193542e-02 3.040927052497863770e-01
1.103472858667373657e-01 -3.652796894311904907e-02 4.767872691154479980e-01
1.076464727520942688e-01 -3.186925873160362244e-02 4.614120721817016602e-01
-9.880729019641876221e-02 -4.301372170448303223e-02 1.191407442092895508e-02
-2.669778838753700256e-02 -4.159548133611679077e-02 4.965527057647705078e-01
-1.137241721153259277e-01 -2.899452485144138336e-02 2.613645195960998535e-01
-2.786726132035255432e-02 -2.502568997442722321e-02 2.808758616447448730e-01
9.119191765785217285e-02 -2.714092656970024109e-02 5.176755785942077637e-02
-6.467567384243011475e-02 -3.353352099657058716e-02 5.520483255386352539e-01
-6.706070620566606522e-03 -2.668466232717037201e-02 -9.056133031845092773e-02
-7.901062816381454468e-02 -4.462933540344238281e-02 1.089961528778076172e-01
-5.866587534546852112e-02 -4.510525986552238464e-02 2.277715951204299927e-01
-4.433889687061309814e-02 -4.395966604351997375e-02 -1.408216804265975952e-01
8.614442497491836548e-02 -4.306945949792861938e-02 3.647789359092712402e-01
-1.042084321379661560e-01 -2.804058231413364410e-02 2.467584609985351562e-01
5.065150931477546692e-02 -4.606835544109344482e-02 1.925936937332153320e-01
-1.122061312198638916e-01 -4.227241128683090210e-02 1.605992764234542847e-01
-1.407547444105148315e-01 -3.376636654138565063e-02 2.459541857242584229e-01
-9.056368842720985413e-03 -4.658702015876770020e-02 8.577977120876312256e-02
8.364310860633850098e-02 -4.513750970363616943e-02 5.154176056385040283e-02
1.022876948118209839e-01 -2.729344367980957031e-02 1.389950066804885864e-01
1.338788419961929321e-01 -3.030785359442234039e-02 7.759423553943634033e-02
5.808140709996223450e-02 -3.920006752014160156e-02 -2.730421423912048340e-01
5.635130219161510468e-04 -4.636347666382789612e-02 6.026476621627807617e-04
-7.364649325609207153e-02 -3.036308474838733673e-02 -1.637781411409378052e-01
1.158232018351554871e-01 -4.256179556250572205e-02 -2.478002011775970459e-02
-1.774987578392028809e-02 -4.594624042510986328e-02 2.508967816829681396e-01
-1.687851268798112869e-03 -4.548062384128570557e-02 3.157080709934234619e-01
1.331806033849716187e-01 -4.181343689560890198e-02 9.595394879579544067e-02
-1.330000609159469604e-01 -3.122817538678646088e-02 2.239229381084442139e-01
4.504963755607604980e-02 -2.500704303383827209e-02 1.670553833246231079e-01
1.125154122710227966e-01 -2.964209392666816711e-02 3.737207949161529541e-01
-4.350963607430458069e-02 -4.577439278364181519e-02 1.954433321952819824e-01
-4.322847723960876465e-02 -4.434961080551147461e-02 3.477652668952941895e-01
-2.212987095117568970e-02 -4.490557312965393066e-02 3.432035446166992188e-01
-7.119919639080762863e-03 -3.903652355074882507e-02 5.690980553627014160e-01
1.006014347076416016e-01 -4.155608639121055603e-02 3.931472301483154297e-01
-5.517193581908941269e-03 -2.460816130042076111e-02 1.480669975280761719e-01
1.159109845757484436e-01 -4.342242330312728882e-02 1.136126518249511719e-01
-2.245829999446868896e-02 -4.141509905457496643e-02 -2.562597393989562988e-01
1.339069753885269165e-01 -3.144968673586845398e-02 3.298098742961883545e-01
1.529732644557952881e-01 -3.777397051453590393e-02 2.205067574977874756e-01
6.383414566516876221e-02 -4.470537602901458740e-02 -8.904346823692321777e-02
-8.140285313129425049e-02 -4.091939330101013184e-02 4.255675673484802246e-01
-6.520724296569824219e-02 -3.110115230083465576e-02 5.250104665756225586e-01
-1.855807565152645111e-02 -3.525127470493316650e-02 6.013285517692565918e-01
1.433019526302814484e-03 -4.585473239421844482e-02 -6.427976489067077637e-02
2.029811218380928040e-02 -4.093239456415176392e-02 5.287142992019653320e-01
4.408711940050125122e-02 -4.304793477058410645e-02 4.426888227462768555e-01
3.417840600013732910e-02 -4.315979033708572388e-02 -2.084738165140151978e-01
-9.043936431407928467e-02 -4.378635808825492859e-02 1.913805752992630005e-01
1.865898445248603821e-02 -4.643053188920021057e-02 1.999322921037673950e-01
-1.408436596393585205e-01 -3.793284669518470764e-02 9.470969438552856445e-02
6.414379924535751343e-02 -2.580556459724903107e-02 2.861520946025848389e-01
4.032082855701446533e-02 -4.174535721540451050e-02 -2.460325807332992554e-01
8.450798690319061279e-02 -3.350064530968666077e-02 -2.269823998212814331e-01
7.138961553573608398e-02 -2.726900763809680939e-02 -4.190459847450256348e-02
-2.234731800854206085e-02 -4.459107294678688049e-02 -1.389488130807876587e-01
3.460408747196197510e-02 -2.633532136678695679e-02 -5.015178024768829346e-02
-7.906480133533477783e-02 -2.933860383927822113e-02 4.514086246490478516e-01
1.516441702842712402e-01 -3.851756826043128967e-02 2.018491923809051514e-01
-5.341098830103874207e-02 -2.966892719268798828e-02 -1.788489669561386108e-01
1.265255510807037354e-01 -2.913584932684898376e-02 1.929515898227691650e-01
-7.107064872980117798e-02 -2.909581363201141357e-02 -1.243615597486495972e-01
1.487728357315063477e-01 -3.300353884696960449e-02 5.921915173530578613e-02
8.630579710006713867e-02 -4.467421025037765503e-02 2.349903583526611328e-01
-9.402512758970260620e-02 -2.774062566459178925e-02 4.440628737211227417e-02
4.525357391685247421e-03 -4.667486622929573059e-02 1.069780141115188599e-01
-9.127911180257797241e-02 -3.691661730408668518e-02 -2.072332948446273804e-01
-5.421792622655630112e-03 -4.587219282984733582e-02 2.752048373222351074e-01
-5.096460133790969849e-02 -2.823410928249359131e-02 4.729918837547302246e-01
-5.203726142644882202e-02 -4.505803063511848450e-02 -4.143136739730834961e-02
1.341913938522338867e-01 -4.137557744979858398e-02 4.176384210586547852e-02
6.759244203567504883e-02 -3.016115725040435791e-02 5.184264183044433594e-01
-7.053777575492858887e-02 -3.935325145721435547e-02 4.947957396507263184e-01
-4.250952601432800293e-02 -2.566846460103988647e-02 3.550481051206588745e-02
-5.278060212731361389e-02 -2.532187290489673615e-02 1.921317875385284424e-01
-6.694104056805372238e-03 -4.152595251798629761e-02 -2.620234489440917969e-01
7.851811498403549194e-02 -4.302577301859855652e-02 -1.472735255956649780e-01
-7.966706901788711548e-02 -3.359480947256088257e-02 -2.187319248914718628e-01
1.249045655131340027e-01 -2.915604040026664734e-02 1.044454425573348999e-01
5.185445770621299744e-02 -2.635909430682659149e-02 -2.235858142375946045e-02
-1.249900460243225098e-01 -3.986376896500587463e-02 -9.070307016372680664e-03
1.703362166881561279e-02 -4.661522805690765381e-02 6.129518151283264160e-02
2.627163939177989960e-02 -4.574161767959594727e-02 2.874993681907653809e-01
-3.571033012121915817e-03 -2.734358981251716614e-02 -1.278605908155441284e-01
6.426792591810226440e-02 -2.758084237575531006e-02 -7.970018684864044189e-02
4.667752608656883240e-02 -2.699161693453788757e-02 -7.727731764316558838e-02
-9.497216343879699707e-02 -2.953151613473892212e-02 -7.183425128459930420e-02
4.265007749199867249e-02 -4.458671808242797852e-02 3.628849983215332031e-01
-9.260799735784530640e-02 -4.318727925419807434e-02 2.532002627849578857e-01
4.467787221074104309e-02 -4.492658749222755432e-02 3.363397419452667236e-01
-6.262731552124023438e-02 -3.933461755514144897e-02 5.098165869712829590e-01
1.295774430036544800e-01 -4.134264215826988220e-02 -8.811518549919128418e-03
-4.632660374045372009e-02 -2.600570023059844971e-02 3.534125387668609619e-01
2.182603441178798676e-02 -2.791323140263557434e-02 -1.503874510526657104e-01
1.296397596597671509e-01 -3.027577884495258331e-02 2.999824881553649902e-01
-2.393633127212524414e-02 -3.076717443764209747e-02 5.684810280799865723e-01
-8.475117385387420654e-02 -2.742283046245574951e-02 3.306888341903686523e-01
3.944144025444984436e-02 -2.490716427564620972e-02 2.141093909740447998e-01
-4.894071072340011597e-02 -2.951738052070140839e-02 5.168699026107788086e-01
2.614033222198486328e-02 -2.469028905034065247e-02 1.933820843696594238e-01
1.478264927864074707e-01 -3.857587277889251709e-02 2.059631049633026123e-02
-5.561490077525377274e-03 -2.465748414397239685e-02 2.449479699134826660e-01
1.242406517267227173e-01 -4.123866930603981018e-02 -5.194903910160064697e-02
8.129144459962844849e-02 -4.432739317417144775e-02 2.942962050437927246e-01
1.212285608053207397e-01 -2.960249222815036774e-02 1.995515823364257812e-02
7.940558344125747681e-02 -3.175212070345878601e-02 -2.050261944532394409e-01
-7.369559258222579956e-02 -2.713758870959281921e-02 3.578502535820007324e-01
3.438523784279823303e-02 -2.685512229800224304e-02 4.436585307121276855e-01
9.782841056585311890e-02 -3.296956419944763184e-02 -1.895322054624557495e-01
-1.348900422453880310e-02 -2.616576105356216431e-02 -5.281160771846771240e-02
1.038695946335792542e-01 -2.752079442143440247e-02 2.500405907630920410e-01
6.955431401729583740e-02 -4.070698469877243042e-02 -2.342479676008224487e-01
-1.432777792215347290e-01 -3.342695534229278564e-02 1.566897928714752197e-01
1.493814289569854736e-01 -3.228186070919036865e-02 1.701241731643676758e-01
-1.939474418759346008e-02 -2.837976813316345215e-02 -1.680446714162826538e-01
-6.631553173065185547e-02 -2.776908129453659058e-02 4.201381802558898926e-01
7.711676880717277527e-03 -2.774050459265708923e-02 4.984431862831115723e-01
1.071120426058769226e-02 -4.448140040040016174e-02 -1.615302413702011108e-01
8.150826208293437958e-03 -4.434918612241744995e-02 3.967472314834594727e-01
2.991309762001037598e-02 -2.487115189433097839e-02 1.152777075767517090e-01
6.472586840391159058e-02 -2.596870623528957367e-02 3.071051836013793945e-01
-4.903223365545272827e-02 -2.571637928485870361e-02 3.143486678600311279e-01
7.234451361000537872e-03 -4.652092605829238892e-02 1.838504523038864136e-01
4.473192989826202393e-02 -2.506922744214534760e-02 2.398339509963989258e-01
-4.637196660041809082e-02 -2.719641476869583130e-02 -8.072115480899810791e-02
2.769815269857645035e-03 -4.663586616516113281e-02 6.961218267679214478e-02
-2.595628052949905396e-02 -2.475295774638652802e-02 1.749606728553771973e-01
3.116081841289997101e-02 -4.640886187553405762e-02 1.840510666370391846e-01
-8.406076580286026001e-02 -4.365979507565498352e-02 -2.840554714202880859e-02
8.679159730672836304e-02 -2.989505231380462646e-02 -1.348439902067184448e-01
9.843472391366958618e-02 -2.949971146881580353e-02 4.248232245445251465e-01
9.148439019918441772e-02 -2.665680088102817535e-02 1.518712937831878662e-01
9.997767210006713867e-02 -3.816195204854011536e-02 -2.088663130998611450e-01
4.523802921175956726e-02 -3.354363515973091125e-02 5.900303721427917480e-01
1.500769145786762238e-02 -4.396855086088180542e-02 -1.854837685823440552e-01
-4.448104649782180786e-02 -2.530728280544281006e-02 9.787522256374359131e-02
4.403993114829063416e-02 -2.792833186686038971e-02 -1.317408531904220581e-01
1.334591805934906006e-01 -3.026798740029335022e-02 2.593142986297607422e-01
-7.172046601772308350e-02 -2.599906176328659058e-02 2.017853260040283203e-01
-1.989458128809928894e-02 -2.476616762578487396e-02 1.274153441190719604e-01
4.131122678518295288e-02 -4.477956891059875488e-02 -1.254134029150009155e-01
-2.323586866259574890e-02 -2.484869584441184998e-02 2.569392621517181396e-01
7.194671779870986938e-02 -2.642393484711647034e-02 3.287317454814910889e-01
1.250073164701461792e-01 -2.903797850012779236e-02 1.326949894428253174e-01
-1.087182462215423584e-01 -4.037109762430191040e-02 -9.189409017562866211e-02
7.915042340755462646e-02 -2.618793398141860962e-02 2.485866248607635498e-01
6.252565979957580566e-02 -4.392596334218978882e-02 3.725584745407104492e-01
-1.346958726644515991e-01 -3.557141497731208801e-02 -2.648386359214782715e-02
2.461959235370159149e-02 -4.487232118844985962e-02 3.600850105285644531e-01
-2.690448611974716187e-02 -2.715057693421840668e-02 4.590126276016235352e-01
1.023019775748252869e-01 -2.774213626980781555e-02 2.966695427894592285e-01
3.705960512161254883e-02 -2.527023293077945709e-02 3.101144433021545410e-01
6.290795654058456421e-02 -2.847288548946380615e-02 4.754132032394409180e-01
-3.888295218348503113e-02 -4.571682959794998169e-02 2.265945374965667725e-01
5.204361304640769958e-02 -4.147394001483917236e-02 4.920126199722290039e-01
6.742339581251144409e-02 -2.587790600955486298e-02 8.727315813302993774e-02
-8.827913552522659302e-02 -4.410647973418235779e-02 9.576504677534103394e-02
-1.153223514556884766e-01 -4.024336487054824829e-02 3.167188167572021484e-01
-4.610632359981536865e-02 -4.313376173377037048e-02 4.122569561004638672e-01
1.155396923422813416e-02 -4.300861805677413940e-02 -2.230289727449417114e-01
-5.106513854116201401e-03 -2.468312531709671021e-02 1.202731654047966003e-01
9.595041722059249878e-02 -2.890138328075408936e-02 -6.306037306785583496e-02
-2.476725354790687561e-02 -2.555246278643608093e-02 1.136620342731475830e-02
-2.389750443398952484e-04 -2.551974356174468994e-02 -4.168555140495300293e-03
1.547928452491760254e-01 -3.381355479359626770e-02 1.353351771831512451e-01
1.177057698369026184e-01 -4.326665401458740234e-02 1.421771496534347534e-01
-3.042355552315711975e-02 -4.626715183258056641e-02 7.654906809329986572e-02
7.645580917596817017e-02 -2.709480375051498413e-02 3.703618049621582031e-01
7.320162653923034668e-02 -4.559213295578956604e-02 6.706853955984115601e-02
-3.221268951892852783e-02 -2.575244940817356110e-02 3.616112470626831055e-01
-3.050565347075462341e-02 -4.384501278400421143e-02 -1.681495755910873413e-01
3.095063939690589905e-02 -2.540528401732444763e-02 3.393931090831756592e-01
-1.245846599340438843e-02 -2.552178874611854553e-02 3.660617470741271973e-01
-4.983762279152870178e-02 -4.564329981803894043e-02 3.319243341684341431e-02
-1.150110065937042236e-01 -2.882187068462371826e-02 1.278757601976394653e-01
-7.145898789167404175e-02 -4.373813420534133911e-02 -8.092372119426727295e-02
1.062153428792953491e-01 -4.205804318189620972e-02 -1.022767126560211182e-01
2.420331537723541260e-02 -2.488884888589382172e-02 9.516441076993942261e-02
5.031976103782653809e-02 -2.518912963569164276e-02 1.340105980634689331e-01
-2.453186921775341034e-02 -4.611380398273468018e-02 2.099787741899490356e-01
-9.830803424119949341e-02 -3.915768116712570190e-02 -1.639004796743392944e-01
-5.775615200400352478e-02 -4.524742066860198975e-02 9.463861584663391113e-03
6.036125868558883667e-02 -2.715445682406425476e-02 -6.194067001342773438e-02
-1.196547746658325195e-01 -4.099256917834281921e-02 1.453757286071777344e-02
-7.945784926414489746e-02 -2.681945636868476868e-02 3.002003431320190430e-01
-4.461881145834922791e-02 -2.552188374102115631e-02 6.147826462984085083e-02
-7.979393750429153442e-02 -2.643460407853126526e-02 1.275305151939392090e-01
1.397414803504943848e-01 -4.085808619856834412e-02 1.876762509346008301e-01
1.255301684141159058e-01 -2.913220785558223724e-02 2.229312956333160400e-01
1.044535264372825623e-01 -4.377021640539169312e-02 2.276032567024230957e-01
-1.032103598117828369e-01 -3.852527588605880737e-02 4.263163208961486816e-01
8.112850785255432129e-02 -4.387214034795761108e-02 3.300854265689849854e-01
5.631321296095848083e-02 -2.610583417117595673e-02 1.207804679870605469e-02
-3.069327771663665771e-02 -2.507652714848518372e-02 8.823128044605255127e-02
-1.310428231954574585e-02 -2.767284587025642395e-02 4.918549060821533203e-01
-2.471218258142471313e-02 -4.610317572951316833e-02 3.245413303375244141e-03
3.283628029748797417e-03 -4.494896903634071350e-02 -1.346414536237716675e-01
-1.377280652523040771e-01 -3.515574708580970764e-02 6.955862045288085938e-05
3.597904369235038757e-02 -4.614265263080596924e-02 -8.622601628303527832e-03
-3.980426117777824402e-04 -4.036622866988182068e-02 -2.860584259033203125e-01
-3.845062479376792908e-02 -3.201486915349960327e-02 -2.555480003356933594e-01
-1.357956379652023315e-01 -3.893441334366798401e-02 2.001074254512786865e-01
1.570809260010719299e-02 -2.547618933022022247e-02 3.637492656707763672e-01
-1.716901920735836029e-02 -4.632735624909400940e-02 1.889547705650329590e-01
2.791519649326801300e-02 -2.572247013449668884e-02 3.745141923427581787e-01
1.854662224650382996e-02 -2.582236379384994507e-02 -2.575597167015075684e-02
-9.508083015680313110e-02 -2.726437896490097046e-02 2.192361056804656982e-01
-6.916910409927368164e-02 -4.429790377616882324e-02 -4.585835337638854980e-02
-2.584031596779823303e-02 -2.477747946977615356e-02 1.528890877962112427e-01
-5.814539268612861633e-02 -3.192630782723426819e-02 -2.301486879587173462e-01
1.626242510974407196e-02 -3.466575220227241516e-02 -3.071807026863098145e-01
8.798848837614059448e-02 -2.734768763184547424e-02 1.270109415054321289e-02
-2.218928560614585876e-02 -2.720540389418601990e-02 -1.115468591451644897e-01
-5.666341260075569153e-02 -4.352238029241561890e-02 3.702660799026489258e-01
-1.166289597749710083e-01 -3.468513116240501404e-02 -1.206226199865341187e-01
9.279952943325042725e-02 -4.421563446521759033e-02 -2.115167677402496338e-02
3.541782125830650330e-02 -4.557293280959129333e-02 -7.421995699405670166e-02
3.399715572595596313e-02 -4.583291336894035339e-02 2.690148353576660156e-01
-1.009307429194450378e-01 -4.276292771100997925e-02 2.345635890960693359e-01
-4.402147233486175537e-02 -2.572371438145637512e-02 3.314729928970336914e-01
