-3.291832804679870605e-01 -9.597916901111602783e-02 1.260102689266204834e-01
2.532882094383239746e-01 2.507552802562713623e-01 -8.133344352245330811e-02
-1.098687946796417236e-01 2.248166799545288086e-01 3.066915571689605713e-01
-1.096599817276000977e+00 1.451295614242553711e-02 2.393861114978790283e-02
-1.822368353605270386e-01 3.366476297378540039e-01 -1.702185422182083130e-01
-1.098408222198486328e+00 4.470005631446838379e-02 1.161171570420265198e-01
-5.343036651611328125e-01 -2.895095944404602051e-02 2.449680119752883911e-01
1.138713955879211426e-01 2.377225756645202637e-01 -2.251615375280380249e-01
-5.491590499877929688e-01 -7.343998551368713379e-02 -2.140471190214157104e-01
-5.515786409378051758e-01 3.384907245635986328e-01 2.226689755916595459e-01
-9.053930044174194336e-01 3.329530954360961914e-01 -1.710775643587112427e-01
-1.168464899063110352e+00 2.916264832019805908e-01 -4.694867879152297974e-02
-1.060684323310852051e+00 2.997397184371948242e-01 -1.578240990638732910e-01
-7.258369326591491699e-01 -8.512850105762481689e-02 -4.782573319971561432e-03
-6.919188499450683594e-01 4.127769172191619873e-02 -3.388963043689727783e-01
3.069127202033996582e-01 6.839123368263244629e-02 1.803028434514999390e-01
-9.462557435035705566e-01 8.386301994323730469e-02 2.506396472454071045e-01
-1.241639137268066406e+00 9.841537475585937500e-02 -4.373772442340850830e-02
1.463018655776977539e-01 4.244971275329589844e-02 -2.752062082290649414e-01
-1.629551351070404053e-01 -1.005530953407287598e-01 9.859057515859603882e-02
-9.829289913177490234e-01 1.689393818378448486e-02 1.573105007410049438e-01
-7.061445713043212891e-01 7.544426620006561279e-02 3.138560354709625244e-01
-1.986437439918518066e-01 2.950534224510192871e-01 2.563941180706024170e-01
-5.267003178596496582e-01 -1.950140297412872314e-02 -3.086591362953186035e-01
3.234100341796875000e-01 -2.128626406192779541e-02 -5.170660838484764099e-02
-7.432014942169189453e-01 3.010962605476379395e-01 2.570700347423553467e-01
-1.213706493377685547e+00 2.111114263534545898e-01 1.154934540390968323e-01
1.914531588554382324e-01 2.806279659271240234e-01 5.402362719178199768e-02
-4.080956280231475830e-01 2.323078513145446777e-01 3.360145092010498047e-01
-6.818549633026123047e-01 5.119889974594116211e-03 -3.104223608970642090e-01
-5.533397197723388672e-01 2.881985306739807129e-01 2.919660806655883789e-01
2.445125579833984375e-01 9.797799587249755859e-02 -2.446778565645217896e-01
-1.110126614570617676e+00 2.811300456523895264e-01 1.338997483253479004e-01
-5.545437335968017578e-03 3.021728992462158203e-01 -1.744979918003082275e-01
-3.927691578865051270e-01 1.050221025943756104e-01 3.542296588420867920e-01
-1.030470132827758789e+00 6.228715181350708008e-03 9.460400789976119995e-02
-6.455839276313781738e-01 8.816799521446228027e-02 3.302234113216400146e-01
-6.761076450347900391e-01 -8.244998753070831299e-02 -1.349199414253234863e-01
-8.703665733337402344e-01 2.654393315315246582e-01 2.632981240749359131e-01
-2.811250090599060059e-01 3.553949594497680664e-01 -1.493962854146957397e-01
-1.059045314788818359e+00 1.182178631424903870e-01 2.190280407667160034e-01
-6.511184573173522949e-01 -9.511242806911468506e-02 -6.687641143798828125e-02
-7.183380126953125000e-01 3.602833747863769531e-01 -1.582513749599456787e-01
-6.746503114700317383e-01 1.791640222072601318e-01 -3.662233054637908936e-01
-1.180201530456542969e+00 5.305191129446029663e-02 2.809520810842514038e-05
-2.205049097537994385e-01 -7.721611857414245605e-02 -2.256588339805603027e-01
-5.035156607627868652e-01 2.406176030635833740e-01 -3.468377292156219482e-01
-1.025022029876708984e+00 1.053826212882995605e-01 2.294264435768127441e-01
8.548665046691894531e-02 3.079124391078948975e-01 8.529853820800781250e-02
3.002265095710754395e-01 1.920765042304992676e-01 -1.561733186244964600e-01
-8.452703356742858887e-01 2.414296418428421021e-01 -3.087636530399322510e-01
-1.043967723846435547e+00 -8.500918745994567871e-03 -5.914448201656341553e-02
-2.209356427192687988e-01 2.697663009166717529e-02 -3.495167493820190430e-01
-4.706737399101257324e-01 -1.130658239126205444e-01 -1.750798337161540985e-02
3.062077760696411133e-01 -2.316386997699737549e-02 5.072246864438056946e-02
-3.648036122322082520e-01 3.835636973381042480e-01 -1.936334744095802307e-02
-6.121054887771606445e-01 2.643315792083740234e-01 -3.240119814872741699e-01
-1.218652725219726562e+00 1.340246051549911499e-01 1.060388609766960144e-01
5.455219745635986328e-02 5.408082157373428345e-02 2.828223407268524170e-01
-9.267267584800720215e-01 8.387423306703567505e-02 2.581895589828491211e-01
2.609320282936096191e-01 2.565819025039672852e-01 2.763444557785987854e-02
-6.091365814208984375e-01 6.739267706871032715e-02 3.251855373382568359e-01
1.889984011650085449e-01 -3.480204939842224121e-02 -1.735899895429611206e-01
-3.775456547737121582e-01 2.678846567869186401e-02 -3.569405376911163330e-01
3.321699500083923340e-01 8.186975866556167603e-02 -1.863698065280914307e-01
-2.871824502944946289e-01 3.476731479167938232e-02 -3.589336872100830078e-01
5.971279740333557129e-02 -1.057420670986175537e-02 -2.659057676792144775e-01
-1.255866527557373047e+00 1.490391045808792114e-01 -1.035797297954559326e-01
-4.580596089363098145e-02 1.122782975435256958e-01 3.233279585838317871e-01
1.743600964546203613e-01 -4.324211180210113525e-02 1.270776689052581787e-01
1.277369260787963867e-02 2.348619550466537476e-01 2.658922970294952393e-01
1.302099227905273438e-02 2.266431152820587158e-01 -2.798986732959747314e-01
-1.035748362541198730e+00 3.380015492439270020e-01 -3.989081084728240967e-02
9.404295682907104492e-02 2.359345257282257080e-01 2.330126017332077026e-01
-1.111285924911499023e+00 1.795185357332229614e-02 -5.659224838018417358e-02
-5.338114500045776367e-02 3.436616659164428711e-01 5.380437895655632019e-02
-3.948321342468261719e-01 1.246310845017433167e-01 3.577626049518585205e-01
-9.574508666992187500e-01 -2.501913905143737793e-02 -1.286252439022064209e-01
-3.596004843711853027e-01 3.812482059001922607e-01 -4.876241832971572876e-02
1.997832655906677246e-01 6.113509833812713623e-02 -2.603686749935150146e-01
1.286951303482055664e-01 1.088343635201454163e-01 2.761411368846893311e-01
-1.079218506813049316e+00 2.923953235149383545e-01 -1.591381281614303589e-01
-3.007278144359588623e-01 3.634298443794250488e-01 1.311692148447036743e-01
-2.120672017335891724e-01 -2.038863301277160645e-02 2.669892013072967529e-01
-2.979044914245605469e-01 3.920916467905044556e-02 3.243768811225891113e-01
-7.517906427383422852e-01 1.883175075054168701e-01 -3.529518246650695801e-01
-5.174522399902343750e-01 1.530185788869857788e-01 3.560054600238800049e-01
-3.963115811347961426e-02 -1.652161777019500732e-02 2.474957555532455444e-01
3.517535328865051270e-01 1.493549346923828125e-01 -1.508913934230804443e-01
-8.445057272911071777e-02 1.198058873414993286e-01 -3.539858758449554443e-01
-6.227494478225708008e-01 3.003678917884826660e-01 -2.844075262546539307e-01
-1.147046804428100586e+00 7.679857313632965088e-02 1.217927113175392151e-01
1.371649503707885742e-01 -7.999075949192047119e-02 3.479602746665477753e-03
2.981877326965332031e-01 2.404302358627319336e-01 9.384074248373508453e-03
-6.899420022964477539e-01 -8.487391471862792969e-02 -1.111603081226348877e-01
-8.809718489646911621e-02 2.259746342897415161e-01 -3.102697134017944336e-01
-7.471684217453002930e-01 1.164654046297073364e-01 -3.592660725116729736e-01
-3.961489200592041016e-01 3.724392652511596680e-01 -1.182476282119750977e-01
-6.041750907897949219e-01 -1.005841642618179321e-01 5.962784402072429657e-03
-5.875877141952514648e-01 -1.965095102787017822e-02 2.491362839937210083e-01
-5.357368588447570801e-01 1.396768540143966675e-01 3.544851243495941162e-01
-2.319266945123672485e-01 3.714991509914398193e-01 -2.681792154908180237e-02
1.895337104797363281e-01 2.201955020427703857e-02 2.139448523521423340e-01
3.332807421684265137e-01 1.592463850975036621e-01 1.516548097133636475e-01
-1.625340282917022705e-01 -1.148589253425598145e-01 -6.012260913848876953e-02
-1.062429308891296387e+00 3.074696063995361328e-01 1.209227517247200012e-01
2.577788233757019043e-01 1.123054772615432739e-01 -2.363920062780380249e-01
3.455494046211242676e-01 7.262787967920303345e-02 1.526375263929367065e-01
4.870802164077758789e-02 2.874367833137512207e-01 1.782280504703521729e-01
-2.811095714569091797e-01 1.777251064777374268e-01 -3.699734807014465332e-01
3.998095393180847168e-01 7.645600289106369019e-02 -1.142795830965042114e-01
-1.941573172807693481e-01 -1.171366274356842041e-01 -2.096209488809108734e-02
4.101856946945190430e-01 5.933400988578796387e-02 -8.502530306577682495e-02
-2.939592003822326660e-01 3.577507138252258301e-01 1.493794471025466919e-01
-6.891587972640991211e-01 3.782383501529693604e-01 -9.439312666654586792e-02
-2.584278583526611328e-01 -1.158110201358795166e-01 2.702454850077629089e-02
-9.435085654258728027e-01 1.096455752849578857e-02 1.713154911994934082e-01
-9.298388957977294922e-01 2.469061464071273804e-01 -2.821072340011596680e-01
-5.249394178390502930e-01 -1.067906320095062256e-01 -8.321303874254226685e-02
-1.920019984245300293e-01 4.099637269973754883e-02 -3.540809452533721924e-01
-4.067568182945251465e-01 -7.373806834220886230e-02 1.805459856986999512e-01
-1.074812293052673340e+00 2.603445649147033691e-01 -2.091613709926605225e-01
-1.173538208007812500e+00 5.558214336633682251e-02 -9.001621603965759277e-02
-2.250642776489257812e-01 5.987076461315155029e-02 3.320918977260589600e-01
-7.647802829742431641e-01 3.673600554466247559e-01 -1.209995299577713013e-01
-8.004786968231201172e-01 6.964565813541412354e-02 -3.326231241226196289e-01
-1.663863062858581543e-01 -1.132219284772872925e-01 2.724514901638031006e-02
1.660887598991394043e-01 5.935033410787582397e-02 -2.744543850421905518e-01
-4.835057854652404785e-01 -7.992318272590637207e-02 1.544716060161590576e-01
-6.079652905464172363e-01 -2.404108643531799316e-02 2.390049546957015991e-01
-9.006960988044738770e-01 -5.111059546470642090e-02 -4.914315789937973022e-02
-2.005444169044494629e-01 6.599187850952148438e-02 -3.649353682994842529e-01
5.211493372917175293e-02 3.214349746704101562e-01 -4.601577669382095337e-02
-6.486889719963073730e-02 2.852356135845184326e-01 2.331040650606155396e-01
-1.079651594161987305e+00 1.762817800045013428e-01 -2.568375468254089355e-01
-1.301879882812500000e-01 -5.545775592327117920e-02 -2.541614472866058350e-01
-4.397521615028381348e-01 3.674929440021514893e-01 -1.458856165409088135e-01
-7.882455587387084961e-01 1.404251158237457275e-02 -2.928515672683715820e-01
-7.968589067459106445e-01 4.037052392959594727e-03 -2.787124514579772949e-01
-1.142167747020721436e-01 9.962527453899383545e-02 3.332595825195312500e-01
-8.693366646766662598e-01 -3.598253428936004639e-02 -1.719036400318145752e-01
-8.986113071441650391e-01 2.246380746364593506e-01 -3.061028718948364258e-01
-5.943509936332702637e-01 2.983854711055755615e-01 2.786953747272491455e-01
1.503909230232238770e-01 -5.753055214881896973e-02 -1.467237472534179688e-01
3.101364970207214355e-01 1.264280974864959717e-01 1.852316111326217651e-01
-1.695441603660583496e-01 -7.349248230457305908e-02 -2.273294031620025635e-01
-1.129496812820434570e+00 2.998108267784118652e-01 -9.006662666797637939e-02
-1.479173302650451660e-01 2.837167978286743164e-01 2.596665620803833008e-01
-6.126201152801513672e-01 7.702232897281646729e-02 -3.686431944370269775e-01
-3.005104064941406250e-01 -8.462904393672943115e-02 -2.132566422224044800e-01
4.045369625091552734e-01 3.724567592144012451e-02 -6.134131550788879395e-02
-1.111259460449218750e+00 2.262700796127319336e-01 -2.190131396055221558e-01
-3.398540616035461426e-01 3.725417852401733398e-01 1.048353239893913269e-01
2.148875594139099121e-01 -5.489587783813476562e-02 -9.256305545568466187e-02
-2.466940581798553467e-01 -1.175042390823364258e-01 4.458644427359104156e-03
-4.288236796855926514e-01 9.687697887420654297e-02 3.515512347221374512e-01
-6.804358363151550293e-01 -2.955496311187744141e-03 2.514169216156005859e-01
-5.620087981224060059e-01 3.478642106056213379e-01 -2.065326869487762451e-01
-1.052628755569458008e+00 3.184355795383453369e-02 1.330440491437911987e-01
-8.238741159439086914e-01 -6.840369105339050293e-02 -3.007836639881134033e-02
8.422571420669555664e-02 2.214168906211853027e-01 2.513866424560546875e-01
-1.014641284942626953e+00 3.284859657287597656e-01 -1.179977878928184509e-01
-5.855283737182617188e-01 -1.031381189823150635e-01 -5.781468376517295837e-02
1.736019253730773926e-01 2.784978747367858887e-01 -9.334960579872131348e-02
-1.128481149673461914e+00 1.966685950756072998e-01 1.906480491161346436e-01
-6.239254474639892578e-01 -6.800328195095062256e-02 -2.070076763629913330e-01
-4.819592535495758057e-01 -5.282124876976013184e-02 -2.670597434043884277e-01
3.324218988418579102e-01 4.427498579025268555e-02 1.454237550497055054e-01
-4.643550515174865723e-01 3.776400983333587646e-01 1.108902916312217712e-01
3.717579841613769531e-01 1.965842694044113159e-01 -3.372973762452602386e-03
3.265572190284729004e-01 -9.809285402297973633e-04 -1.175297796726226807e-01
2.262249588966369629e-02 1.760276705026626587e-01 -3.126977682113647461e-01
-1.008268117904663086e+00 1.924900412559509277e-01 -2.844692468643188477e-01
-4.667848646640777588e-01 4.333940893411636353e-02 3.244933485984802246e-01
-9.716476798057556152e-01 3.268130719661712646e-01 1.390020102262496948e-01
-1.134129047393798828e+00 5.400413274765014648e-02 9.618519991636276245e-02
-1.883918941020965576e-01 -1.792092621326446533e-02 2.678710222244262695e-01
-3.090636134147644043e-01 1.435822397470474243e-01 3.566014170646667480e-01
8.071261644363403320e-02 3.161212503910064697e-01 3.091372922062873840e-02
-1.414350867271423340e-01 3.132302761077880859e-01 -2.106009870767593384e-01
-1.538279950618743896e-01 3.588456511497497559e-01 -5.829734355211257935e-02
-9.760754704475402832e-01 3.196599483489990234e-01 -1.674783825874328613e-01
-1.144307613372802734e+00 2.990994453430175781e-01 4.605906084179878235e-02
-1.040520191192626953e+00 1.131737381219863892e-01 -2.688409984111785889e-01
-1.078113555908203125e+00 1.136036515235900879e-01 2.061332166194915771e-01
-1.020449519157409668e+00 1.074948161840438843e-02 -1.718070358037948608e-01
-1.182341814041137695e+00 7.370091974735260010e-02 -1.239676773548126221e-01
3.078436851501464844e-02 2.298686653375625610e-01 2.641514241695404053e-01
-8.183288574218750000e-01 -6.167928874492645264e-02 -1.172354891896247864e-01
-4.691678285598754883e-01 -8.796885609626770020e-02 1.341002285480499268e-01
3.824334144592285156e-01 3.412418812513351440e-02 7.759899646043777466e-02
-2.659307122230529785e-01 -7.242633402347564697e-02 -2.390269935131072998e-01
-4.007091224193572998e-01 1.843811571598052979e-02 3.089962303638458252e-01
8.810383081436157227e-02 1.092740371823310852e-01 2.895158231258392334e-01
-1.123254895210266113e+00 2.825988829135894775e-02 -8.974593132734298706e-02
-1.126575767993927002e-01 -9.851244091987609863e-02 -1.461316645145416260e-01
1.549300551414489746e-01 -5.381128191947937012e-02 1.131925359368324280e-01
-7.278099656105041504e-01 -7.851371169090270996e-02 5.350333079695701599e-02
-6.150224208831787109e-01 3.275005519390106201e-02 3.006759583950042725e-01
1.547774076461791992e-01 2.162442952394485474e-01 -2.294575572013854980e-01
-6.323860883712768555e-01 7.638064771890640259e-02 -3.660808205604553223e-01
-1.232731461524963379e+00 1.125456839799880981e-01 6.251074373722076416e-02
-7.103559374809265137e-01 3.666269779205322266e-01 -1.392561197280883789e-01
-3.904426395893096924e-01 -1.125180721282958984e-02 2.805457711219787598e-01
4.255253672599792480e-01 1.369514763355255127e-01 -2.909183502197265625e-02
-5.818302035331726074e-01 3.766123056411743164e-01 -1.185041889548301697e-01
-5.053894519805908203e-01 -3.664557635784149170e-02 2.376882582902908325e-01
-9.551453590393066406e-02 4.636992514133453369e-02 -3.427038192749023438e-01
-9.862246513366699219e-01 4.297502338886260986e-02 1.941777616739273071e-01
-4.950338602066040039e-02 3.317384421825408936e-01 -1.125806644558906555e-01
-1.010867595672607422e+00 2.945606112480163574e-01 -1.969611942768096924e-01
-6.176879405975341797e-01 1.095772385597229004e-01 3.414903283119201660e-01
-1.160922348499298096e-01 2.799544632434844971e-01 2.562002837657928467e-01
-1.031525611877441406e+00 1.464022397994995117e-01 -2.804449796676635742e-01
-3.570888936519622803e-01 3.604487180709838867e-01 1.569600701332092285e-01
-8.577526807785034180e-01 -7.962301373481750488e-03 -2.383230924606323242e-01
-2.174392193555831909e-01 -1.177354454994201660e-01 -4.108699038624763489e-02
-4.246095120906829834e-01 2.764659523963928223e-01 -3.133796453475952148e-01
5.054977536201477051e-02 2.952505350112915039e-01 1.595139950513839722e-01
-9.180467128753662109e-01 3.521805405616760254e-01 9.453871101140975952e-02
-1.908232420682907104e-01 3.540659546852111816e-01 -1.149379536509513855e-01
-6.797376871109008789e-01 1.771496534347534180e-01 3.388222754001617432e-01
-2.280892133712768555e-01 2.601186633110046387e-01 -3.083072006702423096e-01
-7.944575548171997070e-01 2.909845709800720215e-01 2.581870853900909424e-01
-6.232533454895019531e-01 -9.498816728591918945e-02 4.006508365273475647e-02
3.234460353851318359e-01 3.746738284826278687e-02 -1.720467358827590942e-01
6.447532773017883301e-02 2.182885706424713135e-01 2.616807222366333008e-01
-8.667572736740112305e-01 -5.537724494934082031e-02 -9.153411537408828735e-02
-5.219694972038269043e-01 3.772677481174468994e-01 1.172455772757530212e-01
-1.900243461132049561e-01 2.357026934623718262e-02 3.069040179252624512e-01
-2.295733988285064697e-01 1.686101257801055908e-01 -3.674332201480865479e-01
-6.339939832687377930e-01 -5.962865054607391357e-02 -2.238923907279968262e-01
-7.977876663208007812e-01 3.405076265335083008e-01 -1.907476931810379028e-01
-9.993490576744079590e-01 3.843238204717636108e-02 -2.324274629354476929e-01
-5.241219997406005859e-01 1.706030517816543579e-01 -3.795548975467681885e-01
-2.086192071437835693e-01 1.522070765495300293e-01 -3.692705035209655762e-01
1.525761485099792480e-01 -4.707667231559753418e-02 -1.713310629129409790e-01
-6.688433885574340820e-02 3.114539980888366699e-01 -1.841856539249420166e-01
-2.746537625789642334e-01 3.433688282966613770e-01 -1.828734427690505981e-01
-9.701392650604248047e-01 3.164646625518798828e-01 1.623370200395584106e-01
-1.161911487579345703e+00 5.360572040081024170e-02 -1.074990928173065186e-01
2.665987014770507812e-01 2.455989867448806763e-01 7.865897566080093384e-02
-1.004395246505737305e+00 -2.280586957931518555e-02 -3.611932694911956787e-02
-2.585568130016326904e-01 -1.183477938175201416e-01 -1.008182391524314880e-02
-4.719966650009155273e-02 2.652512788772583008e-01 -2.571427822113037109e-01
1.606017947196960449e-01 2.221321910619735718e-01 2.148382365703582764e-01
-8.363150954246520996e-01 3.241422772407531738e-01 -2.136950343847274780e-01
-5.271052122116088867e-01 -9.667991101741790771e-02 -1.452847868204116821e-01
-6.799621582031250000e-01 3.052607178688049316e-02 2.871010005474090576e-01
-3.178136944770812988e-01 3.549102246761322021e-01 -1.618736237287521362e-01
-5.136457681655883789e-01 2.872933447360992432e-01 2.941372990608215332e-01
-1.061978101730346680e+00 2.823953032493591309e-01 1.662977337837219238e-01
-4.328099489212036133e-01 1.975854039192199707e-01 -3.709732592105865479e-01
-1.080292701721191406e+00 2.519631087779998779e-01 1.893057078123092651e-01
1.346853971481323242e-01 -6.797628104686737061e-02 -1.252523958683013916e-01
-6.782993078231811523e-01 -8.803619444370269775e-02 3.933490440249443054e-02
2.649704813957214355e-01 5.354391038417816162e-02 1.988338977098464966e-01
-4.740056395530700684e-01 3.336083292961120605e-01 -2.344842404127120972e-01
-5.076004266738891602e-01 5.916196107864379883e-02 -3.704817593097686768e-01
2.375761866569519043e-01 1.388500779867172241e-01 -2.409422844648361206e-01
-8.876550197601318359e-02 -6.656688451766967773e-02 -2.262309640645980835e-01
1.421918869018554688e-01 2.702683806419372559e-01 1.516015976667404175e-01
-4.271807074546813965e-01 3.138852715492248535e-01 -2.653873562812805176e-01
-9.954306483268737793e-01 9.534926712512969971e-02 -2.814824581146240234e-01
-1.030399203300476074e-01 1.124552190303802490e-01 -3.577272891998291016e-01
-6.486676931381225586e-01 1.325771957635879517e-02 2.767701447010040283e-01
5.198547244071960449e-02 7.813022285699844360e-02 2.934686839580535889e-01
-1.197310924530029297e+00 1.597627401351928711e-01 -1.796842068433761597e-01
-1.206628322601318359e+00 2.129895389080047607e-01 -1.552262008190155029e-01
-1.763225495815277100e-01 -1.004805862903594971e-01 -1.544970273971557617e-01
-1.624360680580139160e-01 -1.083070635795593262e-01 -1.154479011893272400e-01
-5.164295434951782227e-01 3.057163357734680176e-01 -2.807376086711883545e-01
-8.964220285415649414e-01 3.498314023017883301e-01 1.176375523209571838e-01
-7.124130129814147949e-01 2.740547657012939453e-01 -3.050925731658935547e-01
-3.586599826812744141e-01 3.141762614250183105e-01 -2.581162154674530029e-01
-7.463972568511962891e-01 3.797014355659484863e-01 -6.075052917003631592e-02
2.756126523017883301e-01 4.602663218975067139e-02 1.876410096883773804e-01
-4.994549155235290527e-01 3.502724170684814453e-01 1.989131271839141846e-01
-2.417850792407989502e-01 -1.136284470558166504e-01 4.350040480494499207e-02
-6.822576522827148438e-01 3.817856907844543457e-01 -7.473709434270858765e-02
-1.608985662460327148e-01 -2.252507209777832031e-02 -3.023684322834014893e-01
9.106928110122680664e-02 -8.942481875419616699e-02 -1.943954639136791229e-02
-8.608527779579162598e-01 2.996867001056671143e-01 -2.461264729499816895e-01
-2.304732799530029297e-03 2.421084344387054443e-01 -2.694933116436004639e-01
-3.188061714172363281e-01 1.810427308082580566e-01 3.524568676948547363e-01
-6.594851016998291016e-01 2.049535810947418213e-01 3.355626761913299561e-01
-9.754913449287414551e-01 3.529554009437561035e-01 3.618589602410793304e-03
-3.981348872184753418e-02 -1.066463738679885864e-01 -7.778691593557596207e-03
-3.387835621833801270e-01 3.631296157836914062e-01 1.437423080205917358e-01
-7.100305557250976562e-01 3.217283487319946289e-01 2.350279837846755981e-01
-1.735969781875610352e-01 -4.948060214519500732e-02 -2.698916792869567871e-01
-3.329993486404418945e-01 -4.730668663978576660e-02 2.341698855161666870e-01
-1.129131555557250977e+00 1.411636769771575928e-01 -2.283635884523391724e-01
-6.866008639335632324e-01 3.864676654338836670e-01 2.063716575503349304e-02
2.466529607772827148e-03 2.551636397838592529e-01 -2.522806227207183838e-01
2.668042182922363281e-01 2.135552763938903809e-01 -1.556680947542190552e-01
-4.474284350872039795e-01 -8.984117209911346436e-02 1.324000954627990723e-01
8.762633800506591797e-02 7.359273731708526611e-02 2.817864120006561279e-01
-8.701381087303161621e-02 3.516179323196411133e-01 -1.983861811459064484e-02
-8.923262357711791992e-02 -9.573292732238769531e-02 9.847061336040496826e-02
-2.925052046775817871e-01 -8.413644134998321533e-02 1.609575599431991577e-01
-1.178945302963256836e+00 5.997902899980545044e-02 4.118888825178146362e-02
7.603102922439575195e-02 5.900900065898895264e-02 -3.066424131393432617e-01
-7.035660743713378906e-01 -4.921478033065795898e-02 -2.238084971904754639e-01
1.431447267532348633e-01 -3.067000210285186768e-02 -2.069903612136840820e-01
-7.431496381759643555e-01 5.779194086790084839e-02 -3.391391634941101074e-01
-1.194505929946899414e+00 2.013214677572250366e-01 1.393337994813919067e-01
-2.483315914869308472e-01 1.595099270343780518e-01 -3.722218871116638184e-01
-1.920713931322097778e-01 1.711395382881164551e-01 3.432539105415344238e-01
-6.249510645866394043e-01 5.008183419704437256e-02 3.122101724147796631e-01
-1.169425010681152344e+00 1.888487786054611206e-01 1.636348664760589600e-01
4.050511121749877930e-02 3.129559159278869629e-01 1.139120534062385559e-01
-8.057618141174316406e-01 2.440288662910461426e-03 2.213121950626373291e-01
-1.044612824916839600e-01 3.510043025016784668e-03 2.798904180526733398e-01
2.808926105499267578e-01 2.432072758674621582e-01 5.931768938899040222e-02
2.639830708503723145e-01 1.522663533687591553e-01 2.075184583663940430e-01
-7.242275476455688477e-01 1.309558153152465820e-01 -3.646144568920135498e-01
-5.305708646774291992e-01 -8.613482117652893066e-02 -1.833143234252929688e-01
-3.984101414680480957e-01 2.496707737445831299e-01 3.248423039913177490e-01
3.871944546699523926e-02 2.775732278823852539e-01 2.021058052778244019e-01
1.512269377708435059e-01 -6.565544009208679199e-02 -1.193818897008895874e-01
-9.423457980155944824e-01 1.448797285556793213e-01 -3.139425814151763916e-01
-1.099220991134643555e+00 1.907766759395599365e-01 -2.432927638292312622e-01
2.946698665618896484e-01 1.739960908889770508e-01 -1.813774108886718750e-01
-1.108648657798767090e+00 2.974887788295745850e-01 1.021737158298492432e-01
-3.766821622848510742e-01 -8.920198678970336914e-02 1.437736749649047852e-01
-5.565878748893737793e-02 2.065628170967102051e-01 3.055984079837799072e-01
-1.544656455516815186e-01 8.418065309524536133e-02 3.347510099411010742e-01
1.811774969100952148e-01 -5.350954830646514893e-02 9.430894255638122559e-02
-6.617122888565063477e-01 4.232481122016906738e-03 2.642837762832641602e-01
-6.431597471237182617e-02 -1.628175377845764160e-02 2.526425123214721680e-01
-1.246080279350280762e+00 1.514328420162200928e-01 7.954324036836624146e-02
-1.198289096355438232e-01 3.383911848068237305e-01 1.398717910051345825e-01
3.897267580032348633e-01 1.222212985157966614e-01 1.117152050137519836e-01
-8.354752063751220703e-01 3.656818866729736328e-01 8.990112692117691040e-02
-6.394480466842651367e-01 3.800114095211029053e-01 -9.602709114551544189e-02
-2.544191181659698486e-01 3.018378019332885742e-01 -2.606454193592071533e-01
-5.972146987915039062e-01 3.877731263637542725e-01 -4.566369578242301941e-02
-1.148208975791931152e-01 -1.096301525831222534e-01 3.367975354194641113e-02
-7.604370117187500000e-01 3.175062835216522217e-01 -2.427603304386138916e-01
-5.447635650634765625e-01 8.323848247528076172e-03 -3.348649740219116211e-01
-4.039896726608276367e-01 -1.638844609260559082e-03 -3.351665735244750977e-01
4.018645882606506348e-01 1.687795519828796387e-01 -2.715030312538146973e-02
-7.158027887344360352e-01 6.674945354461669922e-03 2.543488442897796631e-01
-8.132436275482177734e-01 2.615821659564971924e-01 -2.997759580612182617e-01
-4.032165706157684326e-01 1.872270554304122925e-01 3.539218604564666748e-01
-9.515950083732604980e-01 -3.837494552135467529e-02 -3.162215650081634521e-02
-5.928479433059692383e-01 2.775748968124389648e-01 2.998273372650146484e-01
-9.742982387542724609e-01 1.183651611208915710e-01 2.578799128532409668e-01
-7.018041610717773438e-02 -1.096212863922119141e-01 -1.336357742547988892e-02
-5.642319321632385254e-01 3.899432122707366943e-01 -1.195415295660495758e-02
4.089862108230590820e-02 -7.263933122158050537e-02 -1.694951653480529785e-01
-1.568499803543090820e-01 -1.109653860330581665e-01 4.242041334509849548e-02
-6.051197052001953125e-01 2.390841841697692871e-01 -3.443679511547088623e-01
-3.945949673652648926e-01 1.984870135784149170e-01 -3.693702518939971924e-01
-9.806743264198303223e-01 3.477776348590850830e-01 -6.477431952953338623e-02
-3.543889522552490234e-02 3.428210616111755371e-01 9.001755155622959137e-03
-3.276410698890686035e-02 -9.282700717449188232e-02 8.856826275587081909e-02
2.607991099357604980e-01 -2.224241197109222412e-02 1.091274172067642212e-01
-5.727511048316955566e-01 -5.965858697891235352e-02 -2.395589351654052734e-01
-2.332088351249694824e-02 1.075643673539161682e-01 3.181332349777221680e-01
-4.806887209415435791e-01 -9.831355512142181396e-02 9.402050077915191650e-02
-2.743680775165557861e-01 -8.551014959812164307e-02 1.571190804243087769e-01
-6.748148202896118164e-01 -9.311233460903167725e-02 -4.210002720355987549e-02
-5.727463960647583008e-01 -9.822490811347961426e-02 5.533440783619880676e-02
-6.064193248748779297e-01 -1.204954087734222412e-02 -3.060114681720733643e-01
4.242435097694396973e-01 1.415317952632904053e-01 7.265289314091205597e-03
-4.222212433815002441e-01 5.192337930202484131e-02 -3.703407943248748779e-01
1.609686017036437988e-02 -1.003866195678710938e-01 -3.959240391850471497e-02
-5.110657215118408203e-01 -4.761472344398498535e-02 2.189800590276718140e-01
-3.730286359786987305e-01 3.245984613895416260e-01 2.400367707014083862e-01
1.634888052940368652e-01 1.754954159259796143e-01 -2.598764598369598389e-01
-3.273527026176452637e-01 -1.130619943141937256e-01 -1.063510999083518982e-01
3.320258259773254395e-01 1.672683656215667725e-02 -1.417090743780136108e-01
2.384166121482849121e-01 1.570883393287658691e-01 2.204533368349075317e-01
-1.237675786018371582e+00 2.278060615062713623e-01 -9.980536997318267822e-02
-8.592109680175781250e-01 3.569515943527221680e-01 1.132950261235237122e-01
-9.453926086425781250e-01 1.141969636082649231e-01 -3.080372512340545654e-01
-6.781727075576782227e-01 2.057151794433593750e-01 3.329497575759887695e-01
-9.497739076614379883e-01 -2.139988541603088379e-02 -1.497798711061477661e-01
-4.213935136795043945e-02 -8.991318941116333008e-02 1.037401333451271057e-01
-4.997041225433349609e-01 2.604364156723022461e-01 3.180434107780456543e-01
-1.190693855285644531e+00 2.631755769252777100e-01 8.078786730766296387e-02
-1.251888513565063477e+00 1.082582473754882812e-01 -1.575225219130516052e-02
-1.173298656940460205e-01 -7.695063948631286621e-02 1.616660803556442261e-01
-4.123628437519073486e-01 3.719494640827178955e-01 -1.240558400750160217e-01
-5.155464410781860352e-01 1.484998017549514771e-01 -3.838414847850799561e-01
-5.021036267280578613e-01 2.206810116767883301e-01 -3.597165048122406006e-01
-6.347445249557495117e-01 3.565399050712585449e-01 1.781338900327682495e-01
-3.375858068466186523e-02 3.389975726604461670e-01 6.199519708752632141e-02
1.366767287254333496e-01 2.131879329681396484e-01 -2.419425547122955322e-01
2.660736441612243652e-01 2.526722252368927002e-01 -4.185502603650093079e-02
-2.439990639686584473e-01 -1.110468506813049316e-01 6.085462495684623718e-02
1.486741900444030762e-01 2.941796183586120605e-01 5.820832028985023499e-02
-8.794201612472534180e-01 3.618951439857482910e-01 -8.574955165386199951e-02
1.386255025863647461e-01 3.003636002540588379e-01 -2.123046666383743286e-02
-4.280823469161987305e-01 2.683668434619903564e-01 3.113522827625274658e-01
3.851951360702514648e-01 4.170441627502441406e-02 -1.082213744521141052e-01
4.019840955734252930e-01 5.880487710237503052e-02 7.881455868482589722e-02
-7.728976011276245117e-01 3.370244503021240234e-01 1.959753483533859253e-01
-1.024515867233276367e+00 1.240422427654266357e-01 2.386065870523452759e-01
-7.398065328598022461e-01 2.869886904954910278e-02 -3.195008337497711182e-01
-1.474432349205017090e-01 -5.236674845218658447e-02 -2.618471384048461914e-01
1.476643681526184082e-01 2.762692272663116455e-01 -1.299672722816467285e-01
-1.027166724205017090e+00 -1.374487578868865967e-02 -6.594127416610717773e-02
-7.886722683906555176e-02 1.745485663414001465e-01 -3.397076129913330078e-01
-4.944504499435424805e-01 3.888151347637176514e-01 2.980105206370353699e-02
2.626734375953674316e-01 2.508856654167175293e-01 -6.221055611968040466e-02
-7.793192863464355469e-01 3.495798259973526001e-02 -3.149302005767822266e-01
-7.816434502601623535e-01 -7.295158505439758301e-02 2.795318886637687683e-02
1.881502866744995117e-01 5.400886386632919312e-02 2.371245473623275757e-01
-5.630778074264526367e-01 -9.466220438480377197e-02 7.979226857423782349e-02
4.321320056915283203e-01 1.213539838790893555e-01 1.859283819794654846e-02
1.001060009002685547e-03 2.771161794662475586e-01 2.201211154460906982e-01
-3.537279069423675537e-01 -3.454126417636871338e-02 2.526808083057403564e-01
4.400831460952758789e-02 1.584515124559402466e-01 -3.138642013072967529e-01
-5.770307779312133789e-01 7.238828390836715698e-02 -3.705876767635345459e-01
-5.767585635185241699e-01 3.867756128311157227e-01 6.010961160063743591e-02
-9.556066989898681641e-02 3.187571167945861816e-01 1.826938241720199585e-01
-8.103448152542114258e-01 -4.324854910373687744e-02 -1.894396841526031494e-01
-1.288500428199768066e-02 2.855308651924133301e-01 -2.124948054552078247e-01
-5.458412766456604004e-01 2.170682251453399658e-01 -3.607411384582519531e-01
-5.227869153022766113e-01 3.334250450134277344e-01 -2.363395839929580688e-01
-8.889502286911010742e-01 3.481463193893432617e-01 -1.366745680570602417e-01
-4.704926609992980957e-01 3.884136378765106201e-01 -2.194109372794628143e-02
-1.122199058532714844e+00 2.862464189529418945e-01 1.137965247035026550e-01
-8.837534189224243164e-01 6.334570050239562988e-02 2.590016126632690430e-01
2.531664967536926270e-01 1.372373849153518677e-01 -2.326837182044982910e-01
-7.344884872436523438e-01 2.451210618019104004e-01 -3.266834020614624023e-01
-1.092898607254028320e+00 3.067398071289062500e-01 9.405042231082916260e-02
-4.312142431735992432e-01 1.249035447835922241e-01 -3.865794837474822998e-01
-9.780534505844116211e-01 1.313751041889190674e-01 -3.001217246055603027e-01
-9.712532162666320801e-01 1.792647391557693481e-01 2.685624063014984131e-01
-1.049108266830444336e+00 3.092884421348571777e-01 -1.449882537126541138e-01
3.462812900543212891e-01 2.872049808502197266e-04 6.166204437613487244e-02
-7.470818758010864258e-01 8.993363380432128906e-02 -3.528498411178588867e-01
-1.035142421722412109e+00 3.389835357666015625e-01 1.461898628622293472e-02
-1.118572056293487549e-01 1.959387958049774170e-02 -3.309851884841918945e-01
-4.465685188770294189e-01 -9.655360877513885498e-02 1.095275804400444031e-01
-1.236845552921295166e-01 2.813495099544525146e-01 -2.591643929481506348e-01
-9.338600039482116699e-01 1.460886299610137939e-01 2.802742719650268555e-01
2.395899295806884766e-01 3.445140272378921509e-02 -2.270134389400482178e-01
-1.047910749912261963e-01 3.526580929756164551e-01 5.326681956648826599e-02
6.934216618537902832e-02 -9.166263043880462646e-02 -5.861522629857063293e-02
-1.147759556770324707e+00 1.601279526948928833e-01 -2.184130996465682983e-01
-1.231391191482543945e+00 2.198451012372970581e-01 8.688207715749740601e-02
-8.904963731765747070e-02 2.003439068794250488e-01 -3.287229537963867188e-01
2.122768759727478027e-01 -6.068743765354156494e-02 -6.088861450552940369e-02
-1.000917434692382812e+00 1.752010583877563477e-01 -2.914630472660064697e-01
-1.164836168289184570e+00 1.610613316297531128e-01 -2.063304334878921509e-01
-5.200913548469543457e-01 -4.955926537513732910e-02 -2.675346136093139648e-01
-9.748308658599853516e-01 1.985118091106414795e-01 -2.947437465190887451e-01
-5.281016826629638672e-01 5.279579013586044312e-02 -3.661789894104003906e-01
1.109762191772460938e-01 2.651787400245666504e-01 1.835313737392425537e-01
1.184116005897521973e-01 2.755740284919738770e-01 -1.565165072679519653e-01
-1.695042550563812256e-01 2.971313595771789551e-01 -2.482059448957443237e-01
-8.238111734390258789e-01 6.207899749279022217e-02 -3.223271965980529785e-01
-5.677398443222045898e-01 -9.168517589569091797e-02 -1.510352492332458496e-01
-2.134586870670318604e-01 -8.538027107715606689e-02 1.539853662252426147e-01
-5.226554870605468750e-01 2.364484369754791260e-01 3.330320715904235840e-01
2.298340797424316406e-01 -5.794237554073333740e-02 -2.190361730754375458e-02
-5.963333249092102051e-01 -9.032145142555236816e-02 8.399265259504318237e-02
-5.341444015502929688e-01 1.116419658064842224e-01 -3.831321001052856445e-01
-4.571155309677124023e-01 2.966085076332092285e-02 3.153100609779357910e-01
-4.550430178642272949e-02 9.248500317335128784e-02 3.198767602443695068e-01
-2.116569727659225464e-01 3.632515668869018555e-01 8.751882612705230713e-02
-8.505500555038452148e-01 3.126354813575744629e-01 2.163560092449188232e-01
2.445477843284606934e-01 1.844087094068527222e-01 2.004285454750061035e-01
-6.304943561553955078e-02 -2.167060971260070801e-02 -2.866402268409729004e-01
-1.036012887954711914e+00 2.396545559167861938e-02 1.315569430589675903e-01
-3.222480416297912598e-01 -1.034822613000869751e-01 -1.551894694566726685e-01
-6.603977680206298828e-01 3.629359900951385498e-01 1.573602110147476196e-01
-8.729807734489440918e-01 -5.441924929618835449e-02 2.684056758880615234e-02
3.747221231460571289e-01 9.022808820009231567e-02 1.309280991554260254e-01
-2.699965834617614746e-01 1.923297345638275146e-01 -3.628737926483154297e-01
-7.512308955192565918e-01 3.143166005611419678e-02 2.714736163616180420e-01
2.010229229927062988e-01 2.593325376510620117e-01 1.244302615523338318e-01
-3.553690314292907715e-01 2.302045822143554688e-01 3.350793719291687012e-01
-3.623793423175811768e-01 1.093253046274185181e-01 3.550251126289367676e-01
-5.631816387176513672e-01 9.023976325988769531e-02 3.411275744438171387e-01
-8.155999183654785156e-01 2.423526644706726074e-01 -3.145280182361602783e-01
-1.083055377006530762e+00 2.936977893114089966e-02 9.883366525173187256e-02
7.522547245025634766e-02 1.897535920143127441e-01 -2.872468531131744385e-01
-4.696509242057800293e-02 -1.018325984477996826e-01 5.027888342738151550e-02
-5.442023277282714844e-01 3.858169615268707275e-01 -6.699492782354354858e-02
1.863634586334228516e-01 -6.668415665626525879e-02 -6.889999657869338989e-02
-1.010765194892883301e+00 1.444715410470962524e-01 2.508298158645629883e-01
-2.263892441987991333e-01 3.036735057830810547e-01 2.499548345804214478e-01
-8.312968015670776367e-01 4.022923111915588379e-02 -3.045997023582458496e-01
-6.003780961036682129e-01 -7.667578756809234619e-02 1.324810087680816650e-01
-6.025828123092651367e-01 -1.020003110170364380e-01 -3.527299687266349792e-02
-1.674431562423706055e-01 -2.728232741355895996e-02 2.544801235198974609e-01
-9.128808379173278809e-01 2.636972665786743164e-01 -2.727971076965332031e-01
8.515566587448120117e-02 2.026701271533966064e-01 2.653892040252685547e-01
-6.844775676727294922e-01 2.122442126274108887e-01 -3.528358340263366699e-01
-2.451780438423156738e-01 1.774285137653350830e-01 -3.662537038326263428e-01
-6.603493690490722656e-01 1.826357841491699219e-02 -3.269975483417510986e-01
-1.462254524230957031e-01 2.714702188968658447e-01 2.739059329032897949e-01
-5.647260546684265137e-01 2.230440676212310791e-01 -3.566658496856689453e-01
-6.793187856674194336e-01 1.729244738817214966e-02 -3.225923776626586914e-01
-5.879428982734680176e-01 3.894536495208740234e-01 2.318469062447547913e-02
-3.433303833007812500e-01 -1.144913136959075928e-01 -9.394796192646026611e-02
-2.117733657360076904e-01 -1.167680919170379639e-01 4.222392104566097260e-03
-8.325405120849609375e-01 3.363918066024780273e-01 -1.899680942296981812e-01
-1.163434147834777832e+00 1.949141919612884521e-01 -2.016809731721878052e-01
-7.205735445022583008e-01 2.582259774208068848e-01 -3.184216320514678955e-01
3.898847103118896484e-01 2.938845008611679077e-02 5.471314862370491028e-02
-1.184401512145996094e+00 1.345411241054534912e-01 -1.849237382411956787e-01
-9.119812250137329102e-01 6.109054386615753174e-02 2.467718571424484253e-01
-7.438389062881469727e-01 3.720473647117614746e-01 -1.080597266554832458e-01
-7.277663350105285645e-01 1.169246733188629150e-01 3.266109228134155273e-01
-1.700428128242492676e-02 7.643339782953262329e-02 -3.364965319633483887e-01
-6.409262418746948242e-01 -4.540865123271942139e-02 1.952489167451858521e-01
-4.988230764865875244e-01 3.668968677520751953e-01 -1.539274603128433228e-01
-6.112239956855773926e-01 3.604278564453125000e-01 1.704673916101455688e-01
-8.910216689109802246e-01 8.894369006156921387e-03 -2.487156987190246582e-01
-2.499643862247467041e-01 1.097672954201698303e-01 -3.776468634605407715e-01
-1.158989071846008301e+00 7.436351478099822998e-02 1.052911356091499329e-01
-9.166055917739868164e-01 -4.680491983890533447e-02 -4.356547258794307709e-03
-4.946902394294738770e-02 2.491812109947204590e-01 -2.773306369781494141e-01
-3.228783607482910156e-04 -1.018220782279968262e-01 -5.306675285100936890e-02
-4.140021204948425293e-01 3.100821375846862793e-01 2.653549909591674805e-01
3.996154665946960449e-01 4.345006495714187622e-02 6.264743953943252563e-02
-3.707606494426727295e-01 -1.031414121389389038e-01 -1.534724980592727661e-01
-2.708628177642822266e-01 3.509688973426818848e-01 1.635705828666687012e-01
-2.308095395565032959e-01 3.703576922416687012e-01 4.804638773202896118e-02
8.568018674850463867e-02 2.519527077674865723e-01 -2.199379950761795044e-01
-2.045696973800659180e-01 -1.017976403236389160e-01 1.005226150155067444e-01
1.421878337860107422e-01 2.851423621177673340e-01 -1.073892340064048767e-01
-7.095698118209838867e-01 -8.614405989646911621e-02 -7.800763845443725586e-02
-1.137978732585906982e-01 -7.344745099544525146e-02 -2.175638228654861450e-01
-6.940377950668334961e-01 -4.867239296436309814e-02 1.715174615383148193e-01
-1.086065888404846191e+00 1.930769532918930054e-02 -1.218977048993110657e-01
-7.269164323806762695e-01 3.167371749877929688e-01 -2.497448772192001343e-01
-5.081962347030639648e-01 -1.083343476057052612e-01 -8.065797388553619385e-02
-8.689558506011962891e-02 1.811942756175994873e-01 3.235958516597747803e-01
1.463280916213989258e-01 1.814244985580444336e-01 2.536626756191253662e-01
3.281127810478210449e-01 1.700195223093032837e-01 -1.556055843830108643e-01
-2.936032116413116455e-01 -5.051864683628082275e-02 -2.780424952507019043e-01
-1.169576764106750488e+00 2.780554890632629395e-01 -1.007131785154342651e-01
-7.743209600448608398e-02 -8.573842048645019531e-02 -1.781917512416839600e-01
-2.017882466316223145e-02 1.950458437204360962e-02 -3.128895759582519531e-01
-1.216079473495483398e+00 2.332325875759124756e-01 9.373243153095245361e-02
-1.044365763664245605e+00 2.730935811996459961e-01 1.882187575101852417e-01
-6.905901432037353516e-01 1.222714036703109741e-02 2.667793035507202148e-01
-3.678792715072631836e-01 3.469019830226898193e-01 1.954199820756912231e-01
-1.267814397811889648e+00 2.163784801959991455e-01 -3.608800470829010010e-02
-7.296397686004638672e-01 3.777191042900085449e-01 8.101881295442581177e-02
-2.889152765274047852e-01 3.041825592517852783e-01 2.603531479835510254e-01
-1.095000743865966797e+00 2.672815918922424316e-01 -1.885125488042831421e-01
-7.214891314506530762e-01 -2.940715849399566650e-02 -2.551366686820983887e-01
1.261458992958068848e-01 2.999832034111022949e-01 6.516510248184204102e-02
3.572372198104858398e-01 1.336381435394287109e-01 1.437052786350250244e-01
4.550313949584960938e-02 3.256111145019531250e-01 6.885685957968235016e-03
-9.578505158424377441e-01 2.584202587604522705e-02 -2.390915006399154663e-01
-1.313605010509490967e-01 3.092924654483795166e-01 2.157329320907592773e-01
-8.279165625572204590e-01 3.555732965469360352e-01 -1.401552408933639526e-01
-1.437166333198547363e-01 -7.472500205039978027e-03 2.744673788547515869e-01
-1.001204133033752441e+00 7.504054158926010132e-02 2.196531742811203003e-01
-8.554872870445251465e-01 1.543201804161071777e-01 -3.384068608283996582e-01
-1.050717592239379883e+00 3.352910280227661133e-01 5.831367336213588715e-03
3.156561851501464844e-01 1.837611198425292969e-01 -1.520023792982101440e-01
1.657616496086120605e-01 1.544558405876159668e-01 -2.701511383056640625e-01
-1.222225427627563477e+00 1.485571563243865967e-01 -1.521286070346832275e-01
-7.907664775848388672e-01 -5.579710006713867188e-03 2.151249796152114868e-01
-1.098917424678802490e-01 3.496499359607696533e-01 -7.646824419498443604e-02
1.512573361396789551e-01 -3.683093190193176270e-02 -1.924147903919219971e-01
2.481939196586608887e-01 2.501113116741180420e-01 9.272559732198715210e-02
-6.312931776046752930e-01 -5.054421722888946533e-02 -2.434776872396469116e-01
-8.101063966751098633e-01 3.736926317214965820e-01 -6.379053741693496704e-02
-8.951294422149658203e-02 3.295879960060119629e-01 1.512108147144317627e-01
-3.229798972606658936e-01 3.806941807270050049e-01 2.160341665148735046e-02
2.067729234695434570e-01 2.874404191970825195e-03 1.857781857252120972e-01
-1.280283212661743164e+00 1.680813580751419067e-01 -5.064259283244609833e-03
-9.149972200393676758e-01 1.633524894714355469e-02 1.949816346168518066e-01
-3.755592107772827148e-01 3.774014413356781006e-01 9.126196801662445068e-02
-1.225130200386047363e+00 1.932235062122344971e-01 1.105200797319412231e-01
1.761595010757446289e-01 9.966967999935150146e-02 -2.774183154106140137e-01
1.611537933349609375e-01 9.049490094184875488e-02 -2.832132577896118164e-01
-9.922044873237609863e-01 3.322956562042236328e-01 -1.234002858400344849e-01
-8.020216226577758789e-01 2.790361046791076660e-01 2.685170471668243408e-01
-6.294996738433837891e-01 -6.700049340724945068e-02 1.498812437057495117e-01
-9.380119442939758301e-01 1.980620920658111572e-01 -3.069758415222167969e-01
3.218993544578552246e-01 3.561824560165405273e-04 9.587981551885604858e-02
-9.578862786293029785e-01 3.399154543876647949e-01 -1.228703856468200684e-01
-1.105227172374725342e-01 -1.068132817745208740e-01 5.220024660229682922e-02
1.387094855308532715e-01 2.929378747940063477e-01 -7.928879559040069580e-02
2.308103442192077637e-02 -9.855854511260986328e-02 -5.746204033493995667e-02
-7.909586429595947266e-01 2.002530544996261597e-01 3.154529035091400146e-01
-7.844336032867431641e-01 -5.654995143413543701e-02 -1.660199761390686035e-01
-2.283554822206497192e-01 3.621338009834289551e-01 1.044949591159820557e-01
-7.141064405441284180e-01 3.800602555274963379e-01 -7.467452436685562134e-02
1.295292973518371582e-01 2.781817913055419922e-01 1.430306583642959595e-01
-1.091017723083496094e+00 1.096450537443161011e-02 -7.241585850715637207e-02
-5.222011208534240723e-01 3.674175739288330078e-01 1.537682265043258667e-01
-1.183352947235107422e+00 8.977711200714111328e-02 -1.494259238243103027e-01
-6.321322917938232422e-01 3.748145997524261475e-01 -1.217919960618019104e-01
-5.954396724700927734e-02 3.286782503128051758e-01 -1.315027773380279541e-01
-8.370976448059082031e-01 3.402175307273864746e-01 1.702937483787536621e-01
-4.043660163879394531e-01 3.848736584186553955e-01 4.215433821082115173e-02
-2.491196990013122559e-02 3.058411777019500732e-01 -1.763442754745483398e-01
-3.591877520084381104e-01 8.073851466178894043e-03 3.008736968040466309e-01
-7.384142875671386719e-01 1.588530093431472778e-02 -3.082701563835144043e-01
1.643238663673400879e-01 2.631655335426330566e-01 1.494592577219009399e-01
-1.119047403335571289e-02 1.453357785940170288e-01 3.155417144298553467e-01
-1.329572200775146484e-01 3.579784631729125977e-01 4.277215898036956787e-02
-6.872919797897338867e-01 -9.086437523365020752e-02 -5.107165314257144928e-03
-3.484186530113220215e-01 -8.018478751182556152e-02 1.696344316005706787e-01
1.026834249496459961e-01 9.490022063255310059e-02 -3.052040040493011475e-01
-1.259306967258453369e-01 1.718044579029083252e-01 -3.503746092319488525e-01
-6.183754205703735352e-01 3.848084211349487305e-01 6.998401880264282227e-02
3.387546539306640625e-02 1.247180551290512085e-01 3.056361377239227295e-01
1.424769163131713867e-01 1.828976422548294067e-01 -2.645947635173797607e-01
-8.219350576400756836e-01 3.465993106365203857e-01 1.604119837284088135e-01
-2.369073033332824707e-02 3.250364065170288086e-01 1.235076710581779480e-01
-2.913570404052734375e-02 3.364520072937011719e-01 -6.771135330200195312e-02
-8.806550502777099609e-01 2.167462855577468872e-01 2.888299822807312012e-01
-4.359944760799407959e-01 3.308089971542358398e-01 -2.372677028179168701e-01
-9.506069421768188477e-01 3.446168303489685059e-01 9.981768578290939331e-02
1.922283768653869629e-01 1.787007302045822144e-01 -2.435231208801269531e-01
-8.997579813003540039e-01 -4.842813313007354736e-02 -8.509274572134017944e-02
-2.321065813302993774e-01 1.676368266344070435e-01 3.484742045402526855e-01
-2.293694764375686646e-01 -4.690958559513092041e-02 -2.795242071151733398e-01
-5.751926898956298828e-01 3.623522520065307617e-01 1.677816808223724365e-01
3.211986422538757324e-01 1.934024393558502197e-01 1.271825134754180908e-01
-5.046632289886474609e-01 3.842555582523345947e-01 -7.552208751440048218e-02
-1.927435398101806641e-02 8.855627477169036865e-02 3.135690689086914062e-01
