3.952077031135559082e-01 -1.461495161056518555e-01 -1.167827844619750977e-01
2.694897353649139404e-02 5.578160285949707031e-03 2.823797762393951416e-01
2.485482990741729736e-01 -1.734564602375030518e-01 -1.407914459705352783e-01
4.390892386436462402e-02 -1.132555007934570312e-01 3.706414699554443359e-01
2.840542793273925781e-01 -1.285266429185867310e-01 2.924033701419830322e-01
3.902042508125305176e-01 -7.510507851839065552e-02 -3.517812788486480713e-01
6.927236914634704590e-02 1.435087621212005615e-02 3.380389511585235596e-01
2.393240034580230713e-01 -1.642795354127883911e-01 -3.109384179115295410e-01
3.851600885391235352e-01 -5.483914911746978760e-02 8.274293690919876099e-02
2.199387848377227783e-01 1.114059239625930786e-02 1.628671884536743164e-01
2.194061130285263062e-01 -4.241959750652313232e-02 -3.479851186275482178e-01
-1.267716288566589355e-02 -7.035286724567413330e-02 5.245395377278327942e-02
3.233968019485473633e-01 -1.631404161453247070e-01 -1.533283293247222900e-02
3.071086406707763672e-01 -9.668512642383575439e-02 -4.916953444480895996e-01
3.010765910148620605e-01 -6.598392128944396973e-02 3.862865269184112549e-01
-1.310215890407562256e-02 -4.528725892305374146e-02 4.984192550182342529e-01
2.053208053112030029e-01 -1.614340245723724365e-01 1.327304840087890625e-01
5.371482670307159424e-02 -7.477189600467681885e-02 5.562255382537841797e-01
2.527777552604675293e-01 -1.732072234153747559e-01 -9.061710536479949951e-02
8.816637843847274780e-02 -1.399971544742584229e-03 -6.705988198518753052e-03
2.338279187679290771e-01 -1.261716783046722412e-01 3.623035848140716553e-01
3.569741547107696533e-02 8.392937481403350830e-03 3.080996870994567871e-01
7.563564926385879517e-02 -9.746360778808593750e-02 -2.358218133449554443e-01
2.324436306953430176e-01 -1.614445447921752930e-01 1.292782127857208252e-01
3.929395079612731934e-01 -6.411055475473403931e-02 -2.828561663627624512e-01
-2.417817711830139160e-03 -9.460669755935668945e-02 6.328906863927841187e-02
4.268189966678619385e-01 -1.216828227043151855e-01 -2.606994211673736572e-01
2.816855311393737793e-01 -2.589409425854682922e-02 3.606290221214294434e-01
7.739827036857604980e-03 -1.029302626848220825e-01 3.256345093250274658e-01
3.066369295120239258e-01 -8.008129149675369263e-02 -4.655442833900451660e-01
3.618719279766082764e-01 -4.959059879183769226e-02 1.804444789886474609e-01
1.303726732730865479e-01 -1.580396294593811035e-01 -1.048912107944488525e-02
3.385569155216217041e-02 -4.954167455434799194e-02 -1.023573279380798340e-01
2.320784926414489746e-01 -1.389591246843338013e-01 3.007301986217498779e-01
4.102650582790374756e-01 -7.245048135519027710e-02 -2.517218589782714844e-01
3.329571783542633057e-01 -3.174904361367225647e-02 -2.203063070774078369e-01
2.046531885862350464e-01 -1.307117342948913574e-01 3.627327978610992432e-01
3.204578161239624023e-01 -5.478687211871147156e-02 -3.794930279254913330e-01
3.076716065406799316e-01 -1.726906001567840576e-02 -1.363185048103332520e-01
4.300744533538818359e-01 -1.152936369180679321e-01 -2.374593615531921387e-01
4.014751911163330078e-01 -1.381115019321441650e-01 -3.555547595024108887e-01
1.554246544837951660e-01 1.385606080293655396e-02 8.483091741800308228e-02
3.264135122299194336e-02 -2.530367299914360046e-02 -2.141425013542175293e-02
2.535733878612518311e-01 -1.628237068653106689e-01 1.011708974838256836e-01
-1.655629277229309082e-02 -3.930220380425453186e-02 1.087589412927627563e-01
1.520439982414245605e-01 -1.544132232666015625e-01 1.785691082477569580e-01
1.818921416997909546e-01 -8.452460169792175293e-04 4.509161710739135742e-01
1.591211557388305664e-02 4.769116640090942383e-04 4.067288935184478760e-01
2.009856551885604858e-01 -1.496175229549407959e-01 2.463760524988174438e-01
1.967951506376266479e-01 6.886459887027740479e-03 3.626041114330291748e-01
4.805508255958557129e-02 -3.276717290282249451e-02 -9.123283624649047852e-02
1.436688154935836792e-01 -1.564435362815856934e-01 1.335682421922683716e-01
2.953068017959594727e-01 -1.702419668436050415e-01 -6.077262759208679199e-02
1.753859072923660278e-01 -3.798484802246093750e-03 -1.193981319665908813e-01
8.060058206319808960e-02 -1.168887540698051453e-01 4.111122786998748779e-01
-1.487740874290466309e-02 -8.356919884681701660e-02 3.662230372428894043e-01
1.847312301397323608e-01 -3.329681605100631714e-02 5.487435460090637207e-01
7.035566866397857666e-02 1.236051321029663086e-02 1.936450749635696411e-01
8.172546327114105225e-02 -1.394342929124832153e-01 -7.564716041088104248e-02
4.185507893562316895e-01 -1.069088578224182129e-01 -3.433842062950134277e-01
3.267094492912292480e-01 -1.518167853355407715e-01 8.633939921855926514e-02
1.996584832668304443e-01 -1.642372161149978638e-01 -2.388972043991088867e-01
1.695752888917922974e-01 1.511126756668090820e-02 1.168714463710784912e-01
2.900818586349487305e-01 -1.027759537100791931e-01 -4.969058632850646973e-01
1.982847452163696289e-01 -3.088621795177459717e-02 -2.906929552555084229e-01
1.639531552791595459e-02 2.019211649894714355e-03 3.753861188888549805e-01
9.862773120403289795e-02 -4.777024686336517334e-02 -2.392457127571105957e-01
2.876690626144409180e-01 -1.396878063678741455e-01 2.337738573551177979e-01
1.475838422775268555e-01 -1.559676229953765869e-01 1.497673988342285156e-01
8.324266225099563599e-02 -1.381639391183853149e-01 2.336005121469497681e-01
1.764901578426361084e-01 1.113528758287429810e-02 3.573534488677978516e-01
1.299629807472229004e-01 -1.502811908721923828e-03 5.116421580314636230e-01
3.317419290542602539e-01 -1.120316088199615479e-01 2.626719474792480469e-01
3.605225682258605957e-01 -8.794359862804412842e-02 -4.457094967365264893e-01
3.875434100627899170e-01 -5.138669162988662720e-02 3.889128565788269043e-02
3.463287353515625000e-01 -5.158484727144241333e-02 -9.265611320734024048e-02
-1.321013271808624268e-01 -1.057754456996917725e-02 8.884141594171524048e-02
2.898729443550109863e-01 -6.915394961833953857e-02 7.606287300586700439e-02
7.818449735641479492e-01 1.466749608516693115e-02 -4.755891114473342896e-02
4.873408973217010498e-01 4.294341802597045898e-02 -5.394722148776054382e-02
6.068105697631835938e-01 -1.022726222872734070e-01 -3.697887808084487915e-02
6.973780393600463867e-01 3.321377933025360107e-02 -3.192166239023208618e-02
-2.295267283916473389e-01 -7.382369786500930786e-02 4.757776856422424316e-02
-5.674719810485839844e-02 5.507361888885498047e-02 -4.431479796767234802e-02
-4.464969038963317871e-02 -5.012308061122894287e-02 8.403070271015167236e-02
-3.829502463340759277e-01 4.770231992006301880e-02 1.198826357722282410e-03
-7.246553897857666016e-02 -9.621047228574752808e-02 2.336301095783710480e-02
1.091629266738891602e-03 7.963202893733978271e-03 8.858048915863037109e-02
-4.436264634132385254e-01 3.940214216709136963e-02 1.576452143490314484e-02
-3.525512814521789551e-01 5.089490115642547607e-02 2.065382711589336395e-02
7.439962625503540039e-01 2.407909929752349854e-02 -4.076453298330307007e-02
-4.150080084800720215e-01 -1.064889598637819290e-02 6.476706266403198242e-02
1.157596632838249207e-01 4.574470967054367065e-02 -6.359568238258361816e-02
8.000816702842712402e-01 -8.311283588409423828e-02 1.519561186432838440e-02
4.605870842933654785e-01 -6.766460835933685303e-02 -8.487879484891891479e-02
2.526699006557464600e-02 4.209888726472854614e-02 -6.477656960487365723e-02
1.689457297325134277e-01 -3.267375379800796509e-02 9.143481403589248657e-02
1.035197973251342773e-01 8.944934234023094177e-03 -8.803219348192214966e-02
1.524211466312408447e-01 3.976510092616081238e-02 6.810988485813140869e-02
4.375316202640533447e-01 -9.231309592723846436e-02 -6.382665783166885376e-02
6.910324096679687500e-01 -8.204251527786254883e-02 3.795486688613891602e-02
3.675071001052856445e-01 -2.874811179935932159e-02 -9.699042886495590210e-02
3.841793537139892578e-01 -1.046611741185188293e-01 -4.343258216977119446e-02
5.728294253349304199e-01 4.805969446897506714e-02 -2.009822614490985870e-02
1.303436011075973511e-01 4.749175161123275757e-03 8.908125758171081543e-02
4.574109613895416260e-02 6.953294575214385986e-02 -3.896128386259078979e-03
3.792630434036254883e-01 5.063863098621368408e-02 -5.057878047227859497e-02
-2.709596753120422363e-01 5.898347496986389160e-02 8.796270005404949188e-03
2.970148324966430664e-01 2.351361513137817383e-02 7.481218874454498291e-02
-1.747763156890869141e-01 -8.236907422542572021e-02 -2.919387258589267731e-02
-3.937634825706481934e-01 -4.031198471784591675e-02 5.684009194374084473e-02
-3.245859742164611816e-01 4.272613674402236938e-02 4.786397144198417664e-02
6.234314441680908203e-01 3.446862474083900452e-02 -4.919525235891342163e-02
5.933223962783813477e-01 4.440835118293762207e-02 9.510651230812072754e-03
-1.746132969856262207e-01 6.457717716693878174e-02 8.256623521447181702e-03
3.199110031127929688e-01 -3.410586714744567871e-02 -9.651648253202438354e-02
1.022600829601287842e-01 2.688629180192947388e-02 -7.934514433145523071e-02
5.999616384506225586e-01 4.492903500795364380e-02 -2.510405518114566803e-02
-1.005403101444244385e-01 -5.611034855246543884e-02 -6.922538578510284424e-02
-3.847017884254455566e-01 -2.912409044802188873e-02 -4.397002607583999634e-02
7.588276267051696777e-02 6.650004535913467407e-02 -2.407235093414783478e-02
2.170569449663162231e-01 5.827759206295013428e-02 3.953168168663978577e-02
-3.365339040756225586e-01 2.522882446646690369e-02 -4.540985450148582458e-02
1.736225783824920654e-01 6.198630481958389282e-02 -3.719690442085266113e-02
7.435073256492614746e-01 2.866437658667564392e-02 -1.672734157182276249e-03
-2.327840924263000488e-01 5.228929966688156128e-02 -3.015634790062904358e-02
-8.682727813720703125e-02 3.988612815737724304e-02 6.872379034757614136e-02
5.217266082763671875e-01 2.642639353871345520e-02 -7.175786048173904419e-02
6.812815666198730469e-01 -6.534729897975921631e-02 -7.653497904539108276e-02
-1.392437219619750977e-01 5.557378381490707397e-02 -3.633944690227508545e-02
-8.823183178901672363e-02 -9.433397650718688965e-02 -1.812415011227130890e-02
6.380113363265991211e-01 -8.166728168725967407e-02 -6.738618016242980957e-02
4.912897944450378418e-03 6.719122827053070068e-02 2.231590263545513153e-02
-1.038589179515838623e-01 -9.423730522394180298e-02 -1.308573037385940552e-02
4.334899783134460449e-02 -9.794572740793228149e-02 3.780157864093780518e-02
4.877030849456787109e-01 -4.688744246959686279e-02 -9.274850785732269287e-02
2.891354560852050781e-01 4.040729999542236328e-02 -6.898361444473266602e-02
-1.607707440853118896e-01 -7.562080025672912598e-02 5.514928326010704041e-02
-2.537212371826171875e-01 2.508056908845901489e-02 -5.667026713490486145e-02
-4.005541801452636719e-01 -2.016776055097579956e-02 6.549681723117828369e-02
5.297445058822631836e-01 5.024903267621994019e-02 9.423501789569854736e-03
-3.064791560173034668e-01 -1.013387739658355713e-02 7.782411575317382812e-02
2.503098845481872559e-01 -2.888577431440353394e-02 -9.629902988672256470e-02
6.163168549537658691e-01 9.241569787263870239e-03 -7.777071744203567505e-02
2.627552449703216553e-01 2.152043953537940979e-02 7.775151729583740234e-02
4.104019999504089355e-01 4.769179224967956543e-02 -5.330862477421760559e-02
8.567243814468383789e-02 -6.868820637464523315e-02 7.681875675916671753e-02
9.332385659217834473e-01 -1.552030630409717560e-02 -3.219953505322337151e-03
6.096086502075195312e-01 -9.906145930290222168e-02 2.381045185029506683e-02
8.720390796661376953e-01 -4.201540350914001465e-02 -6.112600862979888916e-02
9.159433245658874512e-01 -2.403829991817474365e-02 -4.772135987877845764e-02
2.689115405082702637e-01 -6.715336441993713379e-02 7.772592455148696899e-02
5.607638359069824219e-01 -3.364069759845733643e-02 -9.238791465759277344e-02
2.504690289497375488e-01 5.984199047088623047e-02 3.320255503058433533e-02
6.075114607810974121e-01 -9.413436055183410645e-02 -5.411056056618690491e-02
-1.924470067024230957e-03 -3.433676064014434814e-02 -8.580075949430465698e-02
9.114654660224914551e-01 -7.018068432807922363e-02 -9.268331341445446014e-03
-1.182148456573486328e-01 -3.522437438368797302e-02 8.654671162366867065e-02
5.279364585876464844e-01 -4.009346663951873779e-02 7.520376890897750854e-02
4.831757545471191406e-01 -2.710155397653579712e-02 7.931561022996902466e-02
-1.128120720386505127e-02 6.217437237501144409e-02 3.797774016857147217e-02
3.677368164062500000e-03 -9.274709969758987427e-02 4.513810575008392334e-02
-1.464886367321014404e-01 5.770010501146316528e-02 4.175245016813278198e-02
1.952463090419769287e-01 4.684638231992721558e-02 5.882343277335166931e-02
6.719131767749786377e-02 -1.008621007204055786e-01 3.268043696880340576e-02
4.023520946502685547e-01 -6.380245089530944824e-02 -8.752537518739700317e-02
-2.582081854343414307e-01 3.153958544135093689e-02 6.694312393665313721e-02
6.919602155685424805e-01 -3.038568049669265747e-02 5.970042943954467773e-02
3.178912401199340820e-01 -5.865597724914550781e-02 -8.964425325393676758e-02
5.734716057777404785e-01 -6.533303111791610718e-02 6.335628777742385864e-02
3.710022568702697754e-01 5.960365384817123413e-02 1.630538143217563629e-02
-8.584910631179809570e-02 -1.030374132096767426e-02 -8.223732560873031616e-02
-3.287639617919921875e-01 1.389674469828605652e-02 -5.266813188791275024e-02
6.598227024078369141e-01 -2.066523209214210510e-02 6.260213255882263184e-02
9.309964776039123535e-01 -1.926485449075698853e-02 -3.811910748481750488e-02
-4.983507394790649414e-01 2.744676172733306885e-02 7.181338965892791748e-03
5.175812542438507080e-02 -5.381315574049949646e-02 -8.238694071769714355e-02
6.463961303234100342e-02 -8.128793537616729736e-02 -6.302367150783538818e-02
6.226858496665954590e-01 2.887753024697303772e-02 3.618354350328445435e-02
7.081827521324157715e-01 -2.881461568176746368e-02 5.755207315087318420e-02
3.994536995887756348e-01 2.927445620298385620e-02 -7.621180266141891479e-02
2.804298102855682373e-01 6.560008227825164795e-02 4.276561550796031952e-03
2.188773155212402344e-01 6.774989515542984009e-02 -2.497628796845674515e-03
-3.722802996635437012e-01 -5.392783507704734802e-02 -2.700388431549072266e-02
8.136953115463256836e-01 -8.683174848556518555e-02 1.411680132150650024e-03
8.934627771377563477e-01 -6.510643661022186279e-02 1.081178430467844009e-02
-3.674366474151611328e-01 5.018635094165802002e-02 1.101311016827821732e-02
-1.260336041450500488e-01 -9.064944088459014893e-02 3.018069826066493988e-02
-1.468698680400848389e-02 -1.019711419939994812e-01 4.368655383586883545e-03
4.193390011787414551e-01 -1.095409318804740906e-01 -2.856749109923839569e-02
3.970444500446319580e-01 4.018108174204826355e-02 -6.510676443576812744e-02
5.248970985412597656e-01 -1.001645252108573914e-01 -4.914702102541923523e-02
5.851217508316040039e-01 4.088092967867851257e-02 -4.325921833515167236e-02
-4.588698744773864746e-01 -2.256200835108757019e-02 -2.975280210375785828e-02
-2.514931857585906982e-01 -7.927117496728897095e-02 -1.398502383381128311e-02
7.835702896118164062e-01 1.863110437989234924e-02 1.045097317546606064e-02
3.347794115543365479e-01 -1.018576994538307190e-01 3.945435956120491028e-02
1.355172693729400635e-02 5.256552994251251221e-02 5.564075708389282227e-02
8.013033866882324219e-02 -9.372343122959136963e-02 -4.759980738162994385e-02
-4.016767740249633789e-01 -3.172750771045684814e-02 -3.921892866492271423e-02
-7.239562273025512695e-02 -7.676547765731811523e-02 6.243623420596122742e-02
5.050762891769409180e-01 -8.469332009553909302e-02 -7.098316401243209839e-02
-2.964959144592285156e-01 2.975354343652725220e-02 -4.803360626101493835e-02
4.273705780506134033e-01 -4.519484192132949829e-02 8.075547218322753906e-02
8.380332589149475098e-01 -2.381438016891479492e-02 3.514229878783226013e-02
2.624374032020568848e-01 6.624646484851837158e-02 -1.094805635511875153e-02
-2.600081861019134521e-01 -6.776121258735656738e-02 -3.574492782354354858e-02
-2.951566576957702637e-01 5.018897354602813721e-04 7.794587314128875732e-02
-2.307648658752441406e-01 5.689378082752227783e-02 3.417013585567474365e-02
7.140227556228637695e-01 -9.828498959541320801e-02 1.219755038619041443e-03
-1.757895946502685547e-01 4.974508658051490784e-03 8.473441004753112793e-02
1.714935153722763062e-01 4.472382366657257080e-02 6.231966987252235413e-02
8.735865950584411621e-01 -7.879612594842910767e-02 -7.724598050117492676e-03
7.168130874633789062e-01 -1.732850447297096252e-03 4.825738444924354553e-02
-4.282698035240173340e-01 -4.397349059581756592e-02 4.523018375039100647e-02
6.494300365447998047e-01 -8.988874405622482300e-02 -5.678272619843482971e-02
3.238592743873596191e-01 -1.367453671991825104e-02 8.731666207313537598e-02
2.409799396991729736e-01 -1.116054654121398926e-01 -2.334792399778962135e-03
8.401191234588623047e-01 -5.853209644556045532e-02 -6.149248778820037842e-02
-4.876782894134521484e-01 1.681273803114891052e-03 4.976144805550575256e-02
1.145610436797142029e-01 7.796091958880424500e-03 8.832829445600509644e-02
6.349015831947326660e-01 -1.226615160703659058e-03 5.953293293714523315e-02
3.306199014186859131e-01 -1.119217127561569214e-01 -1.546382531523704529e-02
6.552017927169799805e-01 -4.946304112672805786e-02 6.175296381115913391e-02
1.780067384243011475e-02 -9.285476803779602051e-02 -4.205718263983726501e-02
7.228449583053588867e-01 2.108892798423767090e-02 -5.191594362258911133e-02
4.004020392894744873e-01 -8.635488897562026978e-02 -7.082497328519821167e-02
-6.694883108139038086e-02 6.351955235004425049e-02 -2.549017779529094696e-02
5.190906524658203125e-01 -1.099370718002319336e-01 -2.696368843317031860e-03
-4.127985239028930664e-01 -5.705919116735458374e-02 -3.923738375306129456e-03
-3.097571134567260742e-01 5.566890537738800049e-02 2.767923520877957344e-03
6.024152040481567383e-01 -4.421990364789962769e-02 6.823688745498657227e-02
-9.683394432067871094e-02 6.258191168308258057e-02 3.337939083576202393e-02
-2.075094580650329590e-01 5.890741944313049316e-02 3.202014788985252380e-02
-3.233048319816589355e-02 -3.982222825288772583e-02 -8.232916146516799927e-02
5.471054315567016602e-01 -2.802766859531402588e-02 -9.308058023452758789e-02
-1.983813345432281494e-01 3.074225410819053650e-02 -5.885712802410125732e-02
5.704416632652282715e-01 -8.677531033754348755e-02 -6.623317301273345947e-02
3.966571688652038574e-01 -7.059691846370697021e-02 7.161132991313934326e-02
2.705995142459869385e-01 -1.085424348711967468e-01 -2.919771894812583923e-02
7.800881266593933105e-01 -5.019754171371459961e-02 4.506022483110427856e-02
7.823849320411682129e-01 4.647374153137207031e-03 -5.977258831262588501e-02
7.124868035316467285e-02 2.176865935325622559e-03 -8.891849964857101440e-02
9.147543460130691528e-02 -1.043782830238342285e-01 -2.287450991570949554e-02
5.170919001102447510e-02 1.892038062214851379e-02 -8.211302012205123901e-02
6.979905366897583008e-01 -1.414080429822206497e-02 5.627621710300445557e-02
5.999366641044616699e-01 -5.824251472949981689e-02 -8.505573123693466187e-02
5.116248130798339844e-01 4.424586147069931030e-02 -4.853111505508422852e-02
8.035089969635009766e-01 -3.530303388833999634e-02 4.328243434429168701e-02
4.314327836036682129e-01 5.825727432966232300e-02 -1.827240735292434692e-02
2.983482182025909424e-01 5.605552345514297485e-02 3.708723187446594238e-02
3.536039888858795166e-01 -8.378405869007110596e-02 -7.314389944076538086e-02
6.134055852890014648e-01 4.014702141284942627e-02 -3.852316364645957947e-02
5.430613756179809570e-01 -1.091476827859878540e-01 -3.203928004950284958e-03
1.759069561958312988e-01 7.736030966043472290e-03 8.721598237752914429e-02
2.418664097785949707e-02 2.927583083510398865e-02 7.841522991657257080e-02
-3.904864192008972168e-02 6.762173026800155640e-03 -8.236958086490631104e-02
-4.525242447853088379e-01 3.512843698263168335e-02 -4.679128061980009079e-03
6.695391535758972168e-01 -4.655108228325843811e-02 -8.460988849401473999e-02
5.854681730270385742e-01 2.262303605675697327e-02 -6.988582760095596313e-02
2.933257520198822021e-01 -5.213186144828796387e-02 8.421938121318817139e-02
3.834933638572692871e-01 6.143155694007873535e-02 -9.810393676161766052e-04
5.943032503128051758e-01 -9.796748310327529907e-02 -4.849609732627868652e-02
-3.621973991394042969e-01 -6.367902457714080811e-02 -1.256234664469957352e-02
2.302206009626388550e-01 -4.799574986100196838e-02 8.705327659845352173e-02
5.582290887832641602e-01 2.164398506283760071e-02 5.389642342925071716e-02
3.737719357013702393e-02 6.172879040241241455e-02 3.928570076823234558e-02
2.789664268493652344e-01 -1.479311846196651459e-02 -9.651184827089309692e-02
-2.816280424594879150e-01 3.909527510404586792e-02 -4.157314822077751160e-02
2.660308182239532471e-01 -1.034675166010856628e-01 3.668635338544845581e-02
-2.555802464485168457e-01 5.993755161762237549e-02 1.200120709836483002e-02
8.528321385383605957e-01 -4.590179771184921265e-03 -5.251954123377799988e-02
6.583095788955688477e-01 -9.636474400758743286e-02 -4.465254396200180054e-02
6.360379457473754883e-01 -2.889909967780113220e-02 6.608038395643234253e-02
-8.539026975631713867e-02 3.670366108417510986e-02 -6.364215165376663208e-02
2.698797583580017090e-01 -1.120308786630630493e-01 -1.503634732216596603e-03
-1.702457070350646973e-01 5.107051879167556763e-02 5.191333964467048645e-02
3.799927830696105957e-01 -6.319769471883773804e-02 -8.786637336015701294e-02
-4.115254282951354980e-01 -5.932642892003059387e-02 1.227618660777807236e-02
-3.455586433410644531e-01 -6.648464500904083252e-02 -1.254463475197553635e-02
-3.035181760787963867e-01 5.587264895439147949e-02 1.764477416872978210e-02
4.388812184333801270e-02 1.750159263610839844e-02 8.499843627214431763e-02
5.453487038612365723e-01 -7.403750717639923096e-02 6.030939891934394836e-02
3.735637962818145752e-01 4.001756012439727783e-02 -6.651266664266586304e-02
3.740988969802856445e-01 6.166642904281616211e-02 -1.426834892481565475e-02
1.115677729249000549e-01 -2.096932195127010345e-02 -9.301006048917770386e-02
2.989507317543029785e-01 -4.010902717709541321e-03 -9.482390433549880981e-02
-3.776200413703918457e-01 9.350409731268882751e-03 -4.673789814114570618e-02
2.337754070758819580e-01 -1.569055952131748199e-02 9.070026874542236328e-02
6.485583186149597168e-01 2.158991619944572449e-02 4.059681296348571777e-02
-5.414122939109802246e-01 4.003109410405158997e-03 1.610720064491033554e-04
1.597961485385894775e-01 6.864386051893234253e-02 6.195069290697574615e-03
1.602286547422409058e-01 2.614679932594299316e-02 7.858750969171524048e-02
-2.528965175151824951e-01 -2.220058627426624298e-02 -6.598555296659469604e-02
4.736481010913848877e-01 -6.861059367656707764e-02 6.879058480262756348e-02
7.180562615394592285e-01 -1.477684825658798218e-02 -7.960030436515808105e-02
8.011925220489501953e-01 -1.086967065930366516e-03 3.159757331013679504e-02
3.934909105300903320e-01 -3.649177402257919312e-02 8.408050239086151123e-02
-2.364414930343627930e-01 6.743084639310836792e-03 -6.643801182508468628e-02
-2.633960545063018799e-02 -8.793331682682037354e-02 -4.493175819516181946e-02
4.876815676689147949e-01 -4.915305227041244507e-02 7.614560425281524658e-02
1.979653090238571167e-01 -9.542614966630935669e-02 -5.410599708557128906e-02
-2.167190611362457275e-02 -7.233576476573944092e-02 -6.445521116256713867e-02
-3.724219799041748047e-01 -4.127056524157524109e-02 -3.953967615962028503e-02
-2.441496849060058594e-01 2.841227501630783081e-02 7.031784206628799438e-02
-9.976765513420104980e-02 4.201385378837585449e-02 -5.778989195823669434e-02
4.974441826343536377e-01 3.023994714021682739e-02 -6.978871673345565796e-02
3.313532471656799316e-01 -4.232483357191085815e-02 8.577094227075576782e-02
-1.400541067123413086e-01 1.037032902240753174e-02 -7.430567592382431030e-02
1.380957961082458496e-01 -1.069315224885940552e-01 1.947612129151821136e-02
2.613874375820159912e-01 -4.500915110111236572e-02 8.726792037487030029e-02
1.577726602554321289e-01 5.402880907058715820e-02 -5.300491675734519958e-02
-4.104365408420562744e-02 6.065321713685989380e-02 -3.490125760436058044e-02
3.747128546237945557e-01 -1.769723370671272278e-03 8.228549361228942871e-02
2.577136158943176270e-01 -9.287460893392562866e-02 5.463780835270881653e-02
-3.904571533203125000e-01 -1.543489005416631699e-02 -4.677010327577590942e-02
-1.044340133666992188e-01 5.050715059041976929e-02 5.619911104440689087e-02
-1.278375387191772461e-01 6.291408836841583252e-02 2.963421307504177094e-02
5.590707063674926758e-01 -1.087044179439544678e-01 -1.212252210825681686e-02
1.800634562969207764e-01 -5.437084659934043884e-02 -8.824982494115829468e-02
2.421829700469970703e-01 -9.804395586252212524e-02 -5.226728320121765137e-02
6.236702203750610352e-01 2.064762264490127563e-02 -6.781032681465148926e-02
4.169077277183532715e-01 -1.122154220938682556e-01 -5.940340459346771240e-03
-7.849666476249694824e-02 -7.049908488988876343e-02 -6.038710847496986389e-02
-7.825702428817749023e-02 6.742326170206069946e-02 1.377093233168125153e-02
8.132719397544860840e-01 1.587682217359542847e-02 -3.305543214082717896e-02
-3.635515570640563965e-01 -5.828125774860382080e-02 4.336803033947944641e-02
-4.167807698249816895e-01 -3.273483365774154663e-02 5.752876773476600647e-02
-2.653666734695434570e-01 -4.317320138216018677e-02 -5.705266818404197693e-02
4.790130257606506348e-01 3.501326963305473328e-02 -6.588983535766601562e-02
4.366633892059326172e-01 -2.431092597544193268e-02 8.229083567857742310e-02
1.020814254879951477e-01 -1.010087803006172180e-01 3.562326729297637939e-02
4.054006338119506836e-01 4.853405058383941650e-03 -9.086772799491882324e-02
6.595268845558166504e-02 -6.522060930728912354e-02 -7.681905478239059448e-02
-4.024669528007507324e-02 3.734692186117172241e-02 7.191558927297592163e-02
2.653382420539855957e-01 6.115508079528808594e-02 -3.521388024091720581e-02
1.513895988464355469e-01 -2.228852733969688416e-02 9.248400479555130005e-02
7.041014432907104492e-01 -6.355727091431617737e-03 -7.793447375297546387e-02
2.362328916788101196e-01 5.089778453111648560e-02 5.114063993096351624e-02
-1.607508659362792969e-01 -3.136298805475234985e-02 8.544033765792846680e-02
7.041593790054321289e-01 -3.781477361917495728e-02 -8.327250927686691284e-02
5.678408145904541016e-01 -8.739829063415527344e-03 6.968247145414352417e-02
8.406692743301391602e-01 1.248569786548614502e-02 -2.607284858822822571e-02
2.160724997520446777e-01 -4.582339525222778320e-02 -9.243836998939514160e-02
2.733685076236724854e-01 -8.464612066745758057e-02 -7.073047757148742676e-02
7.281429767608642578e-01 -2.419019117951393127e-02 5.433400720357894897e-02
4.260259270668029785e-01 5.119103193283081055e-02 -4.490999504923820496e-02
3.984557986259460449e-01 4.885647445917129517e-02 3.958161175251007080e-02
1.128983423113822937e-01 -9.978694841265678406e-03 9.231403470039367676e-02
-3.642230033874511719e-01 1.496535912156105042e-02 6.664222478866577148e-02
8.069085478782653809e-01 1.793875545263290405e-02 -6.737280637025833130e-05
8.961158990859985352e-01 -7.233874499797821045e-02 -2.563996938988566399e-03
-1.012028157711029053e-01 6.171879917383193970e-02 -2.699922770261764526e-02
3.540174961090087891e-01 5.526851117610931396e-02 3.229061141610145569e-02
4.996450245380401611e-02 5.532962828874588013e-02 5.132099613547325134e-02
4.609303176403045654e-01 -1.080611124634742737e-01 1.786062866449356079e-02
-9.088492393493652344e-02 -3.446202725172042847e-03 8.955722302198410034e-02
-4.502781629562377930e-01 -2.744778618216514587e-02 5.342797189950942993e-02
2.279276549816131592e-01 -1.103331223130226135e-01 -1.652086153626441956e-02
2.489047348499298096e-01 -6.824905052781105042e-03 -9.514369070529937744e-02
1.371321082115173340e-01 -9.712633490562438965e-02 4.600091278553009033e-02
2.436333894729614258e-02 -6.799051910638809204e-02 -7.195526361465454102e-02
1.383761465549468994e-01 1.525811851024627686e-02 -8.647995442152023315e-02
9.595192670822143555e-01 -2.976584248244762421e-02 -9.013439528644084930e-03
6.594862043857574463e-02 -5.689996480941772461e-02 8.365064114332199097e-02
2.350472360849380493e-01 6.629061698913574219e-02 -1.715850457549095154e-02
3.481954336166381836e-03 -8.958156406879425049e-02 -4.602187871932983398e-02
-7.613945007324218750e-02 -1.747630350291728973e-02 9.079567342996597290e-02
-5.956894159317016602e-02 -1.852685958147048950e-02 9.121577441692352295e-02
-5.068722963333129883e-01 1.482536643743515015e-02 -1.132293976843357086e-02
-3.924924731254577637e-01 2.980060502886772156e-02 5.249110236763954163e-02
6.481752395629882812e-01 -7.493506371974945068e-02 4.987219348549842834e-02
-1.742298305034637451e-01 -6.069828197360038757e-02 6.971494108438491821e-02
4.976234436035156250e-01 -7.620006799697875977e-04 7.337734848260879517e-02
2.865036725997924805e-01 5.825705081224441528e-02 -4.136120527982711792e-02
1.356460154056549072e-02 -9.878499805927276611e-02 -2.753340266644954681e-02
4.997408092021942139e-01 5.435572564601898193e-02 -4.159406758844852448e-03
7.084043622016906738e-01 -9.294398128986358643e-02 1.897912099957466125e-02
7.706308960914611816e-01 -2.684352174401283264e-02 -7.640420645475387573e-02
6.575295329093933105e-01 -3.000050783157348633e-03 5.747563391923904419e-02
-3.754087686538696289e-01 -1.520823501050472260e-02 -4.947411641478538513e-02
-1.659888327121734619e-01 4.562577605247497559e-02 -4.819640517234802246e-02
9.294183254241943359e-01 -3.646007552742958069e-02 -4.639167711138725281e-02
7.266978621482849121e-01 1.972389221191406250e-02 2.664946392178535461e-02
1.709700971841812134e-01 5.026876181364059448e-02 -5.849935486912727356e-02
3.057576715946197510e-02 -1.040924787521362305e-01 1.022471860051155090e-02
2.938261628150939941e-01 6.192758679389953613e-02 2.185795828700065613e-02
5.211896896362304688e-01 -1.064480841159820557e-01 1.655083335936069489e-02
5.306383967399597168e-01 1.464320719242095947e-02 6.244807317852973938e-02
-4.859137535095214844e-02 -4.009228572249412537e-02 -8.106295764446258545e-02
-4.718442559242248535e-01 3.144517168402671814e-02 -3.125858493149280548e-03
-5.769330263137817383e-02 6.101146340370178223e-02 3.947475925087928772e-02
-2.335879206657409668e-01 -1.637585461139678955e-03 8.283921331167221069e-02
5.612232685089111328e-01 4.425467550754547119e-02 2.028761804103851318e-02
7.389739155769348145e-01 6.425717845559120178e-03 -6.564378738403320312e-02
2.942017018795013428e-01 -1.120080947875976562e-01 -1.147368550300598145e-02
2.535097301006317139e-01 6.431505084037780762e-02 1.862583309412002563e-02
8.741673082113265991e-02 -5.561823770403862000e-02 8.458124846220016479e-02
9.527602791786193848e-01 -5.247677862644195557e-02 -2.808142080903053284e-02
4.751278162002563477e-01 -3.159470856189727783e-03 7.601086050271987915e-02
1.321013271808624268e-01 -1.431387756019830704e-02 9.252236038446426392e-02
-2.214780151844024658e-01 3.293200209736824036e-02 -5.480534210801124573e-02
-2.222428619861602783e-01 -6.136146187782287598e-02 -5.007943883538246155e-02
4.343059062957763672e-01 -4.278408363461494446e-03 7.930448651313781738e-02
6.788814663887023926e-01 3.791099414229393005e-02 -1.445502787828445435e-02
5.344464778900146484e-01 4.557318985462188721e-02 2.343999780714511871e-02
9.395838975906372070e-01 -5.997536331415176392e-02 -2.723521925508975983e-02
1.646975576877593994e-01 -1.032292172312736511e-01 3.424930199980735779e-02
5.040339231491088867e-01 -1.104012429714202881e-01 -1.356211770325899124e-02
-8.849692344665527344e-02 5.795718729496002197e-02 4.470829665660858154e-02
1.229519620537757874e-01 4.184820502996444702e-02 6.690028309822082520e-02
-4.172810316085815430e-01 1.185366883873939514e-02 6.059287115931510925e-02
4.550519883632659912e-01 -8.957529813051223755e-02 5.246242880821228027e-02
8.795949816703796387e-01 -6.564509123563766479e-02 -4.764747619628906250e-02
-1.294745802879333496e-01 -1.165390852838754654e-02 -7.895641028881072998e-02
-2.728505432605743408e-02 -5.977774038910865784e-02 -7.354328781366348267e-02
5.373399853706359863e-01 -5.214794725179672241e-02 -8.984868973493576050e-02
-5.504288673400878906e-01 -6.577475927770137787e-03 2.094268426299095154e-02
2.711121737957000732e-02 -1.277394127100706100e-02 -8.920542895793914795e-02
-3.943035602569580078e-01 -6.101854145526885986e-02 2.382260188460350037e-02
-1.533124744892120361e-01 -8.830033242702484131e-02 -1.935177668929100037e-02
2.486090511083602905e-01 -9.049222618341445923e-02 -6.337884813547134399e-02
6.675441265106201172e-01 -1.859270036220550537e-03 -7.946930825710296631e-02
3.782734870910644531e-01 -7.634693384170532227e-02 -7.963502407073974609e-02
2.032607346773147583e-01 -5.699354410171508789e-02 -8.787904679775238037e-02
2.075808346271514893e-01 6.092514842748641968e-02 -3.887291625142097473e-02
-9.844240546226501465e-02 -7.233451306819915771e-02 6.525436788797378540e-02
1.897505819797515869e-01 8.259342983365058899e-03 -9.030323475599288940e-02
1.241397112607955933e-01 -1.065621450543403625e-01 -1.949402876198291779e-02
2.415204048156738281e-01 6.664709746837615967e-02 6.892990320920944214e-03
1.675005555152893066e-01 -3.532759845256805420e-02 -9.350667893886566162e-02
-7.447546720504760742e-02 2.644743770360946655e-02 -7.164890319108963013e-02
8.498423099517822266e-01 -3.378887847065925598e-02 3.415148705244064331e-02
8.174421191215515137e-01 -8.725963532924652100e-02 -2.739382535219192505e-02
-1.143789887428283691e-01 4.003067687153816223e-02 6.774389743804931641e-02
3.120037615299224854e-01 2.498291060328483582e-02 7.298989593982696533e-02
2.376729995012283325e-01 -8.297172188758850098e-02 -7.121554017066955566e-02
3.677323162555694580e-01 -1.711750775575637817e-02 8.565138280391693115e-02
6.061676740646362305e-01 4.460725188255310059e-02 2.107091015204787254e-03
7.581270337104797363e-01 -6.374770402908325195e-02 4.275076091289520264e-02
-3.852970004081726074e-01 -4.555738344788551331e-02 -3.299894183874130249e-02
6.723722815513610840e-02 6.743197888135910034e-02 2.136091142892837524e-02
5.959978699684143066e-01 -8.862645924091339111e-02 -6.261460483074188232e-02
7.980962991714477539e-01 -7.919417321681976318e-02 -5.076449736952781677e-02
-1.800405979156494141e-02 -3.159800544381141663e-02 9.073849022388458252e-02
6.333254277706146240e-02 -4.666531458497047424e-03 9.180557727813720703e-02
-2.048960626125335693e-01 2.074554935097694397e-02 7.737060636281967163e-02
2.911756634712219238e-01 -9.132827073335647583e-02 5.631217360496520996e-02
4.050710201263427734e-01 -8.080820739269256592e-02 6.369639933109283447e-02
6.107367575168609619e-02 -9.992519021034240723e-02 -3.225338459014892578e-02
-3.499491810798645020e-01 3.112444281578063965e-02 -3.853611648082733154e-02
1.447815299034118652e-01 -6.944470107555389404e-02 -7.839771360158920288e-02
1.789328902959823608e-01 -9.990297257900238037e-03 -9.447395056486129761e-02
3.823852539062500000e-01 -7.404766976833343506e-02 6.991565972566604614e-02
6.943869590759277344e-01 -1.712968945503234863e-02 -8.250323683023452759e-02
8.481730818748474121e-01 -2.782733179628849030e-02 -6.523089110851287842e-02
-4.518447518348693848e-01 6.761640310287475586e-03 5.638577789068222046e-02
3.735947906970977783e-01 -6.066984310746192932e-02 7.798618823289871216e-02
-2.644433677196502686e-01 2.260647714138031006e-03 -6.435844302177429199e-02
-4.387050867080688477e-04 1.293113082647323608e-02 -8.239474892616271973e-02
-9.658327698707580566e-02 -4.284451529383659363e-02 8.499707281589508057e-02
-3.866611421108245850e-02 -1.331218052655458450e-02 9.170427918434143066e-02
4.305884540081024170e-01 2.242349088191986084e-02 -8.037184178829193115e-02
3.950583338737487793e-01 -1.139159779995679855e-02 8.339590579271316528e-02
4.378754496574401855e-01 5.519919097423553467e-02 -3.195498511195182800e-02
5.985531806945800781e-01 -1.058108136057853699e-01 -2.451417036354541779e-02
-1.696570813655853271e-01 3.107530251145362854e-02 7.286860048770904541e-02
4.163798391819000244e-01 -3.560073673725128174e-02 8.299934118986129761e-02
2.159658670425415039e-01 -1.035349518060684204e-01 3.564535826444625854e-02
8.042470812797546387e-01 -9.033197164535522461e-02 -1.335524767637252808e-02
-1.536846160888671875e-01 6.521234661340713501e-02 1.258593890815973282e-02
5.246452689170837402e-01 -7.544878125190734863e-02 6.087696924805641174e-02
2.232836037874221802e-01 -6.524358689785003662e-02 -8.423621952533721924e-02
3.341233730316162109e-01 3.746472299098968506e-02 -7.085549086332321167e-02
3.368276655673980713e-01 -2.233545668423175812e-02 8.741995692253112793e-02
4.032707214355468750e-01 6.020468473434448242e-02 1.337477704510092735e-03
-3.666497468948364258e-01 -2.495319582521915436e-02 6.901865452527999878e-02
-3.146279454231262207e-01 3.841028362512588501e-02 -3.717689961194992065e-02
-4.167813062667846680e-02 -6.724601984024047852e-02 7.352355122566223145e-02
9.171648025512695312e-01 -6.122985854744911194e-02 5.203619599342346191e-03
5.312083363533020020e-01 -1.000023856759071350e-01 3.150031343102455139e-02
-3.537535071372985840e-01 -6.833893060684204102e-02 1.532402820885181427e-04
-5.159362554550170898e-01 -3.002409078180789948e-02 1.240280224010348320e-03
-4.163274168968200684e-01 -5.387011542916297913e-02 3.330752998590469360e-02
-7.837983965873718262e-02 -5.077078938484191895e-02 -7.428754121065139771e-02
3.476143777370452881e-01 -1.120497807860374451e-01 -1.493745576590299606e-02
-1.487068235874176025e-01 6.014886498451232910e-02 -2.526548691093921661e-02
8.011438250541687012e-01 -3.003653325140476227e-02 -7.286819815635681152e-02
5.997081995010375977e-01 -2.381546422839164734e-03 6.415705382823944092e-02
-1.928195357322692871e-02 2.928518876433372498e-02 7.821390032768249512e-02
3.541409373283386230e-01 -6.455132737755775452e-03 8.461581915616989136e-02
-1.634379029273986816e-01 -1.661643013358116150e-02 -7.596461474895477295e-02
3.160848915576934814e-01 -1.070756688714027405e-01 2.766697108745574951e-02
8.561627864837646484e-01 -8.265893161296844482e-02 -1.805659756064414978e-02
-1.949236989021301270e-01 -2.800901606678962708e-02 8.422883599996566772e-02
4.044109582901000977e-01 -5.647396296262741089e-02 7.841362804174423218e-02
6.752383708953857422e-01 -6.098052859306335449e-02 5.534217506647109985e-02
1.877268850803375244e-01 5.263480544090270996e-02 -5.503628030419349670e-02
4.654747843742370605e-01 -4.755418747663497925e-02 7.797989994287490845e-02
-2.297386825084686279e-01 5.869354307651519775e-02 -1.481499988585710526e-02
5.472317934036254883e-01 -3.700819239020347595e-02 7.407047599554061890e-02
3.096722066402435303e-01 -1.107199639081954956e-01 -2.226015552878379822e-02
5.908228158950805664e-01 -7.947087287902832031e-02 5.211780592799186707e-02
2.137520909309387207e-01 -9.618250280618667603e-02 4.967643693089485168e-02
7.600317001342773438e-01 -1.422004215419292450e-02 -7.466761767864227295e-02
4.581037163734436035e-01 -1.028861999511718750e-01 3.189002722501754761e-02
8.455083966255187988e-01 -7.753358781337738037e-02 -4.170509800314903259e-02
4.762492775917053223e-01 1.794001832604408264e-02 6.559122353792190552e-02
1.209650933742523193e-02 -4.928093403577804565e-02 8.610884845256805420e-02
-1.875960826873779297e-02 -9.727181494235992432e-02 3.142972290515899658e-02
-4.375985264778137207e-01 3.450117260217666626e-02 -1.289175078272819519e-02
8.897921442985534668e-02 -1.064240410923957825e-01 1.244247518479824066e-02
7.778025865554809570e-01 2.131064981222152710e-02 -3.473107889294624329e-02
2.128030657768249512e-01 -1.094789952039718628e-01 1.546609215438365936e-02
-5.227416753768920898e-01 1.143346354365348816e-02 3.308204561471939087e-02
2.664937973022460938e-01 4.857440292835235596e-02 -5.955979973077774048e-02
3.653829097747802734e-01 -9.460978209972381592e-02 5.030073225498199463e-02
-2.954246401786804199e-01 -4.130901396274566650e-02 7.078258693218231201e-02
1.805070191621780396e-01 -1.082358434796333313e-01 1.849393546581268311e-02
-4.305351376533508301e-01 -5.250796675682067871e-02 -6.415372714400291443e-03
-5.765649676322937012e-02 -9.902522712945938110e-02 -3.358435351401567459e-03
5.531619787216186523e-01 3.668827936053276062e-03 6.638751178979873657e-02
1.964258551597595215e-01 -2.576083317399024963e-02 -9.542861580848693848e-02
7.299059033393859863e-01 -7.201999425888061523e-02 4.149711132049560547e-02
-1.223711669445037842e-02 6.881981343030929565e-02 -6.279845722019672394e-03
7.714411020278930664e-01 1.275657862424850464e-02 2.463539876043796539e-02
5.562918186187744141e-01 -8.423640578985214233e-02 5.083013325929641724e-02
2.489047050476074219e-01 -1.034338995814323425e-01 3.658491745591163635e-02
3.839917182922363281e-01 -2.151885069906711578e-02 -9.688026458024978638e-02
6.392970681190490723e-02 6.141901016235351562e-02 -3.823063522577285767e-02
7.911338806152343750e-01 -8.685437589883804321e-02 -3.908482566475868225e-02
5.177962779998779297e-01 2.848642319440841675e-02 5.237607657909393311e-02
2.946026623249053955e-01 -1.089684069156646729e-01 2.155114524066448212e-02
2.638213634490966797e-01 -4.442645609378814697e-02 -9.388150274753570557e-02
1.237627863883972168e-01 -9.952945262193679810e-02 -4.088822379708290100e-02
3.599764704704284668e-01 4.403284937143325806e-02 -6.214974075555801392e-02
3.771788179874420166e-01 -1.121492087841033936e-01 -1.393208932131528854e-02
3.311962783336639404e-01 -9.247334301471710205e-02 5.410233512520790100e-02
1.855711638927459717e-02 6.815847754478454590e-02 1.773124188184738159e-02
-4.085462689399719238e-01 2.590300142765045166e-02 5.325593799352645874e-02
-6.232818961143493652e-02 -8.369740843772888184e-02 5.423825979232788086e-02
3.176708221435546875e-01 -5.483504757285118103e-02 8.248946070671081543e-02
-3.017729520797729492e-01 -6.345464289188385010e-02 -3.235827386379241943e-02
-8.930385112762451172e-02 -5.521086975932121277e-02 7.938759028911590576e-02
4.588293433189392090e-01 1.734832674264907837e-02 -8.264363557100296021e-02
8.758164048194885254e-01 5.465507507324218750e-03 -2.182998694479465485e-02
8.196986317634582520e-01 1.748046651482582092e-02 -1.301399152725934982e-02
4.178383946418762207e-01 5.442088842391967773e-02 2.434187941253185272e-02
8.185760974884033203e-01 -6.429810822010040283e-02 3.161568939685821533e-02
4.983442723751068115e-01 -2.113732323050498962e-02 -9.451380372047424316e-02
9.422622621059417725e-02 5.587185919284820557e-02 4.968080669641494751e-02
-2.214682102203369141e-01 5.027432739734649658e-02 4.896525293588638306e-02
-1.264215409755706787e-01 -8.631487935781478882e-02 -3.136130049824714661e-02
8.291031718254089355e-01 -4.582319781184196472e-02 3.744832798838615417e-02
1.639561057090759277e-01 5.688847601413726807e-02 4.540616646409034729e-02
8.380483984947204590e-01 -1.631190255284309387e-02 -6.353706121444702148e-02
8.469671010971069336e-01 -5.371372401714324951e-02 3.135051205754280090e-02
-1.504051685333251953e-02 -8.315470814704895020e-02 -5.329184234142303467e-02
-4.672625660896301270e-01 2.880400419235229492e-02 3.510716184973716736e-02
7.585079669952392578e-01 5.948491394519805908e-03 -6.290576606988906860e-02
7.529082894325256348e-01 -1.990642026066780090e-02 4.979461058974266052e-02
9.057164192199707031e-03 2.406928688287734985e-02 8.159681409597396851e-02
7.695983350276947021e-02 5.369263887405395508e-02 -5.252178385853767395e-02
4.014124870300292969e-01 -9.305642545223236084e-02 5.097480118274688721e-02
-2.458623647689819336e-01 -3.973960876464843750e-02 -6.145890057086944580e-02
-9.164312481880187988e-02 -9.354644268751144409e-02 2.883895114064216614e-02
3.195317089557647705e-02 -7.842846214771270752e-02 -6.334277242422103882e-02
-3.910981416702270508e-01 4.449122399091720581e-02 2.879784815013408661e-02
3.489871919155120850e-01 -3.333213925361633301e-02 -9.668268263339996338e-02
4.258192777633666992e-01 -8.671314455568790436e-03 -9.455408155918121338e-02
-1.188077926635742188e-01 -7.170064747333526611e-02 -5.437615886330604553e-02
2.031375914812088013e-01 -2.922400273382663727e-02 9.131487458944320679e-02
8.421078324317932129e-01 -2.932325005531311035e-03 2.247445471584796906e-02
3.359583616256713867e-01 -9.110260754823684692e-02 -6.504236161708831787e-02
3.832883834838867188e-01 2.344856038689613342e-02 -8.133977651596069336e-02
-2.503186762332916260e-01 5.116298794746398926e-02 -2.939549088478088379e-02
3.313809633255004883e-01 5.833236128091812134e-02 2.762511186301708221e-02
2.348689585924148560e-01 -6.760827451944351196e-02 7.798828184604644775e-02
-3.269463777542114258e-01 -6.862948834896087646e-02 -1.480352040380239487e-02
7.983000874519348145e-01 -5.793198198080062866e-02 -6.823852658271789551e-02
-1.191724836826324463e-01 6.565610319375991821e-02 -9.521744213998317719e-03
1.148265600204467773e-02 -7.395704835653305054e-02 -6.594083458185195923e-02
-5.282040834426879883e-01 -2.728515490889549255e-02 1.450952328741550446e-02
4.440159499645233154e-01 4.893279075622558594e-02 3.304574266076087952e-02
-4.897288084030151367e-01 1.977357268333435059e-02 3.889346867799758911e-02
-7.103186845779418945e-02 -9.637123346328735352e-02 -1.510606240481138229e-02
9.168918728828430176e-01 -1.277145557105541229e-02 3.746674628928303719e-03
8.239780068397521973e-01 -5.512588471174240112e-02 -6.578890979290008545e-02
4.686602950096130371e-01 -3.051871061325073242e-02 -9.553653001785278320e-02
6.489313244819641113e-01 3.332735598087310791e-02 2.301430515944957733e-02
4.343352019786834717e-01 -1.118044778704643250e-01 -1.270778570324182510e-02
7.563125491142272949e-01 -7.771512866020202637e-02 3.206694498658180237e-02
-3.260430097579956055e-01 -4.598710313439369202e-02 6.388752162456512451e-02
-3.276202082633972168e-01 6.328402087092399597e-03 7.371442764997482300e-02
4.615031182765960693e-01 3.303677961230278015e-02 -6.936171650886535645e-02
3.642646372318267822e-01 -8.164767175912857056e-02 6.459629535675048828e-02
9.561229348182678223e-01 -2.435526996850967407e-02 -2.304555103182792664e-02
-2.225805222988128662e-01 -2.623056247830390930e-02 8.278323709964752197e-02
8.314321637153625488e-01 1.348934695124626160e-02 -1.286739949136972427e-03
1.522530317306518555e-01 -9.599494934082031250e-02 -5.009659007191658020e-02
7.866027355194091797e-01 -9.220986068248748779e-02 -2.018630504608154297e-02
-1.145096719264984131e-01 -6.514015793800354004e-02 7.080014050006866455e-02
-9.990522265434265137e-02 -7.208971679210662842e-02 -5.633293464779853821e-02
7.631762027740478516e-01 2.458837628364562988e-02 -3.127144277095794678e-02
1.829217076301574707e-01 3.030673414468765259e-02 -7.849184423685073853e-02
3.545552492141723633e-01 6.188943982124328613e-02 -1.981033757328987122e-02
1.182901337742805481e-01 -2.677615731954574585e-03 -9.164695441722869873e-02
4.498070478439331055e-01 -4.630212858319282532e-02 -9.363927692174911499e-02
-2.544957697391510010e-01 4.593394696712493896e-03 8.025703579187393188e-02
-2.397992312908172607e-01 4.277539253234863281e-02 5.761738121509552002e-02
2.581829726696014404e-01 -6.230059638619422913e-02 -8.682432770729064941e-02
4.603704810142517090e-01 5.681348592042922974e-02 -1.546849031001329422e-02
1.333707869052886963e-01 -4.654185846447944641e-02 8.844774961471557617e-02
-3.030971884727478027e-01 3.549504652619361877e-02 5.926918238401412964e-02
-2.176333665847778320e-01 3.029147163033485413e-03 8.297861367464065552e-02
1.084144860506057739e-01 6.794461607933044434e-02 1.719374023377895355e-02
5.566243827342987061e-02 6.263367831707000732e-02 3.697200864553451538e-02
6.448336839675903320e-01 -9.293270856142044067e-02 3.015015088021755219e-02
6.505391597747802734e-01 -6.329454481601715088e-04 -8.041378110647201538e-02
5.260891914367675781e-01 -8.661694079637527466e-02 -6.833057850599288940e-02
-3.588194251060485840e-01 4.727768152952194214e-02 -1.241037063300609589e-02
7.973481714725494385e-02 -4.915202409029006958e-02 -8.596608787775039673e-02
5.827555656433105469e-01 2.464693039655685425e-03 -8.413716405630111694e-02
-3.392525017261505127e-02 -9.934131056070327759e-02 -1.333452016115188599e-02
2.535644471645355225e-01 -3.131361678242683411e-02 8.998082578182220459e-02
-2.748062312602996826e-01 3.905619308352470398e-02 5.855416506528854370e-02
6.633275747299194336e-02 -4.112463071942329407e-02 -8.796933293342590332e-02
-6.118685007095336914e-03 5.588153004646301270e-02 5.048182606697082520e-02
