-2.798064947128295898e-01 -9.329265356063842773e-02 -2.119771204888820648e-02
1.057295948266983032e-01 2.066431194543838501e-02 7.314779609441757202e-02
4.570943117141723633e-02 -1.061848923563957214e-02 -1.295033544301986694e-01
3.503900766372680664e-01 3.385044261813163757e-02 -7.266017049551010132e-02
-4.038678705692291260e-01 8.164787292480468750e-02 -2.055889554321765900e-02
-7.465125322341918945e-01 3.386611863970756531e-02 8.830832317471504211e-03
4.673695266246795654e-01 -6.238782405853271484e-02 1.198480464518070221e-02
-1.531408578157424927e-01 8.337053656578063965e-02 -1.303375326097011566e-02
3.232489824295043945e-01 -7.761739939451217651e-02 -6.207302212715148926e-02
3.098649680614471436e-01 -8.747942745685577393e-02 -9.966234676539897919e-03
2.378849685192108154e-01 4.042566288262605667e-03 -1.121158078312873840e-01
-4.587706923484802246e-01 -7.181514799594879150e-02 1.682244427502155304e-02
-5.835107564926147461e-01 4.418776836246252060e-03 5.340053886175155640e-02
2.802909612655639648e-01 3.716882318258285522e-02 -8.367408066987991333e-02
-1.780724227428436279e-01 -9.516686201095581055e-02 -4.978837817907333374e-02
-4.252837896347045898e-01 2.730291523039340973e-02 -1.221038773655891418e-01
-4.796627759933471680e-01 -6.676198542118072510e-02 2.251471765339374542e-02
-5.339217185974121094e-01 7.450170814990997314e-02 -1.642000675201416016e-02
-3.407461047172546387e-01 8.104535937309265137e-02 -2.540757879614830017e-03
-6.254806518554687500e-01 -6.201710924506187439e-02 -1.985968276858329773e-02
-5.840834379196166992e-01 -4.429815709590911865e-02 3.265708684921264648e-02
4.635684192180633545e-02 -5.823605135083198547e-02 -1.130530834197998047e-01
1.672521531581878662e-01 4.968323558568954468e-02 -8.627812564373016357e-02
-1.049628108739852905e-01 -5.521742627024650574e-02 -1.187257245182991028e-01
4.706868231296539307e-01 2.501013316214084625e-02 -4.339491948485374451e-02
-6.826604604721069336e-01 -2.731466479599475861e-02 2.580504678189754486e-02
4.203785955905914307e-01 3.628766164183616638e-02 4.328873008489608765e-03
-2.680698037147521973e-01 -8.922367542982101440e-02 -6.175364553928375244e-02
-3.246354460716247559e-01 2.377495728433132172e-02 7.241122424602508545e-02
2.824081778526306152e-01 -7.713913172483444214e-02 -7.094612717628479004e-02
9.076863527297973633e-02 3.257538005709648132e-02 -1.121192798018455505e-01
-4.877186119556427002e-01 7.221690565347671509e-02 6.754023954272270203e-03
-5.656828880310058594e-01 -1.573276147246360779e-02 -1.145405620336532593e-01
-4.138081967830657959e-01 -5.876285955309867859e-02 -1.021342873573303223e-01
1.860186159610748291e-01 6.341627985239028931e-02 -5.357613414525985718e-02
4.151557981967926025e-01 -6.532278656959533691e-02 -6.148051470518112183e-02
3.651142120361328125e-02 -7.838569581508636475e-02 -9.236429631710052490e-02
-2.389057874679565430e-01 -5.719396099448204041e-02 6.167066842317581177e-02
1.132360100746154785e-01 1.503364648669958115e-03 7.928956300020217896e-02
1.794265210628509521e-01 -9.404726326465606689e-02 -4.173919931054115295e-02
-2.016036510467529297e-01 4.892091080546379089e-02 6.049768626689910889e-02
-1.470040977001190186e-01 5.816732347011566162e-02 5.084122717380523682e-02
1.453217566013336182e-01 -8.482743054628372192e-02 3.025560267269611359e-02
-2.168051004409790039e-01 -2.656371332705020905e-02 -1.322076916694641113e-01
4.905208051204681396e-01 -1.183468848466873169e-04 -6.657499819993972778e-02
-4.886558949947357178e-01 7.746325433254241943e-02 -4.204934835433959961e-02
-4.240126609802246094e-01 4.368266090750694275e-02 -1.121822223067283630e-01
-4.899745583534240723e-01 -7.865315675735473633e-02 -2.665844373404979706e-02
-3.566001355648040771e-02 -4.284268617630004883e-02 -1.251711100339889526e-01
4.083696901798248291e-01 2.850730530917644501e-02 -6.378580629825592041e-02
3.659594953060150146e-01 3.939310088753700256e-02 -5.871036648750305176e-02
-1.888768225908279419e-01 -9.025146812200546265e-02 1.515223272144794464e-02
2.308613061904907227e-02 -3.698181733489036560e-02 -1.257942318916320801e-01
-1.150076836347579956e-01 3.477845713496208191e-02 -1.219343170523643494e-01
2.125392556190490723e-01 6.085796654224395752e-02 1.153943873941898346e-02
3.267323672771453857e-01 -7.123790681362152100e-02 3.264059126377105713e-02
-5.986491441726684570e-01 -3.323559649288654327e-03 5.104312300682067871e-02
-2.596618235111236572e-01 5.835561454296112061e-02 4.937829822301864624e-02
-6.856940984725952148e-01 -2.760632149875164032e-02 -8.881863206624984741e-02
-1.757750809192657471e-01 -8.045560866594314575e-02 -8.960071951150894165e-02
-7.267533540725708008e-01 -4.260417819023132324e-02 -1.494243182241916656e-02
-5.133603215217590332e-01 6.962882727384567261e-02 8.912978693842887878e-03
-7.967707514762878418e-02 -3.697337582707405090e-02 -1.285949945449829102e-01
5.027136802673339844e-01 -4.131544381380081177e-02 2.592258714139461517e-02
-5.918090939521789551e-01 5.367203429341316223e-02 -8.553352952003479004e-02
3.746874630451202393e-01 -5.229786038398742676e-02 4.586711525917053223e-02
-5.604389905929565430e-01 4.315412417054176331e-02 -1.012084633111953735e-01
2.146755158901214600e-01 -9.239561855792999268e-02 -1.525228843092918396e-03
5.179805755615234375e-01 -4.416325315833091736e-02 1.821763999760150909e-02
-9.546183049678802490e-03 7.960353046655654907e-02 -1.531643420457839966e-02
-4.528664052486419678e-02 7.353094965219497681e-02 -6.818038970232009888e-02
-7.454687356948852539e-01 -2.392303943634033203e-02 9.453369304537773132e-03
-6.770933866500854492e-01 5.545094609260559082e-02 -6.245895475149154663e-02
8.480657637119293213e-02 6.296017765998840332e-02 -7.596626132726669312e-02
-1.556264460086822510e-01 -9.536224603652954102e-02 -5.165497586131095886e-02
-7.328399419784545898e-01 3.023725189268589020e-02 1.632877998054027557e-02
-5.060185194015502930e-01 4.443734139204025269e-02 -1.056577488780021667e-01
-1.630565673112869263e-01 -7.074841111898422241e-02 5.197154730558395386e-02
-7.892464101314544678e-02 6.601107120513916016e-02 -8.710398524999618530e-02
-5.087032318115234375e-01 -3.107558377087116241e-02 5.475809425115585327e-02
-1.950947642326354980e-01 -9.217710047960281372e-02 -6.070723384618759155e-02
2.665176987648010254e-02 -9.313622862100601196e-02 1.598034985363483429e-02
-2.473234385251998901e-02 -2.934224531054496765e-02 -1.298926025629043579e-01
-8.946268260478973389e-02 1.320735365152359009e-02 -1.311328113079071045e-01
-1.239226832985877991e-01 6.133735924959182739e-02 4.640011489391326904e-02
-6.994019746780395508e-01 2.764174900949001312e-02 2.667469345033168793e-02
5.136051177978515625e-01 1.493187993764877319e-02 -3.863457590341567993e-02
-1.076021641492843628e-01 -9.785311669111251831e-02 -4.196429625153541565e-02
-6.422361135482788086e-01 4.921880736947059631e-02 1.973370276391506195e-02
-1.461052596569061279e-01 -9.812281280755996704e-02 -2.893443778157234192e-02
2.879136800765991211e-01 -3.027495928108692169e-02 -1.075646206736564636e-01
4.047084152698516846e-01 -2.946380339562892914e-02 -9.033007919788360596e-02
-3.072886466979980469e-01 -8.844555169343948364e-02 -5.761817842721939087e-02
4.237870275974273682e-01 -8.021733723580837250e-03 -8.673131465911865234e-02
-5.194400548934936523e-01 7.213896512985229492e-02 -5.980242788791656494e-02
-1.461133360862731934e-01 -7.928143441677093506e-02 -9.246227145195007324e-02
2.680496871471405029e-01 -8.993266522884368896e-02 -5.295144394040107727e-03
-5.701913833618164062e-01 1.231982558965682983e-02 5.427783727645874023e-02
-2.928086519241333008e-01 -8.276153355836868286e-02 2.187172509729862213e-02
1.467684507369995117e-01 -9.694153815507888794e-02 -2.011006139218807220e-02
-6.523637771606445312e-01 5.572491139173507690e-02 6.669441238045692444e-03
1.848568320274353027e-01 -8.804959803819656372e-02 1.933089084923267365e-02
-6.922805309295654297e-01 5.832614004611968994e-02 -4.394069314002990723e-02
2.454943656921386719e-01 -6.896456331014633179e-02 -8.783490955829620361e-02
1.118714511394500732e-01 -9.556213021278381348e-02 1.802302896976470947e-03
-5.920337438583374023e-01 -6.535577774047851562e-02 -1.133419945836067200e-02
-6.370538473129272461e-01 6.516160815954208374e-02 -4.548339918255805969e-02
-2.901860475540161133e-01 5.482048261910676956e-03 7.880868762731552124e-02
4.191042482852935791e-01 2.421728335320949554e-02 2.890541963279247284e-02
-3.120890855789184570e-01 8.383527398109436035e-02 -3.543480485677719116e-02
-5.657811462879180908e-02 6.754882633686065674e-02 -8.271532505750656128e-02
-1.618416607379913330e-01 -4.195468872785568237e-02 7.517434656620025635e-02
2.576334178447723389e-01 -9.165701270103454590e-02 -1.785014942288398743e-02
-9.331733733415603638e-02 4.602782800793647766e-02 -1.126517355442047119e-01
-5.702024698257446289e-02 -9.228725731372833252e-02 -6.728576868772506714e-02
-1.188560575246810913e-02 3.782222047448158264e-02 -1.154823079705238342e-01
-3.965646028518676758e-01 -3.747962787747383118e-02 -1.207297444343566895e-01
1.540034711360931396e-01 6.959080696105957031e-02 -3.603031486272811890e-02
1.250012814998626709e-01 -9.735693037509918213e-02 -3.078382275998592377e-02
-5.556719899177551270e-01 -6.076990813016891479e-02 1.579553820192813873e-02
2.372305393218994141e-01 -8.691132068634033203e-02 1.504147239029407501e-02
-3.545466065406799316e-01 8.329201489686965942e-02 -2.628849260509014130e-02
8.962634205818176270e-02 -9.646101295948028564e-02 -2.714898437261581421e-04
3.930161893367767334e-01 2.901956997811794281e-02 2.969370596110820770e-02
5.328872799873352051e-02 9.737815707921981812e-03 7.979612797498703003e-02
-4.632153809070587158e-01 4.879583418369293213e-02 -1.052263006567955017e-01
-5.420368909835815430e-01 -3.702200204133987427e-02 4.636971652507781982e-02
-7.432989776134490967e-02 -2.306365780532360077e-02 8.314890414476394653e-02
1.243067681789398193e-01 -8.445803821086883545e-02 3.235287964344024658e-02
-2.282472699880599976e-02 3.337496146559715271e-02 7.121228426694869995e-02
5.730849504470825195e-01 -1.638014800846576691e-02 -3.454275801777839661e-02
1.173987686634063721e-01 6.071531772613525391e-02 -7.546225190162658691e-02
-3.654698729515075684e-01 8.168300241231918335e-02 -9.716926142573356628e-03
-1.879153549671173096e-01 -6.830688565969467163e-02 5.357853323221206665e-02
4.813902080059051514e-01 -6.177125126123428345e-02 6.912497803568840027e-03
-2.510400861501693726e-02 -8.141749538481235504e-03 8.430482447147369385e-02
2.199627757072448730e-01 2.483207918703556061e-02 -1.041567698121070862e-01
-5.716912746429443359e-01 -2.771987020969390869e-02 4.758311063051223755e-02
4.615315496921539307e-01 3.120201267302036285e-02 -2.659492194652557373e-02
-9.574133902788162231e-02 -4.072722513228654861e-03 8.441377431154251099e-02
1.364819109439849854e-01 1.641825959086418152e-02 -1.175661981105804443e-01
-3.066291809082031250e-01 -1.757455058395862579e-02 -1.322688311338424683e-01
5.559927225112915039e-01 -3.997817263007164001e-02 2.648007124662399292e-03
1.070963740348815918e-01 -5.131018161773681641e-02 6.948195397853851318e-02
-6.092863082885742188e-01 -3.902523964643478394e-02 -9.492988884449005127e-02
3.653790056705474854e-01 4.815152660012245178e-02 -2.303287386894226074e-02
-7.744022458791732788e-02 -4.226407036185264587e-04 -1.335630416870117188e-01
-6.045837402343750000e-01 5.734150856733322144e-02 -7.764714956283569336e-02
-1.338343024253845215e-01 5.485580116510391235e-02 -1.052189767360687256e-01
-3.215597271919250488e-01 1.972166635096073151e-02 -1.292089819908142090e-01
-4.298088848590850830e-01 -2.205037884414196014e-02 6.716265529394149780e-02
-3.535407036542892456e-02 4.464366659522056580e-02 -1.111639291048049927e-01
2.861518263816833496e-01 -8.977796882390975952e-02 -1.926414482295513153e-02
5.034805536270141602e-01 3.559156786650419235e-03 -5.941892415285110474e-02
1.898781657218933105e-01 -4.118998348712921143e-02 -1.139180213212966919e-01
-3.551805019378662109e-01 1.465574651956558228e-02 -1.296480447053909302e-01
-2.121914625167846680e-01 -9.038465470075607300e-02 1.204489730298519135e-02
-1.894083470106124878e-01 -9.867360815405845642e-03 8.302016556262969971e-02
1.714036762714385986e-01 1.273898780345916748e-02 7.252479344606399536e-02
3.662553727626800537e-01 -6.126968190073966980e-02 -7.798140496015548706e-02
4.444930851459503174e-01 1.720378361642360687e-02 2.991040237247943878e-02
-4.210050404071807861e-01 7.744774222373962402e-02 1.371409744024276733e-03
-2.784238457679748535e-01 8.434320241212844849e-02 -2.145811729133129120e-02
-5.347666740417480469e-01 7.214659452438354492e-02 -5.589994043111801147e-02
-9.771327674388885498e-02 -7.729637622833251953e-02 -9.615640342235565186e-02
4.056776463985443115e-01 3.868144005537033081e-02 -4.271247237920761108e-02
-4.223840832710266113e-01 4.478475078940391541e-02 5.389900505542755127e-02
-5.867164134979248047e-01 -5.861920863389968872e-02 1.111140660941600800e-02
2.958132028579711914e-01 -3.014664631336927414e-03 6.634686887264251709e-02
-2.931248843669891357e-01 -3.818451613187789917e-02 7.109370082616806030e-02
-3.692440688610076904e-02 5.248570349067449570e-03 -1.314530223608016968e-01
6.387472152709960938e-03 6.544027477502822876e-02 -8.093296736478805542e-02
-2.156377881765365601e-01 6.279704719781875610e-02 -9.704887866973876953e-02
-6.006574630737304688e-02 1.227368600666522980e-02 -1.305340677499771118e-01
4.151354730129241943e-02 -9.660384058952331543e-02 2.647465094923973083e-03
-4.717359542846679688e-01 -7.954297214746475220e-02 -4.350401833653450012e-02
-7.706720829010009766e-01 -2.835534326732158661e-02 -5.711091309785842896e-02
1.760630011558532715e-01 -5.158955603837966919e-02 6.608156859874725342e-02
7.086834311485290527e-02 -6.206974014639854431e-02 -1.088289320468902588e-01
-7.442936897277832031e-01 -3.632993996143341064e-02 -9.051835164427757263e-03
-7.351528108119964600e-02 -9.936871379613876343e-02 -2.521004527807235718e-02
3.022601306438446045e-01 3.911816328763961792e-02 3.642673790454864502e-02
-1.407906711101531982e-01 -6.162818521261215210e-02 -1.134345531463623047e-01
3.417337536811828613e-01 -6.878502666950225830e-02 -7.337453216314315796e-02
2.655873298645019531e-01 4.782747104763984680e-02 -7.097195088863372803e-02
1.827767491340637207e-02 -6.268690526485443115e-02 6.317006796598434448e-02
-2.536549568176269531e-01 -5.059982463717460632e-02 6.595863401889801025e-02
-3.783175349235534668e-02 7.950104027986526489e-02 -4.368206113576889038e-02
-1.065234541893005371e-01 -2.416748739778995514e-02 -1.328613609075546265e-01
1.875829994678497314e-01 4.101779684424400330e-02 5.123542249202728271e-02
-3.369020819664001465e-01 -6.430766731500625610e-02 -1.026850864291191101e-01
4.891404807567596436e-01 1.766104623675346375e-02 1.266808994114398956e-02
-3.023015856742858887e-01 -7.251557707786560059e-02 3.953049331903457642e-02
1.992859244346618652e-01 3.143053501844406128e-02 -1.017708778381347656e-01
-5.900728106498718262e-01 7.037014514207839966e-02 -4.142691195011138916e-02
-4.573596268892288208e-02 3.093828074634075165e-02 -1.218212395906448364e-01
-2.009459435939788818e-01 -4.726555198431015015e-02 7.080034911632537842e-02
-1.749204844236373901e-01 -9.721599519252777100e-02 -3.337251022458076477e-02
3.812640607357025146e-01 4.588716849684715271e-02 -1.885934174060821533e-02
-2.248953282833099365e-02 1.248781010508537292e-02 -1.290657520294189453e-01
-1.608833372592926025e-01 7.947953790426254272e-02 8.782243356108665466e-03
1.655285060405731201e-02 -9.927690774202346802e-02 -1.566676050424575806e-02
-2.682933807373046875e-01 -8.746462315320968628e-02 1.313977874815464020e-02
-6.234824657440185547e-01 6.238166987895965576e-02 3.971345722675323486e-05
-5.179928541183471680e-01 -6.927427649497985840e-02 7.334740832448005676e-03
5.214811563491821289e-01 -5.710987746715545654e-02 -1.031010784208774567e-02
4.437716305255889893e-02 4.848163202404975891e-02 -1.017928272485733032e-01
2.772490978240966797e-01 -5.870743468403816223e-02 -9.417031705379486084e-02
2.134073972702026367e-01 6.518976390361785889e-02 -1.221217121928930283e-02
-6.212657690048217773e-01 2.143447846174240112e-02 4.442245513200759888e-02
2.343970537185668945e-01 5.576848238706588745e-02 -6.194803863763809204e-02
-5.732655525207519531e-01 4.020052775740623474e-02 4.102706909179687500e-02
-5.947216749191284180e-01 -1.029546931385993958e-02 -1.123504042625427246e-01
1.017555296421051025e-01 2.287078648805618286e-02 -1.172944828867912292e-01
-3.942880034446716309e-01 -5.065455660223960876e-02 -1.118057146668434143e-01
-2.552129626274108887e-01 8.457233756780624390e-02 -2.868065051734447479e-02
-4.824067950248718262e-01 -5.550707876682281494e-02 -9.775658696889877319e-02
-9.363572299480438232e-02 6.347594410181045532e-02 -9.212318062782287598e-02
-6.672554016113281250e-01 -2.100684493780136108e-02 3.353294730186462402e-02
2.550245821475982666e-01 4.069241136312484741e-02 4.262050986289978027e-02
-7.854993641376495361e-02 -8.184405416250228882e-02 -8.932124823331832886e-02
2.566262185573577881e-01 5.960772931575775146e-02 -8.590612560510635376e-04
1.753111779689788818e-01 -7.380891591310501099e-02 4.573915153741836548e-02
3.311862349510192871e-01 -8.294823765754699707e-02 -4.525621980428695679e-02
3.715104162693023682e-01 1.440541818737983704e-02 4.859591275453567505e-02
-1.671902239322662354e-01 7.609517872333526611e-02 -7.069474458694458008e-02
-5.234984159469604492e-01 -1.208770461380481720e-02 5.981992185115814209e-02
5.071713924407958984e-01 2.069064788520336151e-02 -2.159264869987964630e-02
-5.786955356597900391e-02 6.443767994642257690e-02 3.961320966482162476e-02
1.593086719512939453e-01 2.453019376844167709e-03 7.655514776706695557e-02
-5.498975515365600586e-01 6.584285199642181396e-02 1.073263026773929596e-02
-3.537730276584625244e-01 3.792970255017280579e-02 -1.194276064634323120e-01
5.702921748161315918e-02 7.633505016565322876e-02 -3.243431448936462402e-02
-4.344471096992492676e-01 6.154152750968933105e-02 -9.242918342351913452e-02
-2.253806889057159424e-01 4.328440502285957336e-02 6.483253091573715210e-02
-2.242632806301116943e-01 -7.448067516088485718e-02 -9.668312221765518188e-02
-2.214400470256805420e-02 -6.317179650068283081e-02 -1.112529039382934570e-01
-6.858087778091430664e-01 5.962414294481277466e-02 -2.251668646931648254e-02
-2.117438614368438721e-01 -7.553277164697647095e-02 4.288308322429656982e-02
-3.829126954078674316e-01 -8.688583970069885254e-02 -4.016463458538055420e-02
7.788302004337310791e-02 1.112516969442367554e-02 -1.240726038813591003e-01
-1.088708937168121338e-01 1.665135286748409271e-02 8.041528612375259399e-02
3.451714813709259033e-01 4.476295784115791321e-02 -5.387480184435844421e-02
2.074040472507476807e-01 -4.004810377955436707e-02 -1.128543317317962646e-01
1.790681183338165283e-01 2.997384779155254364e-02 -1.053301841020584106e-01
-3.914861977100372314e-01 -7.713928073644638062e-02 1.875144056975841522e-02
3.413103818893432617e-01 -8.473467081785202026e-02 -9.449625387787818909e-03
3.523467481136322021e-01 -7.739030569791793823e-02 1.584307290613651276e-02
1.367427110671997070e-01 6.942417472600936890e-02 -4.543492570519447327e-02
-6.760801076889038086e-01 -1.712714135646820068e-02 -9.729136526584625244e-02
-1.953685432672500610e-01 7.993031293153762817e-02 8.042259141802787781e-03
-5.493321418762207031e-01 4.634922835975885391e-03 -1.185384169220924377e-01
4.929238259792327881e-01 -3.601460903882980347e-02 -6.779628992080688477e-02
4.752587378025054932e-01 -3.320886939764022827e-02 3.752661496400833130e-02
-6.981043815612792969e-01 6.136423908174037933e-04 3.339231759309768677e-02
7.495635747909545898e-02 5.864591151475906372e-02 3.954724967479705811e-02
3.378716111183166504e-02 1.132771000266075134e-02 -1.266939938068389893e-01
2.277326285839080811e-01 -5.458031967282295227e-02 6.061971932649612427e-02
-6.815942525863647461e-01 4.012494534254074097e-02 2.110558189451694489e-02
1.402029693126678467e-01 -4.041836783289909363e-02 -1.180862486362457275e-01
5.352590084075927734e-01 1.140219345688819885e-02 -2.595711499452590942e-02
-7.927806377410888672e-01 8.061068132519721985e-03 -7.230830937623977661e-02
-7.412117719650268555e-02 -6.574388593435287476e-02 -1.096603274345397949e-01
-3.874662518501281738e-01 8.241485804319381714e-02 -2.638953365385532379e-02
-2.202702462673187256e-01 6.179544329643249512e-02 4.586701840162277222e-02
-4.865951091051101685e-02 -6.022090092301368713e-02 6.536497920751571655e-02
-1.030063256621360779e-01 8.234035223722457886e-02 -3.761101514101028442e-02
-3.199595212936401367e-01 -2.894365414977073669e-02 -1.286964714527130127e-01
-2.142324298620223999e-01 -5.523218587040901184e-02 -1.174852997064590454e-01
-2.097350358963012695e-01 3.247554972767829895e-02 -1.247977018356323242e-01
-6.645815372467041016e-01 4.022239893674850464e-02 2.489751763641834259e-02
6.888945400714874268e-02 -9.329769015312194824e-02 -6.024684756994247437e-02
-5.333732962608337402e-01 6.355253607034683228e-02 1.859777607023715973e-02
-3.973238170146942139e-01 -1.465747598558664322e-02 -1.288589984178543091e-01
1.705502271652221680e-01 -3.062527813017368317e-02 -1.190812513232231140e-01
-1.928858757019042969e-01 -5.712676420807838440e-02 -1.164769381284713745e-01
-1.058094799518585205e-01 7.870322465896606445e-02 8.446218445897102356e-03
4.351212084293365479e-01 2.534502558410167694e-02 -5.937074124813079834e-02
-2.373787760734558105e-01 -2.988625504076480865e-02 7.749751210212707520e-02
3.807525336742401123e-01 3.786289319396018982e-02 -5.657134205102920532e-02
7.685334980487823486e-02 -2.998661063611507416e-02 7.964628934860229492e-02
1.276414990425109863e-01 -2.363612689077854156e-02 7.908018678426742554e-02
2.225685119628906250e-02 6.872309744358062744e-02 2.531458996236324310e-02
-1.302878260612487793e-01 -9.648253768682479858e-02 -4.847940430045127869e-02
-7.685887813568115234e-01 4.381157830357551575e-02 -2.150973491370677948e-02
3.286027610301971436e-01 -2.469277381896972656e-02 6.354878842830657959e-02
-5.176624059677124023e-01 3.633169829845428467e-02 -1.106653362512588501e-01
-3.212834596633911133e-01 -3.382772579789161682e-02 7.134041190147399902e-02
-8.243278414011001587e-02 7.023991644382476807e-02 3.003926388919353485e-02
-3.828365802764892578e-01 -8.360590040683746338e-02 1.906801015138626099e-03
-3.837798833847045898e-01 -8.678922802209854126e-02 -1.647287979722023010e-02
1.969738900661468506e-01 4.956158623099327087e-02 -8.173292875289916992e-02
1.642636954784393311e-02 7.501726597547531128e-02 -5.411815643310546875e-02
-6.228001415729522705e-02 7.256369292736053467e-02 2.360991947352886200e-02
-3.710801601409912109e-01 4.647272825241088867e-02 -1.124392375349998474e-01
-3.077989816665649414e-01 7.564040366560220718e-03 -1.325590163469314575e-01
-1.419959217309951782e-01 8.347637206315994263e-02 -3.420706465840339661e-02
-5.426665544509887695e-01 6.662011891603469849e-02 -7.072260230779647827e-02
-5.784817934036254883e-01 2.248259726911783218e-03 -1.155233532190322876e-01
-6.377001851797103882e-02 7.712897658348083496e-02 -5.919829010963439941e-02
3.965891897678375244e-01 -5.765112861990928650e-02 -7.568591088056564331e-02
5.506469011306762695e-01 -4.798880591988563538e-02 -1.189239416271448135e-02
2.822407782077789307e-01 -8.753315359354019165e-02 -4.371518641710281372e-02
-5.105886459350585938e-01 7.639266550540924072e-02 -4.015079885721206665e-02
-9.047345817089080811e-02 7.867978513240814209e-02 7.207026705145835876e-03
3.088715672492980957e-01 -4.269022494554519653e-02 -1.005604192614555359e-01
8.624418079853057861e-02 5.085258930921554565e-02 -9.498838335275650024e-02
4.240810573101043701e-01 7.261931430548429489e-03 4.302667081356048584e-02
-4.561915397644042969e-01 -2.116674371063709259e-02 6.489066034555435181e-02
-4.935540258884429932e-01 7.787527143955230713e-02 -2.789337188005447388e-02
4.916725456714630127e-01 -1.947122998535633087e-02 -7.176666706800460815e-02
-1.560496091842651367e-01 -6.832065992057323456e-03 -1.351433396339416504e-01
1.591231524944305420e-01 6.094393879175186157e-02 -6.733331829309463501e-02
1.066074371337890625e-01 7.371793687343597412e-02 -2.010626532137393951e-02
-3.361147344112396240e-01 -5.627846717834472656e-02 5.532962083816528320e-02
4.697025716304779053e-01 -6.751478463411331177e-02 -3.177065402269363403e-02
2.027459740638732910e-01 7.230984512716531754e-03 -1.148886829614639282e-01
-6.056905984878540039e-01 6.707633286714553833e-02 -9.311996400356292725e-03
-4.055283963680267334e-01 -5.932835116982460022e-02 4.488937556743621826e-02
2.125484645366668701e-01 -1.273117586970329285e-02 7.490592449903488159e-02
2.020961344242095947e-01 -8.480219542980194092e-02 -6.817944347858428955e-02
-6.367875337600708008e-01 2.282350882887840271e-02 -1.040221303701400757e-01
-9.392531961202621460e-02 -9.466420859098434448e-02 -5.892904847860336304e-02
2.528117597103118896e-01 5.451785400509834290e-02 -5.992189794778823853e-02
3.066776692867279053e-02 -5.540125444531440735e-02 6.873847544193267822e-02
-4.536807537078857422e-01 -7.117977738380432129e-02 -7.794469594955444336e-02
-7.357922792434692383e-01 -9.261219762265682220e-03 2.197097800672054291e-02
-3.033034205436706543e-01 8.212079107761383057e-02 -5.022988468408584595e-02
6.740662455558776855e-02 7.381465286016464233e-02 1.127002760767936707e-03
-5.233991146087646484e-01 1.451651751995086670e-02 5.951166898012161255e-02
-4.037082493305206299e-01 4.673434421420097351e-02 5.371289700269699097e-02
4.839827716350555420e-01 -6.538674235343933105e-02 -2.810193412005901337e-02
3.016823232173919678e-01 4.585922136902809143e-02 -6.555531173944473267e-02
-1.806829720735549927e-01 7.861112058162689209e-02 1.232129894196987152e-02
3.077528774738311768e-01 -2.822908759117126465e-02 -1.055448055267333984e-01
3.110523819923400879e-01 5.469658970832824707e-02 -3.160053491592407227e-02
-2.442026138305664062e-01 5.438349023461341858e-02 -1.074910163879394531e-01
-6.517713069915771484e-01 3.333412855863571167e-02 3.304997831583023071e-02
-7.356256246566772461e-03 -9.355212748050689697e-02 -6.311624497175216675e-02
-1.381807029247283936e-02 -9.754690527915954590e-02 -8.824802935123443604e-04
3.132363557815551758e-01 4.835686087608337402e-02 1.646289043128490448e-02
-5.900000929832458496e-01 6.536103785037994385e-02 -6.352440267801284790e-02
5.299076437950134277e-02 -3.488412871956825256e-02 -1.252390891313552856e-01
-6.235017776489257812e-01 6.759889423847198486e-02 -3.594382107257843018e-02
1.509214937686920166e-01 3.268033638596534729e-02 6.248507648706436157e-02
-4.762605428695678711e-01 -7.942615449428558350e-02 -1.834890805184841156e-02
3.469867110252380371e-01 4.916980862617492676e-02 -3.721405938267707825e-02
-2.818182110786437988e-01 -9.292732179164886475e-02 -3.760106116533279419e-02
-1.359495520591735840e-01 1.353297755122184753e-02 -1.320206373929977417e-01
3.639060556888580322e-01 -6.822166591882705688e-02 3.055869601666927338e-02
7.572323083877563477e-03 -9.699895977973937988e-02 -4.953658580780029297e-02
-2.198848128318786621e-02 7.678251713514328003e-02 -5.423939228057861328e-02
-2.733250260353088379e-01 -6.599755026400089264e-03 -1.342972815036773682e-01
-2.844371795654296875e-01 -6.775967031717300415e-02 -1.022024229168891907e-01
-3.749719262123107910e-01 8.113673329353332520e-02 -4.823187738656997681e-02
3.376986682415008545e-01 4.068181384354829788e-03 -9.866911172866821289e-02
-1.489780694246292114e-01 -5.084848031401634216e-03 8.392796665430068970e-02
-1.511376500129699707e-01 8.204322308301925659e-02 -4.761693626642227173e-02
3.171422183513641357e-01 -1.340473908931016922e-02 6.536563485860824585e-02
-6.866933107376098633e-01 2.650393731892108917e-02 -9.399785101413726807e-02
2.378327548503875732e-01 3.291942924261093140e-02 5.346802622079849243e-02
-4.303693473339080811e-01 7.799904793500900269e-02 -5.498984456062316895e-02
1.108143180608749390e-01 -7.886674255132675171e-02 -8.761935681104660034e-02
-5.893642306327819824e-01 -6.556148082017898560e-02 -5.127590149641036987e-02
-4.668359458446502686e-01 7.904642820358276367e-02 -3.688668087124824524e-02
-8.242805004119873047e-01 -9.954610839486122131e-03 -4.518409445881843567e-02
-4.092094600200653076e-01 -4.417539760470390320e-02 -1.156104281544685364e-01
7.015754282474517822e-02 3.534047864377498627e-04 8.131653815507888794e-02
-5.121049880981445312e-01 -5.783911794424057007e-02 -9.034293144941329956e-02
1.715285778045654297e-01 6.577973812818527222e-02 -4.941608756780624390e-02
-8.790211379528045654e-02 -3.166411072015762329e-02 8.083827048540115356e-02
-7.113224267959594727e-02 7.233118265867233276e-02 -7.377187162637710571e-02
2.599957585334777832e-01 -7.578872144222259521e-02 3.508398681879043579e-02
4.189633429050445557e-01 3.929989039897918701e-02 -2.772204205393791199e-02
-3.667750358581542969e-01 -8.824299275875091553e-02 -3.666776791214942932e-02
-2.915085107088088989e-02 6.070102006196975708e-02 -9.211087226867675781e-02
-5.831382274627685547e-01 1.626711152493953705e-02 -1.130868047475814819e-01
-2.473073303699493408e-01 -1.792564801871776581e-02 -1.336881965398788452e-01
-4.324118494987487793e-01 -6.443725526332855225e-02 -9.280516207218170166e-02
4.109866917133331299e-01 4.104553908109664917e-02 -1.462140306830406189e-02
1.253132224082946777e-01 4.014530405402183533e-02 -1.025698855519294739e-01
5.721397399902343750e-01 -3.744288906455039978e-02 -1.996230520308017731e-02
1.534088850021362305e-01 2.587768249213695526e-02 -1.109099909663200378e-01
-4.060538411140441895e-01 8.042833954095840454e-02 -4.686472564935684204e-02
-1.569494605064392090e-03 7.419963181018829346e-02 -6.034698337316513062e-02
2.841138839721679688e-01 2.210374921560287476e-02 5.646520853042602539e-02
-2.389341294765472412e-01 -7.489582896232604980e-02 4.179037362337112427e-02
2.658570110797882080e-01 -2.841952256858348846e-03 6.936842203140258789e-02
-5.531303882598876953e-01 4.622993245720863342e-02 3.865633904933929443e-02
-3.619265854358673096e-01 -2.077971771359443665e-02 -1.293561309576034546e-01
-8.111211061477661133e-01 1.365948095917701721e-02 -6.287168711423873901e-02
-6.411985158920288086e-01 -2.697581239044666290e-02 -9.848803281784057617e-02
-5.580080300569534302e-02 -6.960435956716537476e-02 -1.055201441049575806e-01
1.454783380031585693e-01 -6.784861534833908081e-02 5.443306267261505127e-02
2.378502488136291504e-01 4.707871004939079285e-02 -7.813292741775512695e-02
-4.945625960826873779e-01 -7.716582715511322021e-02 -4.545405879616737366e-02
-5.695626735687255859e-01 7.260715216398239136e-02 -2.626446634531021118e-02
-5.342663526535034180e-01 -4.516155272722244263e-02 -1.014087796211242676e-01
2.703295350074768066e-01 4.386000335216522217e-02 3.557723015546798706e-02
3.392045199871063232e-01 4.092841967940330505e-02 2.497875504195690155e-02
8.464393019676208496e-02 -6.629984825849533081e-02 5.848880857229232788e-02
2.059080004692077637e-01 3.820094838738441467e-02 5.212292820215225220e-02
-5.513824224472045898e-01 6.007308512926101685e-02 -8.213283121585845947e-02
-4.124655127525329590e-01 5.957124382257461548e-02 -9.660725295543670654e-02
-4.475027620792388916e-01 5.003334581851959229e-02 -1.051499992609024048e-01
-2.248440980911254883e-01 7.751148939132690430e-02 1.585522107779979706e-02
3.703444302082061768e-01 4.431261867284774780e-02 -4.350376129150390625e-02
5.057784318923950195e-01 -5.055307596921920776e-02 -5.157407373189926147e-02
3.576151430606842041e-01 -7.620283961296081543e-02 -5.661813169717788696e-02
4.516354501247406006e-01 -6.116846576333045959e-02 1.981633715331554413e-02
-9.846962988376617432e-03 7.398123294115066528e-02 1.478093676269054413e-02
-4.829623997211456299e-01 -1.337328925728797913e-03 6.543055921792984009e-02
-4.725870490074157715e-01 -3.652111440896987915e-02 -1.150997355580329895e-01
5.335905551910400391e-01 -4.501900449395179749e-02 -4.518031701445579529e-02
-7.050514221191406250e-01 -2.931882999837398529e-02 -8.234912902116775513e-02
-3.833932876586914062e-01 -7.433767616748809814e-02 -8.298783004283905029e-02
4.847712218761444092e-01 -1.695446670055389404e-03 3.325078636407852173e-02
-3.995956480503082275e-01 7.701579481363296509e-02 -6.291726976633071899e-02
-3.479794561862945557e-01 7.150936126708984375e-02 2.499631978571414948e-02
-2.768656611442565918e-01 4.481550306081771851e-02 -1.161774620413780212e-01
-4.035365581512451172e-02 -4.727971181273460388e-02 7.429170608520507812e-02
8.561196923255920410e-02 7.493093609809875488e-02 -1.717359758913516998e-02
3.474698364734649658e-01 -8.363444358110427856e-02 -3.422359377145767212e-02
3.849263489246368408e-01 -7.980601489543914795e-02 -5.778077989816665649e-03
2.240188717842102051e-01 5.152725800871849060e-02 -7.338282465934753418e-02
-3.919216692447662354e-01 2.145715616643428802e-02 6.926157325506210327e-02
-2.582297325134277344e-01 7.099287211894989014e-02 -8.379764854907989502e-02
4.571990668773651123e-01 -3.503764048218727112e-03 -7.770767062902450562e-02
-1.866339445114135742e-01 8.435818552970886230e-02 -2.376433089375495911e-02
-5.988566875457763672e-01 -4.327185451984405518e-02 3.066063486039638519e-02
-5.169637501239776611e-03 -3.804022073745727539e-02 -1.264050900936126709e-01
3.706588745117187500e-01 -3.218944743275642395e-02 -9.551863372325897217e-02
-1.231984943151473999e-01 -9.638237953186035156e-02 -1.137780025601387024e-03
-5.778058171272277832e-01 -6.871538609266281128e-02 -3.983137011528015137e-02
-4.039397090673446655e-02 1.201619952917098999e-02 8.142907917499542236e-02
4.746792018413543701e-01 2.816763706505298615e-02 -8.443269878625869751e-03
6.813791394233703613e-02 -4.544607922434806824e-02 7.398517429828643799e-02
3.922501504421234131e-01 1.693608798086643219e-02 -8.093710988759994507e-02
-4.724324494600296021e-02 -8.501680940389633179e-02 -8.371436595916748047e-02
-6.583610773086547852e-01 -1.908394508063793182e-03 4.120548069477081299e-02
-1.740508079528808594e-01 -2.345280162990093231e-02 -1.333454847335815430e-01
1.241363584995269775e-01 4.483595490455627441e-02 5.344651639461517334e-02
5.141285061836242676e-02 -8.723122626543045044e-02 -7.664090394973754883e-02
-7.895519733428955078e-01 -1.685576513409614563e-02 -6.325978040695190430e-02
5.317169427871704102e-01 9.627500548958778381e-05 -4.994641616940498352e-02
-2.421791404485702515e-01 7.721019536256790161e-02 -6.953173875808715820e-02
-6.969970464706420898e-01 -5.085167288780212402e-02 -2.994348667562007904e-02
-2.621465623378753662e-01 -7.291047275066375732e-02 -9.681165218353271484e-02
-4.593033492565155029e-01 6.414160877466201782e-02 -8.638111501932144165e-02
5.037292838096618652e-02 5.183945875614881516e-03 -1.274167448282241821e-01
5.531814694404602051e-02 -2.815071865916252136e-02 8.070252835750579834e-02
-5.387865304946899414e-01 -6.812549382448196411e-02 -6.428041309118270874e-02
2.375029325485229492e-01 2.181218191981315613e-02 -1.039333939552307129e-01
-4.440582692623138428e-01 -3.400810807943344116e-02 -1.190455779433250427e-01
-4.687177836894989014e-01 -4.851425439119338989e-02 -1.065861210227012634e-01
4.585263431072235107e-01 6.828359793871641159e-03 3.520079702138900757e-02
-1.837472915649414062e-01 3.140647336840629578e-02 -1.252236217260360718e-01
9.284579753875732422e-02 7.120480388402938843e-02 -5.147525668144226074e-02
2.440708875656127930e-01 6.131170690059661865e-02 -3.801767155528068542e-02
2.853448390960693359e-01 4.802010208368301392e-02 2.507248707115650177e-02
-5.760439634323120117e-01 5.310495942831039429e-02 -8.869942277669906616e-02
-3.520624339580535889e-01 9.186292067170143127e-03 7.499171793460845947e-02
3.574653565883636475e-01 -8.373097330331802368e-02 -1.888492330908775330e-02
-7.220046520233154297e-01 4.207764565944671631e-02 7.440241053700447083e-03
-3.508332371711730957e-01 4.949353262782096863e-02 -1.105080172419548035e-01
3.420342504978179932e-02 5.683516710996627808e-02 4.573377221822738647e-02
1.026009619235992432e-01 5.703125894069671631e-02 -8.423335105180740356e-02
3.007173538208007812e-02 -8.133117109537124634e-03 8.334480971097946167e-02
-3.692612051963806152e-02 2.663316763937473297e-02 7.549206912517547607e-02
-3.499433398246765137e-01 8.270908892154693604e-02 -4.100141301751136780e-02
-7.139158248901367188e-02 3.667676076292991638e-02 -1.191920712590217590e-01
-2.212240546941757202e-01 2.394684962928295135e-02 7.623752206563949585e-02
1.360352039337158203e-01 3.036971576511859894e-02 6.537292152643203735e-02
-7.922548800706863403e-02 5.531254410743713379e-02 5.315599590539932251e-02
-4.693973064422607422e-01 -6.776182353496551514e-02 -8.178032189607620239e-02
-7.176539897918701172e-01 -4.661749582737684250e-03 2.809358201920986176e-02
-4.795801639556884766e-02 -2.873895689845085144e-03 8.425254374742507935e-02
2.589586675167083740e-01 -8.498595654964447021e-02 -5.830164253711700439e-02
-5.965863466262817383e-01 -5.225877836346626282e-02 -8.166357874870300293e-02
8.947807550430297852e-02 3.023863770067691803e-02 6.852629780769348145e-02
-1.583534032106399536e-01 -2.825365960597991943e-02 8.069554716348648071e-02
3.435794711112976074e-01 -1.562531292438507080e-02 6.230635941028594971e-02
3.933553397655487061e-02 7.761774957180023193e-02 -2.379999868571758270e-02
3.709338009357452393e-01 2.921544946730136871e-02 3.493922203779220581e-02
8.620220422744750977e-02 -6.564785540103912354e-02 -1.048036441206932068e-01
1.676080524921417236e-01 -6.462877988815307617e-02 -1.001953259110450745e-01
2.158695161342620850e-01 -1.713647693395614624e-02 -1.170915216207504272e-01
-6.649094820022583008e-02 -7.688737660646438599e-02 4.732240736484527588e-02
-4.717296957969665527e-01 5.819962918758392334e-02 3.540062159299850464e-02
-2.379285395145416260e-01 2.358064055442810059e-02 7.593509554862976074e-02
-5.114930868148803711e-01 6.104430556297302246e-02 2.631157450377941132e-02
-6.465940475463867188e-01 5.613899230957031250e-02 -7.033636420965194702e-02
-2.742277383804321289e-01 1.017430052161216736e-02 -1.327908635139465332e-01
6.252833008766174316e-01 -7.387478649616241455e-02 -2.716292068362236023e-02
6.559154987335205078e-01 -7.168333977460861206e-02 2.257522195577621460e-03
6.143808364868164062e-01 -8.431254327297210693e-02 1.796167343854904175e-04
6.350859403610229492e-01 -8.188382536172866821e-02 9.063703939318656921e-03
6.089367866516113281e-01 -5.934177339076995850e-02 -3.546428307890892029e-02
6.398178339004516602e-01 -7.609893381595611572e-02 -7.925692945718765259e-03
5.986289978027343750e-01 -6.873278319835662842e-02 -4.806450009346008301e-02
6.204114556312561035e-01 -7.783126085996627808e-02 1.702405139803886414e-02
6.383202075958251953e-01 -5.078057944774627686e-02 -4.871253669261932373e-02
6.247273683547973633e-01 -6.923523545265197754e-02 5.119914188981056213e-03
6.568853855133056641e-01 -5.941854789853096008e-02 -7.490391843020915985e-03
6.573320627212524414e-01 -5.561351031064987183e-02 -2.355686947703361511e-02
6.142424941062927246e-01 -6.448195874691009521e-02 -1.404798589646816254e-02
6.431641578674316406e-01 -6.306201219558715820e-02 8.195862174034118652e-04
5.932237505912780762e-01 -6.763029843568801880e-02 -3.423783928155899048e-02
6.282519698143005371e-01 -5.844067037105560303e-02 -1.937090605497360229e-02
6.390941739082336426e-01 -6.835675984621047974e-02 -2.959102392196655273e-02
5.399938821792602539e-01 -7.602702826261520386e-02 -2.722140401601791382e-02
5.756381154060363770e-01 3.329893201589584351e-02 -4.071308299899101257e-03
2.230525910854339600e-01 7.443391531705856323e-02 1.119077950716018677e-02
1.141133308410644531e-01 3.520178794860839844e-02 -4.947812110185623169e-02
6.748857498168945312e-01 -3.930928558111190796e-02 1.342619024217128754e-02
-5.224567651748657227e-01 6.880228221416473389e-02 -3.365185111761093140e-04
5.165512561798095703e-01 -5.537203699350357056e-02 2.645657956600189209e-02
2.766578793525695801e-01 6.605647504329681396e-02 3.514146432280540466e-02
7.647369056940078735e-02 -8.548384159803390503e-02 -6.016241014003753662e-02
-6.706134676933288574e-01 5.037071555852890015e-02 1.092783175408840179e-02
-5.370010137557983398e-01 -7.224404811859130859e-02 -1.273428462445735931e-02
6.250900626182556152e-01 -6.070953607559204102e-02 3.382761497050523758e-03
-3.741974234580993652e-01 -4.416038095951080322e-02 3.676282241940498352e-02
1.576373279094696045e-01 -7.041811197996139526e-02 -6.592429429292678833e-02
-3.419060707092285156e-01 4.966787993907928467e-03 -6.508303433656692505e-02
3.528747856616973877e-01 3.166135400533676147e-02 -3.845787420868873596e-02
-5.508817434310913086e-01 -4.959329962730407715e-02 -5.504366010427474976e-02
6.595432013273239136e-02 -3.815314546227455139e-02 -7.320436090230941772e-02
-2.941333055496215820e-01 -8.835394680500030518e-02 -1.826374558731913567e-03
-6.155828833580017090e-01 2.336245588958263397e-02 -4.291246831417083740e-02
6.675693988800048828e-01 7.077665999531745911e-03 -1.084697991609573364e-02
-3.404411077499389648e-01 2.002709172666072845e-02 5.665468052029609680e-02
3.208433985710144043e-01 2.970293350517749786e-02 5.604065582156181335e-02
-1.531629860401153564e-01 7.881659269332885742e-02 -9.536825120449066162e-03
-1.904575675725936890e-01 -8.930483460426330566e-02 5.663400981575250626e-03
-2.795777916908264160e-01 -2.088497579097747803e-02 5.207501351833343506e-02
3.770320415496826172e-01 -8.038005232810974121e-02 1.441342011094093323e-02
-5.065211057662963867e-01 -4.489711672067642212e-02 -6.064067035913467407e-02
-1.826282888650894165e-01 4.682762175798416138e-02 5.836530402302742004e-02
5.253098011016845703e-01 -7.540077902376651764e-03 -4.326906427741050720e-02
7.122506946325302124e-02 1.676416024565696716e-02 -6.070354580879211426e-02
5.871132016181945801e-01 -2.326960116624832153e-02 -3.983341529965400696e-02
2.262203395366668701e-01 1.878105103969573975e-05 6.072768196463584900e-02
-5.772646665573120117e-01 -3.172364830970764160e-02 -5.717867612838745117e-02
1.364507377147674561e-01 4.217863827943801880e-02 -4.378506541252136230e-02
3.332595527172088623e-02 1.184195838868618011e-02 6.416607648134231567e-02
3.907921016216278076e-01 -8.622387051582336426e-02 4.583586473017930984e-03
4.527644068002700806e-02 2.373391576111316681e-02 -5.804804712533950806e-02
6.096495687961578369e-02 5.235584825277328491e-02 5.740461125969886780e-02
-7.745880484580993652e-01 -2.415588311851024628e-02 -1.867007464170455933e-02
5.947342514991760254e-01 -6.860041618347167969e-02 -2.245602570474147797e-02
-3.625043332576751709e-01 -9.022596478462219238e-02 -2.428207546472549438e-02
-2.779169678688049316e-01 -9.556147456169128418e-02 -2.570339851081371307e-02
-1.696710586547851562e-01 8.010806888341903687e-02 3.344686329364776611e-02
-5.162363052368164062e-01 -9.074109606444835663e-03 -6.100975722074508667e-02
2.258392870426177979e-01 -9.842443466186523438e-02 -6.274719722568988800e-03
-2.572062611579895020e-01 1.589939184486865997e-02 -6.295787543058395386e-02
1.672373712062835693e-01 5.241240561008453369e-02 5.466594547033309937e-02
-3.862438201904296875e-01 -1.056970190256834030e-02 -6.743896007537841797e-02
-7.461506724357604980e-01 -1.804454997181892395e-02 -3.506455942988395691e-02
-1.484127044677734375e-01 4.971136897802352905e-02 -4.427497088909149170e-02
1.183107197284698486e-01 -2.099359594285488129e-02 -7.062004506587982178e-02
-9.292378276586532593e-02 -8.318444341421127319e-02 -6.219037622213363647e-02
4.591289162635803223e-02 -9.609581530094146729e-02 -5.027377977967262268e-02
-3.721804320812225342e-01 -2.290543913841247559e-02 4.700123146176338196e-02
4.967584609985351562e-01 -3.015490435063838959e-02 4.143220558762550354e-02
4.055292308330535889e-01 -3.349453583359718323e-02 4.598624259233474731e-02
-1.440981179475784302e-01 6.214126944541931152e-02 -3.308337181806564331e-02
-2.704389989376068115e-01 -3.812279552221298218e-02 4.537510871887207031e-02
-3.471355885267257690e-02 -3.881856799125671387e-03 6.218220666050910950e-02
3.591870665550231934e-01 -2.249584533274173737e-03 5.582020804286003113e-02
7.182590663433074951e-02 -7.878522574901580811e-02 2.553157694637775421e-02
-5.012828111648559570e-01 5.895402282476425171e-02 3.483517840504646301e-02
3.418036103248596191e-01 -6.574392318725585938e-02 3.077189251780509949e-02
4.863649606704711914e-03 -1.009147763252258301e-01 -7.994513027369976044e-03
2.202644646167755127e-01 2.088024280965328217e-02 -5.331495776772499084e-02
-5.306592956185340881e-02 -3.546122461557388306e-02 5.258063599467277527e-02
5.312232971191406250e-01 -2.483491227030754089e-02 4.036969691514968872e-02
-7.090203762054443359e-01 2.729684300720691681e-02 -2.831646054983139038e-02
-5.487281084060668945e-02 7.660243660211563110e-02 -1.250890456140041351e-02
-1.672300249338150024e-01 -5.957022774964570999e-03 -7.077933102846145630e-02
2.319540083408355713e-02 -8.912772685289382935e-02 1.367954164743423462e-02
-4.140890836715698242e-01 5.394520610570907593e-02 4.570762068033218384e-02
6.958928704261779785e-01 -2.862178906798362732e-02 1.381073705852031708e-02
5.822477936744689941e-01 -5.541736632585525513e-02 1.853233389556407928e-02
-2.700007259845733643e-01 7.787965238094329834e-03 5.879889056086540222e-02
1.006831973791122437e-02 3.163643181324005127e-02 6.340726464986801147e-02
7.146517634391784668e-01 -2.141210809350013733e-02 -1.026855502277612686e-02
-6.006901264190673828e-01 1.763585954904556274e-02 3.828394412994384766e-02
-4.033795595169067383e-01 -8.638795465230941772e-03 -6.645882129669189453e-02
8.592370152473449707e-02 -7.285977154970169067e-02 3.088538348674774170e-02
6.600189954042434692e-03 -2.435502596199512482e-03 -6.895668804645538330e-02
-4.170892536640167236e-01 -5.351047962903976440e-02 2.754537761211395264e-02
2.558902204036712646e-01 3.692983090877532959e-02 -4.147802293300628662e-02
5.383327007293701172e-01 2.991603128612041473e-02 3.596721589565277100e-02
2.267398238182067871e-01 -1.009424775838851929e-01 -2.910143323242664337e-02
-2.542285323143005371e-01 1.534987613558769226e-02 5.990750715136528015e-02
-5.404442548751831055e-01 -4.230220615863800049e-02 2.431962639093399048e-02
1.354517787694931030e-01 -8.451164513826370239e-02 1.924030669033527374e-02
-5.735475569963455200e-03 7.497641444206237793e-02 4.145879298448562622e-02
-5.202327966690063477e-01 -7.483883947134017944e-02 -1.530072838068008423e-02
-7.614473700523376465e-01 -8.010452613234519958e-03 9.026594460010528564e-03
5.358221530914306641e-01 -7.861566543579101562e-02 -8.443921804428100586e-03
2.133944034576416016e-01 -1.012407019734382629e-01 -1.606424152851104736e-02
-2.640840411186218262e-01 -2.849686145782470703e-02 -7.277500629425048828e-02
-5.693315267562866211e-01 -4.481860995292663574e-02 1.911771111190319061e-02
4.970183968544006348e-01 2.444642223417758942e-02 4.404484480619430542e-02
5.704174637794494629e-01 4.120196215808391571e-03 3.997531160712242126e-02
5.753181874752044678e-02 8.195163309574127197e-02 1.776998862624168396e-02
5.942819714546203613e-01 -4.199974983930587769e-02 2.644243463873863220e-02
-2.136202454566955566e-01 4.496311396360397339e-02 -4.758304730057716370e-02
-1.410986036062240601e-01 1.550025120377540588e-02 -6.396400183439254761e-02
-1.959085762500762939e-01 1.635633595287799835e-02 6.165019795298576355e-02
-2.177751511335372925e-01 -2.181523479521274567e-02 -7.305154949426651001e-02
-4.458549916744232178e-01 7.264477759599685669e-02 2.382535114884376526e-02
4.635072350502014160e-01 -2.476548589766025543e-02 4.557464644312858582e-02
3.756074309349060059e-01 -1.067824289202690125e-02 5.386178568005561829e-02
-6.454785168170928955e-02 -5.769052356481552124e-02 -7.272132486104965210e-02
-6.377223134040832520e-01 2.130059339106082916e-02 3.391639515757560730e-02
-6.035166382789611816e-01 5.660536140203475952e-02 -1.278813183307647705e-02
-2.504156902432441711e-02 -1.001131236553192139e-01 -6.738499738276004791e-03
5.023913830518722534e-02 -3.182634338736534119e-02 5.480649694800376892e-02
-1.008648425340652466e-01 4.781330376863479614e-02 5.942089483141899109e-02
-3.221893683075904846e-02 8.018612116575241089e-02 3.343840315937995911e-02
-2.284991890192031860e-01 -4.650988429784774780e-02 4.268826916813850403e-02
