2.387025207281112671e-01 -1.499776542186737061e-02 4.178959876298904419e-03
1.635582000017166138e-01 -1.383256018161773682e-01 -4.322516173124313354e-02
1.855981498956680298e-01 -1.195869818329811096e-01 1.176097318530082703e-01
2.499434798955917358e-01 -1.503209918737411499e-01 2.051766403019428253e-02
1.072750091552734375e-01 -7.668027281761169434e-02 -4.069396108388900757e-02
3.601437211036682129e-01 -1.864106953144073486e-02 2.822253853082656860e-03
3.197171092033386230e-01 -1.277628242969512939e-01 -1.519159972667694092e-02
1.450949162244796753e-01 -1.136791855096817017e-01 -5.578400939702987671e-02
3.108274340629577637e-01 -1.025417670607566833e-01 -4.852773249149322510e-02
4.012231528759002686e-01 -4.866821318864822388e-02 -1.527811214327812195e-02
2.370194643735885620e-01 -4.601299762725830078e-03 6.867817044258117676e-02
1.829213052988052368e-01 -7.089336961507797241e-02 -5.320323258638381958e-02
1.229895427823066711e-01 -1.070623025298118591e-01 1.273516714572906494e-01
2.387551963329315186e-01 -1.032530441880226135e-01 1.245031803846359253e-01
6.728635728359222412e-02 -1.183334290981292725e-01 -3.816733509302139282e-02
2.073775827884674072e-01 -3.730777651071548462e-02 -2.828612178564071655e-02
4.339040815830230713e-01 -7.038949429988861084e-02 4.252587258815765381e-02
2.033168673515319824e-01 -1.491206586360931396e-01 6.665112823247909546e-02
7.745027542114257812e-02 -1.597913205623626709e-01 2.927745506167411804e-02
3.634188473224639893e-01 -6.495481729507446289e-02 -3.766973316669464111e-02
1.779851615428924561e-01 -1.241372004151344299e-01 -5.416920781135559082e-02
5.103686451911926270e-02 -1.563169509172439575e-01 3.364552929997444153e-02
2.861712276935577393e-01 -8.379203826189041138e-02 1.268778145313262939e-01
2.004946917295455933e-01 -8.727017045021057129e-02 1.371809244155883789e-01
3.566421866416931152e-01 -1.044208928942680359e-01 -2.819698303937911987e-02
6.099076569080352783e-02 -6.276150047779083252e-02 1.119600459933280945e-01
3.429800271987915039e-03 -8.674160391092300415e-02 8.953270316123962402e-02
3.514260649681091309e-01 -6.152279675006866455e-03 4.290341213345527649e-02
3.377556204795837402e-01 -1.037586703896522522e-01 9.233569353818893433e-02
-9.520351886749267578e-03 -8.757083863019943237e-02 2.345345914363861084e-02
2.827905118465423584e-01 -3.344438225030899048e-02 -2.946885675191879272e-02
3.156607747077941895e-01 -7.088568061590194702e-02 1.244727447628974915e-01
2.556475400924682617e-01 -3.737045824527740479e-02 -3.346730023622512817e-02
1.024874076247215271e-01 -3.067921474575996399e-02 3.215266391634941101e-02
1.437725871801376343e-01 -5.205733329057693481e-02 1.319106221199035645e-01
2.394893765449523926e-02 -7.375161349773406982e-02 9.762832522392272949e-02
1.260493099689483643e-01 -1.618817448616027832e-01 2.500585094094276428e-02
2.885294258594512939e-01 -1.316975355148315430e-01 -2.690158784389495850e-02
4.246132373809814453e-01 -2.839868143200874329e-02 4.392878338694572449e-02
1.047045513987541199e-01 -1.187530830502510071e-01 1.178799495100975037e-01
1.375893950462341309e-01 -1.590231806039810181e-01 -3.419004380702972412e-03
1.831769496202468872e-01 -1.587962508201599121e-01 9.313862770795822144e-03
1.802103370428085327e-01 -8.414723724126815796e-02 1.385955810546875000e-01
3.115967810153961182e-01 -1.092360913753509521e-01 9.800718724727630615e-02
6.144309043884277344e-02 -1.472592204809188843e-01 7.442552596330642700e-02
2.365826666355133057e-01 -2.244528010487556458e-02 1.181443557143211365e-01
2.704875469207763672e-01 -8.005745708942413330e-03 1.866130903363227844e-02
1.151581853628158569e-01 -3.553257882595062256e-02 6.472460925579071045e-03
3.895500302314758301e-01 -1.057651713490486145e-01 1.144291460514068604e-02
3.374199569225311279e-01 -8.602256327867507935e-02 1.096246242523193359e-01
3.675511479377746582e-02 -1.307378709316253662e-01 9.184806048870086670e-02
2.504890859127044678e-01 -1.317447572946548462e-01 8.857446908950805664e-02
4.236651957035064697e-01 -5.046046525239944458e-02 7.323688268661499023e-02
1.229782029986381531e-01 -1.453723013401031494e-01 8.667264133691787720e-02
9.382799267768859863e-03 -1.324987262487411499e-01 7.548618316650390625e-02
1.620978116989135742e-03 -1.276795715093612671e-01 -5.035959184169769287e-04
1.881960928440093994e-01 -1.553860008716583252e-01 5.050106719136238098e-02
6.341208517551422119e-02 -1.081034466624259949e-01 1.171085685491561890e-01
2.009203135967254639e-01 -1.005128547549247742e-01 -6.136481463909149170e-02
3.510105609893798828e-01 -4.108917340636253357e-02 -2.868645638227462769e-02
2.715307474136352539e-01 -1.460924744606018066e-01 1.887924596667289734e-02
6.994585692882537842e-02 -8.561933040618896484e-02 1.238351985812187195e-01
5.636616051197052002e-02 -1.234845519065856934e-01 1.052642539143562317e-01
1.479727029800415039e-01 -1.067465990781784058e-01 1.288225054740905762e-01
9.058456867933273315e-02 -1.296533048152923584e-01 1.061833053827285767e-01
9.404138475656509399e-02 -3.806084766983985901e-02 9.813946485519409180e-02
2.127753496170043945e-01 -5.081196874380111694e-02 -4.307474195957183838e-02
3.327314555644989014e-02 -5.708748847246170044e-02 8.135953545570373535e-02
-1.797297596931457520e-02 -1.117411181330680847e-01 1.639634929597377777e-02
4.956679046154022217e-02 -4.579244926571846008e-02 5.277715995907783508e-02
1.559982299804687500e-01 -3.873508796095848083e-02 -1.771194487810134888e-02
2.837318480014801025e-01 -4.115486890077590942e-02 -6.216146051883697510e-02
1.682865619659423828e-01 1.263829972594976425e-02 1.472471095621585846e-02
3.245159983634948730e-01 1.262822095304727554e-02 -5.765835940837860107e-02
6.292890012264251709e-02 -2.497544512152671814e-02 -1.182038635015487671e-01
8.147586882114410400e-02 1.437030825763940811e-02 -1.254715025424957275e-01
2.711881697177886963e-01 -3.853403031826019287e-04 6.408532708883285522e-02
-4.352369904518127441e-02 -2.168389596045017242e-02 5.271323025226593018e-04
2.290100008249282837e-01 7.759782485663890839e-03 3.805542737245559692e-02
5.460783839225769043e-02 1.904673129320144653e-02 -5.926124006509780884e-02
1.188746169209480286e-01 1.648748666048049927e-02 -1.284085400402545929e-02
2.026028633117675781e-01 -5.074109509587287903e-02 7.947245612740516663e-03
1.303547471761703491e-01 -4.561298340559005737e-02 -3.858893364667892456e-02
4.120235443115234375e-01 -3.425718471407890320e-02 -4.270567744970321655e-02
1.144401580095291138e-01 -4.615112021565437317e-02 1.809492893517017365e-02
2.053077369928359985e-01 -2.167818695306777954e-02 -1.234262064099311829e-01
3.058636486530303955e-01 -5.519852973520755768e-03 -1.136706098914146423e-01
3.872143328189849854e-01 -4.376298189163208008e-02 7.543655484914779663e-02
4.376064240932464600e-01 -3.982241079211235046e-02 6.866170465946197510e-02
3.578849136829376221e-01 -4.839506372809410095e-02 2.768175676465034485e-03
1.570084393024444580e-01 -4.523646458983421326e-02 -4.802227765321731567e-02
3.955892920494079590e-01 -4.684695228934288025e-02 1.534523628652095795e-02
1.082365512847900391e-01 2.072421088814735413e-02 -6.204480677843093872e-02
-3.213062882423400879e-03 1.150667015463113785e-02 -3.021668270230293274e-02
1.808243244886398315e-01 -2.949632331728935242e-02 -1.102814823389053345e-01
3.368837833404541016e-01 7.023437879979610443e-03 2.700648643076419830e-02
1.232492178678512573e-01 -3.331004828214645386e-02 -9.997410327196121216e-02
2.254241406917572021e-01 1.566189154982566833e-02 -9.840795397758483887e-02
1.163382008671760559e-01 -3.958401829004287720e-02 5.611877888441085815e-02
4.582951962947845459e-02 -3.191367909312248230e-02 -9.350708127021789551e-02
-6.161968410015106201e-02 7.729587145149707794e-03 -9.565515071153640747e-02
3.654500246047973633e-01 -3.423874452710151672e-02 -6.253836303949356079e-02
2.831317782402038574e-01 -4.116094484925270081e-02 8.950732648372650146e-02
3.467221260070800781e-01 1.978746615350246429e-03 4.776998609304428101e-02
1.577602028846740723e-01 1.860746741294860840e-02 -2.378192543983459473e-02
5.129204690456390381e-02 -4.184129089117050171e-02 -1.369651220738887787e-02
7.620722055435180664e-02 -4.350325837731361389e-02 8.105499669909477234e-03
2.852860093116760254e-02 1.779282838106155396e-02 -6.174725294113159180e-02
2.479702979326248169e-01 1.761659979820251465e-02 -2.792133577167987823e-02
2.584552466869354248e-01 -4.079214110970497131e-02 -6.786436587572097778e-02
3.284536600112915039e-01 8.557542227208614349e-03 -8.136397600173950195e-02
2.230082899332046509e-01 -1.824325509369373322e-02 9.200077503919601440e-02
2.234083414077758789e-01 -3.712873533368110657e-02 -8.529633283615112305e-02
3.543497025966644287e-01 -4.833228141069412231e-02 5.967973917722702026e-02
3.795045316219329834e-01 -4.790537059307098389e-02 5.184251070022583008e-02
4.120926558971405029e-02 1.184371393173933029e-02 -1.297254711389541626e-01
3.758636713027954102e-01 2.530562691390514374e-03 3.614322841167449951e-02
3.325470685958862305e-01 -4.837423935532569885e-02 6.412385404109954834e-02
8.155789226293563843e-02 2.003021910786628723e-02 -5.890566110610961914e-02
4.213883876800537109e-01 -4.381646960973739624e-02 8.776588365435600281e-03
6.320014595985412598e-02 -4.308898001909255981e-03 -1.455329358577728271e-01
8.247310668230056763e-02 1.979453489184379578e-02 -9.168689697980880737e-02
2.493468225002288818e-01 -2.558818086981773376e-04 6.382237374782562256e-02
1.142005622386932373e-02 1.004142593592405319e-02 -1.289293766021728516e-01
3.615003824234008789e-01 -4.462787136435508728e-02 -2.382440119981765747e-02
1.968617290258407593e-01 -2.357754856348037720e-03 6.584377586841583252e-02
2.329001873731613159e-01 -5.037154629826545715e-02 -9.768424555659294128e-03
2.187468558549880981e-01 -4.861271753907203674e-02 5.358403921127319336e-02
1.753024011850357056e-01 -4.858716577291488647e-02 3.676186501979827881e-02
2.798769772052764893e-01 -3.304155915975570679e-02 -8.885604143142700195e-02
-1.346251368522644043e-02 7.489177398383617401e-03 -1.277150511741638184e-01
3.135528564453125000e-01 -4.109627008438110352e-02 9.063470363616943359e-02
3.900067806243896484e-01 5.671008490025997162e-03 5.190342664718627930e-03
-2.815839648246765137e-02 1.643467694520950317e-04 -3.294516354799270630e-03
1.245972216129302979e-01 1.160087157040834427e-02 1.348708383738994598e-02
2.699274718761444092e-01 -2.060761675238609314e-02 -1.145156025886535645e-01
2.236195951700210571e-01 -3.725479356944561005e-03 7.103584706783294678e-02
1.677779853343963623e-02 -3.775400668382644653e-02 -3.758984804153442383e-02
2.065883427858352661e-01 1.069839019328355789e-02 -1.214147210121154785e-01
3.807150125503540039e-01 7.739904336631298065e-03 -3.418814390897750854e-02
3.358072936534881592e-01 -4.501683637499809265e-02 -3.130475431680679321e-02
9.159093350172042847e-02 -4.209700971841812134e-02 -5.338056385517120361e-02
2.586970627307891846e-01 -4.230242222547531128e-02 8.493564277887344360e-02
2.591114044189453125e-01 1.385324168950319290e-02 5.251877009868621826e-03
2.406925857067108154e-01 -5.007780343294143677e-02 4.778440296649932861e-02
3.532488644123077393e-01 -3.555816039443016052e-02 9.693563729524612427e-02
2.468793243169784546e-01 1.511065941303968430e-02 -9.272429347038269043e-02
8.192211389541625977e-03 -2.035856992006301880e-02 3.502949327230453491e-02
4.426499009132385254e-01 -3.964518755674362183e-02 -1.213161274790763855e-03
2.976737320423126221e-01 1.426773425191640854e-02 -1.210827007889747620e-02
3.194988965988159180e-01 -3.542572259902954102e-02 -7.335326820611953735e-02
9.237584471702575684e-02 -6.810643710196018219e-03 5.551320314407348633e-02
-1.418247818946838379e-03 -2.901395782828330994e-02 -8.877727389335632324e-02
3.368096351623535156e-01 -1.317035499960184097e-02 8.824042975902557373e-02
4.049259424209594727e-02 1.549292076379060745e-02 -3.110329434275627136e-02
1.171093508601188660e-01 -4.307014495134353638e-02 -5.464662611484527588e-02
2.874877452850341797e-01 1.589996367692947388e-02 -2.981311455368995667e-02
5.998830497264862061e-02 9.473954327404499054e-03 6.101321429014205933e-03
1.753788590431213379e-01 -4.691179096698760986e-02 -3.827115148305892944e-02
1.443902850151062012e-01 -6.950317882001399994e-03 6.715780496597290039e-02
-2.135679125785827637e-03 1.595476269721984863e-02 -7.035514712333679199e-02
2.943859100341796875e-01 -5.120533332228660583e-02 1.095585711300373077e-02
1.924589425325393677e-01 -4.978997632861137390e-02 -1.088438276201486588e-02
3.974750638008117676e-01 -4.443297162652015686e-02 -6.106486544013023376e-03
4.175698161125183105e-01 -4.480177909135818481e-02 5.374427884817123413e-02
3.656172752380371094e-01 -2.565816603600978851e-02 -8.082810044288635254e-02
1.180604845285415649e-01 -1.239663921296596527e-02 -1.411594003438949585e-01
-2.082605659961700439e-02 -2.307113632559776306e-02 -1.024637371301651001e-01
2.947278618812561035e-01 -5.011972039937973022e-02 5.365110188722610474e-02
3.763417899608612061e-01 -1.450477167963981628e-03 -8.119279146194458008e-02
1.518343091011047363e-01 2.006049826741218567e-02 -8.783767372369766235e-02
-6.929977238178253174e-02 -1.051273941993713379e-02 -1.073112040758132935e-01
1.316512972116470337e-01 -4.753844439983367920e-02 -1.383806206285953522e-02
-3.007778525352478027e-02 -2.754471451044082642e-02 -7.852100580930709839e-02
3.249267935752868652e-01 3.998924978077411652e-03 4.435186088085174561e-02
3.866680860519409180e-01 -1.049560774117708206e-02 7.616034895181655884e-02
3.790368735790252686e-01 -4.107274115085601807e-02 -3.387911990284919739e-02
1.475349962711334229e-01 -4.138983413577079773e-02 6.256973743438720703e-02
4.359913468360900879e-01 -2.028826624155044556e-03 2.257897891104221344e-02
3.260870277881622314e-01 -5.088337138295173645e-02 2.523887343704700470e-02
-8.567728102207183838e-02 -6.168215535581111908e-03 -3.839618340134620667e-02
3.012424707412719727e-01 1.262333523482084274e-02 -7.780266553163528442e-02
2.652434110641479492e-01 1.614164188504219055e-02 -1.661387458443641663e-02
2.971225380897521973e-01 1.545943599194288254e-02 -4.773087799549102783e-02
2.512064576148986816e-01 -4.517402872443199158e-02 -4.884126037359237671e-02
2.276558279991149902e-01 1.277858298271894455e-02 1.535634510219097137e-02
1.623690128326416016e-01 -5.815364420413970947e-05 5.642456561326980591e-02
1.632014364004135132e-01 2.078361809253692627e-02 -6.037879735231399536e-02
3.400568068027496338e-01 1.189346332103013992e-02 -4.466709494590759277e-02
3.002593815326690674e-01 -5.136555060744285583e-02 3.290911763906478882e-02
1.382086873054504395e-01 2.042593434453010559e-02 -4.730639606714248657e-02
-6.250871717929840088e-02 7.027612067759037018e-03 -5.773671716451644897e-02
1.579688191413879395e-01 -4.887465760111808777e-02 -8.952551521360874176e-03
1.218122243881225586e-02 -3.335681930184364319e-02 1.642477698624134064e-02
3.438913822174072266e-01 1.042068284004926682e-02 -1.702120527625083923e-03
3.153793811798095703e-01 -1.064770296216011047e-02 8.540670573711395264e-02
2.481301277875900269e-01 1.829465478658676147e-02 -5.367165803909301758e-02
4.362063705921173096e-01 -6.365071050822734833e-03 -4.912947863340377808e-02
4.668590426445007324e-01 -2.965979650616645813e-02 -1.911055669188499451e-02
2.869856953620910645e-01 1.121284347027540207e-02 1.652553491294384003e-02
2.977111339569091797e-01 -2.264473214745521545e-02 9.952060878276824951e-02
7.034993171691894531e-02 -3.670115768909454346e-02 -7.895773649215698242e-02
9.241028130054473877e-02 -8.721657097339630127e-03 -1.442894935607910156e-01
2.535593509674072266e-02 -6.678693927824497223e-03 3.402549773454666138e-02
2.408034354448318481e-01 -3.109708800911903381e-02 -1.003173738718032837e-01
3.142582774162292480e-01 1.400370988994836807e-02 -2.394782006740570068e-02
4.404022991657257080e-01 -1.238341070711612701e-02 6.321124732494354248e-02
2.718774080276489258e-01 5.515648983418941498e-03 -1.139345467090606689e-01
5.529402196407318115e-02 -3.582491725683212280e-02 3.750386089086532593e-02
4.158674180507659912e-01 -4.893264733254909515e-03 5.099919438362121582e-02
2.605781555175781250e-01 -1.572626084089279175e-02 9.252829849720001221e-02
1.712055504322052002e-02 -2.166829816997051239e-02 -1.183144375681877136e-01
1.331189572811126709e-01 7.868605665862560272e-03 -1.380171328783035278e-01
3.984938561916351318e-01 -2.456662431359291077e-02 -6.942122429609298706e-02
1.783992797136306763e-01 -5.001186579465866089e-02 9.855410084128379822e-03
2.316612750291824341e-01 1.868783310055732727e-02 -6.758738309144973755e-02
3.087406456470489502e-01 -4.454791545867919922e-02 -4.158186167478561401e-02
2.710977792739868164e-01 1.627798750996589661e-02 -6.885097175836563110e-02
3.596877455711364746e-01 1.025338564068078995e-02 -3.179739415645599365e-02
9.171539545059204102e-02 -3.881014510989189148e-02 -7.365631312131881714e-02
1.873637437820434570e-01 1.159747131168842316e-03 -1.380580365657806396e-01
1.799877583980560303e-01 1.939339935779571533e-02 -8.746233582496643066e-02
3.878445923328399658e-02 1.758680492639541626e-02 -1.020269691944122314e-01
2.324409782886505127e-01 -3.799565136432647705e-02 8.946766704320907593e-02
-7.654651999473571777e-03 -3.489686176180839539e-02 -2.760511264204978943e-02
4.604017734527587891e-01 -9.710634127259254456e-03 4.181115329265594482e-02
3.047572076320648193e-02 -3.404080495238304138e-02 -7.887196540832519531e-02
1.899156272411346436e-01 1.127503532916307449e-02 2.249622903764247894e-02
6.757915019989013672e-02 -9.585058316588401794e-03 5.232179164886474609e-02
1.967357099056243896e-02 1.465227734297513962e-02 -3.612754121422767639e-02
9.879469871520996094e-02 -3.227135166525840759e-02 -1.014315634965896606e-01
7.983742654323577881e-02 -3.084507398307323456e-02 5.875346064567565918e-02
2.086006551980972290e-01 7.747991941869258881e-03 3.765498846769332886e-02
2.520908713340759277e-01 7.258838973939418793e-03 3.956294804811477661e-02
4.504112601280212402e-01 -4.135483503341674805e-02 2.558711729943752289e-02
1.504720896482467651e-01 1.220200862735509872e-02 -1.278246641159057617e-01
4.102840423583984375e-01 1.807500608265399933e-03 1.972034387290477753e-02
3.146441280841827393e-02 -2.789425104856491089e-02 4.098588228225708008e-02
1.207023933529853821e-01 -3.452455624938011169e-03 5.635397136211395264e-02
2.154838591814041138e-01 -4.413207247853279114e-02 7.309558987617492676e-02
2.155103832483291626e-01 -4.673700407147407532e-02 -4.195973277091979980e-02
1.400887817144393921e-01 -2.831556275486946106e-02 7.967926561832427979e-02
4.745069146156311035e-01 -3.162383288145065308e-02 6.270754337310791016e-02
1.585797667503356934e-01 -4.079846292734146118e-02 -7.299267500638961792e-02
-1.292367279529571533e-02 1.459585782140493393e-02 -9.607894718647003174e-02
1.664434671401977539e-01 1.737584546208381653e-02 -1.061350852251052856e-01
1.532709151506423950e-01 -4.876887425780296326e-02 1.623395271599292755e-02
2.872441709041595459e-01 -4.758736118674278259e-02 -2.882264927029609680e-02
4.384522140026092529e-01 -3.533747419714927673e-02 -2.390071004629135132e-02
2.084300816059112549e-01 1.981726661324501038e-02 -5.339132249355316162e-02
2.032953202724456787e-01 -3.290848806500434875e-02 9.033326804637908936e-02
2.872431278228759766e-02 -3.949433565139770508e-02 -1.787092164158821106e-02
2.241432666778564453e-03 -2.461655065417289734e-03 1.752048172056674957e-02
1.159057244658470154e-01 1.948168873786926270e-02 -3.808868676424026489e-02
1.659288704395294189e-01 6.770997308194637299e-03 3.765583783388137817e-02
4.116248488426208496e-01 3.872488625347614288e-03 -2.108871191740036011e-02
2.083569765090942383e-02 7.884955964982509613e-03 -2.337940037250518799e-03
4.478993415832519531e-01 -2.448182180523872375e-02 -4.303718358278274536e-02
6.386989355087280273e-02 -4.167852550745010376e-02 -4.173184931278228760e-02
-9.100742638111114502e-02 -4.219357855618000031e-03 -9.079694747924804688e-02
8.557434380054473877e-02 1.826203241944313049e-02 -3.448677808046340942e-02
2.617642879486083984e-01 -4.948865249752998352e-02 5.654108524322509766e-02
-2.066151797771453857e-02 -3.273826837539672852e-02 -4.293343424797058105e-02
2.087078243494033813e-01 1.755807921290397644e-02 -1.591053605079650879e-02
4.790971875190734863e-01 -3.525286540389060974e-02 2.143230848014354706e-02
2.514191865921020508e-01 -2.572010271251201630e-03 -1.274908035993576050e-01
9.005190432071685791e-02 6.015929393470287323e-03 2.628009580075740814e-02
2.237679362297058105e-01 -5.121974274516105652e-02 2.104759030044078827e-02
3.090638518333435059e-01 -8.655795454978942871e-02 -1.573727428913116455e-01
1.336249113082885742e-01 -6.325584650039672852e-02 -3.496116995811462402e-01
4.580977559089660645e-01 -9.170169383287429810e-02 1.494742482900619507e-01
1.790816038846969604e-01 -9.213281422853469849e-02 -2.141118198633193970e-01
-7.355430722236633301e-02 -8.480519056320190430e-02 -2.370033711194992065e-01
1.854424774646759033e-01 -1.072520911693572998e-01 1.226283758878707886e-01
4.714645743370056152e-01 -4.412532597780227661e-02 2.590245604515075684e-01
5.256949663162231445e-01 -4.414078593254089355e-02 2.421837300062179565e-01
1.319644153118133545e-01 -4.062904790043830872e-02 -1.837559975683689117e-02
3.683002591133117676e-01 -2.875047549605369568e-02 -7.617082446813583374e-03
3.073085248470306396e-01 -3.630763292312622070e-02 1.248581260442733765e-01
2.577619254589080811e-01 -3.479369729757308960e-02 -2.231602966785430908e-01
2.646079361438751221e-01 -4.251071810722351074e-02 1.600166559219360352e-01
4.860212206840515137e-01 -3.565654903650283813e-02 -3.061380237340927124e-02
5.355172753334045410e-01 -4.067448899149894714e-02 1.922410428524017334e-01
-2.184307575225830078e-02 -9.630789607763290405e-02 3.702797926962375641e-03
4.077587127685546875e-01 -3.031254187226295471e-02 6.456860899925231934e-02
-1.003563404083251953e-03 -9.701669961214065552e-02 -2.006433904170989990e-01
5.534223318099975586e-01 -5.338873714208602905e-02 2.861389219760894775e-01
9.978760778903961182e-02 -1.075965017080307007e-01 1.496164873242378235e-02
3.977168202400207520e-01 -8.777378499507904053e-02 -4.430959001183509827e-02
3.831860423088073730e-01 -3.685071691870689392e-02 1.735727638006210327e-01
3.617917895317077637e-01 -9.813163429498672485e-02 2.584640681743621826e-01
5.175976157188415527e-01 -8.387867361307144165e-02 2.240223735570907593e-01
2.933917045593261719e-01 -5.482714250683784485e-02 -2.810412943363189697e-01
4.956368207931518555e-01 -7.807543873786926270e-02 2.552105858922004700e-02
2.734785377979278564e-01 -1.034223437309265137e-01 6.377272307872772217e-03
4.286944568157196045e-01 -3.733965009450912476e-02 1.910250484943389893e-01
1.244894415140151978e-01 -1.038865894079208374e-01 1.435182839632034302e-01
2.978187799453735352e-01 -7.924971729516983032e-02 -2.132365852594375610e-01
3.651575744152069092e-01 -8.033169806003570557e-02 -1.431878060102462769e-01
1.008111238479614258e-01 -9.101694822311401367e-02 -2.564695179462432861e-01
3.456867039203643799e-01 -8.936797082424163818e-02 -9.579692780971527100e-02
5.653985738754272461e-01 -7.358332723379135132e-02 1.949650794267654419e-01
5.509275197982788086e-02 -4.357637465000152588e-02 -1.842115521430969238e-01
1.276425719261169434e-01 -9.513469040393829346e-02 2.050759494304656982e-01
2.622618973255157471e-01 -8.576386421918869019e-02 -2.034241259098052979e-01
1.308510899543762207e-01 -4.716596007347106934e-02 6.483806669712066650e-02
2.912245988845825195e-01 -9.216015785932540894e-02 3.080395758152008057e-01
2.728865146636962891e-01 -3.042988106608390808e-02 -2.258487790822982788e-02
1.204518377780914307e-01 -7.446964085102081299e-02 -3.324217498302459717e-01
2.475749999284744263e-01 -9.994387626647949219e-02 2.495538890361785889e-01
3.702831268310546875e-01 -6.028098240494728088e-02 3.277743756771087646e-01
5.883638858795166016e-01 -5.096855014562606812e-02 1.370996236801147461e-01
2.733227312564849854e-01 -4.448020458221435547e-02 -2.775819003582000732e-01
2.287094295024871826e-01 -3.159973025321960449e-02 -1.579378992319107056e-01
-2.212274074554443359e-02 -5.789995193481445312e-02 -1.038860082626342773e-01
2.419076710939407349e-01 -5.940522253513336182e-02 2.558826208114624023e-01
3.436874151229858398e-01 -4.001956805586814880e-02 1.895095854997634888e-01
1.267102211713790894e-01 -7.367282360792160034e-02 2.098234444856643677e-01
1.211343705654144287e-02 -9.101857990026473999e-02 8.731853961944580078e-02
4.286073148250579834e-01 -4.459560662508010864e-02 -1.579990684986114502e-01
5.446398258209228516e-01 -7.874532043933868408e-02 2.272251248359680176e-01
5.379034876823425293e-01 -4.768925905227661133e-02 2.636620402336120605e-01
4.569650888442993164e-01 -9.228760004043579102e-02 1.762813776731491089e-01
3.547798395156860352e-01 -5.089923739433288574e-02 -2.353478670120239258e-01
1.136355400085449219e-01 -1.027580946683883667e-01 -1.322556287050247192e-01
2.999352216720581055e-01 -1.038942039012908936e-01 6.757470965385437012e-02
1.598490774631500244e-01 -8.434478938579559326e-02 -2.758379578590393066e-01
5.749808251857757568e-02 -9.613180160522460938e-02 1.303094625473022461e-01
2.287905961275100708e-01 -1.050300598144531250e-01 1.835342496633529663e-01
9.498770534992218018e-02 -3.981420397758483887e-02 -2.009408771991729736e-01
-3.103008866310119629e-02 -9.338386356830596924e-02 -2.205498367547988892e-01
4.527564346790313721e-01 -4.309146106243133545e-02 -1.263944804668426514e-01
4.182230830192565918e-01 -9.548163414001464844e-02 2.384764850139617920e-01
4.913969933986663818e-01 -8.533407747745513916e-02 1.076540350914001465e-01
1.428157091140747070e-01 -1.075696572661399841e-01 8.840803802013397217e-02
4.170090556144714355e-01 -4.934973269701004028e-02 2.899166941642761230e-01
5.772794783115386963e-02 -1.056144908070564270e-01 2.591391094028949738e-02
2.842278182506561279e-01 -9.561901539564132690e-02 2.892852723598480225e-01
1.579046100378036499e-01 -1.081784367561340332e-01 3.610676527023315430e-02
3.858801424503326416e-01 -8.393232524394989014e-02 -9.403443336486816406e-02
4.089077711105346680e-01 -3.018996119499206543e-02 -5.873396620154380798e-02
1.608545929193496704e-01 -3.562966361641883850e-02 -7.272489368915557861e-02
2.505567669868469238e-02 -8.564700931310653687e-02 -2.989179491996765137e-01
2.138335108757019043e-01 -6.709209829568862915e-02 2.649909555912017822e-01
2.078911215066909790e-01 -3.493168577551841736e-02 -2.250690013170242310e-01
6.165088713169097900e-02 -1.056090071797370911e-01 -7.148340344429016113e-02
4.350074529647827148e-01 -3.101002424955368042e-02 -3.919869288802146912e-02
2.424659430980682373e-01 -1.009488254785537720e-01 -7.390969991683959961e-02
1.090303361415863037e-01 -3.972007706761360168e-02 -8.836872875690460205e-02
4.552253484725952148e-01 -8.720088750123977661e-02 4.690279811620712280e-02
2.002238184213638306e-01 -1.026602163910865784e-01 2.068462967872619629e-01
1.886065900325775146e-01 -1.057427823543548584e-01 -3.690658137202262878e-02
5.301816463470458984e-01 -3.694505617022514343e-02 8.843876421451568604e-02
2.347017824649810791e-01 -3.878830745816230774e-02 9.264965355396270752e-02
1.907799243927001953e-01 -3.334297612309455872e-02 -7.941105961799621582e-02
3.482252359390258789e-03 -5.655351281166076660e-02 -5.312823131680488586e-02
4.720135331153869629e-01 -3.327185660600662231e-02 1.164997518062591553e-01
4.327677488327026367e-01 -9.457876533269882202e-02 1.452232301235198975e-01
3.251046538352966309e-01 -9.844586253166198730e-02 -1.365040428936481476e-02
1.399696916341781616e-01 -1.016988903284072876e-01 1.779404431581497192e-01
-2.387365698814392090e-02 -8.983446657657623291e-02 -2.579177916049957275e-01
3.158717453479766846e-01 -6.347465515136718750e-02 3.159821629524230957e-01
3.972060978412628174e-02 -6.835722178220748901e-02 9.265945851802825928e-02
2.553692758083343506e-01 -3.022339940071105957e-02 -1.202639937400817871e-01
4.018431305885314941e-01 -8.985685557126998901e-02 3.220710158348083496e-01
-8.714765310287475586e-03 -6.497532129287719727e-02 -3.437107894569635391e-03
3.799050450325012207e-01 -9.061844646930694580e-02 3.225280344486236572e-01
2.818481624126434326e-01 -3.670859336853027344e-02 -2.333713769912719727e-01
2.691200077533721924e-01 -3.316689655184745789e-02 4.278995469212532043e-02
1.150285452604293823e-01 -8.578123152256011963e-02 -2.856200635433197021e-01
1.474374234676361084e-01 -3.733372688293457031e-02 -2.326838374137878418e-01
-4.685071110725402832e-02 -6.013834476470947266e-02 -2.429587393999099731e-01
9.334273636341094971e-02 -5.451809614896774292e-02 8.082422614097595215e-02
1.989003270864486694e-01 -1.012046411633491516e-01 -1.077189147472381592e-01
2.857076227664947510e-01 -4.029993712902069092e-02 1.547104716300964355e-01
2.488996982574462891e-01 -3.092311322689056396e-02 -1.501992940902709961e-01
1.379454880952835083e-01 -1.030228808522224426e-01 -1.188631206750869751e-01
3.296190202236175537e-01 -1.002972498536109924e-01 2.437745928764343262e-01
1.569832563400268555e-01 -6.759896129369735718e-02 2.201346755027770996e-01
4.473809897899627686e-02 -5.513942986726760864e-02 -3.363856673240661621e-01
4.745457470417022705e-01 -8.388219028711318970e-02 3.217306137084960938e-01
1.802107691764831543e-01 -3.362833335995674133e-02 -1.012467592954635620e-01
1.202606260776519775e-01 -6.629230082035064697e-02 1.798032820224761963e-01
1.587049365043640137e-01 -3.478522226214408875e-02 -1.640126258134841919e-01
1.263631880283355713e-02 -5.088835582137107849e-02 -1.146649867296218872e-01
2.242143005132675171e-01 -5.699685215950012207e-02 -3.195920884609222412e-01
3.050210177898406982e-01 -4.593366384506225586e-02 2.180708646774291992e-01
5.811985731124877930e-01 -6.847185641527175903e-02 2.085600942373275757e-01
3.395560979843139648e-01 -3.220268338918685913e-02 8.431264758110046387e-02
4.352215230464935303e-01 -8.106742054224014282e-02 -5.062213167548179626e-02
1.657383739948272705e-01 -1.014915704727172852e-01 1.982154101133346558e-01
1.368053257465362549e-01 -3.946483507752418518e-02 -2.597928643226623535e-01
4.929609894752502441e-01 -4.516449943184852600e-02 2.643118500709533691e-01
3.409358859062194824e-02 -4.606883227825164795e-02 -2.010466009378433228e-01
1.778867244720458984e-01 -5.916555970907211304e-02 2.029083520174026489e-01
1.330183446407318115e-01 -1.061090454459190369e-01 1.180179566144943237e-01
3.167106509208679199e-01 -3.854053467512130737e-02 1.579668819904327393e-01
3.939535021781921387e-01 -3.079139441251754761e-02 -9.191250801086425781e-02
5.723803639411926270e-01 -5.210602283477783203e-02 6.598256528377532959e-02
4.195083677768707275e-01 -9.445039182901382446e-02 2.600828409194946289e-01
-1.313954591751098633e-02 -5.287785083055496216e-02 -2.059509754180908203e-01
2.107286900281906128e-01 -1.076268851757049561e-01 6.415514647960662842e-02
3.561576008796691895e-01 -2.859792113304138184e-02 -4.383974522352218628e-02
3.980282545089721680e-01 -3.781507909297943115e-02 -1.617899984121322632e-01
3.307362496852874756e-01 -6.169578433036804199e-02 -2.476599961519241333e-01
-4.044029116630554199e-02 -9.756270051002502441e-02 -7.778687775135040283e-02
3.266788125038146973e-01 -1.025050133466720581e-01 8.193650841712951660e-02
-8.942654728889465332e-02 -7.709153741598129272e-02 -2.022942453622817993e-01
2.834443449974060059e-01 -4.609105736017227173e-02 2.049123942852020264e-01
5.691766738891601562e-01 -4.392761737108230591e-02 1.656929552555084229e-01
3.324091434478759766e-01 -9.292484819889068604e-02 -7.592707872390747070e-02
2.707684934139251709e-01 -3.033555671572685242e-02 -1.409678161144256592e-01
3.257542848587036133e-02 -4.633791744709014893e-02 -1.737117320299148560e-01
9.050358831882476807e-02 -4.651625826954841614e-02 -3.078584671020507812e-01
4.494502246379852295e-01 -4.316543042659759521e-02 2.510818839073181152e-01
5.854978561401367188e-01 -4.942564666271209717e-02 1.925409287214279175e-01
4.293076694011688232e-02 -4.966446012258529663e-02 -5.354918539524078369e-02
3.102079331874847412e-01 -7.377408444881439209e-02 -2.286472618579864502e-01
3.217457532882690430e-01 -1.020028144121170044e-01 5.366633832454681396e-02
4.090038836002349854e-01 -5.695539712905883789e-02 3.262414336204528809e-01
3.336503803730010986e-01 -8.751108497381210327e-02 -1.252449005842208862e-01
5.560446977615356445e-01 -7.068579643964767456e-02 2.976320981979370117e-01
4.594569802284240723e-01 -3.138105571269989014e-02 8.746687322854995728e-03
1.807489246129989624e-01 -4.574975371360778809e-02 1.110826432704925537e-01
4.010002613067626953e-01 -3.157640248537063599e-02 9.724339842796325684e-02
2.827528119087219238e-02 -6.095977127552032471e-02 3.340306133031845093e-02
6.213602423667907715e-02 -9.784722328186035156e-02 -2.041127681732177734e-01
9.000363945960998535e-02 -4.004363715648651123e-02 -1.790116131305694580e-01
1.944191753864288330e-02 -9.461843222379684448e-02 -2.338135093450546265e-01
8.479410409927368164e-02 -1.006420701742172241e-01 1.348512917757034302e-01
2.560727596282958984e-01 -8.313479274511337280e-02 -2.245215177536010742e-01
8.649243414402008057e-02 -5.109898746013641357e-02 4.140220209956169128e-02
4.451555311679840088e-01 -9.356185793876647949e-02 2.125685662031173706e-01
5.148394107818603516e-01 -7.383033633232116699e-02 3.361309766769409180e-01
2.623426318168640137e-01 -3.021145239472389221e-02 -5.206398665904998779e-02
1.348122209310531616e-01 -3.640528023242950439e-02 -1.719729304313659668e-01
1.861954331398010254e-01 -3.969112038612365723e-02 4.891696572303771973e-02
1.537152826786041260e-01 -1.066021025180816650e-01 1.240188926458358765e-01
2.962281703948974609e-01 -9.827426075935363770e-02 -5.379654467105865479e-02
6.243552267551422119e-02 -6.543775647878646851e-02 1.092436462640762329e-01
1.244652122259140015e-01 -1.076379269361495972e-01 -1.371577009558677673e-02
1.220199167728424072e-01 -1.078894436359405518e-01 4.659914597868919373e-02
5.205033421516418457e-01 -8.110148459672927856e-02 1.257194727659225464e-01
3.448970615863800049e-01 -2.929513528943061829e-02 1.353364065289497375e-02
6.842091679573059082e-02 -1.010796129703521729e-01 1.124281138181686401e-01
1.889649927616119385e-01 -3.580711409449577332e-02 -2.326721549034118652e-01
3.467036187648773193e-01 -1.020517274737358093e-01 1.529864817857742310e-01
-3.197187185287475586e-02 -5.767996609210968018e-02 -1.455746591091156006e-01
5.757331848144531250e-01 -4.564424604177474976e-02 1.187435984611511230e-01
4.773012697696685791e-01 -3.221377730369567871e-02 5.182193219661712646e-02
2.092846333980560303e-01 -3.250437229871749878e-02 -6.618106365203857422e-02
3.519783318042755127e-01 -2.978626638650894165e-02 -1.071815788745880127e-01
-2.036175131797790527e-02 -5.463816598057746887e-02 -2.404967397451400757e-01
4.735516905784606934e-01 -5.528850480914115906e-02 3.256099224090576172e-01
1.502441614866256714e-01 -9.704230725765228271e-02 -1.859758198261260986e-01
7.482618093490600586e-02 -4.156487062573432922e-02 -1.947604119777679443e-01
1.413496434688568115e-01 -5.009957775473594666e-02 1.051957160234451294e-01
7.622271776199340820e-02 -1.049020588397979736e-01 -9.782339632511138916e-02
4.636706113815307617e-01 -8.946800231933593750e-02 1.062111407518386841e-01
-5.239933729171752930e-02 -9.405361860990524292e-02 -1.793341636657714844e-01
7.418264448642730713e-02 -5.606355890631675720e-02 6.652159988880157471e-02
5.939111113548278809e-02 -4.365919530391693115e-02 -1.376213580369949341e-01
5.486609935760498047e-01 -4.004216939210891724e-02 7.935929298400878906e-02
3.595813214778900146e-01 -3.482424095273017883e-02 1.372947245836257935e-01
5.905697345733642578e-01 -5.444549769163131714e-02 2.206786274909973145e-01
2.758610248565673828e-01 -1.001445278525352478e-01 2.534198164939880371e-01
1.695033162832260132e-01 -9.880817681550979614e-02 2.195401787757873535e-01
2.251402437686920166e-01 -3.359312564134597778e-02 -3.648729994893074036e-03
3.175674080848693848e-01 -9.278293699026107788e-02 -9.447780251502990723e-02
5.204749107360839844e-01 -3.630216419696807861e-02 1.229382306337356567e-01
4.252515733242034912e-02 -4.538683220744132996e-02 -2.245315611362457275e-01
3.491381704807281494e-01 -1.012762486934661865e-01 2.014888525009155273e-01
3.669267296791076660e-01 -9.775634109973907471e-02 4.377697408199310303e-02
4.095591306686401367e-01 -6.845282018184661865e-02 -1.545015722513198853e-01
1.015121042728424072e-01 -5.965955555438995361e-02 1.262300163507461548e-01
1.446880549192428589e-01 -1.076417341828346252e-01 -9.072568267583847046e-03
3.602368533611297607e-01 -8.816511929035186768e-02 3.350905179977416992e-01
2.553819417953491211e-01 -3.658004850149154663e-02 8.420635759830474854e-02
1.780890226364135742e-01 -1.031209528446197510e-01 -9.450516104698181152e-02
6.205204129219055176e-02 -1.052209883928298950e-01 4.640552029013633728e-02
2.167672663927078247e-01 -9.208289533853530884e-02 -1.905430406332015991e-01
4.724696278572082520e-01 -3.840706497430801392e-02 2.026474922895431519e-01
2.711032330989837646e-02 -5.082243680953979492e-02 -7.361966371536254883e-02
3.198237717151641846e-02 -6.667502224445343018e-02 7.370322942733764648e-02
-5.109396576881408691e-02 -7.212604582309722900e-02 -4.946652799844741821e-02
2.309666723012924194e-01 -9.548845142126083374e-02 -1.491554230451583862e-01
2.046533823013305664e-01 -3.579758852720260620e-02 1.206652820110321045e-02
1.457040309906005859e-01 -1.009427905082702637e-01 -1.442600935697555542e-01
5.323122441768646240e-02 -1.018290072679519653e-01 8.543576300144195557e-02
2.052507698535919189e-01 -5.118953436613082886e-02 1.796090602874755859e-01
5.151674747467041016e-01 -6.370656937360763550e-02 -2.961487323045730591e-02
-6.583762168884277344e-02 -8.395636081695556641e-02 -2.564320862293243408e-01
3.680309355258941650e-01 -7.571704685688018799e-02 -1.664122641086578369e-01
5.677409768104553223e-01 -5.333828926086425781e-02 2.695934772491455078e-01
2.385794520378112793e-01 -3.351015225052833557e-02 -2.076877206563949585e-01
2.032936215400695801e-01 -4.035802185535430908e-02 -2.806622982025146484e-01
2.819020450115203857e-01 -6.599970906972885132e-02 3.059438169002532959e-01
1.960347294807434082e-01 -4.624293744564056396e-02 1.317344605922698975e-01
3.357466459274291992e-01 -1.023329719901084900e-01 1.029314845800399780e-01
3.416305482387542725e-01 -7.578713446855545044e-02 3.490827679634094238e-01
1.674284189939498901e-01 -7.472560554742813110e-02 -3.147290945053100586e-01
-1.962992548942565918e-02 -9.861335158348083496e-02 -1.661644130945205688e-02
5.668801069259643555e-01 -6.674604862928390503e-02 1.000811457633972168e-01
1.856234967708587646e-01 -9.698403626680374146e-02 2.397623509168624878e-01
1.855394542217254639e-01 -1.079123765230178833e-01 9.060601890087127686e-02
1.992321014404296875e-01 -1.068293228745460510e-01 1.386781036853790283e-01
-7.635602355003356934e-02 -7.704696804285049438e-02 -9.823022782802581787e-02
2.005692124366760254e-01 -3.387339413166046143e-02 -2.021620273590087891e-01
3.963482379913330078e-02 -4.591310024261474609e-02 -1.455513685941696167e-01
3.269959092140197754e-01 -3.030444681644439697e-02 3.339632600545883179e-02
3.445014953613281250e-01 -2.885671332478523254e-02 -8.573656901717185974e-03
1.040108650922775269e-01 -4.713997989892959595e-02 2.621968463063240051e-02
5.523825883865356445e-01 -7.641416043043136597e-02 1.742085516452789307e-01
4.309156835079193115e-01 -8.916173875331878662e-02 3.138682246208190918e-01
9.880806505680084229e-02 -1.061666160821914673e-01 -6.779649853706359863e-02
3.180966973304748535e-01 -2.878231182694435120e-02 -7.288365066051483154e-02
2.882906794548034668e-01 -3.070079162716865540e-02 -1.537127345800399780e-01
-5.194479227066040039e-02 -8.235687762498855591e-02 -1.959126815199851990e-02
3.779568076133728027e-01 -9.953861683607101440e-02 1.278407126665115356e-01
5.154672861099243164e-01 -4.131545871496200562e-02 2.194827646017074585e-01
2.807495594024658203e-01 -9.182727336883544922e-02 -1.409219354391098022e-01
5.442544817924499512e-03 -6.632665544748306274e-02 -3.439571857452392578e-01
3.206898272037506104e-01 -2.876201272010803223e-02 -4.410415887832641602e-02
3.626559376716613770e-01 -3.096601739525794983e-02 7.187937200069427490e-02
1.523770093917846680e-01 -8.868634700775146484e-02 -2.530223727226257324e-01
-2.322691679000854492e-02 -7.969174534082412720e-02 3.318221122026443481e-02
1.979250758886337280e-01 -4.941662400960922241e-02 1.598402112722396851e-01
-3.183475136756896973e-02 -7.570745795965194702e-02 -3.180904984474182129e-01
4.316874742507934570e-01 -3.026784211397171021e-02 -1.835098676383495331e-02
5.588951110839843750e-01 -7.494642585515975952e-02 2.454159557819366455e-01
-3.220626711845397949e-02 -9.830889850854873657e-02 -1.376840323209762573e-01
1.664077490568161011e-01 -3.760455548763275146e-02 -1.328469812870025635e-02
4.268365800380706787e-01 -9.248118102550506592e-02 2.824498713016510010e-01
4.490292370319366455e-01 -8.899819850921630859e-02 3.011352419853210449e-01
1.910269260406494141e-02 -4.867827519774436951e-02 -2.415420114994049072e-01
4.802545905113220215e-01 -5.931716039776802063e-02 -9.564258158206939697e-02
3.251705765724182129e-01 -4.352271556854248047e-02 2.110012769699096680e-01
9.442530572414398193e-02 -1.001343876123428345e-01 -1.730840355157852173e-01
-4.185435175895690918e-02 -8.150897920131683350e-02 1.020543510094285011e-03
7.615312933921813965e-02 -4.333488270640373230e-02 -2.585214972496032715e-01
3.210050165653228760e-01 -7.943777740001678467e-02 -1.920692026615142822e-01
5.092865228652954102e-01 -8.062381297349929810e-02 3.082346618175506592e-01
3.481436669826507568e-01 -9.712824225425720215e-02 2.777301371097564697e-01
7.589900493621826172e-02 -1.067452952265739441e-01 -3.246553614735603333e-02
4.555705487728118896e-01 -3.098387643694877625e-02 2.941033802926540375e-02
1.232839375734329224e-01 -1.066580265760421753e-01 9.715381264686584473e-02
2.484248578548431396e-01 -1.047374457120895386e-01 3.225171472877264023e-03
3.053868412971496582e-01 -2.910293638706207275e-02 -9.611535072326660156e-02
4.426326751708984375e-01 -3.884369879961013794e-02 2.094326466321945190e-01
4.774923622608184814e-02 -4.672320187091827393e-02 -9.260092675685882568e-02
-5.385160446166992188e-03 -1.001989245414733887e-01 -1.462726891040802002e-01
4.236724674701690674e-01 -3.110241889953613281e-02 8.518004417419433594e-02
5.778076648712158203e-01 -5.191623046994209290e-02 2.438075989484786987e-01
1.403421610593795776e-01 -7.701618224382400513e-02 -3.174371719360351562e-01
9.658315777778625488e-02 -7.358009368181228638e-02 -3.406481146812438965e-01
4.523028731346130371e-01 -3.101733699440956116e-02 5.650632455945014954e-02
4.368861019611358643e-02 -4.664369300007820129e-02 -2.624138891696929932e-01
4.147283434867858887e-01 -2.986028045415878296e-02 -3.713107854127883911e-02
2.312385737895965576e-01 -5.609285458922386169e-02 2.314943373203277588e-01
5.209597349166870117e-01 -4.346524924039840698e-02 -2.709532529115676880e-02
5.393444895744323730e-01 -3.966688364744186401e-02 1.676542162895202637e-01
2.010312974452972412e-01 -6.839174032211303711e-02 -3.171774744987487793e-01
4.244536459445953369e-01 -6.757283955812454224e-02 -1.409222781658172607e-01
3.466628193855285645e-01 -9.618895500898361206e-02 -1.673006452620029449e-02
1.587293446063995361e-01 -3.565216436982154846e-02 -2.053779065608978271e-01
1.339337229728698730e-02 -9.011647105216979980e-02 -2.695590555667877197e-01
-4.812780022621154785e-02 -7.998377084732055664e-02 -2.943769991397857666e-01
3.308780193328857422e-01 -9.958665817975997925e-02 1.506237313151359558e-02
9.175306558609008789e-02 -7.994920760393142700e-02 -3.202407360076904297e-01
3.958067893981933594e-01 -9.820050001144409180e-02 1.417109966278076172e-01
5.413467884063720703e-01 -7.052804529666900635e-02 5.993664264678955078e-02
2.883148193359375000e-01 -3.146664053201675415e-02 2.696674503386020660e-02
4.048458039760589600e-01 -2.951732650399208069e-02 3.249574080109596252e-02
2.459754645824432373e-01 -9.643964469432830811e-02 -1.268779188394546509e-01
4.146144390106201172e-01 -8.948958665132522583e-02 7.063203956931829453e-04
-3.165891766548156738e-02 -6.429512798786163330e-02 -5.763937905430793762e-02
4.407868981361389160e-01 -9.066844731569290161e-02 6.879656016826629639e-02
1.043133884668350220e-01 -7.953532040119171143e-02 1.986249983310699463e-01
2.694532275199890137e-03 -1.026948541402816772e-01 -7.508724927902221680e-02
5.434928536415100098e-01 -5.919813364744186401e-02 3.153972625732421875e-01
2.605336904525756836e-01 -9.506420791149139404e-02 2.853607833385467529e-01
4.744619131088256836e-02 -5.061980709433555603e-02 -3.092243522405624390e-02
1.367303282022476196e-01 -9.963225573301315308e-02 -1.644985228776931763e-01
-2.751708030700683594e-02 -8.268151432275772095e-02 -2.984020113945007324e-01
1.886774301528930664e-01 -7.647901028394699097e-02 -2.984472811222076416e-01
4.999415278434753418e-01 -4.282320663332939148e-02 -6.042090430855751038e-02
2.947750985622406006e-01 -5.462624877691268921e-02 2.672613561153411865e-01
1.612291634082794189e-01 -1.067885458469390869e-01 -3.027857467532157898e-02
-4.837754368782043457e-02 -5.995060130953788757e-02 -1.926604658365249634e-01
3.756907284259796143e-01 -6.915348768234252930e-02 -1.873938143253326416e-01
1.042538881301879883e-02 -8.244241774082183838e-02 -3.127169013023376465e-01
9.065929055213928223e-02 -8.764442801475524902e-02 -2.815799117088317871e-01
-5.611634254455566406e-02 -9.103402495384216309e-02 -2.142527401447296143e-01
2.594554722309112549e-01 -1.045214980840682983e-01 1.923133283853530884e-01
2.896341681480407715e-02 -1.045786887407302856e-01 -6.017887219786643982e-02
3.584983050823211670e-01 -8.482128381729125977e-02 -1.193389296531677246e-01
3.505892157554626465e-01 -1.017050147056579590e-01 1.322805136442184448e-01
5.001507997512817383e-01 -8.652085065841674805e-02 1.816422641277313232e-01
-6.941384077072143555e-02 -6.701672077178955078e-02 -2.459393292665481567e-01
2.805158197879791260e-01 -5.939976871013641357e-02 2.814090847969055176e-01
3.201410174369812012e-02 -1.001456230878829956e-01 -1.730256676673889160e-01
4.390300810337066650e-02 -1.023946180939674377e-01 -1.406733989715576172e-01
2.379678487777709961e-01 -3.069526702165603638e-02 -9.768259525299072266e-02
9.263631701469421387e-02 -1.063999384641647339e-01 6.633476912975311279e-02
7.051679491996765137e-02 -5.032670125365257263e-02 8.029478602111339569e-03
4.248405098915100098e-01 -3.322294726967811584e-02 1.314632892608642578e-01
-5.790102481842041016e-02 -6.283069401979446411e-02 -1.726923137903213501e-01
1.814215481281280518e-01 -7.538226991891860962e-02 2.604633271694183350e-01
2.610479891300201416e-01 -1.008438766002655029e-01 -5.641035735607147217e-02
7.564523816108703613e-02 -4.616051167249679565e-02 -3.620824962854385376e-02
-1.116985082626342773e-02 -6.132244691252708435e-02 -3.236768245697021484e-01
4.298518896102905273e-01 -3.268026560544967651e-02 -8.025681972503662109e-02
1.330146193504333496e-02 -6.169286742806434631e-02 1.342456229031085968e-02
4.502015709877014160e-01 -3.167683631181716919e-02 8.889247477054595947e-02
4.157369434833526611e-01 -9.281023591756820679e-02 5.052230507135391235e-02
3.996900916099548340e-01 -9.724672138690948486e-02 1.134506016969680786e-01
4.821919798851013184e-01 -3.352184221148490906e-02 -1.256773713976144791e-03
3.187544941902160645e-01 -9.741190075874328613e-02 2.800133526325225830e-01
6.505502760410308838e-02 -8.875190466642379761e-02 -2.794288396835327148e-01
5.107489824295043945e-01 -3.526630252599716187e-02 4.271085932850837708e-02
2.375188469886779785e-02 -7.870580255985260010e-02 -3.292150795459747314e-01
4.587262272834777832e-01 -3.659788519144058228e-02 1.817690283060073853e-01
2.914963364601135254e-01 -1.028564423322677612e-01 2.057163417339324951e-02
2.643017768859863281e-01 -5.867553129792213440e-02 2.679414749145507812e-01
5.438272655010223389e-02 -8.269164711236953735e-02 1.475327014923095703e-01
5.219547450542449951e-02 -7.587953656911849976e-02 -3.392542004585266113e-01
4.485179185867309570e-01 -7.628297060728073120e-02 -6.622777879238128662e-02
