-1.265787601470947266e+00 3.302039578557014465e-02 -4.016033187508583069e-02
1.945898532867431641e-01 -9.705751389265060425e-02 1.989926211535930634e-02
-6.672104597091674805e-01 -1.241539344191551208e-01 -2.928953617811203003e-02
-2.247856706380844116e-01 2.485016286373138428e-01 -1.624327749013900757e-01
4.229775667190551758e-01 -1.123028248548507690e-02 -7.627246528863906860e-02
-3.961085081100463867e-01 2.686681151390075684e-01 -1.344294548034667969e-01
-2.648411989212036133e-01 1.683809757232666016e-01 -2.552580833435058594e-01
1.527230143547058105e-01 -1.032324805855751038e-01 3.463762626051902771e-02
2.831630110740661621e-01 1.315033733844757080e-01 1.874134838581085205e-01
-7.656773328781127930e-01 1.014870703220367432e-01 -2.623178064823150635e-01
-2.755068838596343994e-01 -8.171331137418746948e-02 2.000175416469573975e-01
-3.743406832218170166e-01 2.949704527854919434e-01 1.305782236158847809e-02
1.182894706726074219e-01 1.754037737846374512e-01 2.057372927665710449e-01
1.545128822326660156e-01 -5.941038578748703003e-02 -1.503172218799591064e-01
-1.148337721824645996e-01 2.368239462375640869e-01 -1.655512452125549316e-01
3.966023921966552734e-01 1.565170884132385254e-01 9.929376095533370972e-02
-2.446276396512985229e-01 1.069687306880950928e-02 2.782928347587585449e-01
-6.587623953819274902e-01 7.633812725543975830e-03 -2.580561041831970215e-01
-8.741024732589721680e-01 2.385163009166717529e-01 -1.336796879768371582e-01
2.960947751998901367e-01 1.663547754287719727e-01 -1.333746463060379028e-01
-2.818779051303863525e-01 -3.884769231081008911e-02 2.482460141181945801e-01
-8.989906311035156250e-01 -9.403700381517410278e-02 -3.398736193776130676e-02
2.940877676010131836e-01 4.959088563919067383e-02 -1.842614412307739258e-01
-1.121615409851074219e+00 2.176603078842163086e-01 2.174095436930656433e-02
1.787931919097900391e-01 6.210443377494812012e-02 -2.207957506179809570e-01
-6.465337276458740234e-01 2.116822302341461182e-01 -2.147967964410781860e-01
-1.295366525650024414e+00 1.131702363491058350e-01 3.093866258859634399e-02
-1.221956014633178711e+00 3.321476280689239502e-03 -4.143866524100303650e-02
-4.259371757507324219e-01 -9.457825869321823120e-02 -1.730949133634567261e-01
5.881929397583007812e-02 1.813147068023681641e-01 -1.998854130506515503e-01
5.152500867843627930e-01 5.482825636863708496e-02 5.303126946091651917e-02
-1.847836077213287354e-01 -2.515739202499389648e-02 -2.453339844942092896e-01
2.556335330009460449e-01 -2.474234998226165771e-02 1.711391210556030273e-01
-1.925702691078186035e-01 -5.315677076578140259e-02 -2.220023274421691895e-01
-2.854324877262115479e-01 -1.233419254422187805e-01 -1.060106232762336731e-01
-1.000097513198852539e+00 8.922848105430603027e-02 -2.165419608354568481e-01
-1.439159810543060303e-01 -3.404790908098220825e-02 -2.349702864885330200e-01
-3.678230345249176025e-01 2.826390564441680908e-01 -9.084967523813247681e-02
9.523180127143859863e-02 -4.982390254735946655e-02 -1.801146417856216431e-01
9.845972061157226562e-02 -1.123430952429771423e-01 1.765668578445911407e-02
-9.956005811691284180e-01 -7.682275027036666870e-02 5.248864647001028061e-03
4.412205219268798828e-01 4.899911954998970032e-02 -1.117834895849227905e-01
-1.194436311721801758e+00 1.274715363979339600e-02 -9.599802643060684204e-02
-1.554995030164718628e-01 2.771471440792083740e-01 8.261726796627044678e-02
-1.830651611089706421e-01 -3.382918238639831543e-02 2.476817667484283447e-01
-5.793407559394836426e-01 -7.534395903348922729e-02 1.956017166376113892e-01
-8.658944964408874512e-01 5.064263939857482910e-03 -2.241182178258895874e-01
-5.751864314079284668e-01 -1.133083179593086243e-01 1.195173114538192749e-01
-4.658833742141723633e-01 1.067243516445159912e-01 2.915610969066619873e-01
-2.300165444612503052e-01 6.226939707994461060e-02 -2.812041342258453369e-01
-5.398857593536376953e-01 2.939063608646392822e-01 2.346492931246757507e-02
-3.190294802188873291e-01 -1.395226120948791504e-01 1.333843357861042023e-02
-1.439067721366882324e-01 2.838780879974365234e-01 1.662441715598106384e-02
-1.066867589950561523e+00 -2.783264964818954468e-02 1.208425238728523254e-01
-1.119740128517150879e+00 1.090015172958374023e-01 1.736475974321365356e-01
-6.991940736770629883e-02 1.733358800411224365e-01 -2.313030511140823364e-01
-2.119093835353851318e-01 1.913434118032455444e-01 -2.339087575674057007e-01
-9.567123651504516602e-01 2.364937663078308105e-01 -1.051727309823036194e-01
-8.874868154525756836e-01 3.537894412875175476e-02 2.361780256032943726e-01
1.907662749290466309e-01 2.167739868164062500e-01 1.187653094530105591e-01
-3.507465124130249023e-03 -1.225546523928642273e-01 4.041250050067901611e-02
-9.565278291702270508e-01 1.778257787227630615e-01 1.939538270235061646e-01
2.970566749572753906e-01 1.981706321239471436e-01 -7.521728426218032837e-02
-8.753180503845214844e-03 2.288650274276733398e-01 1.699002385139465332e-01
4.410824775695800781e-01 1.582084745168685913e-01 -7.871226407587528229e-04
-9.055995345115661621e-01 -9.444763511419296265e-02 -1.206806674599647522e-02
-1.762153953313827515e-01 -4.975497722625732422e-04 -2.596199214458465576e-01
-5.049093365669250488e-01 -1.309462189674377441e-01 -6.064227595925331116e-02
-2.600228786468505859e-02 2.118060588836669922e-01 1.991419196128845215e-01
-2.292665839195251465e-02 -1.244005635380744934e-01 -3.047228604555130005e-02
-3.853435516357421875e-01 2.302864491939544678e-01 -2.024044543504714966e-01
-9.318547844886779785e-01 2.588094472885131836e-01 3.446979820728302002e-02
1.239149570465087891e-01 2.454840242862701416e-01 -5.108287930488586426e-02
-3.083082735538482666e-01 -1.067270264029502869e-01 -1.503442823886871338e-01
1.447118520736694336e-01 2.465499937534332275e-01 3.021457418799400330e-02
-6.103217601776123047e-03 6.676486879587173462e-02 2.705508172512054443e-01
-7.569148540496826172e-01 2.767714858055114746e-01 -5.755061656236648560e-02
-1.959841698408126831e-01 -1.369774937629699707e-01 -4.302937071770429611e-03
5.252844095230102539e-02 2.212061285972595215e-01 1.660100519657135010e-01
-3.181850910186767578e-02 -9.638128429651260376e-02 1.473429501056671143e-01
-2.803353071212768555e-01 2.692517340183258057e-01 1.359049528837203979e-01
-1.189743518829345703e+00 1.436564028263092041e-01 -1.216090172529220581e-01
-7.723421454429626465e-01 -2.001877129077911377e-02 -2.244266271591186523e-01
-4.246537089347839355e-01 2.800768911838531494e-01 -1.027150452136993408e-01
-8.879609107971191406e-01 -9.004975110292434692e-02 6.992953270673751831e-02
4.008477926254272461e-02 1.266407817602157593e-01 -2.396282255649566650e-01
-3.588536977767944336e-01 -1.148442700505256653e-01 1.379433721303939819e-01
-7.607001066207885742e-01 1.959480345249176025e-03 2.444313317537307739e-01
-2.189265787601470947e-01 1.025130897760391235e-01 2.890195846557617188e-01
-2.171710133552551270e-02 2.487332522869110107e-01 -1.177513226866722107e-01
-8.386160135269165039e-01 2.381308674812316895e-01 -1.450766324996948242e-01
-2.546300292015075684e-01 1.386911422014236450e-01 2.807876169681549072e-01
-3.403176963329315186e-01 -1.120119616389274597e-01 1.451521068811416626e-01
-1.693837195634841919e-01 1.611384451389312744e-01 -2.520104050636291504e-01
-4.905061721801757812e-01 2.896091341972351074e-01 -6.114114448428153992e-02
-3.499273061752319336e-01 -1.377039551734924316e-01 4.201442003250122070e-02
-4.405698180198669434e-02 -1.092999503016471863e-01 -1.086317822337150574e-01
-3.210767209529876709e-01 2.502996027469635010e-01 -1.686974316835403442e-01
-5.536745190620422363e-01 2.205154299736022949e-01 -2.119926959276199341e-01
1.341737508773803711e-01 1.568968892097473145e-01 -2.015645205974578857e-01
4.389583468437194824e-01 -2.601253986358642578e-02 3.167892340570688248e-03
-5.224110484123229980e-01 -1.348652839660644531e-01 -1.575862057507038116e-02
-3.304246068000793457e-01 2.248934507369995117e-01 -2.072430253028869629e-01
-6.025742292404174805e-01 2.903432846069335938e-01 -3.319789469242095947e-02
3.618440628051757812e-01 1.694220304489135742e-01 -8.700335770845413208e-02
-9.237583875656127930e-01 -8.485425263643264771e-02 -6.407342106103897095e-02
-8.682934045791625977e-01 1.652647703886032104e-01 2.252606153488159180e-01
-2.634282708168029785e-01 1.949905455112457275e-01 -2.348900735378265381e-01
3.911146521568298340e-02 2.185408174991607666e-01 -1.590343415737152100e-01
-5.734661221504211426e-01 2.612898945808410645e-01 1.547650992870330811e-01
-1.064042448997497559e+00 2.220428586006164551e-01 -7.738684117794036865e-02
-7.343727350234985352e-01 2.672838270664215088e-01 1.108767837285995483e-01
-7.777553200721740723e-01 2.403525412082672119e-01 -1.559318155050277710e-01
3.971135020256042480e-01 1.749764382839202881e-01 -2.939030155539512634e-02
4.603287577629089355e-01 1.477053165435791016e-01 5.464211106300354004e-03
-2.693184018135070801e-01 -1.068438664078712463e-01 1.554050743579864502e-01
1.477997899055480957e-01 4.291891679167747498e-02 -2.258692830801010132e-01
-4.708361327648162842e-01 -1.242797151207923889e-01 1.016212254762649536e-01
3.306342363357543945e-01 -4.729176312685012817e-02 -8.449757099151611328e-02
2.463586330413818359e-01 -8.684619516134262085e-02 -5.239309277385473251e-03
3.957701921463012695e-01 1.469523012638092041e-01 1.147274374961853027e-01
8.996659517288208008e-02 2.113915681838989258e-01 -1.547098159790039062e-01
-6.258946657180786133e-01 2.805296480655670166e-01 9.230110794305801392e-02
4.481878876686096191e-02 -9.140478819608688354e-02 -1.277132779359817505e-01
-7.735109329223632812e-01 -1.122821196913719177e-01 -3.611287102103233337e-02
-6.444267034530639648e-01 1.021261140704154968e-01 2.810148894786834717e-01
-9.944476485252380371e-01 2.393114268779754639e-01 7.731779664754867554e-02
-1.270794510841369629e+00 1.492104828357696533e-01 8.218260481953620911e-03
-7.341537475585937500e-01 7.491514086723327637e-03 -2.487442493438720703e-01
-8.346849679946899414e-02 -1.295143663883209229e-01 -2.858997881412506104e-02
-4.112416803836822510e-01 2.302627861499786377e-01 2.129494696855545044e-01
-6.016184687614440918e-01 -9.281145781278610229e-02 1.632324457168579102e-01
-2.146185040473937988e-01 2.779034972190856934e-01 -8.413641899824142456e-02
-7.112444639205932617e-01 2.061153948307037354e-01 2.194215506315231323e-01
-1.466636210680007935e-01 9.982785582542419434e-02 -2.730300724506378174e-01
-8.223836421966552734e-01 1.010317131876945496e-01 2.572753429412841797e-01
3.133274316787719727e-01 9.172759205102920532e-02 -1.758687198162078857e-01
-4.649193286895751953e-01 1.868950426578521729e-01 2.559532225131988525e-01
1.288618445396423340e-01 2.342602908611297607e-01 1.070584207773208618e-01
-2.711866497993469238e-01 -3.620394319295883179e-02 -2.421932369470596313e-01
4.146381020545959473e-01 -8.984975516796112061e-03 1.035743802785873413e-01
4.219038486480712891e-01 9.285974502563476562e-02 1.397248953580856323e-01
-1.996086537837982178e-01 2.825714051723480225e-01 -5.727173015475273132e-02
-1.249826431274414062e+00 3.708510845899581909e-02 7.040917873382568359e-02
1.365077495574951172e-01 -6.008113175630569458e-02 1.676302552223205566e-01
-7.751988172531127930e-01 -8.420316129922866821e-02 -1.388832628726959229e-01
-3.639313578605651855e-01 6.690397113561630249e-02 2.948156297206878662e-01
4.329976439476013184e-01 8.453051000833511353e-02 -1.171640083193778992e-01
-5.188562870025634766e-01 1.122899875044822693e-01 2.884521782398223877e-01
-7.069076299667358398e-01 1.612698137760162354e-01 -2.489923238754272461e-01
2.002124786376953125e-01 -8.725885301828384399e-02 -6.617493182420730591e-02
-1.192698121070861816e+00 8.838929235935211182e-02 1.396784186363220215e-01
-9.354664683341979980e-01 -2.764163166284561157e-02 1.784051060676574707e-01
-1.198696494102478027e+00 1.894539296627044678e-01 -2.329840138554573059e-02
4.314673542976379395e-01 3.475998342037200928e-02 1.305677145719528198e-01
-6.580725312232971191e-01 -9.490456432104110718e-02 1.481956541538238525e-01
6.168419122695922852e-02 -6.506084650754928589e-02 -1.690577417612075806e-01
-1.238371729850769043e+00 8.503871411085128784e-02 -1.105360686779022217e-01
-3.881554901599884033e-01 8.581088483333587646e-02 2.950811982154846191e-01
1.201616525650024414e-01 2.029920518398284912e-01 1.731805503368377686e-01
-6.071328520774841309e-01 -1.230277642607688904e-01 -7.172070443630218506e-02
-2.184125781059265137e-02 -2.065235376358032227e-02 2.408649921417236328e-01
-2.243807464838027954e-01 -1.553860306739807129e-02 -2.545463144779205322e-01
1.630753278732299805e-01 -2.392400801181793213e-02 -1.881351917982101440e-01
-3.619361519813537598e-01 -1.573765277862548828e-02 -2.591848075389862061e-01
-3.898146748542785645e-02 -1.253081560134887695e-01 4.484916478395462036e-02
-9.419379830360412598e-01 5.399909615516662598e-02 -2.278203666210174561e-01
-3.164799809455871582e-01 2.469681799411773682e-01 1.855524927377700806e-01
2.148852348327636719e-01 1.795739531517028809e-01 1.703732162714004517e-01
-8.809438943862915039e-01 2.439578771591186523e-01 -1.193958297371864319e-01
-2.914088070392608643e-01 -1.045675948262214661e-01 1.610428690910339355e-01
-6.277674436569213867e-01 -8.581288158893585205e-03 2.561884820461273193e-01
-6.768448948860168457e-01 2.820391058921813965e-01 7.088560611009597778e-02
-1.439692229032516479e-01 3.705918788909912109e-03 2.688969373703002930e-01
2.304038405418395996e-01 -5.114749819040298462e-02 1.475514024496078491e-01
-5.962228178977966309e-01 6.526920199394226074e-02 -2.801091969013214111e-01
-5.740773677825927734e-01 1.459335237741470337e-01 2.748085558414459229e-01
-3.343564271926879883e-02 2.711857855319976807e-01 4.714384302496910095e-02
7.845860719680786133e-02 2.584644258022308350e-01 5.582904908806085587e-03
2.328285574913024902e-01 1.481190919876098633e-01 1.941942870616912842e-01
-4.946133196353912354e-01 1.936621814966201782e-01 -2.411090731620788574e-01
-1.110280632972717285e+00 -4.393216222524642944e-02 3.436363860964775085e-02
-7.081093192100524902e-01 1.442973464727401733e-01 -2.573699057102203369e-01
-6.732951402664184570e-01 1.423970311880111694e-01 -2.618101239204406738e-01
1.514938473701477051e-01 -5.118953436613082886e-02 1.753817945718765259e-01
-1.074805021286010742e+00 -8.481197059154510498e-03 1.441591680049896240e-01
-4.311402738094329834e-01 2.939556241035461426e-01 -3.055491670966148376e-02
-3.237024545669555664e-01 -1.117134615778923035e-01 -1.395248919725418091e-01
-1.008396148681640625e+00 1.399398148059844971e-01 -2.015220671892166138e-01
-1.070215225219726562e+00 8.471316099166870117e-02 1.950539648532867432e-01
5.082803368568420410e-01 6.485410034656524658e-02 6.755974888801574707e-02
-1.244257926940917969e+00 1.132777333259582520e-02 -1.033315248787403107e-02
-4.664812088012695312e-01 2.303012311458587646e-01 2.122298479080200195e-01
-3.083370625972747803e-01 2.590537667274475098e-01 1.623961180448532104e-01
-6.277056932449340820e-01 1.918670162558555603e-02 -2.663261592388153076e-01
2.980507016181945801e-01 -2.131211757659912109e-02 -1.425755470991134644e-01
-1.097520828247070312e+00 2.121767401695251465e-01 8.019848167896270752e-02
-1.155503749847412109e+00 -3.001743555068969727e-02 1.968593522906303406e-02
-9.500808119773864746e-01 1.455588042736053467e-01 2.170940637588500977e-01
-2.584638595581054688e-01 2.908945381641387939e-01 -1.066810078918933868e-02
-2.996286749839782715e-01 8.564402163028717041e-02 -2.848226726055145264e-01
-5.297449827194213867e-01 1.849853992462158203e-01 -2.468868792057037354e-01
-4.137094616889953613e-01 -1.061061844229698181e-01 -1.512160748243331909e-01
2.895838022232055664e-02 2.580786049365997314e-01 -6.390518695116043091e-02
-4.542599320411682129e-01 -1.351619064807891846e-01 -4.411619156599044800e-02
-3.191792964935302734e-01 -8.090379089117050171e-02 -1.953638643026351929e-01
-4.764899909496307373e-01 -5.848459154367446899e-02 -2.210031151771545410e-01
-4.783300459384918213e-01 2.745084464550018311e-01 -1.194807663559913635e-01
-6.213588118553161621e-01 5.690606683492660522e-02 2.823663949966430664e-01
1.655641794204711914e-01 -9.986387938261032104e-02 -3.370278328657150269e-02
-8.732547760009765625e-01 2.508994042873382568e-01 -1.046024635434150696e-01
-9.569391012191772461e-01 1.856449544429779053e-01 -1.837840676307678223e-01
-1.085302591323852539e+00 2.024045288562774658e-01 -1.094408333301544189e-01
2.065386772155761719e-01 2.291511893272399902e-01 6.680030375719070435e-02
-1.197870492935180664e+00 2.134568989276885986e-03 7.178178429603576660e-02
-7.760393619537353516e-01 2.782917022705078125e-01 4.015087336301803589e-02
-7.727950215339660645e-01 -5.150217562913894653e-02 1.943279206752777100e-01
-2.533067464828491211e-01 2.658877074718475342e-01 1.412835866212844849e-01
-7.739225625991821289e-01 2.584513425827026367e-01 -1.181859597563743591e-01
4.191762804985046387e-01 -3.484070301055908203e-02 -2.745266538113355637e-03
-4.942291975021362305e-01 4.493604972958564758e-02 -2.822971642017364502e-01
-1.097449362277984619e-01 2.391628921031951904e-03 2.652083635330200195e-01
-1.124058246612548828e+00 2.072878777980804443e-01 -6.815811991691589355e-02
-1.093996763229370117e-01 2.105408608913421631e-01 2.151209264993667603e-01
-7.011682987213134766e-01 2.826766967773437500e-01 -4.933339357376098633e-02
-4.406417012214660645e-01 2.357263565063476562e-01 -1.956660300493240356e-01
-7.960414886474609375e-01 4.422649741172790527e-03 -2.373247742652893066e-01
-4.718155264854431152e-01 1.589756011962890625e-01 2.736313045024871826e-01
4.213827848434448242e-01 1.259365975856781006e-01 -1.010527610778808594e-01
3.677484393119812012e-01 -4.731365293264389038e-02 -4.817411676049232483e-02
-3.601916432380676270e-01 1.756367832422256470e-01 2.645598053932189941e-01
-1.792082041501998901e-01 2.710818648338317871e-01 -9.997905790805816650e-02
-1.208399295806884766e+00 -7.008366286754608154e-03 -2.486606687307357788e-02
-1.235933542251586914e+00 2.979284897446632385e-02 7.687088102102279663e-02
-2.766795158386230469e-01 1.588826179504394531e-01 2.722711861133575439e-01
-1.127088427543640137e+00 -3.343208134174346924e-02 -5.971797928214073181e-02
-9.725438356399536133e-01 7.727194577455520630e-02 -2.237186431884765625e-01
-6.231333017349243164e-01 2.722781300544738770e-01 1.209661886096000671e-01
-1.196071743965148926e+00 1.919587254524230957e-01 6.900222972035408020e-03
-5.008486509323120117e-01 8.190808445215225220e-02 -2.855151593685150146e-01
-5.511030554771423340e-01 2.483381330966949463e-01 1.813774555921554565e-01
-2.034332007169723511e-01 1.345438212156295776e-01 -2.682831287384033203e-01
-3.160369396209716797e-01 -8.180700242519378662e-03 -2.629219293594360352e-01
-9.878863096237182617e-01 1.681758314371109009e-01 -1.899524778127670288e-01
-2.719967067241668701e-01 2.098724842071533203e-01 2.323483228683471680e-01
-8.350726366043090820e-01 2.072225511074066162e-02 -2.388468682765960693e-01
2.573440074920654297e-01 1.950311958789825439e-01 1.275013983249664307e-01
-1.100949764251708984e+00 2.214636206626892090e-01 -3.809678182005882263e-02
-5.831196904182434082e-01 2.474837303161621094e-01 1.801262795925140381e-01
3.863214850425720215e-01 -2.997085452079772949e-03 -1.147336363792419434e-01
-5.419688820838928223e-01 6.887730956077575684e-02 -2.835793197154998779e-01
1.021620631217956543e-02 -2.322196215391159058e-02 2.341139465570449829e-01
7.974848151206970215e-02 2.700313925743103027e-04 -2.247598171234130859e-01
-3.220716118812561035e-01 2.709188461303710938e-01 1.355898827314376831e-01
-6.371703147888183594e-01 -1.186307147145271301e-01 -8.139024674892425537e-02
5.493110418319702148e-02 1.868279874324798584e-01 2.102651000022888184e-01
-5.013266801834106445e-01 2.942418754100799561e-01 3.162394091486930847e-02
-5.622051954269409180e-01 -6.407589465379714966e-02 2.126574516296386719e-01
-1.670958548784255981e-01 -5.879908055067062378e-02 2.227321565151214600e-01
-2.591073513031005859e-01 2.906512320041656494e-01 2.867854200303554535e-02
3.551098108291625977e-01 1.649735867977142334e-01 1.180554106831550598e-01
-3.775284811854362488e-02 1.331673562526702881e-02 -4.961490631103515625e-03
-4.717808589339256287e-02 -1.624372415244579315e-02 -1.841223239898681641e-02
-1.129039227962493896e-01 8.174151182174682617e-03 8.259966969490051270e-01
-1.429268121719360352e-01 6.816558539867401123e-03 6.318466067314147949e-01
-1.197514906525611877e-01 -2.137082628905773163e-03 4.532439112663269043e-01
-9.194038808345794678e-02 3.281929716467857361e-02 4.689504206180572510e-01
-8.651405572891235352e-03 -2.235230803489685059e-02 5.869585275650024414e-02
-9.448199719190597534e-02 -5.936666391789913177e-03 1.771315932273864746e-02
-5.836161971092224121e-02 -1.258520036935806274e-02 4.791933298110961914e-01
-1.700964570045471191e-02 -1.739877834916114807e-02 4.231082201004028320e-01
-6.745092570781707764e-03 1.600291579961776733e-05 -1.306993067264556885e-01
-1.577536165714263916e-01 1.315477117896080017e-02 7.082270383834838867e-01
-1.257504671812057495e-01 5.717031657695770264e-03 7.262580394744873047e-01
-5.937094241380691528e-02 1.962768472731113434e-02 6.568005681037902832e-02
1.478397846221923828e-02 1.136907376348972321e-03 2.582937479019165039e-02
-3.848725557327270508e-02 1.552655920386314392e-02 5.008488893508911133e-02
-2.265814691781997681e-02 -3.098854795098304749e-04 -1.759363710880279541e-01
2.328199148178100586e-02 -2.607417292892932892e-03 9.286344051361083984e-03
-1.682992279529571533e-02 1.289240736514329910e-02 1.237463355064392090e-01
-7.070511579513549805e-02 9.949428960680961609e-03 -1.220079958438873291e-01
-1.212446242570877075e-01 -2.350630238652229309e-04 1.152004301548004150e-01
-6.985322386026382446e-02 -4.379114136099815369e-03 6.862214803695678711e-01
-1.983708888292312622e-02 -2.146041579544544220e-02 1.072728633880615234e-01
-1.221239566802978516e-02 -2.216880954802036285e-02 9.321361780166625977e-02
-3.039896860718727112e-02 1.647625491023063660e-02 1.416057795286178589e-01
-1.457984894514083862e-01 1.149117015302181244e-02 7.543133497238159180e-01
-1.968288570642471313e-01 3.053919784724712372e-02 6.406875848770141602e-01
-3.736235946416854858e-02 9.036025963723659515e-03 -8.996179699897766113e-02
2.629791200160980225e-02 -1.949720829725265503e-02 2.925928533077239990e-01
-1.764551699161529541e-01 3.372166305780410767e-02 8.550728559494018555e-01
-1.017058864235877991e-01 2.666196785867214203e-02 1.264631897211074829e-01
2.896346151828765869e-03 5.878564901649951935e-03 5.731785297393798828e-02
-1.614134460687637329e-01 1.957739889621734619e-02 8.259962201118469238e-01
-1.131192296743392944e-01 2.877198345959186554e-02 8.971600532531738281e-01
1.357963681221008301e-02 -2.302766963839530945e-02 1.068657636642456055e-02
-9.365924447774887085e-02 3.240389749407768250e-02 3.966269791126251221e-01
-1.731424927711486816e-01 2.329491637647151947e-02 8.133826255798339844e-01
-1.225544810295104980e-01 3.463993966579437256e-02 3.361122310161590576e-01
4.942357540130615234e-03 -2.321372926235198975e-02 6.766048073768615723e-02
3.233134746551513672e-02 -3.673359751701354980e-03 1.216504871845245361e-01
-1.089084148406982422e-02 -1.797915622591972351e-02 4.086774885654449463e-01
-1.012175977230072021e-01 -4.207059741020202637e-03 5.563434958457946777e-01
2.017315477132797241e-02 -2.233067527413368225e-02 2.010677605867385864e-01
-1.675866544246673584e-02 1.035571936517953873e-02 6.442627310752868652e-01
6.048947572708129883e-03 -2.328282967209815979e-02 9.256899356842041016e-02
-2.264417335391044617e-02 5.871340166777372360e-03 -9.741398692131042480e-02
-1.418651342391967773e-01 3.414166718721389771e-02 2.875455617904663086e-01
-1.532565355300903320e-01 7.578697986900806427e-03 3.075759112834930420e-01
-2.394935116171836853e-02 -1.616559177637100220e-02 4.555000662803649902e-01
-9.585884213447570801e-02 3.299128264188766479e-02 4.196591973304748535e-01
-1.716682612895965576e-01 1.873477920889854431e-02 7.340137958526611328e-01
-1.376952230930328369e-01 3.854314610362052917e-02 4.996733367443084717e-01
-3.925641253590583801e-02 1.743652299046516418e-02 6.987892389297485352e-01
-2.104873582720756531e-02 1.604370027780532837e-02 5.237029790878295898e-01
-8.336999267339706421e-02 -4.242119379341602325e-03 -9.075790643692016602e-02
-1.660537719726562500e-01 2.750779688358306885e-02 2.224771678447723389e-01
-5.080845206975936890e-02 2.439082227647304535e-02 3.698042929172515869e-01
-6.930050998926162720e-02 2.778913825750350952e-02 3.443700969219207764e-01
2.498845756053924561e-02 -2.177569828927516937e-02 -3.481030464172363281e-02
-1.351618617773056030e-01 2.169304527342319489e-03 2.271059304475784302e-01
-2.997495234012603760e-03 -1.787267997860908508e-02 -1.456036269664764404e-01
1.003650575876235962e-02 -1.247981190681457520e-02 4.980390965938568115e-01
-3.562732040882110596e-02 1.013695448637008667e-02 7.643446922302246094e-01
-3.883098438382148743e-02 -1.855130121111869812e-02 2.679200172424316406e-01
-1.712044477462768555e-01 3.833163157105445862e-02 4.620723128318786621e-01
-1.404828727245330811e-01 3.355421125888824463e-02 2.706611156463623047e-01
-1.165439486503601074e-01 3.682964295148849487e-02 5.878907442092895508e-01
-1.644476950168609619e-01 4.065112024545669556e-02 6.553630828857421875e-01
9.937092661857604980e-03 -1.652029156684875488e-02 4.271476864814758301e-01
-1.198574677109718323e-01 3.721886128187179565e-02 5.634689927101135254e-01
-4.088731482625007629e-02 4.114876966923475266e-03 -1.609169542789459229e-01
-1.099779903888702393e-01 3.362628817558288574e-02 7.798694372177124023e-01
-6.694896519184112549e-02 2.815956808626651764e-02 4.367025494575500488e-01
4.150897264480590820e-03 -1.011228188872337341e-03 5.915775299072265625e-01
-4.829220473766326904e-02 2.202106453478336334e-02 2.281837016344070435e-01
-6.718295812606811523e-02 2.136834152042865753e-02 8.139771223068237305e-01
-6.938956677913665771e-02 2.540973387658596039e-02 7.457344532012939453e-01
1.500408351421356201e-02 -1.315848715603351593e-02 4.693654775619506836e-01
1.595075428485870361e-02 -1.929297856986522675e-02 3.397430479526519775e-01
-1.744766831398010254e-01 3.656148165464401245e-02 4.129187762737274170e-01
7.569819688796997070e-03 -2.073154412209987640e-02 3.052500784397125244e-01
-7.440953701734542847e-02 -1.043665967881679535e-02 4.781219959259033203e-01
-1.123147979378700256e-01 1.003487594425678253e-02 8.548853993415832520e-01
-9.513193368911743164e-02 1.132401917129755020e-02 8.866966962814331055e-01
-1.029610633850097656e-01 -7.034828886389732361e-03 2.166201919317245483e-01
-6.320452690124511719e-02 -1.451648771762847900e-03 7.491767406463623047e-01
-2.347265556454658508e-02 1.744523458182811737e-02 4.717568159103393555e-01
-1.103766858577728271e-01 2.790913544595241547e-02 1.441830098628997803e-01
-1.185194551944732666e-01 3.699415177106857300e-02 5.456080436706542969e-01
-9.816786646842956543e-02 3.415730781853199005e-03 7.802773714065551758e-01
-8.372925221920013428e-03 1.255059428513050079e-02 2.334430813789367676e-01
-2.334162220358848572e-02 -1.488617621362209320e-02 4.953363239765167236e-01
-4.259154573082923889e-02 2.270426414906978607e-02 4.820591211318969727e-01
-9.569792449474334717e-02 3.314441069960594177e-02 6.607557535171508789e-01
-1.409476697444915771e-01 3.824648633599281311e-02 7.667659521102905273e-01
-5.120815336704254150e-02 -1.155439019203186035e-02 5.433325171470642090e-01
3.193955868482589722e-02 -2.744730561971664429e-03 2.425186634063720703e-01
-1.283839792013168335e-01 3.742907196283340454e-02 7.305976152420043945e-01
-2.741678059101104736e-02 1.499059516936540604e-02 1.081982254981994629e-01
-7.616546005010604858e-02 -9.648077189922332764e-03 5.020151138305664062e-01
-1.199777498841285706e-01 3.216848522424697876e-02 2.492935657501220703e-01
-5.405797809362411499e-02 2.267259545624256134e-02 6.925306320190429688e-01
-6.336124986410140991e-02 -1.492503471672534943e-02 9.907841682434082031e-02
2.832627296447753906e-02 -2.258078567683696747e-02 3.715309500694274902e-02
-1.167696788907051086e-01 -2.495275810360908508e-03 1.505699753761291504e-01
-1.532787978649139404e-01 7.258885540068149567e-03 4.728468060493469238e-01
-4.979986324906349182e-02 -1.426063850522041321e-02 -7.200661301612854004e-02
1.060858368873596191e-02 -1.781378872692584991e-03 -7.625961303710937500e-02
-8.705645799636840820e-02 2.856912650167942047e-02 7.871420383453369141e-01
-6.742896884679794312e-02 -8.004277944564819336e-03 6.007778644561767578e-01
3.794083744287490845e-02 -1.099048554897308350e-02 3.127170801162719727e-01
-1.953482255339622498e-02 -1.221863366663455963e-02 5.605767965316772461e-01
-8.025407046079635620e-02 -8.526260033249855042e-03 5.235366225242614746e-01
-1.449823752045631409e-02 1.407954655587673187e-02 5.064154267311096191e-01
-1.093347743153572083e-01 3.323666006326675415e-02 3.270117044448852539e-01
-5.405153334140777588e-02 7.934738881886005402e-03 -1.348668634891510010e-01
-1.733449399471282959e-01 4.039235785603523254e-02 6.916685700416564941e-01
-9.610401093959808350e-02 -4.712197929620742798e-03 -2.036720514297485352e-03
-1.223637908697128296e-01 6.823013070970773697e-03 7.689896821975708008e-01
-8.535788208246231079e-02 1.857566460967063904e-02 -1.748871803283691406e-02
-1.130144745111465454e-01 -4.433638416230678558e-03 3.792853355407714844e-01
1.861870288848876953e-03 8.514783345162868500e-03 4.666001796722412109e-01
-1.807083338499069214e-01 3.037315420806407928e-02 8.359465003013610840e-01
4.053834080696105957e-02 -1.988459005951881409e-02 1.263905912637710571e-01
-1.781154870986938477e-01 3.966706991195678711e-02 5.644141435623168945e-01
-6.076266244053840637e-02 2.044241502881050110e-02 8.287131786346435547e-02
-1.534879952669143677e-02 5.191213451325893402e-03 -8.120691776275634766e-02
-1.434560716152191162e-01 4.735996946692466736e-03 2.499949038028717041e-01
-8.601651340723037720e-02 -9.945243597030639648e-03 3.919390439987182617e-01
-6.924246251583099365e-02 -9.492633864283561707e-03 -7.635360956192016602e-02
-9.833245724439620972e-02 2.932700701057910919e-02 2.141435891389846802e-01
-6.651021540164947510e-02 2.298637852072715759e-02 1.353428214788436890e-01
-3.868282213807106018e-02 -1.768488809466362000e-02 3.360570371150970459e-01
-6.739079952239990234e-02 -9.790174663066864014e-03 5.436748862266540527e-01
3.968566656112670898e-03 -8.536953479051589966e-03 -1.774713099002838135e-01
-9.689778089523315430e-02 3.119082190096378326e-02 2.966845929622650146e-01
-1.210569590330123901e-01 1.091338694095611572e-03 7.326585054397583008e-02
-4.431627690792083740e-02 -6.253653205931186676e-03 -1.946559846401214600e-01
-2.032324299216270447e-02 1.559572853147983551e-02 2.203419655561447144e-01
-4.644902795553207397e-02 -1.799166761338710785e-02 2.052615135908126831e-01
-6.799799203872680664e-02 -6.254482083022594452e-03 -1.333564519882202148e-01
1.403882354497909546e-02 3.714168909937143326e-03 1.152623891830444336e-01
-2.034763246774673462e-02 -2.032469026744365692e-02 -1.913201808929443359e-02
-1.843196153640747070e-01 2.888435311615467072e-02 8.022419214248657227e-01
-6.916391104459762573e-02 2.845990471541881561e-02 4.151143431663513184e-01
-7.456875592470169067e-02 2.967217564582824707e-02 5.763365030288696289e-01
-5.295787379145622253e-02 2.241309732198715210e-02 2.027479857206344604e-01
-1.741071343421936035e-01 3.732559457421302795e-02 8.226097822189331055e-01
-1.470267772674560547e-01 1.413340494036674500e-02 8.050121665000915527e-01
-5.650914460420608521e-02 2.603393979370594025e-02 4.938171803951263428e-01
-1.106868013739585876e-01 3.515807911753654480e-02 4.362691044807434082e-01
-1.333120763301849365e-01 8.015614002943038940e-04 3.824703395366668701e-01
-1.400729268789291382e-01 3.255535662174224854e-02 2.438750267028808594e-01
4.040122032165527344e-02 -1.501398533582687378e-02 2.622228264808654785e-01
-1.837355643510818481e-01 1.967790350317955017e-02 4.809770584106445312e-01
-1.434819549322128296e-01 4.826930351555347443e-03 5.202342271804809570e-01
-1.911852359771728516e-01 3.757813572883605957e-02 6.970720291137695312e-01
-1.045843511819839478e-01 -6.485608406364917755e-03 3.616967797279357910e-01
-1.793229728937149048e-01 1.769753545522689819e-02 5.592581629753112793e-01
-1.293535828590393066e-01 3.580968081951141357e-02 3.670288324356079102e-01
-1.860900521278381348e-01 2.802196331322193146e-02 7.781485319137573242e-01
3.638136386871337891e-02 -2.100733667612075806e-02 1.447339951992034912e-01
-1.622940152883529663e-01 4.032916948199272156e-02 5.726953148841857910e-01
-5.542662739753723145e-02 -1.666695997118949890e-02 1.816414594650268555e-01
-1.900574564933776855e-02 -5.288871005177497864e-03 6.650055050849914551e-01
-1.651195287704467773e-01 2.353175543248653412e-02 8.606707453727722168e-01
-4.606295004487037659e-02 1.883489266037940979e-02 7.236459255218505859e-01
-9.839253127574920654e-02 3.507745917886495590e-03 -9.296095371246337891e-02
-3.936424851417541504e-02 -1.905547827482223511e-02 1.161001920700073242e-01
-6.569623947143554688e-03 -2.143962681293487549e-02 -3.554582595825195312e-02
-7.109493017196655273e-04 -2.264228835701942444e-02 2.012068033218383789e-02
-1.035297513008117676e-01 2.778399921953678131e-02 8.809751272201538086e-01
-1.636072993278503418e-01 3.975367546081542969e-02 7.564885616302490234e-01
-4.045229777693748474e-02 1.216397620737552643e-02 -4.126185178756713867e-02
-8.041124790906906128e-02 -5.214525386691093445e-03 6.356035470962524414e-01
-1.363249719142913818e-01 1.937143504619598389e-03 2.794910669326782227e-01
-4.168971255421638489e-02 1.768179051578044891e-02 9.897735714912414551e-02
-5.496253073215484619e-02 -1.662170700728893280e-02 2.284057885408401489e-01
-1.350937634706497192e-01 3.848993033170700073e-02 7.090905308723449707e-01
-7.169015705585479736e-03 -2.249001525342464447e-02 1.451290547847747803e-01
-1.566004306077957153e-01 3.925150632858276367e-02 7.728792428970336914e-01
-3.057112544775009155e-02 -2.025563828647136688e-02 1.310788393020629883e-01
3.444027155637741089e-02 -5.110671743750572205e-03 1.027188897132873535e-01
-5.471049994230270386e-02 -1.559108868241310120e-02 2.114424109458923340e-02
2.855262905359268188e-02 -5.624891258776187897e-03 -8.409202098846435547e-03
-5.953453481197357178e-03 -2.265016362071037292e-02 1.194016188383102417e-01
-8.094204962253570557e-02 -1.116267964243888855e-02 9.439221024513244629e-02
-1.105906069278717041e-02 -1.802420802414417267e-02 -1.317999064922332764e-01
-1.146502271294593811e-01 3.442319110035896301e-02 3.596644103527069092e-01
-1.507649198174476624e-02 1.467701978981494904e-02 2.561362683773040771e-01
-9.327292442321777344e-03 -1.961201429367065430e-02 3.477579355239868164e-01
-7.885898649692535400e-02 2.922056615352630615e-02 3.301798105239868164e-01
1.667933911085128784e-02 -1.853751949965953827e-02 3.589276671409606934e-01
-1.380593180656433105e-01 2.357257157564163208e-02 8.737128973007202148e-02
3.133853524923324585e-02 -4.780719056725502014e-03 5.178585648536682129e-02
-1.058118343353271484e-01 -4.332491196691989899e-03 5.082767009735107422e-01
-4.723221808671951294e-02 2.337057515978813171e-02 5.575542449951171875e-01
-3.447920829057693481e-02 1.869504712522029877e-02 2.049374580383300781e-01
-5.063031613826751709e-02 2.447339147329330444e-02 3.872968256473541260e-01
-8.739227056503295898e-02 -5.226179026067256927e-03 6.051305532455444336e-01
-6.094709038734436035e-03 -1.581433974206447601e-02 4.707568287849426270e-01
-2.193833887577056885e-02 -1.789955049753189087e-02 3.957960009574890137e-01
-4.120134189724922180e-02 1.687381044030189514e-02 7.544443011283874512e-02
-1.380926966667175293e-01 3.921134024858474731e-02 5.910052061080932617e-01
-1.482055038213729858e-01 5.317392759025096893e-03 3.972252309322357178e-01
-1.519373208284378052e-01 8.600500412285327911e-03 2.287743985652923584e-01
-1.600214838981628418e-01 3.903417661786079407e-02 4.755149781703948975e-01
-9.760372340679168701e-03 1.344761531800031662e-02 2.866542339324951172e-01
-9.421744942665100098e-02 -4.366311244666576385e-03 -2.421772480010986328e-02
-1.295153796672821045e-01 3.639885783195495605e-02 7.909438610076904297e-01
-1.278011202812194824e-01 1.516276132315397263e-02 8.867691755294799805e-01
-1.369481682777404785e-01 1.133855525404214859e-02 4.870009422302246094e-02
-6.039322912693023682e-02 -1.456162147223949432e-02 3.611147701740264893e-01
-1.897141337394714355e-04 -2.239711023867130280e-02 2.044439315795898438e-01
-5.312630534172058105e-02 -1.531788893043994904e-02 3.765726089477539062e-01
-7.060403376817703247e-02 -1.273592188954353333e-02 4.544240236282348633e-02
6.033755838871002197e-03 -1.766917854547500610e-02 4.079440236091613770e-01
-1.230347454547882080e-01 9.148118086159229279e-03 8.126280903816223145e-01
7.205009460449218750e-03 7.614883128553628922e-03 3.851123452186584473e-01
-1.126054823398590088e-01 -4.633833654224872589e-03 2.300821095705032349e-01
-8.284024894237518311e-02 -4.245907068252563477e-03 6.535983681678771973e-01
-1.884562969207763672e-01 2.254045195877552032e-02 5.809584259986877441e-01
-1.124399900436401367e-01 4.522979259490966797e-03 -3.772300481796264648e-02
-1.988047361373901367e-02 -1.065855100750923157e-02 5.910348892211914062e-01
-4.328658059239387512e-02 -1.422517932951450348e-02 -1.071368455886840820e-01
-1.405847668647766113e-01 2.908136695623397827e-03 3.682620227336883545e-01
-1.886234879493713379e-01 2.332027442753314972e-02 6.274012327194213867e-01
-2.445792779326438904e-02 -1.237984001636505127e-02 -1.868898570537567139e-01
-1.373680084943771362e-01 3.917358070611953735e-02 6.324778795242309570e-01
-4.969387874007225037e-02 2.264536730945110321e-02 6.442544460296630859e-01
-1.747004985809326172e-01 3.751209378242492676e-02 4.438578486442565918e-01
-6.249275431036949158e-02 2.727158181369304657e-02 5.329231023788452148e-01
3.809481859207153320e-03 -2.035249397158622742e-02 3.233466446399688721e-01
-1.412400230765342712e-02 -1.688368245959281921e-02 4.424690008163452148e-01
-1.364311873912811279e-01 3.746063262224197388e-02 4.289684891700744629e-01
6.341420114040374756e-03 7.446915376931428909e-03 1.840395927429199219e-01
-3.208024799823760986e-02 2.007757127285003662e-02 3.968921303749084473e-01
-4.001684486865997314e-02 -1.550350524485111237e-02 4.388413131237030029e-01
1.224865764379501343e-02 -2.325063198804855347e-02 3.717952966690063477e-02
-5.001010745763778687e-02 -1.693649590015411377e-02 2.853726148605346680e-01
-1.087261587381362915e-01 -4.456516355276107788e-03 4.647592902183532715e-01
-1.462803333997726440e-01 8.723633363842964172e-03 1.532481312751770020e-01
3.774881362915039062e-02 -1.952064037322998047e-02 -8.851855993270874023e-03
-5.462741851806640625e-02 -1.674649491906166077e-02 1.403233110904693604e-01
-3.465548157691955566e-02 1.274321414530277252e-02 7.392977476119995117e-01
-5.332204326987266541e-02 1.306415721774101257e-02 8.241115808486938477e-01
-8.818517625331878662e-02 1.544381584972143173e-02 -6.267625093460083008e-02
-9.053782373666763306e-02 -4.734371788799762726e-03 -4.187068343162536621e-02
-1.587079018354415894e-01 1.254381332546472549e-02 2.136593908071517944e-01
-1.117006391286849976e-01 2.791415899991989136e-04 1.126492023468017578e-02
-1.406563818454742432e-01 7.463417947292327881e-03 1.216137856245040894e-01
-1.362978518009185791e-01 4.675524774938821793e-03 6.133448481559753418e-01
4.232133179903030396e-02 -9.824572131037712097e-03 1.621599495410919189e-01
-1.797848492860794067e-01 3.975354135036468506e-02 7.128506302833557129e-01
-1.590352356433868408e-01 9.238491766154766083e-03 3.634564578533172607e-01
-1.702329814434051514e-01 4.061338305473327637e-02 6.405804157257080078e-01
2.116671204566955566e-02 2.474004402756690979e-03 2.786594331264495850e-01
-6.620892882347106934e-02 -1.480873674154281616e-02 1.994235068559646606e-01
-7.258278131484985352e-02 2.639535628259181976e-02 2.314918041229248047e-01
-1.904979795217514038e-01 3.529990091919898987e-02 4.908834099769592285e-01
-9.750600159168243408e-02 -8.215719833970069885e-03 1.908609122037887573e-01
-1.112261787056922913e-01 -4.778860136866569519e-03 2.012068778276443481e-01
-1.044956892728805542e-01 -1.366292126476764679e-03 6.392241716384887695e-01
-2.338322624564170837e-02 -2.000010013580322266e-02 2.797868847846984863e-01
-2.666634693741798401e-02 4.374190699309110641e-03 -1.322553455829620361e-01
-8.134722709655761719e-03 -9.118970483541488647e-04 -1.472690403461456299e-01
-7.968360185623168945e-02 1.646900922060012817e-02 -4.591441154479980469e-02
2.689310163259506226e-02 -2.059763856232166290e-02 2.527128159999847412e-01
-1.253027915954589844e-01 2.185554429888725281e-02 9.359794855117797852e-01
-5.535285919904708862e-02 -4.093865863978862762e-03 -1.835556328296661377e-01
-1.028623431921005249e-01 3.485766798257827759e-02 5.656144618988037109e-01
-1.128913164138793945e-01 2.415227517485618591e-02 6.491312384605407715e-02
-4.976689070463180542e-02 1.957837864756584167e-02 1.128806173801422119e-01
-1.690903306007385254e-01 1.451469399034976959e-02 6.182331442832946777e-01
-1.673486977815628052e-01 1.427205186337232590e-02 6.358830928802490234e-01
-5.542125180363655090e-02 -1.601459272205829620e-02 5.981057882308959961e-02
-6.683759391307830811e-02 -1.281154714524745941e-02 4.128823280334472656e-01
-1.542937159538269043e-01 2.174586430191993713e-02 8.848576545715332031e-01
-1.344017833471298218e-01 3.097051009535789490e-02 2.039164006710052490e-01
-9.734769910573959351e-02 1.405035238713026047e-02 9.052230119705200195e-01
-1.511252522468566895e-01 4.016580432653427124e-02 6.049294471740722656e-01
-7.428724318742752075e-02 -1.095028035342693329e-02 2.234488725662231445e-03
-7.386624068021774292e-02 1.692233607172966003e-02 8.755726814270019531e-01
9.108096361160278320e-03 -2.321051061153411865e-02 1.380212754011154175e-01
-7.563497126102447510e-02 -1.300947368144989014e-02 1.867423504590988159e-01
-1.878432929515838623e-01 3.786595910787582397e-02 7.351485490798950195e-01
-9.089758992195129395e-02 -8.738618344068527222e-03 4.147795438766479492e-01
-1.517404466867446899e-01 8.923123590648174286e-03 6.180019378662109375e-01
3.297355026006698608e-02 -6.157463416457176208e-03 3.487137556076049805e-01
-8.258105069398880005e-02 -1.138197630643844604e-02 1.510695517063140869e-01
-1.250213980674743652e-01 2.626483328640460968e-02 1.053428351879119873e-01
-1.081842780113220215e-01 1.097480580210685730e-02 8.733539581298828125e-01
-8.561533689498901367e-02 3.173016943037509918e-03 7.995196580886840820e-01
-1.031417772173881531e-01 3.486588597297668457e-02 5.377256274223327637e-01
-1.575767695903778076e-01 2.597475983202457428e-02 1.718750745058059692e-01
-8.915350586175918579e-02 -2.549409866333007812e-03 6.758919954299926758e-01
9.301565587520599365e-03 -2.222647890448570251e-02 2.286795079708099365e-01
-3.440004214644432068e-02 -1.520201750099658966e-02 4.675805568695068359e-01
-4.942617565393447876e-02 -1.729692332446575165e-02 8.212146162986755371e-02
-1.404732018709182739e-01 3.051526378840208054e-03 4.269490242004394531e-01
-1.197361648082733154e-01 3.694011270999908447e-02 6.712234020233154297e-01
-1.091287434101104736e-01 -1.945132389664649963e-03 3.887298703193664551e-02
-1.128121763467788696e-01 2.289791032671928406e-02 4.438570141792297363e-02
-1.536909341812133789e-01 7.650100160390138626e-03 5.026136040687561035e-01
-1.549939513206481934e-01 3.832999989390373230e-02 8.075281977653503418e-01
-1.399084031581878662e-01 3.914291411638259888e-02 6.912139654159545898e-01
-1.843529045581817627e-01 1.992597058415412903e-02 5.050842761993408203e-01
-1.387065649032592773e-01 3.916227817535400391e-02 6.715296506881713867e-01
-1.442542076110839844e-01 3.843185305595397949e-02 4.615037441253662109e-01
1.312319934368133545e-02 -2.105431444942951202e-02 2.839903235435485840e-01
-1.184329837560653687e-01 3.939876332879066467e-04 6.055074930191040039e-01
-2.196639403700828552e-02 1.185952872037887573e-02 4.282617568969726562e-02
-4.413761198520660400e-03 3.186840098351240158e-03 -6.749075651168823242e-02
-5.231796205043792725e-02 -1.370085030794143677e-02 4.619046449661254883e-01
3.687790781259536743e-02 -5.665321834385395050e-03 2.173343151807785034e-01
1.052450388669967651e-02 5.667066667228937149e-03 1.572332233190536499e-01
-1.818724572658538818e-01 3.336863219738006592e-02 3.806271851062774658e-01
1.425624638795852661e-02 1.067643519490957260e-03 4.900702238082885742e-01
-1.245098486542701721e-01 -1.444742083549499512e-03 4.035592377185821533e-01
-1.843675971031188965e-01 3.944818675518035889e-02 6.198687553405761719e-01
-1.445505768060684204e-02 1.437515299767255783e-02 4.865276813507080078e-01
1.533455401659011841e-02 -2.340021729469299316e-02 7.940623164176940918e-02
3.295844793319702148e-02 -1.249892078340053558e-02 3.650052547454833984e-01
-1.838255524635314941e-01 1.969419047236442566e-02 5.376709699630737305e-01
-2.162622287869453430e-02 1.661539264023303986e-02 2.745876312255859375e-01
-8.842658996582031250e-02 -1.039074733853340149e-02 2.737197279930114746e-01
-1.079936698079109192e-01 3.118302673101425171e-03 7.440468668937683105e-01
-1.152648776769638062e-01 3.663957864046096802e-02 6.061971783638000488e-01
-1.302547454833984375e-01 7.625408470630645752e-04 2.118615508079528809e-01
-7.828071713447570801e-03 9.572275914251804352e-03 8.268535137176513672e-02
-8.182651549577713013e-02 2.883139252662658691e-02 2.811493873596191406e-01
6.287716329097747803e-03 -2.394849434494972229e-04 5.743468999862670898e-01
-2.136084437370300293e-02 4.718592390418052673e-03 7.172517776489257812e-01
-7.234992086887359619e-02 -5.000021308660507202e-03 6.662244796752929688e-01
-1.018631085753440857e-01 3.449142724275588989e-02 6.307014226913452148e-01
-4.915682598948478699e-02 -7.955711334943771362e-04 7.570664882659912109e-01
-1.581521630287170410e-01 9.034098125994205475e-03 3.472771942615509033e-01
-1.397833973169326782e-02 1.492596045136451721e-02 4.047248959541320801e-01
-1.701169759035110474e-01 3.908635303378105164e-02 7.835730314254760742e-01
-9.058726578950881958e-02 3.248360380530357361e-02 4.518289864063262939e-01
-1.349720656871795654e-01 3.687965869903564453e-02 4.020098745822906494e-01
-7.824758440256118774e-02 6.865000352263450623e-03 8.487175703048706055e-01
-3.551333397626876831e-02 2.031060308218002319e-02 5.407498478889465332e-01
-9.991534054279327393e-02 7.263473700731992722e-03 8.386210203170776367e-01
8.425623178482055664e-03 7.393244188278913498e-03 3.551478087902069092e-01
-1.537870913743972778e-01 1.819199696183204651e-02 8.424356579780578613e-01
-2.531207352876663208e-02 8.890450000762939453e-03 -5.062356591224670410e-02
2.317460626363754272e-02 -1.461053080856800079e-02 4.105006158351898193e-01
-1.324887275695800781e-01 2.275460585951805115e-02 6.621327996253967285e-02
-2.961243689060211182e-02 -1.767667755484580994e-02 -7.846915721893310547e-02
-1.377629786729812622e-01 2.749855816364288330e-02 1.388910263776779175e-01
-1.591099426150321960e-02 -1.894993893802165985e-02 3.649494051933288574e-01
-7.096983492374420166e-03 -2.226704545319080353e-02 1.825477182865142822e-01
-5.424909293651580811e-02 -1.591620594263076782e-02 3.245227336883544922e-01
-1.644774079322814941e-01 1.401197165250778198e-02 6.652166843414306641e-01
-1.837188899517059326e-01 3.067140839993953705e-02 3.589974641799926758e-01
-3.143760934472084045e-02 -1.970655843615531921e-02 2.356003224849700928e-01
-7.626616209745407104e-02 -2.837841399013996124e-03 7.062058448791503906e-01
-6.730563938617706299e-03 1.241444796323776245e-02 4.252467453479766846e-01
-9.409151226282119751e-02 2.542535401880741119e-02 1.102532446384429932e-01
-5.971185863018035889e-02 -1.592222787439823151e-02 1.585264503955841064e-01
4.432369768619537354e-02 -1.625591889023780823e-02 6.255018711090087891e-02
-4.292204976081848145e-03 1.130207628011703491e-02 4.465392827987670898e-01
-1.677285507321357727e-02 1.097455620765686035e-03 6.973618268966674805e-01
-4.467650130391120911e-02 -8.938588201999664307e-03 6.239054799079895020e-01
-1.084440797567367554e-01 7.926071994006633759e-03 -6.950965523719787598e-02
