-8.772651553153991699e-01 2.066380977630615234e-01 1.394076645374298096e-01
2.638404965400695801e-01 -9.217678010463714600e-02 -1.030429266393184662e-04
-8.414040207862854004e-01 2.471044361591339111e-01 -3.039434738457202911e-02
-3.179858028888702393e-01 -1.030905842781066895e-01 1.560864150524139404e-01
-6.281270980834960938e-01 1.787873208522796631e-01 2.330325394868850708e-01
-9.176685810089111328e-01 1.729811429977416992e-01 -1.802190840244293213e-01
3.786110281944274902e-01 2.032752931118011475e-01 5.853270646184682846e-03
4.380006790161132812e-01 5.753688886761665344e-02 1.577457487583160400e-01
2.789013981819152832e-01 1.880910247564315796e-01 -1.479922533035278320e-01
-8.912357091903686523e-01 2.054304331541061401e-01 -1.441320031881332397e-01
4.565052986145019531e-01 -1.416127383708953857e-02 9.366223961114883423e-02
-9.348577260971069336e-01 -7.143172621726989746e-02 5.435337871313095093e-02
-5.511865615844726562e-01 2.624897062778472900e-01 -1.133139953017234802e-01
-7.981240749359130859e-01 4.677333310246467590e-02 2.402487993240356445e-01
-7.704615592956542969e-01 8.974830061197280884e-02 2.491957396268844604e-01
-4.359625279903411865e-01 2.799454331398010254e-01 -5.400698632001876831e-02
-5.247914791107177734e-02 2.265962213277816772e-01 1.807273924350738525e-01
-7.048916816711425781e-01 2.221475690603256226e-01 1.677785515785217285e-01
2.833061814308166504e-01 -6.025058031082153320e-02 1.196550950407981873e-01
-5.772572755813598633e-02 2.729443013668060303e-01 -2.976024337112903595e-02
-6.342453956604003906e-01 -2.424441277980804443e-02 2.322607636451721191e-01
4.983220696449279785e-01 1.399920731782913208e-01 7.489947974681854248e-02
-2.630776762962341309e-01 8.100195229053497314e-02 -3.003809154033660889e-01
6.952759623527526855e-02 2.063541859388351440e-01 1.875581890344619751e-01
-7.121418118476867676e-01 2.045417129993438721e-01 1.917874664068222046e-01
1.113168597221374512e-01 2.284779995679855347e-01 1.374748051166534424e-01
-1.130609035491943359e+00 2.625159174203872681e-02 -1.167492792010307312e-01
4.667848348617553711e-01 1.685512363910675049e-01 4.020154476165771484e-02
-1.020250558853149414e+00 1.800405979156494141e-01 1.118643730878829956e-01
-1.558039635419845581e-01 6.722266972064971924e-02 2.866013646125793457e-01
-1.084862232208251953e+00 1.514136344194412231e-01 1.103751212358474731e-01
-1.050481200218200684e-01 1.369233578443527222e-01 2.699674069881439209e-01
-3.959612846374511719e-01 2.821375727653503418e-01 -4.192991554737091064e-02
-7.653841376304626465e-01 -1.059584319591522217e-01 -5.633236840367317200e-02
-2.416909635066986084e-01 -1.167473644018173218e-01 -1.405733227729797363e-01
-6.419905424118041992e-01 -1.153300255537033081e-01 -8.818615972995758057e-02
1.212125718593597412e-01 1.143596470355987549e-01 2.485437542200088501e-01
5.449241399765014648e-02 6.006614491343498230e-02 -2.736085355281829834e-01
5.053134560585021973e-01 -1.800704002380371094e-02 9.152302518486976624e-04
-1.076907873153686523e+00 1.618006080389022827e-01 -1.137723326683044434e-01
-7.506792247295379639e-02 4.729406535625457764e-02 -2.882926166057586670e-01
4.048883914947509766e-01 -2.297181636095046997e-02 -1.268205195665359497e-01
-1.210797309875488281e+00 7.955805212259292603e-02 -5.175006389617919922e-02
1.636478602886199951e-01 1.550679802894592285e-01 -2.220953553915023804e-01
-6.770235300064086914e-02 -9.917715191841125488e-02 1.470572352409362793e-01
4.634576439857482910e-01 2.325776964426040649e-02 -1.371342688798904419e-01
-2.322840690612792969e-02 1.688980460166931152e-01 -2.463218867778778076e-01
-3.065682649612426758e-01 2.518114447593688965e-01 1.569352596998214722e-01
4.240774512290954590e-01 9.604522585868835449e-02 1.617195010185241699e-01
-1.183055639266967773e-01 6.238527595996856689e-02 2.838758826255798340e-01
-8.299313485622406006e-02 -2.623883634805679321e-02 -2.579672634601593018e-01
3.666161298751831055e-01 1.539976596832275391e-01 1.506991237401962280e-01
6.609141826629638672e-02 -4.560612142086029053e-03 2.409169971942901611e-01
3.124840259552001953e-01 2.134546190500259399e-01 -6.430514901876449585e-02
1.930207014083862305e-01 2.340543121099472046e-01 8.300951123237609863e-02
-1.404445171356201172e-01 2.755478322505950928e-01 5.575978383421897888e-02
-1.050670862197875977e+00 1.515216380357742310e-02 1.410243958234786987e-01
-2.929606735706329346e-01 2.069279998540878296e-01 2.268467694520950317e-01
2.263921499252319336e-01 2.384060323238372803e-01 -9.354181587696075439e-03
-1.205993652343750000e+00 1.155651658773422241e-01 -8.161621168255805969e-03
4.041854143142700195e-01 4.108544439077377319e-02 -1.764668077230453491e-01
2.484942078590393066e-01 6.726461648941040039e-02 2.270810008049011230e-01
3.275413513183593750e-01 -5.900694429874420166e-02 9.708510339260101318e-02
5.811705589294433594e-01 8.306527137756347656e-02 -4.361053463071584702e-03
-3.926746249198913574e-01 5.806430056691169739e-02 2.887342274188995361e-01
3.459202647209167480e-01 -6.191059947013854980e-02 7.526306807994842529e-02
-9.869987368583679199e-01 -4.729979485273361206e-02 8.794409036636352539e-02
-7.277529239654541016e-01 7.232455909252166748e-02 -2.707525193691253662e-01
-3.913054764270782471e-01 2.766135931015014648e-01 7.791647315025329590e-02
5.016663074493408203e-01 1.553765237331390381e-01 -1.931617595255374908e-02
-8.408538699150085449e-01 2.482867240905761719e-01 -4.885150119662284851e-04
-9.595743417739868164e-01 1.042557880282402039e-01 -2.115596383810043335e-01
-8.179564476013183594e-01 1.221889182925224304e-01 2.320683300495147705e-01
-4.888470172882080078e-01 -1.343258321285247803e-01 -1.675120741128921509e-02
1.873861551284790039e-01 -7.871162891387939453e-02 -1.370745450258255005e-01
-4.273063242435455322e-01 -4.411391913890838623e-03 2.659558951854705811e-01
-6.906273365020751953e-01 -6.328907608985900879e-02 -1.982634961605072021e-01
-2.389069050550460815e-01 -1.160068958997726440e-01 1.239928975701332092e-01
-1.093600988388061523e+00 1.649616956710815430e-01 8.263126015663146973e-02
-6.874477267265319824e-01 2.612883150577545166e-01 -7.318401336669921875e-02
-5.134064555168151855e-01 1.657820492982864380e-01 -2.629559636116027832e-01
-6.789321899414062500e-01 -8.646804094314575195e-02 -1.616817265748977661e-01
-2.204923331737518311e-01 2.193371802568435669e-01 -2.122818529605865479e-01
-1.526870131492614746e-01 2.792129516601562500e-01 -2.585340477526187897e-02
8.956030011177062988e-02 2.256965339183807373e-01 -1.509882211685180664e-01
6.221470236778259277e-02 -1.202429383993148804e-01 -3.785517066717147827e-02
-8.551351428031921387e-01 1.276997029781341553e-01 2.209119945764541626e-01
-5.374639034271240234e-01 -1.417152583599090576e-02 2.517290413379669189e-01
-5.785970687866210938e-01 1.752206981182098389e-01 -2.498449832201004028e-01
-8.680708408355712891e-01 1.679484844207763672e-01 -2.014469653367996216e-01
-5.916655659675598145e-01 2.352879941463470459e-01 1.677549630403518677e-01
-9.286212325096130371e-01 1.687143370509147644e-02 -2.106276452541351318e-01
-7.432054281234741211e-01 -6.206203997135162354e-02 -1.874597221612930298e-01
2.759446501731872559e-01 4.894156754016876221e-02 -2.247056514024734497e-01
2.895511984825134277e-01 1.992838829755783081e-01 -1.222570762038230896e-01
-4.155063033103942871e-01 -1.192130297422409058e-01 1.096893027424812317e-01
-9.766544699668884277e-01 8.485880494117736816e-02 -2.096024751663208008e-01
5.994483828544616699e-02 2.623182535171508789e-01 2.192339301109313965e-02
-8.405266404151916504e-01 1.897161602973937988e-01 -1.858620941638946533e-01
-1.047123908996582031e+00 -1.400680094957351685e-02 1.103105619549751282e-01
-8.936701416969299316e-01 1.539621055126190186e-01 1.950266361236572266e-01
1.753159761428833008e-01 2.451778501272201538e-01 -3.770841658115386963e-02
-7.283059358596801758e-01 1.225410401821136475e-01 2.499031275510787964e-01
2.524435520172119141e-03 2.554708123207092285e-01 -1.003120467066764832e-01
-5.579808950424194336e-01 2.317880243062973022e-01 -1.839318126440048218e-01
-1.181186079978942871e+00 3.908976912498474121e-02 5.898268893361091614e-02
4.916521906852722168e-02 -7.762201130390167236e-02 1.663418561220169067e-01
-5.763378143310546875e-01 6.854313611984252930e-02 -2.901074290275573730e-01
-7.459663152694702148e-01 2.613495588302612305e-01 -1.625316776335239410e-02
-3.484196662902832031e-01 1.526884585618972778e-01 2.707844376564025879e-01
3.741055727005004883e-01 -6.661815941333770752e-02 3.716792445629835129e-03
-2.157822251319885254e-01 -1.382551342248916626e-01 -3.480421612039208412e-03
-9.025789499282836914e-01 2.082706391811370850e-01 -1.335594207048416138e-01
-7.813752889633178711e-01 2.569469213485717773e-01 7.206573616713285446e-03
-2.620807588100433350e-01 2.560126036405563354e-02 -2.945182025432586670e-01
-6.536729335784912109e-01 -9.815686941146850586e-02 -1.419030576944351196e-01
-6.635783910751342773e-01 -6.935095787048339844e-02 -1.951777786016464233e-01
-4.597218930721282959e-01 5.722580477595329285e-02 2.856953740119934082e-01
3.387780785560607910e-01 -7.578359544277191162e-02 3.898328635841608047e-03
4.530910253524780273e-01 -1.427566260099411011e-02 -1.052772924304008484e-01
5.632323026657104492e-01 5.087551474571228027e-02 -6.046230718493461609e-02
-8.546875119209289551e-01 -4.866871982812881470e-02 -1.728116124868392944e-01
2.072990536689758301e-01 1.052798181772232056e-01 -2.382640391588211060e-01
-2.287881672382354736e-01 2.304469197988510132e-01 -1.961707472801208496e-01
-7.398667335510253906e-01 -1.059635281562805176e-01 5.668824911117553711e-02
4.021538496017456055e-01 1.715505570173263550e-01 1.048666760325431824e-01
-8.868432641029357910e-01 8.665396273136138916e-02 -2.365610897541046143e-01
6.134647130966186523e-02 -1.283234357833862305e-02 -2.479256987571716309e-01
-2.034578919410705566e-01 -2.316695451736450195e-02 -2.689759433269500732e-01
-3.150457143783569336e-01 1.107983365654945374e-01 2.871260344982147217e-01
3.949633836746215820e-01 1.977975070476531982e-01 -1.776907034218311310e-02
-1.129384517669677734e+00 2.274438738822937012e-04 6.290971487760543823e-02
-8.138724565505981445e-01 2.328716516494750977e-01 -1.166391819715499878e-01
-4.017433524131774902e-01 3.591567277908325195e-03 2.714405953884124756e-01
-8.603274226188659668e-01 1.258621215820312500e-01 -2.322433888912200928e-01
-7.431927919387817383e-01 3.572215884923934937e-02 2.480028420686721802e-01
2.839419245719909668e-02 1.061057895421981812e-01 2.657853662967681885e-01
-4.430565237998962402e-01 1.308295875787734985e-01 -2.866458296775817871e-01
-6.480543017387390137e-01 1.271003484725952148e-02 2.541766464710235596e-01
1.376015543937683105e-01 2.524402737617492676e-01 2.007180266082286835e-02
-1.004417419433593750e+00 2.134350538253784180e-01 -2.300412394106388092e-02
-3.977440297603607178e-01 -1.361376047134399414e-01 2.742403373122215271e-02
-6.511824131011962891e-01 9.193605184555053711e-02 -2.803476750850677490e-01
-2.070162296295166016e-01 2.523351609706878662e-01 -1.521297395229339600e-01
-4.246263206005096436e-01 2.289985418319702148e-01 -1.999601274728775024e-01
-6.389701962471008301e-01 -1.206710338592529297e-01 -5.777913331985473633e-02
3.735741376876831055e-01 1.820762827992439270e-02 1.722825318574905396e-01
-3.152914643287658691e-01 1.513782590627670288e-01 2.716820538043975830e-01
-9.489371180534362793e-01 2.045324817299842834e-02 -2.057591825723648071e-01
-8.706764876842498779e-02 -1.322574317455291748e-01 1.970575749874114990e-02
9.428328275680541992e-02 2.384249269962310791e-01 1.191949173808097839e-01
-7.443916797637939453e-01 -9.900620579719543457e-02 8.398998528718948364e-02
2.962290644645690918e-01 -8.441820740699768066e-02 -3.423453867435455322e-02
2.107228040695190430e-01 5.193836987018585205e-03 -2.271926552057266235e-01
-1.865267306566238403e-01 2.750527858734130859e-01 -7.262788712978363037e-02
-2.303999960422515869e-01 2.054667621850967407e-01 2.266366332769393921e-01
-7.566617429256439209e-02 -5.419263243675231934e-02 2.176480889320373535e-01
-3.142618834972381592e-01 -5.852296948432922363e-03 -2.822087109088897705e-01
-1.199343204498291016e+00 3.182965144515037537e-02 -7.866822183132171631e-03
-9.360006451606750488e-02 8.210408687591552734e-02 2.823468446731567383e-01
-2.921101152896881104e-01 -1.369369626045227051e-01 3.300617262721061707e-02
1.713114976882934570e-02 2.342098057270050049e-01 -1.535325348377227783e-01
4.953862428665161133e-01 -2.173313498497009277e-02 1.737727597355842590e-02
-3.636229038238525391e-01 -1.106899380683898926e-01 1.373678296804428101e-01
-6.121681928634643555e-01 -1.257880032062530518e-01 -2.272598445415496826e-02
-9.862120449542999268e-02 -1.296455115079879761e-01 -6.745301932096481323e-02
-3.321540355682373047e-01 2.798421084880828857e-01 -6.308507919311523438e-02
-7.778830528259277344e-01 6.885503977537155151e-02 2.479214221239089966e-01
-4.243458509445190430e-01 2.517804503440856934e-03 -2.843325436115264893e-01
-9.241449236869812012e-01 2.330397069454193115e-01 -3.000066848471760750e-03
-2.049515247344970703e-01 2.747342884540557861e-01 -7.816277444362640381e-02
-7.171666026115417480e-01 -9.647059440612792969e-02 1.043688654899597168e-01
-1.024496316909790039e+00 1.486695930361747742e-02 1.539707481861114502e-01
1.437672078609466553e-01 7.536987960338592529e-02 2.508024275302886963e-01
-6.141483783721923828e-03 2.665725052356719971e-01 -4.914877936244010925e-02
4.009509086608886719e-01 1.521821618080139160e-01 1.345208287239074707e-01
-6.813633441925048828e-01 -9.542883932590484619e-02 -1.405747681856155396e-01
-4.762466549873352051e-01 2.160936966538429260e-02 -2.895174026489257812e-01
-7.376670241355895996e-01 1.751791238784790039e-01 -2.262588292360305786e-01
1.180208325386047363e-01 1.835423111915588379e-01 -2.065239101648330688e-01
1.909704804420471191e-01 1.088634058833122253e-01 -2.410160601139068604e-01
2.962298989295959473e-01 2.218917310237884521e-01 -3.836480528116226196e-02
-8.784031867980957031e-01 2.563185989856719971e-02 -2.297886759042739868e-01
-8.601156473159790039e-01 -2.246581017971038818e-03 2.015566229820251465e-01
-6.083840131759643555e-01 -5.503833293914794922e-02 2.053243964910507202e-01
-6.945959329605102539e-01 8.503097295761108398e-02 2.626750767230987549e-01
-4.444764852523803711e-01 2.820788919925689697e-01 -3.085719048976898193e-02
-6.959215998649597168e-01 1.909100264310836792e-01 -2.185000330209732056e-01
-6.543168425559997559e-02 1.874138042330741882e-02 -2.803184688091278076e-01
1.017331182956695557e-01 -1.153560876846313477e-01 -4.296125844120979309e-02
3.772179484367370605e-01 2.025869190692901611e-01 2.479051053524017334e-02
-1.606855988502502441e-01 9.302012622356414795e-02 2.860239148139953613e-01
-1.170005649328231812e-01 -1.101842820644378662e-01 1.282648146152496338e-01
-1.026384830474853516e+00 -5.471350252628326416e-02 -1.146527379751205444e-02
-1.110237956047058105e+00 1.360626220703125000e-01 -1.221935600042343140e-01
-3.559681773185729980e-01 -1.378336250782012939e-01 -3.735776618123054504e-02
1.638397276401519775e-01 2.482064664363861084e-01 -2.429618500173091888e-02
1.067204177379608154e-01 -7.812891900539398193e-02 1.513762921094894409e-01
1.468232870101928711e-01 1.584913134574890137e-01 -2.234126180410385132e-01
-8.465678095817565918e-01 -8.574512600898742676e-02 -9.300784766674041748e-02
-6.240979433059692383e-01 -1.228032410144805908e-01 2.975119277834892273e-02
1.864488720893859863e-01 -5.432789027690887451e-02 1.670656055212020874e-01
-1.057244300842285156e+00 -3.700672835111618042e-02 -7.029484212398529053e-02
-3.883236348628997803e-01 -8.965560793876647949e-02 1.791055947542190552e-01
-8.753343820571899414e-01 5.036585032939910889e-02 2.227005660533905029e-01
-3.226312696933746338e-01 -1.390523612499237061e-01 -1.580940373241901398e-02
-5.919243097305297852e-01 -1.165109872817993164e-01 -1.030276343226432800e-01
-3.201415240764617920e-01 -1.350380629301071167e-01 -6.776660680770874023e-02
-3.008711040019989014e-01 1.626741439104080200e-01 2.650167346000671387e-01
2.523211240768432617e-01 -9.366105496883392334e-02 1.527247950434684753e-02
4.688225388526916504e-01 1.712735891342163086e-01 -1.465899124741554260e-02
-6.053869724273681641e-01 -1.132821142673492432e-01 -1.108886078000068665e-01
-4.550520181655883789e-01 2.828626036643981934e-01 4.273583181202411652e-04
-6.230657100677490234e-01 -5.752475559711456299e-02 1.998959481716156006e-01
5.672573447227478027e-01 6.879530102014541626e-02 -5.825712531805038452e-02
-1.002123594284057617e+00 -5.974243581295013428e-02 -4.353285580873489380e-02
2.546212673187255859e-01 2.134309709072113037e-01 -1.089704334735870361e-01
-1.202426195144653320e+00 4.760904237627983093e-02 -5.075563117861747742e-02
-6.219419836997985840e-01 2.732914090156555176e-01 -2.314969711005687714e-02
-1.457238197326660156e-01 2.593961358070373535e-01 -1.257120668888092041e-01
-3.084331750869750977e-01 -1.378263980150222778e-01 -4.316753149032592773e-02
1.107361316680908203e-01 -1.123927682638168335e-01 -5.859909206628799438e-02
-8.929355144500732422e-01 2.345200926065444946e-01 5.075406655669212341e-02
5.000949501991271973e-01 9.301409125328063965e-03 -9.706735610961914062e-02
1.964048147201538086e-01 1.831758916378021240e-01 1.837096959352493286e-01
-9.350178241729736328e-01 -7.561498880386352539e-02 3.115832805633544922e-02
-6.479129791259765625e-01 7.833153009414672852e-02 2.695362865924835205e-01
-9.569910764694213867e-01 -6.048050522804260254e-02 7.466893643140792847e-02
1.861131191253662109e-02 -1.256120204925537109e-01 -9.924113750457763672e-03
-9.823998808860778809e-01 2.076804637908935547e-01 -8.519603312015533447e-02
-3.712027370929718018e-01 1.437972337007522583e-01 2.749390602111816406e-01
-4.762333035469055176e-01 3.758251294493675232e-02 -2.939804792404174805e-01
-3.847467899322509766e-02 1.533131897449493408e-01 -2.596167623996734619e-01
-1.217677950859069824e+00 7.425921410322189331e-02 -3.179476782679557800e-02
-2.478674054145812988e-01 -1.388418823480606079e-01 -6.709278561174869537e-03
-6.742559075355529785e-01 2.499616593122482300e-01 1.159659177064895630e-01
4.796933531761169434e-01 -6.671473383903503418e-03 8.546562492847442627e-02
-4.410038292407989502e-01 -1.364192962646484375e-01 -1.770801097154617310e-02
1.578278839588165283e-01 -5.293074250221252441e-02 -1.899886280298233032e-01
-2.238169610500335693e-01 4.550129175186157227e-03 -2.855353057384490967e-01
2.035010457038879395e-01 -9.284178912639617920e-02 -8.842725306749343872e-02
2.253544330596923828e-01 2.363430410623550415e-01 -3.929677605628967285e-02
2.094975113868713379e-01 -8.507995307445526123e-02 9.682122617959976196e-02
-1.517492532730102539e-02 -1.200375854969024658e-01 -8.869472891092300415e-02
-2.952219247817993164e-01 -8.421154320240020752e-02 1.903753131628036499e-01
-3.777740895748138428e-01 2.395467460155487061e-01 -1.838302463293075562e-01
-8.312888145446777344e-01 1.285253167152404785e-01 2.264687716960906982e-01
-7.437660098075866699e-01 -1.114521026611328125e-01 -2.622305043041706085e-02
-3.982969522476196289e-01 1.410967409610748291e-01 -2.834204137325286865e-01
-4.265108108520507812e-01 -1.369999647140502930e-01 -1.159902662038803101e-02
-4.681558012962341309e-01 1.497176289558410645e-02 2.734208405017852783e-01
2.451843619346618652e-01 2.279246598482131958e-01 6.726112216711044312e-02
-1.800053119659423828e-01 2.393633723258972168e-01 -1.767649352550506592e-01
-1.777604818344116211e-01 -1.323093473911285400e-01 -7.290064543485641479e-02
-2.809747755527496338e-01 -3.728774189949035645e-02 2.455063313245773315e-01
-1.061521530151367188e+00 6.420330703258514404e-02 -1.751853972673416138e-01
-5.254005193710327148e-01 5.572099983692169189e-02 -2.936706244945526123e-01
3.953867554664611816e-01 1.682716980576515198e-02 -1.698958873748779297e-01
1.845383048057556152e-01 -1.058737486600875854e-01 -8.577913977205753326e-03
-8.192854523658752441e-01 3.793127834796905518e-03 2.165906876325607300e-01
-1.032040834426879883e+00 1.332005560398101807e-01 1.567434668540954590e-01
-7.964780926704406738e-02 -8.777472376823425293e-02 1.710346043109893799e-01
2.844851613044738770e-01 -1.440197974443435669e-02 1.815256625413894653e-01
1.131206750869750977e-03 -9.731356799602508545e-02 -1.541576683521270752e-01
5.663360357284545898e-01 5.687242746353149414e-02 5.304915085434913635e-02
8.046627044677734375e-07 2.483683377504348755e-01 1.234938725829124451e-01
-2.833402752876281738e-01 -9.792135655879974365e-02 -1.845645606517791748e-01
1.644038259983062744e-01 -4.439336806535720825e-02 1.861720681190490723e-01
-6.476640701293945312e-02 2.194770723581314087e-01 1.936968117952346802e-01
4.655861854553222656e-02 1.148030161857604980e-01 -2.668612897396087646e-01
2.170438766479492188e-01 8.353573828935623169e-02 -2.407764196395874023e-01
-4.015962481498718262e-01 2.567474246025085449e-01 -1.467032432556152344e-01
-7.353042364120483398e-01 2.616218924522399902e-01 2.789842337369918823e-02
-6.043984889984130859e-01 1.741739362478256226e-01 -2.478109002113342285e-01
-1.200593709945678711e+00 3.636259585618972778e-02 1.392253674566745758e-02
-4.820346832275390625e-01 2.676553726196289062e-01 -1.074645817279815674e-01
1.928201913833618164e-01 -1.035805195569992065e-01 -3.376423940062522888e-02
-4.551520347595214844e-01 -1.062480211257934570e-01 1.405324935913085938e-01
-1.061498165130615234e+00 1.863582730293273926e-01 6.366655975580215454e-02
1.321589350700378418e-01 -1.127510964870452881e-01 1.114778965711593628e-02
-5.012551546096801758e-01 2.785449624061584473e-01 -4.720981046557426453e-02
1.825288534164428711e-01 2.269336879253387451e-01 -1.118227913975715637e-01
-8.818649053573608398e-01 2.216944545507431030e-01 -1.130329295992851257e-01
-5.249561071395874023e-01 2.485514283180236816e-01 1.512839496135711670e-01
2.333021163940429688e-01 -7.683366537094116211e-02 1.070551499724388123e-01
-1.794556379318237305e-01 -8.899097144603729248e-02 -1.955923438072204590e-01
-3.875087797641754150e-01 2.782777845859527588e-01 -7.095593959093093872e-02
-6.306376457214355469e-01 2.729238867759704590e-01 1.243207789957523346e-02
-8.439962267875671387e-01 2.443843483924865723e-01 -5.085579305887222290e-02
-1.910889148712158203e-02 -6.012977659702301025e-02 -2.180267870426177979e-01
-7.552013397216796875e-01 1.904978305101394653e-01 1.988210529088973999e-01
1.733773648738861084e-01 1.464102044701576233e-02 2.311796098947525024e-01
-8.241174221038818359e-01 -2.810352295637130737e-02 1.887414306402206421e-01
-4.836072921752929688e-01 2.321608662605285645e-01 1.867044270038604736e-01
-3.679134845733642578e-01 -3.492048382759094238e-02 -2.623389065265655518e-01
-9.234316349029541016e-01 8.863161504268646240e-02 -2.261420339345932007e-01
4.598955512046813965e-01 1.647330820560455322e-01 6.504978239536285400e-02
-2.417629957199096680e-01 2.793261110782623291e-01 -5.778266489505767822e-02
5.786105990409851074e-02 -6.983610987663269043e-02 1.769706457853317261e-01
-1.297175884246826172e-02 -1.114436537027359009e-01 -1.204593479633331299e-01
4.453240633010864258e-01 1.551218628883361816e-01 1.002069637179374695e-01
-2.173620462417602539e-01 -1.379452198743820190e-01 -2.757832966744899750e-02
-4.590365290641784668e-02 -4.978839308023452759e-02 -2.331866323947906494e-01
-2.200944721698760986e-01 -1.345464885234832764e-01 -6.563004106283187866e-02
3.082786202430725098e-01 1.912054270505905151e-01 1.274349987506866455e-01
-6.720480322837829590e-02 1.747640818357467651e-01 2.430387139320373535e-01
-2.829086780548095703e-01 -1.390806734561920166e-01 -1.733146980404853821e-02
-9.622058272361755371e-01 -3.641958534717559814e-02 -1.451297849416732788e-01
-9.996034502983093262e-01 1.945209056138992310e-01 9.748100489377975464e-02
-6.254456043243408203e-01 2.683666944503784180e-01 -6.534922122955322266e-02
-6.851664781570434570e-01 -1.098322719335556030e-01 7.087321579456329346e-02
-1.452104151248931885e-01 2.538452148437500000e-01 -1.408716291189193726e-01
-1.071511745452880859e+00 1.928972303867340088e-01 1.143334433436393738e-02
-8.512564003467559814e-02 5.148790776729583740e-03 2.648471891880035400e-01
-8.474909067153930664e-01 2.410715669393539429e-01 6.036509945988655090e-02
-7.500371932983398438e-01 2.379649877548217773e-01 -1.287358552217483521e-01
-1.992218196392059326e-01 2.398450821638107300e-01 1.755785793066024780e-01
1.063531637191772461e-01 2.215454876422882080e-01 1.533270627260208130e-01
-1.167004108428955078e+00 4.400581866502761841e-02 -9.804344177246093750e-02
-7.978429794311523438e-01 2.545529603958129883e-01 -1.616226695477962494e-02
-1.783830970525741577e-01 1.095936670899391174e-01 -2.918648123741149902e-01
-3.144930601119995117e-01 1.525191366672515869e-01 -2.778996527194976807e-01
-9.458950757980346680e-01 -2.234853059053421021e-02 -1.719441860914230347e-01
-2.939568459987640381e-01 -1.370002925395965576e-01 -5.223744362592697144e-02
-1.214791059494018555e+00 9.372198581695556641e-02 1.703610830008983612e-02
-5.114903450012207031e-01 -6.182542443275451660e-02 2.096791565418243408e-01
5.451899766921997070e-01 1.364302262663841248e-02 -4.266517609357833862e-02
-7.762671709060668945e-01 2.525822520256042480e-01 5.765540525317192078e-02
-3.312839567661285400e-01 1.672602593898773193e-01 -2.683378458023071289e-01
-2.376100718975067139e-01 1.269240230321884155e-01 -2.887869775295257568e-01
-6.058628559112548828e-01 -1.247678101062774658e-01 -4.763983190059661865e-02
5.645042657852172852e-02 -7.612127065658569336e-02 -1.818693429231643677e-01
-7.177946567535400391e-01 2.447270601987838745e-01 1.163211166858673096e-01
-9.566344618797302246e-01 -7.317663729190826416e-02 -2.493685856461524963e-02
3.694984316825866699e-01 1.685924828052520752e-03 1.625354886054992676e-01
5.324891805648803711e-01 8.193039149045944214e-02 9.432008117437362671e-02
-6.512242555618286133e-01 2.568280100822448730e-01 -1.063913404941558838e-01
3.897908329963684082e-01 -2.450792491436004639e-02 -1.338689625263214111e-01
-4.828861355781555176e-01 2.449484020471572876e-01 -1.676187068223953247e-01
-8.509835600852966309e-01 1.129970550537109375e-01 2.272134125232696533e-01
-5.552256703376770020e-01 -4.124969244003295898e-02 2.274828106164932251e-01
-2.394555211067199707e-01 1.179787814617156982e-01 2.842460274696350098e-01
-2.105113267898559570e-01 -1.363605260848999023e-01 -4.827010631561279297e-02
2.157665491104125977e-01 2.166636139154434204e-01 1.215411052107810974e-01
-8.756936788558959961e-01 -5.358538031578063965e-02 -1.569341570138931274e-01
-7.745684683322906494e-02 -2.284465730190277100e-02 2.467367798089981079e-01
-1.080920338630676270e+00 -3.542178869247436523e-02 -3.046864084899425507e-02
3.118664026260375977e-01 5.452938377857208252e-03 -1.967912316322326660e-01
-2.224667966365814209e-01 3.102253749966621399e-02 2.831088602542877197e-01
3.787561655044555664e-01 -5.844441056251525879e-02 -6.586984544992446899e-02
-1.147359848022460938e+00 -5.874395370483398438e-03 -2.248244546353816986e-02
-2.959200739860534668e-01 -1.343722641468048096e-01 5.286615341901779175e-02
-2.011999189853668213e-01 8.951303362846374512e-02 -2.972422838211059570e-01
-5.325893759727478027e-01 -8.078862726688385010e-02 1.803778111934661865e-01
3.186556696891784668e-02 2.306412458419799805e-01 -1.571589857339859009e-01
-1.099935412406921387e+00 3.305723890662193298e-02 -1.435988843441009521e-01
-5.891516804695129395e-01 -7.480886578559875488e-02 1.813931018114089966e-01
4.247956275939941406e-01 1.471089199185371399e-02 -1.539181619882583618e-01
3.164508342742919922e-01 -7.741360366344451904e-02 4.068459570407867432e-02
1.496344804763793945e-03 -1.076381653547286987e-01 -1.279481649398803711e-01
-2.037540078163146973e-02 1.776691973209381104e-01 2.348083704710006714e-01
-1.297588944435119629e-01 1.530013978481292725e-01 -2.692603170871734619e-01
-1.127285957336425781e+00 9.350018203258514404e-02 1.216256245970726013e-01
4.719904661178588867e-01 -1.604361087083816528e-02 -8.463671058416366577e-02
4.384159445762634277e-01 4.740140587091445923e-02 -1.615908443927764893e-01
9.676414728164672852e-02 8.873595297336578369e-02 2.583964169025421143e-01
4.634842276573181152e-01 4.640960693359375000e-02 1.413883715867996216e-01
1.531661450862884521e-01 1.160419434309005737e-01 -2.468813955783843994e-01
3.048169612884521484e-02 1.656633913516998291e-01 -2.407709807157516479e-01
-3.227013349533081055e-01 -1.153720468282699585e-01 -1.457709670066833496e-01
1.535188853740692139e-01 -3.024825453758239746e-02 2.039644420146942139e-01
-1.198301911354064941e-01 -4.050413519144058228e-02 2.356751710176467896e-01
-1.961402893066406250e-01 -3.781999647617340088e-02 -2.574630677700042725e-01
3.581953048706054688e-02 -9.840191900730133057e-02 1.272365450859069824e-01
-8.240435719490051270e-01 1.903307437896728516e-01 1.811892390251159668e-01
-8.394898176193237305e-01 -9.359681606292724609e-02 3.936616703867912292e-02
-2.197681963443756104e-01 -1.020738482475280762e-01 -1.742132008075714111e-01
1.035162806510925293e-02 -1.049074083566665649e-01 1.169741451740264893e-01
4.926316142082214355e-01 -1.791734993457794189e-02 4.323565959930419922e-02
-5.542731881141662598e-01 -1.245267391204833984e-01 5.787012353539466858e-02
-4.696784615516662598e-01 -1.117184162139892578e-01 1.248747631907463074e-01
5.531158447265625000e-01 1.146490871906280518e-01 -4.066599160432815552e-02
-5.121248364448547363e-01 2.461484074592590332e-02 2.741139233112335205e-01
-4.584565758705139160e-01 2.545678317546844482e-01 1.451322585344314575e-01
-7.560981512069702148e-01 -7.128360867500305176e-02 -1.688262075185775757e-01
-1.092032194137573242e+00 6.210231408476829529e-02 -1.592661887407302856e-01
-4.383430182933807373e-01 -3.423135727643966675e-02 2.441023886203765869e-01
6.645756959915161133e-02 2.336150258779525757e-01 1.405607014894485474e-01
1.617670059204101562e-04 5.644625425338745117e-02 -2.809585332870483398e-01
-8.703649640083312988e-01 1.926098763942718506e-01 1.635319441556930542e-01
1.183417141437530518e-01 -7.289129495620727539e-02 -1.715622395277023315e-01
-8.202849328517913818e-02 -6.497415900230407715e-02 2.054706811904907227e-01
-4.739098548889160156e-01 -1.347349584102630615e-01 6.735502276569604874e-03
4.312195777893066406e-01 -4.103922843933105469e-02 5.504613369703292847e-02
-4.481282234191894531e-01 1.558208465576171875e-01 2.658402621746063232e-01
-1.137760043144226074e+00 1.051685661077499390e-01 1.103278920054435730e-01
1.509156823158264160e-01 -3.003300726413726807e-02 -2.166076898574829102e-01
-7.774227857589721680e-01 2.458164840936660767e-01 -9.320633113384246826e-02
1.233592331409454346e-01 2.070908099412918091e-01 -1.741930842399597168e-01
-2.189278006553649902e-01 7.544398307800292969e-02 2.896499633789062500e-01
-9.811642765998840332e-02 -1.069358736276626587e-01 -1.508665233850479126e-01
-7.862492799758911133e-01 3.343723341822624207e-02 2.387442439794540405e-01
-3.342610895633697510e-01 2.116683870553970337e-01 2.215743213891983032e-01
2.365777492523193359e-01 1.731878519058227539e-01 1.822796314954757690e-01
5.205946564674377441e-01 9.296892583370208740e-02 1.012372672557830811e-01
-7.469916939735412598e-01 1.270394027233123779e-01 2.449056953191757202e-01
3.667998909950256348e-01 1.945750862360000610e-01 7.901933789253234863e-02
5.833700895309448242e-01 6.513553857803344727e-02 -6.909830961376428604e-03
-8.006740212440490723e-01 -9.662206470966339111e-02 5.882751569151878357e-02
4.875651001930236816e-01 4.541609436273574829e-02 -1.321197450160980225e-01
2.007550001144409180e-02 -9.995177388191223145e-04 -2.613206207752227783e-01
2.470371127128601074e-01 -8.210359513759613037e-02 8.406886458396911621e-02
-2.961221039295196533e-01 3.015667945146560669e-02 2.840961217880249023e-01
-7.321387529373168945e-03 -9.313260018825531006e-02 1.490510851144790649e-01
-6.169082522392272949e-01 2.667987346649169922e-01 7.383633404970169067e-02
-6.526134014129638672e-01 1.656259894371032715e-01 2.396833896636962891e-01
-2.081216871738433838e-01 2.238829433917999268e-01 2.021016627550125122e-01
-1.521043926477432251e-01 -1.166498810052871704e-01 1.148390322923660278e-01
5.100722908973693848e-01 7.978811860084533691e-03 7.765026390552520752e-02
-1.134648919105529785e-01 -1.269592791795730591e-01 6.923468410968780518e-02
-3.818544447422027588e-01 -5.743320286273956299e-02 2.240728288888931274e-01
-1.033699035644531250e+00 -6.227716803550720215e-04 -1.541307270526885986e-01
-9.937213659286499023e-01 -6.378987431526184082e-02 1.446891576051712036e-03
7.219383120536804199e-02 -1.152789741754531860e-01 -6.931468099355697632e-02
-1.015790462493896484e+00 1.198423653841018677e-01 -1.846238076686859131e-01
1.054757833480834961e-02 -2.233009040355682373e-02 -2.493626475334167480e-01
-5.009524822235107422e-01 -3.751799464225769043e-02 -2.533482313156127930e-01
-1.916727423667907715e-02 -7.331499457359313965e-02 -2.007374018430709839e-01
3.161892890930175781e-01 -8.027686178684234619e-02 1.788301393389701843e-02
1.317765414714813232e-01 -6.020855903625488281e-02 -1.872914433479309082e-01
-2.638609409332275391e-01 -3.439482301473617554e-02 -2.627465426921844482e-01
-2.922576963901519775e-01 2.836868166923522949e-01 -2.329971827566623688e-02
3.438068032264709473e-01 1.276713907718658447e-01 -1.853854507207870483e-01
2.206081151962280273e-02 2.546020597219467163e-02 2.618340253829956055e-01
2.229790687561035156e-01 2.334299236536026001e-01 -6.087581068277359009e-02
-8.658017218112945557e-02 -1.206818968057632446e-01 9.004265815019607544e-02
-1.974295675754547119e-01 2.633714079856872559e-01 -1.213456913828849792e-01
-8.712705373764038086e-01 -9.139579534530639648e-02 -2.410632371902465820e-02
-3.465349972248077393e-01 -1.918300986289978027e-02 2.592988908290863037e-01
-8.147436976432800293e-01 -1.011167913675308228e-01 4.641894716769456863e-03
5.199178457260131836e-01 1.111328229308128357e-01 -9.268889576196670532e-02
-7.851423025131225586e-01 2.544160187244415283e-01 -4.177952557802200317e-02
4.062601923942565918e-01 5.335094034671783447e-02 1.719776690006256104e-01
-6.291881203651428223e-02 6.833661347627639771e-02 -2.885899841785430908e-01
-4.981531500816345215e-01 -8.062924444675445557e-02 1.848600804805755615e-01
4.091759324073791504e-01 -3.143582493066787720e-02 1.000080257654190063e-01
4.322301745414733887e-01 1.811653971672058105e-01 4.673388600349426270e-02
1.868734955787658691e-01 1.279892623424530029e-01 2.294310480356216431e-01
-8.021340966224670410e-01 5.654737353324890137e-02 -2.560736536979675293e-01
-8.882695436477661133e-01 2.146641463041305542e-01 -1.268086433410644531e-01
-2.846577465534210205e-01 2.797353267669677734e-01 -6.106568872928619385e-02
-7.012243270874023438e-01 2.529846429824829102e-01 -1.019616574048995972e-01
-3.699343502521514893e-01 2.844412326812744141e-01 5.994515959173440933e-03
-8.854433298110961914e-01 2.330201119184494019e-01 -7.273730635643005371e-02
5.593061447143554688e-03 2.416338026523590088e-01 1.392401158809661865e-01
2.479611635208129883e-01 -6.051577627658843994e-02 1.353174597024917603e-01
-9.139837026596069336e-01 1.977148354053497314e-01 -1.478753834962844849e-01
1.458859443664550781e-01 -4.813344031572341919e-02 1.863937377929687500e-01
-6.675544977188110352e-01 1.359533369541168213e-01 -2.644762098789215088e-01
5.456379055976867676e-02 1.464372873306274414e-01 2.458540946245193481e-01
-6.345554590225219727e-01 2.708718180656433105e-01 3.737206757068634033e-02
-4.502367973327636719e-02 2.566416263580322266e-01 1.115273907780647278e-01
-1.079231500625610352e-02 2.182180583477020264e-01 -1.884713321924209595e-01
1.476359069347381592e-01 2.339011281728744507e-01 -1.090248599648475647e-01
-3.779863119125366211e-01 2.115749716758728027e-01 -2.256340980529785156e-01
3.429747819900512695e-01 1.948119401931762695e-01 -9.843995422124862671e-02
-3.665438294410705566e-02 1.799924969673156738e-01 2.349667698144912720e-01
1.979699730873107910e-02 -1.137379258871078491e-01 -1.019513159990310669e-01
-7.084537744522094727e-01 2.393383830785751343e-01 -1.387261450290679932e-01
-1.047893285751342773e+00 2.824311703443527222e-02 1.518216431140899658e-01
-1.534211039543151855e-01 -9.784325957298278809e-04 -2.792766690254211426e-01
-5.990168452262878418e-02 1.236259490251541138e-01 -2.774631679058074951e-01
-8.248744904994964600e-02 -8.077417314052581787e-02 -1.988599598407745361e-01
2.913001179695129395e-02 -8.527581393718719482e-02 -1.721966564655303955e-01
9.660765528678894043e-02 -4.253179579973220825e-02 -2.167184054851531982e-01
-6.546704769134521484e-01 2.709882855415344238e-01 8.983649313449859619e-03
5.170422792434692383e-02 -9.101343154907226562e-02 -1.554760932922363281e-01
1.187482476234436035e-01 1.976215839385986328e-01 -1.891909539699554443e-01
-8.634790778160095215e-02 1.988555938005447388e-01 2.225550711154937744e-01
-4.466778039932250977e-01 2.487988322973251343e-01 1.590888351202011108e-01
-4.754090905189514160e-01 -2.430548518896102905e-02 -2.656891047954559326e-01
-5.939697027206420898e-01 -1.246696561574935913e-01 -5.771706625819206238e-02
-2.527387440204620361e-01 4.131363704800605774e-02 -2.980517745018005371e-01
-3.793235421180725098e-01 -1.056538075208663940e-01 -1.673613637685775757e-01
-6.999192237854003906e-01 -1.122299581766128540e-01 4.969346150755882263e-02
-1.125976741313934326e-01 2.506523430347442627e-01 -1.436340361833572388e-01
-3.973436951637268066e-01 -6.505604088306427002e-02 2.144277095794677734e-01
-4.010412096977233887e-01 9.842626750469207764e-02 -2.979128956794738770e-01
-8.425655961036682129e-01 2.416655570268630981e-01 -6.813761591911315918e-02
4.885868430137634277e-01 1.579591929912567139e-01 -4.268511384725570679e-02
2.375316023826599121e-01 -5.888779461383819580e-02 -1.549379378557205200e-01
-1.711154282093048096e-01 1.643140017986297607e-01 2.595716416835784912e-01
-3.467381596565246582e-01 2.719617486000061035e-01 1.000025197863578796e-01
-7.747557163238525391e-01 2.573467493057250977e-01 -2.373989298939704895e-02
-8.296784162521362305e-01 2.478633373975753784e-01 3.562394529581069946e-02
-1.038104772567749023e+00 1.642387658357620239e-01 1.244072243571281433e-01
-3.372868895530700684e-01 1.142345070838928223e-01 -2.949107885360717773e-01
-5.498745441436767578e-01 -7.391121983528137207e-02 -2.074554413557052612e-01
-4.243335127830505371e-02 1.985110491514205933e-01 -2.202089428901672363e-01
-4.073047637939453125e-02 -4.433974623680114746e-02 2.240844517946243286e-01
-3.573496043682098389e-01 -1.243027895689010620e-01 -1.172042042016983032e-01
-1.121741294860839844e+00 1.092080473899841309e-01 1.199463978409767151e-01
-2.006828784942626953e-03 -3.263917565345764160e-02 -2.431305646896362305e-01
-5.687527656555175781e-01 2.218511849641799927e-01 -1.985273510217666626e-01
-6.507051587104797363e-01 -6.531155109405517578e-02 1.844403594732284546e-01
-7.335147261619567871e-01 6.325781345367431641e-03 -2.531623840332031250e-01
5.602471232414245605e-01 8.871260285377502441e-02 -6.203477829694747925e-02
-8.986395597457885742e-02 1.550806611776351929e-01 2.591327428817749023e-01
-6.951892375946044922e-01 -1.176915317773818970e-01 -8.076866157352924347e-03
-1.045487165451049805e+00 5.968517810106277466e-02 1.657261848449707031e-01
-7.275619506835937500e-01 1.870858967304229736e-01 -2.165922522544860840e-01
-1.215398550033569336e+00 9.995594620704650879e-02 -1.660825917497277260e-03
-1.975996196269989014e-01 3.009281679987907410e-02 2.819420993328094482e-01
-5.424537658691406250e-01 -1.197265833616256714e-01 8.447573333978652954e-02
-9.571046829223632812e-01 -5.172841995954513550e-02 9.818403422832489014e-02
-3.005262017250061035e-01 -1.388764232397079468e-01 5.704703275114297867e-03
-1.145796060562133789e+00 3.801316022872924805e-03 -6.807043403387069702e-02
-2.128643095493316650e-01 -5.079472064971923828e-02 2.311419844627380371e-01
-1.273283511400222778e-01 2.767080664634704590e-01 -3.996689245104789734e-02
-2.135830819606781006e-01 -1.329855471849441528e-01 5.591061338782310486e-02
-3.441008925437927246e-02 2.158084362745285034e-01 1.943479180335998535e-01
8.616626262664794922e-02 3.844780474901199341e-02 2.564189434051513672e-01
2.158559560775756836e-01 8.007660508155822754e-04 2.133738249540328979e-01
-3.264424502849578857e-01 -3.603133559226989746e-02 2.465099841356277466e-01
-5.592026710510253906e-01 -1.118556261062622070e-01 -1.283447444438934326e-01
-1.895677149295806885e-01 1.147745549678802490e-01 2.832846045494079590e-01
-4.046927690505981445e-01 -9.371818602085113525e-02 -1.895852684974670410e-01
-6.215046048164367676e-01 8.226428925991058350e-02 -2.849915027618408203e-01
2.845437526702880859e-01 2.123438417911529541e-01 9.273155033588409424e-02
-8.748554587364196777e-01 2.306902855634689331e-01 8.268685638904571533e-02
1.994420886039733887e-01 -1.034745275974273682e-01 -4.487019032239913940e-05
-5.104494690895080566e-01 1.285849213600158691e-01 -2.838588058948516846e-01
7.695940136909484863e-02 -7.569083571434020996e-02 -1.777483522891998291e-01
-3.713240027427673340e-01 2.608053982257843018e-01 -1.371719688177108765e-01
-1.055464625358581543e+00 1.818715482950210571e-01 8.174657076597213745e-02
2.022050619125366211e-01 -9.120295941829681396e-02 8.110944181680679321e-02
3.311254382133483887e-01 2.139039635658264160e-01 3.589453175663948059e-02
4.063055515289306641e-01 1.787151843309402466e-01 -8.660897612571716309e-02
-8.151113986968994141e-03 2.699184417724609375e-01 -1.068911980837583542e-03
-1.795940250158309937e-01 1.390045285224914551e-01 -2.806113660335540771e-01
-1.154705882072448730e-02 1.200184673070907593e-01 -2.731700241565704346e-01
-4.241102039813995361e-01 -1.334894597530364990e-01 -6.444793194532394409e-02
3.366644382476806641e-01 2.147365212440490723e-01 4.967134445905685425e-04
-8.584353923797607422e-01 1.740194261074066162e-01 1.886211335659027100e-01
8.378919959068298340e-02 1.439576447010040283e-01 -2.467230707406997681e-01
-7.589916586875915527e-01 -6.274025142192840576e-02 1.624011546373367310e-01
-6.629951596260070801e-01 1.020438224077224731e-02 2.507520318031311035e-01
1.731089949607849121e-01 6.386205554008483887e-02 -2.520074248313903809e-01
-3.298138678073883057e-01 -5.648240447044372559e-03 -2.823039293289184570e-01
-4.850098490715026855e-02 2.687334120273590088e-01 -6.000731885433197021e-02
-2.736410498619079590e-02 -4.056198894977569580e-02 -2.397074103355407715e-01
-7.981063127517700195e-01 2.176807969808578491e-01 1.491619199514389038e-01
-2.237623929977416992e-02 -1.263707429170608521e-01 -5.393177643418312073e-02
-1.032999157905578613e-02 2.295294404029846191e-01 -1.691247820854187012e-01
-1.122885942459106445e-02 2.589693963527679443e-01 9.230485558509826660e-02
5.435360074043273926e-01 6.499750912189483643e-02 -8.955184370279312134e-02
2.152823209762573242e-01 8.379945904016494751e-02 2.349630743265151978e-01
3.141413927078247070e-01 -6.322780251502990723e-02 -1.074561849236488342e-01
-3.202563226222991943e-01 7.493332773447036743e-02 2.911112904548645020e-01
-6.361204385757446289e-02 -1.088802963495254517e-01 -1.398214995861053467e-01
4.432300925254821777e-01 1.211160421371459961e-01 -1.421142071485519409e-01
-9.989519119262695312e-01 8.454584330320358276e-02 -2.016022503376007080e-01
-2.426861822605133057e-01 2.781766653060913086e-01 6.490880250930786133e-02
1.034757792949676514e-01 1.302431672811508179e-01 -2.506129145622253418e-01
-2.292364537715911865e-01 -1.385219842195510864e-01 -1.575017534196376801e-02
-6.969708204269409180e-01 2.337324619293212891e-01 1.484833657741546631e-01
-4.302529394626617432e-01 -1.305935084819793701e-01 6.108770146965980530e-02
-1.594284623861312866e-01 -1.094567179679870605e-01 1.352582424879074097e-01
3.870040178298950195e-02 8.033020794391632080e-02 2.679632306098937988e-01
-2.211165428161621094e-02 2.295454740524291992e-01 1.702432185411453247e-01
-4.839034676551818848e-01 1.189937517046928406e-01 2.795307040214538574e-01
4.109499454498291016e-01 2.138046547770500183e-02 -1.650839000940322876e-01
4.640920758247375488e-01 -1.309491693973541260e-03 1.062964573502540588e-01
2.071377635002136230e-01 -5.488824844360351562e-02 -1.722666174173355103e-01
4.559789299964904785e-01 -2.891213446855545044e-02 6.243425980210304260e-02
-9.465576410293579102e-01 -4.906577616930007935e-02 1.104522421956062317e-01
-6.682524085044860840e-02 -4.032198339700698853e-02 -2.447734922170639038e-01
-2.947770059108734131e-01 2.823338508605957031e-01 4.040357097983360291e-02
-1.349007785320281982e-01 2.286638766527175903e-01 -1.907105594873428345e-01
-6.346012353897094727e-01 -1.058622747659683228e-01 1.053837090730667114e-01
-8.554664254188537598e-01 1.452420353889465332e-01 -2.228111922740936279e-01
-3.050667643547058105e-01 2.717261910438537598e-01 1.004999876022338867e-01
-7.820162177085876465e-01 1.196005418896675110e-01 -2.523560225963592529e-01
-3.740758597850799561e-01 2.781002521514892578e-01 7.120978832244873047e-02
-2.931109368801116943e-01 1.727747321128845215e-01 -2.638349533081054688e-01
-1.644036471843719482e-01 4.421175271272659302e-02 -2.947385013103485107e-01
-6.622133255004882812e-01 1.485073268413543701e-01 2.489878088235855103e-01
4.096211791038513184e-01 1.543768942356109619e-01 -1.282641738653182983e-01
-2.358345985412597656e-01 2.214255630970001221e-01 -2.102310508489608765e-01
-1.127724647521972656e-01 2.664021253585815430e-01 9.463881701231002808e-02
-2.741100788116455078e-01 2.330619692802429199e-01 1.912582814693450928e-01
-3.117244541645050049e-01 1.336259245872497559e-01 2.799529433250427246e-01
1.747382283210754395e-01 4.649925231933593750e-02 -2.500059902667999268e-01
1.546956002712249756e-01 2.198459655046463013e-01 -1.408790349960327148e-01
1.219975352287292480e-01 1.146229803562164307e-01 -2.537842988967895508e-01
5.043359398841857910e-01 2.525459229946136475e-02 -1.089336052536964417e-01
-4.594647884368896484e-01 -1.282199472188949585e-01 -8.807686716318130493e-02
2.118006348609924316e-01 -3.386708348989486694e-02 1.850696653127670288e-01
1.746443808078765869e-01 6.025679036974906921e-02 2.439618557691574097e-01
-1.054832339286804199e+00 1.865675151348114014e-01 -8.084707707166671753e-02
1.567075848579406738e-01 -9.993067383766174316e-02 -9.029458463191986084e-02
-6.062057614326477051e-01 2.746343612670898438e-01 1.688167639076709747e-02
3.493419289588928223e-01 1.641829609870910645e-01 1.474173516035079956e-01
-1.028143167495727539e+00 -3.347457200288772583e-02 8.863294124603271484e-02
-8.538383245468139648e-01 -1.551777869462966919e-02 -2.106859534978866577e-01
-1.451581716537475586e-02 -1.263685524463653564e-01 3.094643726944923401e-02
-1.003525972366333008e+00 2.053780853748321533e-01 -7.294693589210510254e-02
3.147414326667785645e-01 2.034975439310073853e-01 -9.631264209747314453e-02
2.870523929595947266e-02 -6.421174108982086182e-02 -2.049154788255691528e-01
-4.680175185203552246e-01 1.733446568250656128e-01 -2.602105438709259033e-01
-1.148847937583923340e-01 -5.528344213962554932e-02 2.202346473932266235e-01
-2.327428013086318970e-01 -1.098328679800033569e-01 -1.578783988952636719e-01
-4.864307343959808350e-01 2.199333161115646362e-01 2.046016007661819458e-01
-1.001421093940734863e+00 -4.161041975021362305e-02 9.078665077686309814e-02
-2.156654000282287598e-01 2.055441439151763916e-01 -2.295764237642288208e-01
3.421477079391479492e-01 1.091412380337715149e-01 1.917493194341659546e-01
-3.788261413574218750e-01 -3.422483801841735840e-03 2.684503495693206787e-01
-1.832598596811294556e-01 2.467098832130432129e-02 -2.912592887878417969e-01
-4.686576128005981445e-01 -8.358822762966156006e-02 -2.018400877714157104e-01
9.276515245437622070e-02 4.720192402601242065e-02 -2.660872340202331543e-01
-4.779339730739593506e-01 -1.332183331251144409e-01 2.659431099891662598e-02
-1.182020604610443115e-01 -1.109641194343566895e-01 -1.437770277261734009e-01
-7.584589719772338867e-01 1.896474063396453857e-01 -2.072810530662536621e-01
-5.333306789398193359e-01 2.776509523391723633e-01 3.858046233654022217e-02
3.559756875038146973e-01 1.934769600629806519e-01 9.157351404428482056e-02
-1.002352714538574219e+00 -9.373970329761505127e-03 1.419114172458648682e-01
