-1.128335148096084595e-01 7.361066062003374100e-03 -4.180411696434020996e-01
4.013745114207267761e-02 3.456680476665496826e-02 -5.521877408027648926e-01
-1.381277292966842651e-01 -1.470321230590343475e-02 -3.861796855926513672e-01
6.802758574485778809e-02 -5.180779099464416504e-02 -3.466172814369201660e-01
7.694639265537261963e-03 1.637624949216842651e-02 -3.778118491172790527e-01
1.889814585447311401e-01 -1.905623637139797211e-02 -1.695039570331573486e-01
8.192615211009979248e-02 8.694026619195938110e-04 -7.589415311813354492e-01
-2.077624499797821045e-01 -8.777822367846965790e-03 -7.858094573020935059e-01
1.179084479808807373e-01 -5.424518138170242310e-02 -5.889284610748291016e-02
-3.304833918809890747e-02 -1.825507357716560364e-02 -2.180421054363250732e-01
-1.620471775531768799e-01 -2.619182690978050232e-02 -5.270898342132568359e-01
6.282652914524078369e-02 -4.359541833400726318e-02 -4.567096829414367676e-01
-9.479688107967376709e-02 1.146941445767879486e-02 -9.959454536437988281e-01
5.996340140700340271e-02 -5.540119111537933350e-02 -2.849286496639251709e-01
-1.504213660955429077e-01 -2.328032813966274261e-02 -6.788510084152221680e-01
-1.572337150573730469e-01 4.806441813707351685e-02 -7.538402080535888672e-01
-2.903954982757568359e-01 3.100137785077095032e-02 -1.006928801536560059e+00
-1.875044107437133789e-01 -1.764082349836826324e-02 -6.853907108306884766e-01
5.197394639253616333e-03 -1.188552193343639374e-02 -7.786443233489990234e-01
-1.743121296167373657e-01 1.303039211779832840e-02 -5.352922677993774414e-01
-1.166997700929641724e-01 -2.271295338869094849e-02 -7.199189066886901855e-01
5.822755768895149231e-02 4.255827516317367554e-02 -7.508839964866638184e-01
-1.863903999328613281e-01 -1.173736713826656342e-02 -7.874578237533569336e-01
-6.419330835342407227e-02 -4.704280756413936615e-03 -3.042412698268890381e-01
-1.437610685825347900e-01 6.771711260080337524e-02 -1.046736955642700195e+00
-1.931172460317611694e-01 2.480931580066680908e-02 -1.098038434982299805e+00
2.396513521671295166e-02 -4.891715943813323975e-03 -2.309069335460662842e-01
-1.784442961215972900e-01 4.505527019500732422e-02 -7.508790493011474609e-01
-4.523407667875289917e-02 -4.657751321792602539e-02 -4.082903265953063965e-01
8.058744668960571289e-02 1.027055643498897552e-02 -7.966320514678955078e-01
-2.672403156757354736e-01 2.045006863772869110e-02 -1.002851486206054688e+00
-2.448300719261169434e-01 2.678319066762924194e-02 -1.087474584579467773e+00
-4.536388814449310303e-02 5.971945822238922119e-02 -9.722567796707153320e-01
2.240647003054618835e-02 -1.310880761593580246e-03 -2.522422969341278076e-01
-1.087643206119537354e-03 -3.563734889030456543e-02 -5.803520679473876953e-01
1.004027575254440308e-01 -5.851657688617706299e-02 -1.718957126140594482e-01
7.296523451805114746e-02 -5.772045999765396118e-02 -1.326484978199005127e-01
-1.096196472644805908e-03 4.062464833259582520e-02 -6.076460480690002441e-01
2.853191271424293518e-02 2.426369301974773407e-02 -4.401718974113464355e-01
-2.159052342176437378e-01 2.403001673519611359e-02 -6.651794910430908203e-01
-2.443153709173202515e-01 -7.752934470772743225e-05 -7.418665885925292969e-01
-1.086897552013397217e-01 -3.779564052820205688e-02 -4.565995335578918457e-01
-2.461708635091781616e-01 3.950115293264389038e-02 -1.156419634819030762e+00
-2.424978464841842651e-01 1.840547285974025726e-02 -7.030091881752014160e-01
-2.057769894599914551e-02 5.448463559150695801e-02 -9.772839546203613281e-01
-7.315604388713836670e-02 4.120835661888122559e-02 -1.096853017807006836e+00
5.233105272054672241e-03 -4.445028491318225861e-03 -2.445544004440307617e-01
-3.240672126412391663e-02 5.600010603666305542e-02 -8.275227546691894531e-01
1.567661315202713013e-01 -4.541391134262084961e-02 -3.153353035449981689e-01
-9.590569138526916504e-02 6.026872992515563965e-02 -8.673100471496582031e-01
-1.463893949985504150e-01 3.775965422391891479e-02 -1.147134542465209961e+00
-3.103324770927429199e-02 4.874008893966674805e-02 -7.035412192344665527e-01
1.309002190828323364e-01 -3.010237030684947968e-02 -4.991500377655029297e-01
2.572244778275489807e-02 4.825740307569503784e-02 -8.721415996551513672e-01
-2.471255660057067871e-01 2.249775640666484833e-02 -7.308198213577270508e-01
-1.954074949026107788e-01 4.518267512321472168e-02 -7.751057147979736328e-01
7.701712846755981445e-02 3.772045671939849854e-02 -7.635232806205749512e-01
1.227854192256927490e-01 1.954359933733940125e-02 -4.542706012725830078e-01
1.440885961055755615e-01 3.645564895123243332e-03 -3.016431331634521484e-01
-8.609844744205474854e-02 -2.886166237294673920e-02 -2.775720953941345215e-01
-1.576581299304962158e-01 2.577366866171360016e-02 -1.099766969680786133e+00
7.624788582324981689e-02 3.755111247301101685e-04 -2.472253441810607910e-01
-1.300802230834960938e-01 2.145608514547348022e-02 -5.180103182792663574e-01
-3.005010820925235748e-02 1.438353117555379868e-02 -3.817894458770751953e-01
-2.277649194002151489e-02 -3.639225661754608154e-02 -5.779154896736145020e-01
-4.848055541515350342e-02 -3.754477202892303467e-02 -5.626223683357238770e-01
-2.449110150337219238e-01 2.445352263748645782e-03 -8.432409763336181641e-01
-2.815058082342147827e-02 5.672736465930938721e-02 -8.572841286659240723e-01
-1.074377000331878662e-01 -5.206310190260410309e-03 -8.868416547775268555e-01
3.979291394352912903e-02 3.097711689770221710e-02 -9.125199317932128906e-01
1.299156844615936279e-01 -3.541753627359867096e-03 -2.290761172771453857e-01
-3.885656595230102539e-03 4.211888462305068970e-02 -6.251489520072937012e-01
1.631191745400428772e-02 9.640896692872047424e-03 -3.255008161067962646e-01
1.991382837295532227e-01 -4.582834243774414062e-02 -1.742050051689147949e-01
-5.386710911989212036e-02 2.801594138145446777e-02 -4.973111748695373535e-01
-4.860049113631248474e-02 6.505742203444242477e-03 -9.376432895660400391e-01
-1.483613252639770508e-01 -2.616049349308013916e-02 -6.327105760574340820e-01
-1.042685508728027344e-01 -3.197069466114044189e-02 -3.248032629489898682e-01
-2.094007283449172974e-01 1.973956078290939331e-02 -1.062592983245849609e+00
-1.511767804622650146e-01 6.810756772756576538e-02 -1.079406261444091797e+00
3.819656744599342346e-02 4.585918784141540527e-02 -7.467204332351684570e-01
-1.382065564393997192e-02 -1.327309384942054749e-02 -7.836008071899414062e-01
-3.305862471461296082e-02 2.759438939392566681e-02 -4.832009673118591309e-01
-2.885170876979827881e-01 2.658477611839771271e-02 -9.528226852416992188e-01
-2.015045881271362305e-01 6.511467695236206055e-02 -1.021438360214233398e+00
-2.619260549545288086e-02 3.143285959959030151e-02 -5.139822363853454590e-01
-1.887902319431304932e-01 1.864642649888992310e-02 -5.871196985244750977e-01
3.826625645160675049e-03 4.922430217266082764e-02 -7.384698390960693359e-01
1.181500703096389771e-01 -1.205805223435163498e-03 -6.857578158378601074e-01
2.157066613435745239e-01 -3.615874797105789185e-02 -1.776250004768371582e-01
-1.274596005678176880e-01 5.352555960416793823e-02 -7.853873968124389648e-01
-2.401648014783859253e-01 4.229219630360603333e-03 -8.880903720855712891e-01
-2.197808027267456055e-01 5.691365152597427368e-02 -9.299420118331909180e-01
-6.788339465856552124e-03 -2.888398058712482452e-02 -1.603340208530426025e-01
-8.787430822849273682e-02 3.887927532196044922e-02 -6.107403039932250977e-01
-1.071364246308803558e-02 -7.702272385358810425e-03 -2.396211028099060059e-01
2.116814702749252319e-01 -3.647030144929885864e-02 -1.381320059299468994e-01
1.236690133810043335e-01 1.159699447453022003e-02 -3.595325946807861328e-01
-6.223641335964202881e-02 -3.655860573053359985e-02 -2.403325140476226807e-01
-1.530276834964752197e-01 3.306354954838752747e-02 -6.237619519233703613e-01
1.222093030810356140e-02 1.933732628822326660e-02 -3.997388482093811035e-01
-2.415373921394348145e-02 -5.002952367067337036e-02 -2.430123090744018555e-01
-1.901204138994216919e-01 -1.877563446760177612e-02 -5.976921319961547852e-01
-4.261828958988189697e-03 -4.997003078460693359e-02 -3.821060359477996826e-01
-1.744139939546585083e-01 2.053625881671905518e-02 -1.073312759399414062e+00
1.861169934272766113e-01 -3.492894023656845093e-02 -3.477947711944580078e-01
-2.091720849275588989e-01 6.671519950032234192e-03 -9.608736634254455566e-01
-3.945491462945938110e-02 2.985140122473239899e-02 -1.031671643257141113e+00
-1.310673356056213379e-01 4.796884208917617798e-02 -7.284497618675231934e-01
-9.216164052486419678e-02 6.446781754493713379e-02 -1.042431712150573730e+00
1.550181359052658081e-01 -5.485616624355316162e-02 -1.730659604072570801e-01
8.441412448883056641e-02 -5.842983722686767578e-02 -1.857185661792755127e-01
-4.227987304329872131e-02 5.952540040016174316e-02 -9.534260034561157227e-01
7.560385763645172119e-02 -2.768845669925212860e-02 -5.931265354156494141e-01
-1.299642920494079590e-01 1.610579155385494232e-02 -4.860527217388153076e-01
1.201466023921966553e-01 -3.240994364023208618e-02 -6.853449344635009766e-02
-4.857018962502479553e-02 1.941234990954399109e-02 -1.002783417701721191e+00
-2.384088635444641113e-01 -2.484689000993967056e-03 -7.623295783996582031e-01
2.051079124212265015e-01 -3.931981325149536133e-02 -1.100714206695556641e-01
-8.894266188144683838e-02 5.290703848004341125e-05 -9.204148054122924805e-01
1.109546050429344177e-02 4.936274886131286621e-02 -7.550657391548156738e-01
-6.255355477333068848e-02 1.129831932485103607e-02 -9.746700525283813477e-01
-1.763943135738372803e-01 2.669911831617355347e-02 -1.108163714408874512e+00
1.816561222076416016e-01 -9.042791090905666351e-03 -2.369411587715148926e-01
-1.098589971661567688e-02 1.424575876444578171e-02 -3.700408339500427246e-01
-1.231468915939331055e-01 6.647927314043045044e-02 -1.006904125213623047e+00
-5.319885909557342529e-02 -1.214696839451789856e-02 -2.618606686592102051e-01
4.729973152279853821e-02 3.544038534164428711e-02 -5.688835978507995605e-01
-2.362662106752395630e-01 -2.751968335360288620e-03 -6.998856067657470703e-01
-3.957636654376983643e-04 -2.755031920969486237e-02 -6.590089201927185059e-01
2.140416353940963745e-01 -1.942471042275428772e-02 -2.503696382045745850e-01
-2.444284111261367798e-01 5.138631910085678101e-02 -9.189349412918090820e-01
-1.701076775789260864e-01 6.285633891820907593e-02 -9.426527023315429688e-01
-2.726881504058837891e-01 5.569804459810256958e-02 -1.141893148422241211e+00
1.768017411231994629e-01 2.032569842413067818e-03 -3.483175933361053467e-01
-1.667262017726898193e-01 5.053897202014923096e-02 -7.883440852165222168e-01
1.345394104719161987e-01 -5.756331235170364380e-02 -1.396714746952056885e-01
-1.908458024263381958e-01 -1.818645186722278595e-02 -6.481533646583557129e-01
9.718069434165954590e-02 -4.897164553403854370e-02 -3.615218997001647949e-01
-8.221322298049926758e-02 -3.778710216283798218e-02 -2.927893996238708496e-01
1.118378937244415283e-01 -2.794364280998706818e-02 -5.446302890777587891e-01
-5.247125402092933655e-02 -4.647751897573471069e-02 -2.904759347438812256e-01
1.995766162872314453e-01 -4.633539170026779175e-02 -1.266177296638488770e-01
-2.640065178275108337e-02 -3.842908143997192383e-02 -5.538785457611083984e-01
-1.027483493089675903e-01 5.783091485500335693e-02 -8.291078805923461914e-01
-6.680124253034591675e-02 5.912180989980697632e-02 -1.059573650360107422e+00
-3.820658475160598755e-02 -5.140758119523525238e-03 -2.757207453250885010e-01
-7.565686106681823730e-02 2.366468310356140137e-02 -4.791665673255920410e-01
-2.071103453636169434e-01 3.518944233655929565e-02 -1.150788307189941406e+00
-2.639906704425811768e-01 4.295161366462707520e-02 -1.153750419616699219e+00
-1.258077174425125122e-01 6.765107624232769012e-03 -9.783090353012084961e-01
3.479724749922752380e-02 2.013452164828777313e-02 -4.031766355037689209e-01
-9.048955142498016357e-02 2.898385375738143921e-02 -1.078241825103759766e+00
1.576461046934127808e-01 -5.091007798910140991e-02 -2.426582276821136475e-01
2.074344754219055176e-01 -2.060188911855220795e-02 -2.014494836330413818e-01
-1.017006039619445801e-01 6.127092242240905762e-02 -8.848062753677368164e-01
-6.470779329538345337e-02 3.330246359109878540e-02 -5.475330352783203125e-01
-2.289763838052749634e-01 5.173305422067642212e-02 -8.904875516891479492e-01
1.527633070945739746e-01 -4.264241084456443787e-03 -2.395206093788146973e-01
1.150391399860382080e-01 2.844132296741008759e-02 -6.492000222206115723e-01
4.755593836307525635e-04 7.621079683303833008e-03 -8.985918164253234863e-01
-4.486750811338424683e-02 3.042443282902240753e-02 -5.125044584274291992e-01
-1.699762344360351562e-01 1.192022114992141724e-02 -1.017646074295043945e+00
-1.393030732870101929e-01 5.126852542161941528e-02 -7.693228721618652344e-01
-2.152009010314941406e-01 5.616622418165206909e-02 -9.133580923080444336e-01
-7.789349555969238281e-02 4.491361230611801147e-02 -6.638606786727905273e-01
-1.841898113489151001e-01 1.819181814789772034e-02 -1.058457255363464355e+00
6.797319650650024414e-02 -5.374649167060852051e-02 -9.054332971572875977e-02
-8.580270409584045410e-02 -3.623203933238983154e-02 -5.589678287506103516e-01
-4.803350567817687988e-02 1.108807697892189026e-02 -3.730033040046691895e-01
-1.674656867980957031e-01 -3.770544193685054779e-03 -8.920599222183227539e-01
1.097813695669174194e-01 7.497949060052633286e-03 -3.095077276229858398e-01
1.879566907882690430e-02 -1.788724400103092194e-02 -7.241086959838867188e-01
-1.282673701643943787e-02 3.424210101366043091e-02 -5.376219749450683594e-01
-1.518447399139404297e-01 -2.808389626443386078e-02 -4.818121492862701416e-01
9.455533325672149658e-02 -1.590227149426937103e-02 -1.454231739044189453e-01
-8.050628751516342163e-02 -2.573017403483390808e-02 -6.972957849502563477e-01
-6.674141436815261841e-02 -2.212414145469665527e-02 -7.335072159767150879e-01
-2.507873773574829102e-01 3.247652668505907059e-03 -8.211369514465332031e-01
-2.251933664083480835e-01 3.594375401735305786e-02 -1.150584936141967773e+00
-2.369780540466308594e-01 -1.813219394534826279e-03 -7.986394762992858887e-01
-1.312635242938995361e-01 1.892914623022079468e-02 -1.054796814918518066e+00
8.718481659889221191e-02 -5.736709386110305786e-02 -1.064680814743041992e-01
-2.186836451292037964e-01 -9.684254415333271027e-03 -7.087599635124206543e-01
-2.643724083900451660e-01 5.520058423280715942e-02 -1.017749786376953125e+00
1.774453669786453247e-01 -2.574818674474954605e-03 -2.927489876747131348e-01
-1.397754549980163574e-01 -1.599399372935295105e-02 -7.832043170928955078e-01
-1.509982943534851074e-01 2.644493244588375092e-02 -5.755720138549804688e-01
-2.073062025010585785e-02 5.655162036418914795e-02 -8.871253728866577148e-01
1.586683094501495361e-01 -2.456319704651832581e-02 -4.864657819271087646e-01
-1.178466379642486572e-01 3.566226363182067871e-02 -6.065485477447509766e-01
7.493688166141510010e-02 -5.136425048112869263e-02 -7.273179292678833008e-02
5.431802943348884583e-02 -5.706491321325302124e-02 -2.360169291496276855e-01
-2.362442016601562500e-01 9.418487548828125000e-03 -9.556071758270263672e-01
-2.606786489486694336e-01 3.698527812957763672e-02 -1.131287574768066406e+00
-7.593221962451934814e-02 1.213514339178800583e-02 -9.885295033454895020e-01
2.154529243707656860e-01 -2.769976668059825897e-02 -2.804269194602966309e-01
-6.285176426172256470e-02 -4.428415745496749878e-02 -4.302244484424591064e-01
5.566356703639030457e-02 2.046142145991325378e-02 -4.078315496444702148e-01
8.862113952636718750e-02 2.966668829321861267e-02 -5.396903753280639648e-01
-1.041845232248306274e-01 -3.708542138338088989e-02 -3.640847206115722656e-01
-1.879339963197708130e-01 6.391116976737976074e-02 -9.796244502067565918e-01
-6.145008653402328491e-02 -2.469724044203758240e-02 -7.077769637107849121e-01
1.352236866950988770e-01 1.719652302563190460e-02 -6.632031798362731934e-01
3.024868667125701904e-03 -8.015143685042858124e-04 -2.661021947860717773e-01
3.855534270405769348e-02 -3.731678426265716553e-02 -5.414043068885803223e-01
-1.898401379585266113e-01 3.659828752279281616e-02 -6.988965272903442383e-01
-1.705075502395629883e-01 -2.129593677818775177e-02 -6.680043935775756836e-01
1.979587078094482422e-01 -2.570656314492225647e-02 -1.425296962261199951e-01
-7.226833701133728027e-02 -4.328494518995285034e-02 -3.185722529888153076e-01
2.427207678556442261e-02 -5.538091063499450684e-02 -1.950914859771728516e-01
1.879096329212188721e-01 -4.702921211719512939e-02 -2.122714817523956299e-01
1.532799601554870605e-01 -5.565482378005981445e-02 -1.533834338188171387e-01
-2.878632582724094391e-02 5.774745345115661621e-02 -9.328035116195678711e-01
8.496440947055816650e-02 -1.094301231205463409e-02 -6.946002840995788574e-01
-7.502004504203796387e-02 6.225763261318206787e-02 -9.266144037246704102e-01
1.541088372468948364e-01 -5.589675903320312500e-02 -1.352613866329193115e-01
-9.979102015495300293e-02 5.721910856664180756e-03 -9.629246592521667480e-01
3.104954957962036133e-04 5.253353714942932129e-02 -9.207742214202880859e-01
-2.944011427462100983e-02 4.784044623374938965e-02 -1.035331249237060547e+00
-1.746274977922439575e-01 6.829430907964706421e-02 -1.083114027976989746e+00
-6.770479679107666016e-02 5.165430903434753418e-02 -7.389565706253051758e-01
-3.897110000252723694e-02 4.257727880030870438e-03 -9.172657728195190430e-01
-1.639308407902717590e-02 5.494908988475799561e-02 -8.348917365074157715e-01
-1.882195621728897095e-01 -9.465944021940231323e-03 -8.140096664428710938e-01
-7.484078407287597656e-03 -4.710517823696136475e-02 -1.692065596580505371e-01
3.340693935751914978e-02 4.258194565773010254e-02 -6.605892777442932129e-01
1.424626708030700684e-01 -3.944470733404159546e-02 -4.019199609756469727e-01
5.621230229735374451e-02 -3.344560042023658752e-03 -2.264908552169799805e-01
-2.120420485734939575e-01 6.523015350103378296e-02 -1.176158905029296875e+00
-6.556210666894912720e-02 6.218551844358444214e-02 -9.571845531463623047e-01
-2.550214529037475586e-01 5.976023524999618530e-02 -1.056473851203918457e+00
-1.586569696664810181e-01 3.731741011142730713e-02 -6.625899076461791992e-01
-2.152263671159744263e-01 -9.248564019799232483e-03 -7.499148845672607422e-01
1.593639999628067017e-01 -3.350450098514556885e-02 -6.927722692489624023e-02
1.403623819351196289e-01 -1.642945967614650726e-02 -1.457501947879791260e-01
1.297746002674102783e-01 -1.249592378735542297e-02 -1.667056977748870850e-01
-1.217958331108093262e-01 1.374914217740297318e-02 -4.627004265785217285e-01
-2.113948911428451538e-01 3.668414801359176636e-02 -7.340959310531616211e-01
-1.028439700603485107e-01 -1.131716184318065643e-02 -8.357629776000976562e-01
-1.572597473859786987e-01 -3.125675022602081299e-03 -4.457460641860961914e-01
-1.310058087110519409e-01 3.931877017021179199e-02 -6.490609049797058105e-01
2.705758437514305115e-02 -1.923799887299537659e-02 -1.600190699100494385e-01
9.267556667327880859e-02 1.900694333016872406e-02 -4.100888371467590332e-01
-9.513510763645172119e-02 6.247244775295257568e-02 -9.109106063842773438e-01
-4.516500979661941528e-02 1.964258495718240738e-03 -3.177879750728607178e-01
-4.044261574745178223e-02 -4.281347244977951050e-02 -4.890212416648864746e-01
-1.753963530063629150e-01 3.643506020307540894e-02 -6.771964430809020996e-01
-1.580383926630020142e-01 5.513964593410491943e-02 -8.287770152091979980e-01
-1.799730807542800903e-01 5.553564429283142090e-02 -8.566082715988159180e-01
-2.316210865974426270e-01 -5.297332070767879486e-03 -7.210623621940612793e-01
-2.315009534358978271e-01 6.523645669221878052e-02 -1.107570409774780273e+00
-2.704869210720062256e-01 1.951511204242706299e-02 -9.835728406906127930e-01
8.265675604343414307e-02 3.407260775566101074e-02 -6.040492057800292969e-01
-5.172890424728393555e-02 5.873619019985198975e-02 -8.644226789474487305e-01
-6.576417014002799988e-03 5.159934610128402710e-02 -9.628083109855651855e-01
1.655336022377014160e-01 -3.933536261320114136e-02 -3.590838611125946045e-01
-1.942166835069656372e-01 6.778637319803237915e-02 -1.134192466735839844e+00
-1.740666627883911133e-01 -2.285252884030342102e-02 -5.414403080940246582e-01
-2.134616523981094360e-01 2.113820798695087433e-02 -6.458112597465515137e-01
-1.160073280334472656e-01 1.256044022738933563e-03 -9.374299049377441406e-01
1.666528433561325073e-01 -9.380306117236614227e-03 -5.436367988586425781e-01
-2.692134976387023926e-01 1.203824579715728760e-02 -8.681936264038085938e-01
-4.137101024389266968e-02 -3.210324794054031372e-02 -6.284146904945373535e-01
7.616092264652252197e-02 -5.841584503650665283e-02 -1.594020128250122070e-01
-1.670912653207778931e-01 -2.345403656363487244e-02 -4.989448189735412598e-01
-2.252038121223449707e-01 2.435601875185966492e-02 -6.861339211463928223e-01
1.831160336732864380e-01 -1.881138794124126434e-02 -4.585906267166137695e-01
3.211356326937675476e-02 1.339722517877817154e-02 -3.483889997005462646e-01
-1.869827210903167725e-01 -1.548686996102333069e-02 -5.236620306968688965e-01
-4.176659137010574341e-02 -1.358884200453758240e-02 -7.983556985855102539e-01
1.469669640064239502e-01 -4.997414350509643555e-02 -4.361706972122192383e-02
3.935859724879264832e-02 -2.454349771142005920e-02 -1.313252449035644531e-01
-1.321262679994106293e-02 4.747828096151351929e-02 -6.931453943252563477e-01
1.707790642976760864e-01 -4.028979688882827759e-02 -3.385735452175140381e-01
-2.134267389774322510e-01 2.610506722703576088e-03 -9.177471399307250977e-01
-1.201884150505065918e-01 1.479985285550355911e-02 -1.027086734771728516e+00
-5.991208180785179138e-02 3.500404208898544312e-02 -1.068859219551086426e+00
-1.267073601484298706e-01 -2.425106614828109741e-02 -6.941671371459960938e-01
-7.644220441579818726e-02 -3.811080008745193481e-02 -5.376203060150146484e-01
-7.600846886634826660e-02 -1.336994767189025879e-02 -2.859840393066406250e-01
4.174077138304710388e-02 2.297894656658172607e-02 -4.291127622127532959e-01
1.125664860010147095e-01 2.858106791973114014e-02 -5.986461639404296875e-01
-1.920264363288879395e-01 3.962629288434982300e-02 -1.168951630592346191e+00
-1.913961954414844513e-02 2.976677380502223969e-02 -4.968672990798950195e-01
-1.492591053247451782e-01 3.651419281959533691e-02 -6.453765034675598145e-01
6.738130748271942139e-02 -7.193787023425102234e-03 -2.001502811908721924e-01
-7.195985317230224609e-02 -4.172445088624954224e-02 -4.744580388069152832e-01
1.522370129823684692e-01 -2.148679643869400024e-02 -5.187860131263732910e-01
-1.092594712972640991e-01 4.470474272966384888e-02 -6.796838045120239258e-01
-5.078028514981269836e-02 -2.018203958868980408e-04 -8.984842300415039062e-01
1.397161781787872314e-01 1.872547715902328491e-02 -4.904614686965942383e-01
1.250077486038208008e-01 2.251586690545082092e-02 -5.085230469703674316e-01
4.699685797095298767e-02 -4.824279248714447021e-02 -9.254747629165649414e-02
-2.389856576919555664e-01 1.421502139419317245e-02 -6.805948615074157715e-01
-1.367866545915603638e-01 -2.556201070547103882e-02 -6.645458936691284180e-01
1.969130039215087891e-01 -5.745644681155681610e-03 -4.239331483840942383e-01
3.696781024336814880e-02 -5.236132442951202393e-02 -3.482504785060882568e-01
7.575170695781707764e-02 -5.469055473804473877e-02 -2.933092117309570312e-01
-1.739077717065811157e-01 1.197309698909521103e-03 -9.337502121925354004e-01
1.408770084381103516e-01 1.657707057893276215e-02 -4.543230533599853516e-01
-2.873681485652923584e-01 3.448899462819099426e-02 -9.302103519439697266e-01
-2.998698875308036804e-02 -4.441171884536743164e-02 -4.686643779277801514e-01
7.217362523078918457e-02 -2.330871857702732086e-02 -6.304405331611633301e-01
-1.416485756635665894e-01 3.308561444282531738e-02 -1.127231597900390625e+00
-1.095095127820968628e-01 -3.739567846059799194e-02 -4.045390486717224121e-01
-5.570916831493377686e-02 -3.421395272016525269e-02 -6.035438179969787598e-01
-4.364439472556114197e-02 1.698824763298034668e-02 -4.085460901260375977e-01
1.493060886859893799e-01 1.119060255587100983e-02 -3.958886861801147461e-01
9.664695709943771362e-03 -2.424849942326545715e-02 -6.812216639518737793e-01
-8.643789589405059814e-02 5.165277421474456787e-02 -7.427837848663330078e-01
1.743692532181739807e-02 5.043483525514602661e-02 -8.203734755516052246e-01
1.226653605699539185e-01 2.469902159646153450e-03 -2.733180522918701172e-01
-1.924095004796981812e-01 -2.852444536983966827e-03 -8.838767409324645996e-01
5.817197635769844055e-02 4.254328459501266479e-02 -7.778354287147521973e-01
-1.851253062486648560e-01 -1.477052643895149231e-02 -7.459977269172668457e-01
7.429000735282897949e-02 -5.713526904582977295e-02 -2.384569048881530762e-01
6.545174121856689453e-02 -5.624143034219741821e-02 -1.165187954902648926e-01
1.639556586742401123e-01 -5.280766636133193970e-02 -1.928245425224304199e-01
-1.072059124708175659e-01 3.401770070195198059e-02 -5.838705897331237793e-01
2.219658717513084412e-02 3.853893280029296875e-02 -5.913351178169250488e-01
1.626380234956741333e-01 7.711612619459629059e-03 -3.832452595233917236e-01
-1.675142198801040649e-01 -2.429265156388282776e-02 -6.028848886489868164e-01
1.727475374937057495e-01 -5.223019421100616455e-02 -8.103179931640625000e-02
-2.016850262880325317e-01 -1.425939984619617462e-02 -6.987433433532714844e-01
-1.554396152496337891e-01 1.990317925810813904e-02 -5.415348410606384277e-01
1.947700679302215576e-01 -6.551759317517280579e-03 -3.006427288055419922e-01
-4.774098843336105347e-02 5.910526216030120850e-02 -8.823090791702270508e-01
6.653851270675659180e-02 -6.497033871710300446e-03 -7.451360225677490234e-01
-2.505077719688415527e-01 5.225201696157455444e-02 -1.190382480621337891e+00
9.807407855987548828e-02 -5.966035649180412292e-03 -2.041121721267700195e-01
-2.807553485035896301e-02 -4.875887185335159302e-02 -3.827349543571472168e-01
1.635228842496871948e-01 1.220883708447217941e-02 -5.155589580535888672e-01
-2.709328234195709229e-01 3.351737558841705322e-02 -1.096965312957763672e+00
-1.529833972454071045e-01 6.668803840875625610e-02 -1.006224393844604492e+00
1.524068042635917664e-02 -5.387510359287261963e-02 -3.035856485366821289e-01
-1.121901124715805054e-01 -3.689956665039062500e-02 -4.771878123283386230e-01
5.687415227293968201e-02 3.297987580299377441e-02 -8.730962872505187988e-01
-3.149911761283874512e-02 -5.001071840524673462e-02 -2.896057963371276855e-01
1.853813230991363525e-01 -5.045438557863235474e-02 -1.509252786636352539e-01
-2.271750867366790771e-01 6.210995465517044067e-02 -1.016084790229797363e+00
4.669428244233131409e-02 -3.316082060337066650e-02 -1.005071997642517090e-01
9.871555864810943604e-02 2.193225314840674400e-03 -7.357007861137390137e-01
1.421043425798416138e-01 9.412124752998352051e-03 -3.596028983592987061e-01
1.057939827442169189e-01 1.361381728202104568e-02 -3.643009662628173828e-01
-4.516243189573287964e-02 5.018480122089385986e-02 -7.201337814331054688e-01
-1.940818578004837036e-01 9.804473258554935455e-03 -9.963178634643554688e-01
-1.388752460479736328e-01 -9.225952439010143280e-03 -8.516111373901367188e-01
-5.698085576295852661e-02 -4.649191349744796753e-02 -3.651092648506164551e-01
-4.002356901764869690e-02 1.432403549551963806e-02 -9.715932607650756836e-01
1.375182121992111206e-01 2.635098760947585106e-03 -2.855067849159240723e-01
4.544310644268989563e-02 -5.610508471727371216e-02 -2.638783752918243408e-01
-1.029696762561798096e-01 -8.635211735963821411e-03 -8.584555387496948242e-01
1.114634051918983459e-02 3.903483599424362183e-02 -9.685485363006591797e-01
-5.758856981992721558e-02 -1.267061010003089905e-02 -8.129787445068359375e-01
2.711467072367668152e-02 4.245963878929615021e-03 -8.514094352722167969e-01
7.665760815143585205e-03 -1.331767626106739044e-02 -1.993291378021240234e-01
1.284076273441314697e-01 -4.690922796726226807e-02 -3.470917046070098877e-01
4.076007381081581116e-02 3.805334866046905518e-02 -5.988641381263732910e-01
1.157364398241043091e-01 5.882786121219396591e-03 -7.140994668006896973e-01
2.765452489256858826e-02 -5.502434819936752319e-02 -2.824234962463378906e-01
8.877904713153839111e-02 3.465030342340469360e-02 -6.435734033584594727e-01
-1.685552299022674561e-01 3.044207114726305008e-03 -9.509720802307128906e-01
-1.109830737113952637e-01 -2.569781057536602020e-02 -6.872704029083251953e-01
-1.241875998675823212e-02 5.475199222564697266e-02 -9.366204738616943359e-01
4.061586037278175354e-02 -5.330320447683334351e-02 -3.302812278270721436e-01
1.295339465141296387e-01 -4.016524553298950195e-02 -4.159586429595947266e-01
-2.782598733901977539e-01 2.722213976085186005e-02 -1.033905982971191406e+00
1.280938386917114258e-01 -5.756573379039764404e-02 -1.645328998565673828e-01
4.445344209671020508e-03 -4.535261541604995728e-02 -4.613513648509979248e-01
1.246282458305358887e-01 -5.287588387727737427e-02 -2.734257280826568604e-01
-1.701980382204055786e-01 2.608502097427845001e-02 -5.993644595146179199e-01
-4.933232814073562622e-02 -3.507501631975173950e-02 -2.138364315032958984e-01
-9.714893996715545654e-02 -1.722973026335239410e-02 -7.820258140563964844e-01
2.573218569159507751e-02 1.606246829032897949e-02 -3.704881072044372559e-01
-2.459442242980003357e-02 5.164011567831039429e-02 -1.012262105941772461e+00
-1.655699908733367920e-01 -1.314316503703594208e-02 -7.960621118545532227e-01
1.040236651897430420e-01 2.697820588946342468e-02 -5.283023118972778320e-01
5.102187767624855042e-02 -1.126264780759811401e-02 -7.366600036621093750e-01
1.610846072435379028e-01 -3.464584797620773315e-02 -4.089008271694183350e-01
-8.835105597972869873e-02 3.781234472990036011e-02 -1.105105996131896973e+00
-6.643167883157730103e-02 4.749301075935363770e-02 -6.880841851234436035e-01
-2.527757287025451660e-01 2.355562709271907806e-02 -1.055927634239196777e+00
1.121450215578079224e-01 -4.980113357305526733e-02 -3.337047398090362549e-01
1.660572737455368042e-01 8.767226710915565491e-03 -4.139217138290405273e-01
-2.129312232136726379e-02 5.453674495220184326e-02 -8.117200136184692383e-01
8.080534636974334717e-03 2.361291646957397461e-02 -9.526000618934631348e-01
1.063847392797470093e-01 3.081380203366279602e-02 -6.742722988128662109e-01
-2.125846147537231445e-01 5.116742104291915894e-02 -8.561805486679077148e-01
1.432781070470809937e-01 -3.532382845878601074e-02 -5.894780158996582031e-02
-2.330755628645420074e-02 -6.310497410595417023e-03 -2.567551434040069580e-01
-1.469097286462783813e-01 1.253486797213554382e-02 -4.899113774299621582e-01
1.267651319503784180e-01 1.712552830576896667e-02 -4.286500811576843262e-01
8.823925256729125977e-02 -3.160142153501510620e-02 -5.467847585678100586e-01
-6.587930023670196533e-02 1.138708740472793579e-02 -3.898178040981292725e-01
7.916000485420227051e-02 2.519287355244159698e-02 -8.246542215347290039e-01
-2.190804183483123779e-01 6.393030285835266113e-02 -1.031209826469421387e+00
-8.659948408603668213e-02 -9.478058665990829468e-03 -8.483327627182006836e-01
5.000730231404304504e-02 -4.745276272296905518e-02 -4.185810089111328125e-01
-1.048866659402847290e-02 2.347671240568161011e-02 -9.769297838211059570e-01
-1.916701197624206543e-01 2.095724269747734070e-02 -1.075093030929565430e+00
9.238768368959426880e-03 -1.388841681182384491e-02 -7.612091302871704102e-01
-9.241800010204315186e-02 2.198253199458122253e-02 -4.817745387554168701e-01
1.190014034509658813e-01 -4.004014283418655396e-02 -4.324876070022583008e-01
-9.332691133022308350e-02 5.308430641889572144e-02 -7.626547813415527344e-01
1.386139690876007080e-01 -9.711623191833496094e-03 -6.086702346801757812e-01
2.968229353427886963e-03 1.316399779170751572e-02 -3.558502197265625000e-01
7.634875178337097168e-02 -4.647729545831680298e-02 -4.121482670307159424e-01
1.469186544418334961e-01 -1.832896843552589417e-02 -5.479052662849426270e-01
-2.574297599494457245e-02 -1.021688990294933319e-02 -8.139529228210449219e-01
-2.576999068260192871e-01 5.823118239641189575e-02 -1.039138317108154297e+00
8.317002654075622559e-02 3.147176280617713928e-02 -8.002799749374389648e-01
-9.232638776302337646e-02 4.586334526538848877e-02 -6.807396411895751953e-01
-1.538518667221069336e-01 -2.766194753348827362e-02 -5.729346275329589844e-01
1.369269564747810364e-02 -4.272387176752090454e-02 -4.941616654396057129e-01
-3.638507425785064697e-02 -4.870112985372543335e-02 -3.645414710044860840e-01
-8.185201883316040039e-02 6.367227435111999512e-02 -1.023732781410217285e+00
-2.519088685512542725e-01 1.496212277561426163e-02 -9.834972023963928223e-01
-2.503550946712493896e-01 2.337252954021096230e-03 -7.776282429695129395e-01
-2.036016583442687988e-01 6.101362407207489014e-02 -9.564420580863952637e-01
6.103799119591712952e-02 -5.752830207347869873e-02 -1.514740586280822754e-01
-7.297987490892410278e-02 3.595551848411560059e-02 -5.754444599151611328e-01
-1.334803849458694458e-01 1.129880547523498535e-03 -9.390350580215454102e-01
6.587396562099456787e-02 3.752595931291580200e-02 -8.265995979309082031e-01
-7.088647782802581787e-02 5.289594829082489014e-02 -7.555906772613525391e-01
-1.725399345159530640e-01 6.768054515123367310e-02 -1.048661708831787109e+00
-1.743934862315654755e-02 5.127180367708206177e-02 -7.504682540893554688e-01
-2.630853950977325439e-01 2.375250123441219330e-02 -1.041334390640258789e+00
4.824310913681983948e-02 -6.954048760235309601e-03 -7.658822536468505859e-01
1.854377686977386475e-01 -2.459922619163990021e-02 -1.297393441200256348e-01
4.560201242566108704e-02 -2.589752152562141418e-02 -6.383408904075622559e-01
1.899749040603637695e-04 -4.081438481807708740e-02 -5.212476253509521484e-01
4.656381532549858093e-02 -4.996833950281143188e-02 -3.851521015167236328e-01
-1.751314997673034668e-01 -2.294104173779487610e-02 -5.667468905448913574e-01
1.489708721637725830e-01 1.595601066946983337e-02 -4.755261540412902832e-01
1.162020117044448853e-01 1.874290220439434052e-02 -7.272956371307373047e-01
-1.985165327787399292e-01 1.544663030654191971e-02 -1.036779642105102539e+00
2.745649591088294983e-02 4.484901577234268188e-02 -6.921644210815429688e-01
-1.526814550161361694e-01 -1.006949972361326218e-02 -8.383539915084838867e-01
-6.650950759649276733e-03 -5.704979412257671356e-03 -8.298798203468322754e-01
-6.118122488260269165e-02 -3.062423504889011383e-02 -6.451480388641357422e-01
8.435774594545364380e-03 3.207483328878879547e-03 -2.867923378944396973e-01
-2.621597051620483398e-01 1.674853637814521790e-02 -7.653595805168151855e-01
-8.208274841308593750e-02 -3.112911619246006012e-02 -6.341637969017028809e-01
-1.508089452981948853e-01 5.866059660911560059e-02 -8.656690120697021484e-01
-1.024343967437744141e-01 5.576702952384948730e-02 -8.002740144729614258e-01
-1.785629093647003174e-01 6.025373190641403198e-02 -1.195553064346313477e+00
-2.741518318653106689e-01 5.528490990400314331e-02 -1.067309141159057617e+00
-2.073474824428558350e-01 2.940082177519798279e-02 -6.792691946029663086e-01
1.533583402633666992e-01 -1.980970613658428192e-02 -1.312855184078216553e-01
-2.080975025892257690e-01 6.666934490203857422e-02 -1.073749423027038574e+00
-8.030535280704498291e-02 -2.931250445544719696e-02 -6.569585800170898438e-01
-1.120924502611160278e-01 -2.895559556782245636e-02 -6.433709263801574707e-01
5.557945743203163147e-02 -3.005653806030750275e-02 -5.945565104484558105e-01
1.750572472810745239e-01 -2.035086974501609802e-02 -1.435385942459106445e-01
1.905631124973297119e-01 -1.333205960690975189e-03 -3.634825944900512695e-01
-1.958295702934265137e-01 -7.239570841193199158e-03 -8.306368589401245117e-01
-1.051055043935775757e-01 3.864217549562454224e-02 -6.208516359329223633e-01
-2.393951863050460815e-01 3.983838111162185669e-02 -8.102689981460571289e-01
1.796349138021469116e-01 -6.953063420951366425e-04 -3.209277689456939697e-01
1.521063745021820068e-01 -2.795682288706302643e-02 -8.901482820510864258e-02
-3.717299550771713257e-02 2.218474820256233215e-02 -4.421900212764739990e-01
-2.596681416034698486e-01 4.382666945457458496e-02 -8.886103630065917969e-01
-7.807715237140655518e-02 2.421993529424071312e-03 -3.527048528194427490e-01
-6.053987890481948853e-03 -1.774052903056144714e-02 -7.445160746574401855e-01
1.576805561780929565e-01 -4.820190370082855225e-02 -2.801618278026580811e-01
1.068944483995437622e-01 -4.589866846799850464e-02 -3.874067962169647217e-01
-9.394855797290802002e-02 -4.037859290838241577e-02 -3.800860345363616943e-01
9.986825287342071533e-02 1.439257990568876266e-03 -2.565081417560577393e-01
-7.698431611061096191e-02 -1.453875191509723663e-02 -8.039804697036743164e-01
9.831576049327850342e-02 -4.240850917994976044e-03 -7.088991403579711914e-01
4.939007386565208435e-02 4.040168970823287964e-02 -6.485536098480224609e-01
-2.498980462551116943e-01 1.706938818097114563e-02 -1.006758689880371094e+00
1.720941513776779175e-01 -5.344706773757934570e-02 -1.324033439159393311e-01
-1.101157516241073608e-01 3.028676472604274750e-02 -5.574996471405029297e-01
5.384552106261253357e-02 4.167190194129943848e-02 -6.868518590927124023e-01
-1.248213946819305420e-01 6.256850808858871460e-02 -9.101765751838684082e-01
-1.441185548901557922e-02 -4.640500992536544800e-05 -8.715138435363769531e-01
-1.087255626916885376e-01 -3.493564575910568237e-02 -5.474277734756469727e-01
-1.642692387104034424e-01 -2.058202959597110748e-02 -6.965954899787902832e-01
-6.437895447015762329e-02 5.750223994255065918e-02 -8.272464871406555176e-01
-1.546742618083953857e-01 6.832192186266183853e-03 -4.755942225456237793e-01
-2.676459550857543945e-01 2.145223133265972137e-02 -7.952914237976074219e-01
-2.124933339655399323e-02 2.095028758049011230e-02 -4.245536923408508301e-01
-2.566298842430114746e-02 5.047079175710678101e-02 -7.310583591461181641e-01
2.653169259428977966e-02 -5.568024516105651855e-02 -2.514046430587768555e-01
-3.828138485550880432e-02 -2.855075988918542862e-03 -8.728684782981872559e-01
1.541470885276794434e-01 -5.519653856754302979e-02 -8.422392606735229492e-02
-6.490048021078109741e-02 -3.598552197217941284e-02 -5.778291821479797363e-01
-2.541819810867309570e-01 6.136076897382736206e-02 -1.092128157615661621e+00
4.627183452248573303e-02 4.645395092666149139e-04 -2.534842789173126221e-01
6.820927560329437256e-02 3.157263621687889099e-03 -2.673415243625640869e-01
-1.326404809951782227e-01 6.160206347703933716e-02 -1.154018402099609375e+00
2.006599009037017822e-01 -4.206624627113342285e-02 -2.285132706165313721e-01
5.985565111041069031e-02 3.766975551843643188e-02 -8.480249047279357910e-01
2.551445737481117249e-02 -3.958196192979812622e-02 -5.256035923957824707e-01
-8.294326066970825195e-02 -2.366693131625652313e-02 -7.188573479652404785e-01
-2.075451016426086426e-01 -6.891636177897453308e-03 -8.145174980163574219e-01
1.456113308668136597e-01 -1.418189331889152527e-02 -5.726918578147888184e-01
-2.031640708446502686e-01 -1.319647952914237976e-02 -5.875890851020812988e-01
-1.989038884639739990e-01 6.390624493360519409e-02 -9.946230053901672363e-01
1.172741055488586426e-01 -5.760721862316131592e-02 -9.558022022247314453e-02
-6.180722266435623169e-02 3.942894190549850464e-02 -6.018764972686767578e-01
8.263243734836578369e-02 -5.761789530515670776e-02 -2.210974991321563721e-01
-2.736364305019378662e-02 2.827483415603637695e-02 -1.012688636779785156e+00
-6.832739710807800293e-02 -4.485950618982315063e-02 -3.498918116092681885e-01
-1.946994215250015259e-01 -1.480983197689056396e-02 -7.185660600662231445e-01
-1.108648627996444702e-01 -2.066900394856929779e-02 -7.451833486557006836e-01
-7.373046129941940308e-02 -3.257077187299728394e-02 -2.564666569232940674e-01
6.614997982978820801e-05 1.585829071700572968e-02 -9.360793828964233398e-01
-7.977358996868133545e-02 5.896867066621780396e-02 -8.474339246749877930e-01
-8.046133071184158325e-02 -2.776659466326236725e-02 -6.748108863830566406e-01
5.325696989893913269e-02 -5.109927058219909668e-02 -3.652269542217254639e-01
1.915536448359489441e-02 3.802731633186340332e-02 -9.531065225601196289e-01
-3.546646609902381897e-02 -4.033745080232620239e-02 -5.279847383499145508e-01
1.827739775180816650e-01 -1.275216229259967804e-02 -2.070624232292175293e-01
2.019563168287277222e-01 -1.069454103708267212e-02 -2.803769409656524658e-01
-2.622885107994079590e-01 8.355230093002319336e-03 -8.460267782211303711e-01
-8.502192050218582153e-02 1.311858929693698883e-02 -4.182379245758056641e-01
9.911622107028961182e-02 2.177323214709758759e-02 -4.473339319229125977e-01
1.701931208372116089e-01 -5.026736110448837280e-02 -2.204740941524505615e-01
1.476338505744934082e-01 -5.133848637342453003e-02 -2.574739754199981689e-01
-1.112767457962036133e-01 2.341758459806442261e-02 -1.068386554718017578e+00
-2.345746755599975586e-02 -2.135191671550273895e-02 -1.978934407234191895e-01
-1.256849616765975952e-01 -3.243984654545783997e-03 -9.044538736343383789e-01
1.964931935071945190e-02 -3.538768738508224487e-02 -5.728796720504760742e-01
-2.399242669343948364e-02 5.651751905679702759e-02 -9.534214138984680176e-01
-1.653003096580505371e-01 5.305318534374237061e-02 -8.128934502601623535e-01
7.672786712646484375e-02 5.968088284134864807e-03 -2.879408895969390869e-01
-1.947394162416458130e-01 6.695606559514999390e-02 -1.054650068283081055e+00
1.923647075891494751e-01 -1.020256429910659790e-02 -2.500906288623809814e-01
1.592291742563247681e-01 1.218780688941478729e-02 -5.672637224197387695e-01
3.242682665586471558e-03 3.671885281801223755e-02 -5.635316967964172363e-01
-6.416105479001998901e-02 5.488810688257217407e-02 -7.842965126037597656e-01
-2.407811582088470459e-01 2.905389107763767242e-02 -7.455282211303710938e-01
-1.547807268798351288e-02 1.780844666063785553e-02 -3.980734348297119141e-01
-2.708334624767303467e-01 1.377042289823293686e-02 -8.981406092643737793e-01
-1.214722990989685059e-01 -1.180145144462585449e-02 -8.310526609420776367e-01
-4.364449530839920044e-02 -4.849029332399368286e-02 -3.266831934452056885e-01
-1.364168822765350342e-01 -2.124523185193538666e-02 -7.242863178253173828e-01
4.660459980368614197e-02 4.341760277748107910e-02 -7.073113918304443359e-01
6.440187990665435791e-02 -1.180868223309516907e-02 -1.750456988811492920e-01
-3.632829710841178894e-02 4.512318223714828491e-02 -6.566863059997558594e-01
-3.863967210054397583e-02 -2.102608792483806610e-02 -7.356111407279968262e-01
-8.192054927349090576e-02 6.087881326675415039e-02 -8.834760189056396484e-01
-8.562421798706054688e-02 9.330518543720245361e-03 -3.970502912998199463e-01
-2.174618989229202271e-01 -9.945674799382686615e-03 -6.530002355575561523e-01
-2.626154720783233643e-01 3.763484954833984375e-02 -8.520726561546325684e-01
-1.825111061334609985e-01 -6.652167998254299164e-03 -8.530076742172241211e-01
1.550107151269912720e-01 6.017345469444990158e-03 -3.428168892860412598e-01
5.294471606612205505e-02 -5.737526714801788330e-02 -2.180616259574890137e-01
-1.279900372028350830e-01 -3.370057791471481323e-02 -5.082890987396240234e-01
8.915002644062042236e-02 -2.798116020858287811e-02 -5.747627019882202148e-01
-2.608312666416168213e-01 4.557538032531738281e-02 -9.060888290405273438e-01
-2.004170417785644531e-01 2.787798456847667694e-02 -6.579383611679077148e-01
-1.667464971542358398e-01 3.115529567003250122e-02 -1.128330945968627930e+00
-3.290591761469841003e-02 -4.717083275318145752e-02 -2.285450398921966553e-01
-1.718385517597198486e-02 -4.837030172348022461e-02 -1.986098587512969971e-01
-2.715671062469482422e-01 1.807428523898124695e-02 -9.626774787902832031e-01
1.763667911291122437e-02 3.443050011992454529e-02 -5.410502552986145020e-01
-1.553928293287754059e-02 6.726197898387908936e-03 -9.104136228561401367e-01
-1.372328996658325195e-01 4.152273386716842651e-02 -6.739513278007507324e-01
-1.475279033184051514e-01 6.191060692071914673e-02 -9.096884727478027344e-01
-2.660799324512481689e-01 2.199836634099483490e-02 -1.020183801651000977e+00
-7.609952986240386963e-02 -6.583697162568569183e-03 -8.674106597900390625e-01
1.185175478458404541e-01 -9.301866404712200165e-03 -1.845838129520416260e-01
-4.212773591279983521e-02 -3.603496402502059937e-02 -5.829136371612548828e-01
-1.006776988506317139e-01 2.479907497763633728e-02 -5.088871717453002930e-01
1.467804610729217529e-01 -4.306022077798843384e-02 -3.592394590377807617e-01
8.944678306579589844e-02 -4.612644761800765991e-02 -5.417585372924804688e-02
-2.789202928543090820e-01 3.860154002904891968e-02 -9.124591350555419922e-01
-5.696084350347518921e-03 4.621520638465881348e-02 -9.911640882492065430e-01
-6.262471526861190796e-02 2.308920770883560181e-02 -4.651670455932617188e-01
-6.959167867898941040e-02 -4.137002676725387573e-02 -2.819746732711791992e-01
1.353866606950759888e-02 2.704658359289169312e-02 -4.662626981735229492e-01
2.079481780529022217e-01 -3.649374842643737793e-02 -2.564805150032043457e-01
-1.973049789667129517e-01 -1.192689873278141022e-02 -7.626059055328369141e-01
-5.262104421854019165e-02 -4.401116818189620972e-02 -2.544547617435455322e-01
-6.410859525203704834e-03 -5.273371934890747070e-02 -2.942820191383361816e-01
6.604769825935363770e-02 3.269390016794204712e-02 -5.507603287696838379e-01
-5.406730622053146362e-02 2.923054993152618408e-02 -1.045814514160156250e+00
-9.811840951442718506e-02 2.172624692320823669e-03 -3.748180866241455078e-01
1.937399059534072876e-02 -5.242220312356948853e-02 -1.545181274414062500e-01
-1.077371239662170410e-01 -1.248228363692760468e-02 -3.350162208080291748e-01
-9.967909008264541626e-02 4.706859588623046875e-02 -6.973226666450500488e-01
3.319146111607551575e-02 -5.556364357471466064e-02 -1.696889102458953857e-01
1.493404209613800049e-01 1.140728779137134552e-02 -6.231628656387329102e-01
-2.801000177860260010e-01 3.252228349447250366e-02 -1.069814682006835938e+00
-2.335003167390823364e-01 -1.387437805533409119e-04 -6.588837504386901855e-01
6.479236483573913574e-02 3.954692929983139038e-02 -8.092395067214965820e-01
-1.899094879627227783e-01 7.091024890542030334e-04 -9.208605289459228516e-01
-4.709440469741821289e-02 6.001643836498260498e-02 -9.252061843872070312e-01
9.979563951492309570e-02 2.584790252149105072e-02 -5.020382404327392578e-01
9.038586914539337158e-02 3.344576805830001831e-02 -7.527887225151062012e-01
-2.651416659355163574e-01 1.333101093769073486e-02 -9.268846511840820312e-01
7.588696479797363281e-02 2.388371713459491730e-02 -4.509311020374298096e-01
1.751060485839843750e-01 -4.031191766262054443e-02 -5.921012163162231445e-02
-9.964051842689514160e-02 -1.986287534236907959e-02 -3.069882094860076904e-01
4.033345356583595276e-02 1.123703643679618835e-02 -3.303419649600982666e-01
1.224866211414337158e-01 -1.582667045295238495e-02 -1.451576352119445801e-01
8.426760137081146240e-02 2.636597678065299988e-02 -4.874913096427917480e-01
8.012183010578155518e-02 -3.180358558893203735e-02 -8.307421207427978516e-02
-2.600806653499603271e-01 4.964601248502731323e-02 -9.409263134002685547e-01
-4.521529749035835266e-02 5.405458062887191772e-02 -1.046085953712463379e+00
2.029133588075637817e-01 -2.882682718336582184e-02 -3.386583328247070312e-01
9.595279395580291748e-02 1.121762953698635101e-02 -3.359421491622924805e-01
-4.827092215418815613e-02 4.629398137331008911e-02 -6.710559129714965820e-01
1.206506043672561646e-01 2.686997503042221069e-02 -6.249923706054687500e-01
-1.684483289718627930e-01 6.626977771520614624e-02 -1.156382799148559570e+00
-2.218463867902755737e-01 5.250851064920425415e-02 -1.204227447509765625e+00
1.001482456922531128e-01 5.869711749255657196e-03 -2.915235161781311035e-01
-1.289823055267333984e-01 6.697727739810943604e-02 -1.023108124732971191e+00
7.120244204998016357e-03 5.155163258314132690e-02 -8.055598735809326172e-01
-2.573584020137786865e-01 4.234863072633743286e-02 -8.710187077522277832e-01
-1.060957312583923340e-01 6.373644620180130005e-02 -9.349865913391113281e-01
7.300597429275512695e-02 -4.094904661178588867e-02 -4.765037894248962402e-01
-2.885604277253150940e-02 1.990900188684463501e-02 -9.852042794227600098e-01
1.338977366685867310e-01 2.262883260846138000e-02 -5.677161812782287598e-01
5.225476250052452087e-02 -2.070013061165809631e-02 -6.715669035911560059e-01
-1.509770005941390991e-01 4.593888670206069946e-02 -7.272958755493164062e-01
-3.621682897210121155e-02 -2.725061960518360138e-02 -6.774374246597290039e-01
-5.252841860055923462e-03 -2.157591097056865692e-02 -7.133862376213073730e-01
