7.465856075286865234e-01 4.364206641912460327e-02 -5.071010068058967590e-02
4.501775503158569336e-01 -1.161735504865646362e-01 -4.479588940739631653e-03
9.315280914306640625e-01 7.082328200340270996e-03 -5.298817157745361328e-02
5.770444869995117188e-01 -7.624633610248565674e-02 -7.829945534467697144e-02
5.245137214660644531e-01 -4.718121886253356934e-02 -9.442324936389923096e-02
5.996979475021362305e-01 2.280354686081409454e-02 -8.299309015274047852e-02
-3.132551908493041992e-01 2.197752706706523895e-02 -4.691479355096817017e-02
6.635728478431701660e-02 -1.042633652687072754e-01 1.867160201072692871e-02
6.295421123504638672e-01 2.673248760402202606e-02 6.209238618612289429e-02
8.050392866134643555e-01 5.004593729972839355e-02 8.096066303551197052e-03
7.086820602416992188e-01 -9.971818327903747559e-02 -3.706116229295730591e-02
5.805127024650573730e-01 -1.125672385096549988e-01 -9.024703875184059143e-03
-3.402236700057983398e-01 -2.366279438138008118e-02 -5.807415768504142761e-02
4.720845818519592285e-02 -1.394261699169874191e-02 -9.748397767543792725e-02
-3.540908694267272949e-01 -1.840163022279739380e-04 -5.205284059047698975e-02
-1.302548348903656006e-01 -9.298154711723327637e-02 6.075811572372913361e-03
-1.422220468521118164e-02 5.206601321697235107e-02 3.553710877895355225e-02
-2.698651552200317383e-01 -6.429876387119293213e-02 -4.972844198346138000e-02
5.360704660415649414e-02 6.804112344980239868e-02 1.148128975182771683e-02
5.241369009017944336e-01 4.137788712978363037e-02 -7.456757873296737671e-02
4.266362190246582031e-01 4.920390248298645020e-02 5.282033979892730713e-02
4.863983988761901855e-01 5.297611653804779053e-02 4.665550217032432556e-02
-1.659871041774749756e-01 2.289223112165927887e-02 -7.154309749603271484e-02
2.344627380371093750e-01 -1.041685640811920166e-01 3.307791054248809814e-02
7.185639142990112305e-01 -9.693303704261779785e-02 2.531410753726959229e-02
5.636755228042602539e-01 1.056886091828346252e-02 -9.052895754575729370e-02
1.615712046623229980e-02 -5.107263848185539246e-02 -9.053171426057815552e-02
-2.335541844367980957e-01 -8.303561806678771973e-02 -1.812420040369033813e-02
7.752894163131713867e-01 5.158790200948715210e-02 -2.880475297570228577e-02
-3.341482281684875488e-01 -6.479026377201080322e-02 -1.983363926410675049e-02
1.624165773391723633e-01 -9.793581813573837280e-02 -6.169966235756874084e-02
9.696785807609558105e-01 -7.125783711671829224e-03 3.882157802581787109e-02
5.180777907371520996e-01 -8.992546796798706055e-02 5.123666301369667053e-02
1.703487336635589600e-01 -9.458516538143157959e-02 4.392577707767486572e-02
-1.774710416793823242e-01 2.156410552561283112e-02 1.325833201408386230e-01
-4.484990611672401428e-02 -3.356098383665084839e-02 -3.447884917259216309e-01
-1.195408552885055542e-01 -3.600820153951644897e-02 -1.965824067592620850e-01
-5.462072789669036865e-02 -6.567545980215072632e-02 -1.455428898334503174e-01
1.482686549425125122e-01 -6.975474953651428223e-02 -1.146652102470397949e-01
-1.359944939613342285e-01 3.122157789766788483e-02 2.610433101654052734e-01
5.585807561874389648e-02 8.622236549854278564e-03 3.408838510513305664e-01
-8.820582926273345947e-02 2.995516918599605560e-02 9.240576624870300293e-02
9.896406531333923340e-02 -6.529620289802551270e-02 -3.573746085166931152e-01
6.226808577775955200e-02 -3.853785991668701172e-02 4.050992429256439209e-01
2.161591202020645142e-01 -4.389622807502746582e-02 -1.142454892396926880e-01
2.495505847036838531e-02 5.005922168493270874e-03 -3.188535571098327637e-01
9.788526594638824463e-02 -2.099057100713253021e-02 3.490753173828125000e-01
-4.724704846739768982e-02 3.068144060671329498e-02 2.632492482662200928e-01
-2.093847543001174927e-01 -4.411583021283149719e-02 4.890384972095489502e-01
-2.654017210006713867e-01 3.125509247183799744e-03 3.217726349830627441e-01
-3.429358825087547302e-02 -6.851015239953994751e-02 2.945254445075988770e-01
-1.701991558074951172e-01 -5.593436211347579956e-02 3.829170763492584229e-01
-1.665744632482528687e-01 -3.837947547435760498e-02 6.069909334182739258e-01
-1.929680407047271729e-01 -3.244797140359878540e-02 6.275713443756103516e-01
-1.352350320667028427e-02 2.501546777784824371e-02 -6.853747367858886719e-02
-2.204403728246688843e-01 2.152303420007228851e-02 3.269059360027313232e-01
1.929965466260910034e-01 -7.514039985835552216e-03 -1.639304161071777344e-01
-2.740803062915802002e-01 -1.943392120301723480e-02 4.820336401462554932e-01
1.895997524261474609e-01 -7.164970040321350098e-03 -1.001149863004684448e-01
1.135247498750686646e-01 -6.930094957351684570e-02 5.551050603389739990e-02
-1.851261705160140991e-01 2.698883973062038422e-02 2.900565266609191895e-01
-8.957428485155105591e-02 -2.402738481760025024e-02 -2.742617726325988770e-01
-2.039656788110733032e-01 -3.712132573127746582e-02 5.823242664337158203e-01
2.365224249660968781e-02 -7.684726268053054810e-02 -2.928382158279418945e-02
9.405966103076934814e-02 -7.272639870643615723e-02 3.904340416193008423e-02
8.779663592576980591e-02 -6.195563822984695435e-02 2.165984809398651123e-01
-1.081232428550720215e-01 1.528888009488582611e-02 -9.308724105358123779e-02
5.908800661563873291e-02 2.115001715719699860e-02 1.458279788494110107e-01
3.488119691610336304e-02 1.799025945365428925e-02 -1.839963495731353760e-01
-4.416215419769287109e-02 3.120772354304790497e-02 2.164657413959503174e-01
-1.380130648612976074e-01 -4.586089774966239929e-02 -1.063213497400283813e-01
-2.085212767124176025e-01 -4.574145376682281494e-02 4.630044400691986084e-01
-1.454897373914718628e-01 -6.155000627040863037e-02 3.097677826881408691e-01
1.084896624088287354e-01 9.801721200346946716e-03 -2.367321550846099854e-01
-1.236158050596714020e-02 1.258692704141139984e-02 -2.340655326843261719e-01
4.005951806902885437e-03 2.803461067378520966e-02 4.365732893347740173e-02
1.437754034996032715e-01 -7.004214450716972351e-03 -3.829342126846313477e-01
6.872390955686569214e-02 -2.344917878508567810e-02 -4.630543291568756104e-01
1.199575662612915039e-01 1.093135960400104523e-02 -1.773628890514373779e-01
-6.266459077596664429e-02 1.406888104975223541e-02 -1.711428761482238770e-01
-1.224066764116287231e-01 2.763113938271999359e-02 4.542140960693359375e-01
2.192678600549697876e-01 -4.607018083333969116e-02 -3.224181830883026123e-01
-2.839035540819168091e-02 2.264290489256381989e-02 3.985048234462738037e-01
3.567536920309066772e-02 -7.203144580125808716e-02 -2.219386696815490723e-01
8.354426920413970947e-02 -6.364678591489791870e-02 -3.675497174263000488e-01
2.204689234495162964e-01 -2.715327404439449310e-02 -3.108127415180206299e-01
1.509271264076232910e-01 -7.961392402648925781e-04 8.340279757976531982e-02
5.903645604848861694e-02 1.705238409340381622e-02 -1.833265721797943115e-01
-1.036062091588973999e-01 -6.783916056156158447e-02 8.988344669342041016e-02
-2.154439687728881836e-01 -4.495377838611602783e-02 2.142742574214935303e-01
2.668213285505771637e-02 2.094057016074657440e-02 -1.376160383224487305e-01
9.567143023014068604e-02 1.739785633981227875e-02 -4.220955073833465576e-03
-2.571151256561279297e-01 -2.002585679292678833e-04 2.452830225229263306e-01
2.036420442163944244e-02 -7.306710630655288696e-02 1.694080978631973267e-01
-2.293261736631393433e-01 1.778402365744113922e-02 2.878516018390655518e-01
4.514576494693756104e-02 2.141884155571460724e-02 -1.089653819799423218e-01
1.426736116409301758e-01 -6.980908662080764771e-02 -7.581259310245513916e-02
-1.661459058523178101e-01 2.475009672343730927e-02 5.084477066993713379e-01
-2.077290974557399750e-02 2.696358226239681244e-02 -2.469636499881744385e-02
-1.230291500687599182e-01 2.657158859074115753e-02 7.533004879951477051e-02
3.788090497255325317e-02 1.255828700959682465e-02 3.545616269111633301e-01
3.278435766696929932e-02 -6.745103746652603149e-02 2.514903545379638672e-01
-2.467155903577804565e-01 1.556802727282047272e-02 3.788964152336120605e-01
-1.664323359727859497e-02 1.730593480169773102e-02 -1.829238235950469971e-01
6.966205686330795288e-02 1.849809475243091583e-02 1.637544482946395874e-01
9.480576962232589722e-02 -6.748366355895996094e-02 1.353345215320587158e-01
3.015032596886157990e-02 -4.032032936811447144e-02 4.556971788406372070e-01
2.710553072392940521e-02 -7.517220079898834229e-02 1.037182509899139404e-01
-1.766101866960525513e-01 2.582043968141078949e-02 2.092726528644561768e-01
-5.675875395536422729e-02 3.183669596910476685e-02 1.832063943147659302e-01
6.656344234943389893e-02 2.073880471289157867e-02 1.134977042675018311e-01
1.480038166046142578e-01 2.905787900090217590e-03 -2.531701028347015381e-01
1.245508641004562378e-01 -4.439129307866096497e-02 2.459585666656494141e-01
5.965745076537132263e-03 -6.656274199485778809e-02 -2.569699287414550781e-01
-5.907105654478073120e-02 1.186314783990383148e-02 -1.940483748912811279e-01
1.348160207271575928e-01 3.834124654531478882e-03 -2.768700718879699707e-01
1.079892739653587341e-03 -6.512621045112609863e-02 3.196430802345275879e-01
1.034995540976524353e-03 7.408186793327331543e-04 5.058929920196533203e-01
-5.227859318256378174e-02 -5.807987600564956665e-02 -2.308129966259002686e-01
-1.319590508937835693e-01 1.804016344249248505e-02 5.790647864341735840e-01
-8.061453700065612793e-02 3.221350163221359253e-02 2.519459128379821777e-01
1.829010695219039917e-01 -6.230796128511428833e-02 -2.918519973754882812e-01
-3.862855955958366394e-02 3.108745999634265900e-02 1.951291859149932861e-01
6.398266553878784180e-02 -5.870963633060455322e-02 2.932859957218170166e-01
1.781066358089447021e-01 -6.460347771644592285e-02 -2.426262199878692627e-01
-1.709877140820026398e-02 2.430444397032260895e-02 3.483158946037292480e-01
-1.244091019034385681e-01 2.904409356415271759e-02 1.325008422136306763e-01
-9.188809245824813843e-02 3.092917613685131073e-02 3.452983498573303223e-01
-6.106860190629959106e-02 -7.140641659498214722e-02 -4.940822720527648926e-03
-8.241184800863265991e-02 -7.063469290733337402e-02 1.733986884355545044e-01
-1.099884510040283203e-01 2.221730537712574005e-02 -1.596407592296600342e-02
-2.072994709014892578e-01 2.464145235717296600e-02 3.624964654445648193e-01
2.038813978433609009e-01 -5.379931628704071045e-02 -3.372060060501098633e-01
-1.278815865516662598e-01 2.960327081382274628e-02 1.565818488597869873e-01
1.220568567514419556e-01 -7.330796867609024048e-02 -1.511643230915069580e-01
-5.732264369726181030e-03 -5.121535807847976685e-02 4.518874585628509521e-01
-1.120802238583564758e-01 -3.872530162334442139e-02 6.059857606887817383e-01
1.674961447715759277e-01 -6.568743288516998291e-02 -1.047462970018386841e-01
-2.468980252742767334e-01 1.589284278452396393e-02 4.009893834590911865e-01
-1.406147796660661697e-02 -6.161991506814956665e-02 -2.734471261501312256e-01
1.154439896345138550e-01 -3.774669021368026733e-02 2.907411158084869385e-01
-1.803470253944396973e-01 -4.402617737650871277e-02 5.498458743095397949e-01
-8.317977190017700195e-02 1.959547959268093109e-02 -8.941400051116943359e-02
-1.743497699499130249e-02 -6.760505586862564087e-02 -2.026082277297973633e-01
-1.088541820645332336e-01 -6.663336604833602905e-02 7.210849225521087646e-02
7.753545045852661133e-02 1.567210815846920013e-02 1.862567365169525146e-01
1.183529496192932129e-01 -5.276843905448913574e-03 2.485355734825134277e-01
-9.934595227241516113e-02 2.990447916090488434e-02 1.073050200939178467e-01
8.764337748289108276e-02 1.211985386908054352e-02 -2.328516542911529541e-01
-6.178510189056396484e-02 -1.447374001145362854e-03 6.074436902999877930e-01
2.144525796175003052e-01 -2.934838086366653442e-02 -7.756263017654418945e-02
9.537836909294128418e-02 8.995866402983665466e-03 2.119900286197662354e-01
1.734499074518680573e-02 2.721211872994899750e-02 1.304522603750228882e-01
-3.514315560460090637e-02 -1.903148554265499115e-02 -3.575350642204284668e-01
-3.029788099229335785e-02 1.730810292065143585e-02 4.611907899379730225e-01
-7.583208382129669189e-02 -6.893761456012725830e-02 -1.956220716238021851e-02
1.337272524833679199e-01 -6.092642992734909058e-02 1.102634891867637634e-01
5.257923901081085205e-02 -7.221609354019165039e-02 1.432140022516250610e-01
-7.529837638139724731e-02 -6.546833366155624390e-02 -9.165933728218078613e-02
1.709466576576232910e-01 -2.431174926459789276e-02 1.310135126113891602e-01
-9.479299932718276978e-02 2.520518563687801361e-02 2.129442989826202393e-03
-1.828883439302444458e-01 1.859443448483943939e-02 5.819840431213378906e-01
2.258374392986297607e-01 -4.154955968260765076e-02 -2.105146944522857666e-01
1.560765057802200317e-01 -6.256190687417984009e-02 1.414419710636138916e-02
7.126260548830032349e-02 4.294058308005332947e-03 3.309954106807708740e-01
2.794528938829898834e-02 -7.588900625705718994e-02 7.475630193948745728e-02
5.640373378992080688e-02 2.316063456237316132e-02 2.215474098920822144e-02
-6.538482010364532471e-02 -4.248445108532905579e-02 5.605202913284301758e-01
-2.015960663557052612e-01 2.458543889224529266e-02 2.984042465686798096e-01
2.880427800118923187e-02 2.400807850062847137e-02 -6.444951891899108887e-02
-1.432172358036041260e-01 3.097851388156414032e-02 3.237814307212829590e-01
4.826516658067703247e-02 -7.466851919889450073e-02 9.083719551563262939e-02
-1.974173933267593384e-01 -5.111900344491004944e-02 2.211747169494628906e-01
-2.318323701620101929e-01 -2.774034254252910614e-02 6.050726175308227539e-01
-8.298332989215850830e-02 -6.937029212713241577e-02 2.417236268520355225e-01
1.639662086963653564e-01 -6.588197499513626099e-02 -2.888763248920440674e-01
4.231077432632446289e-02 -2.779997885227203369e-05 -3.608804345130920410e-01
1.123608052730560303e-01 5.953980609774589539e-03 -2.886171042919158936e-01
-7.931339740753173828e-02 -4.644755274057388306e-02 -2.465928792953491211e-01
-1.538776755332946777e-01 -5.906125530600547791e-03 -1.174405366182327271e-01
-1.997381299734115601e-01 -2.321082167327404022e-02 6.651489734649658203e-01
-5.524953082203865051e-02 3.132728487253189087e-02 1.264144033193588257e-01
-1.618202775716781616e-03 5.101934075355529785e-04 -3.295277059078216553e-01
-1.626922190189361572e-01 -5.943506956100463867e-02 2.747513651847839355e-01
-2.237003892660140991e-01 -1.695901155471801758e-02 7.067620754241943359e-02
-6.418712437152862549e-02 3.044846095144748688e-02 8.543211221694946289e-02
-1.408273074775934219e-02 -5.484063923358917236e-02 -3.222270309925079346e-01
-1.712971553206443787e-02 2.145413495600223541e-02 -1.290386468172073364e-01
1.616387665271759033e-01 -5.307760089635848999e-02 -4.343926608562469482e-01
-1.983969062566757202e-01 2.585710771381855011e-02 3.415134251117706299e-01
2.976377867162227631e-02 2.477821521461009979e-02 1.804485321044921875e-01
-2.064684033393859863e-01 -3.813471645116806030e-03 6.830347776412963867e-01
-9.378574043512344360e-02 -2.159217372536659241e-03 -2.243325412273406982e-01
1.223199516534805298e-01 1.134294457733631134e-02 2.675945311784744263e-02
-2.175642549991607666e-01 2.112351357936859131e-04 8.033458888530731201e-02
1.104265153408050537e-01 -5.883743613958358765e-02 1.932435333728790283e-01
1.258236020803451538e-01 -6.989688426256179810e-02 1.241557300090789795e-03
-1.897993087768554688e-01 -2.037120424211025238e-02 -3.987094759941101074e-02
-2.284322679042816162e-01 -4.343542084097862244e-02 3.475629091262817383e-01
1.521614789962768555e-01 3.109242767095565796e-03 -2.306002080440521240e-01
-1.506966352462768555e-01 3.050644509494304657e-02 3.401161432266235352e-01
-1.490906774997711182e-01 -5.141974985599517822e-02 5.017823576927185059e-01
-2.075405269861221313e-01 1.646442897617816925e-02 1.668263673782348633e-01
1.556642055511474609e-01 -4.481080174446105957e-02 1.549790799617767334e-01
-1.843694150447845459e-01 1.643825136125087738e-02 8.997781574726104736e-02
1.719573885202407837e-01 -3.675207495689392090e-03 -4.770152270793914795e-03
1.400970965623855591e-01 7.882200181484222412e-03 -1.565361618995666504e-01
-2.549572288990020752e-01 6.957113742828369141e-03 5.737128257751464844e-01
-1.864121556282043457e-01 1.235848292708396912e-03 -1.025661081075668335e-02
1.268027275800704956e-01 -6.395694613456726074e-02 -3.701071739196777344e-01
1.924649812281131744e-02 -3.353408724069595337e-02 4.936560094356536865e-01
2.061822712421417236e-01 -4.868244752287864685e-02 -7.936176657676696777e-02
-7.015125826001167297e-03 2.894053421914577484e-02 6.427361071109771729e-02
7.208597660064697266e-02 -7.388275861740112305e-02 -2.137829661369323730e-01
-1.685050278902053833e-01 -5.767450481653213501e-02 3.299314379692077637e-01
-5.107847601175308228e-02 -4.524225741624832153e-02 -3.059213459491729736e-01
1.067763715982437134e-01 -4.717559367418289185e-02 2.778000235557556152e-01
3.155703097581863403e-02 2.951266244053840637e-03 -3.366056382656097412e-01
1.064653992652893066e-01 -5.266594141721725464e-02 2.484090775251388550e-01
4.541999101638793945e-02 -6.348247826099395752e-02 -3.390480279922485352e-01
-1.086634844541549683e-01 2.989373542368412018e-02 1.233149468898773193e-01
7.000178843736648560e-02 -7.607593387365341187e-02 -1.610106229782104492e-02
-3.244786709547042847e-02 -7.281783968210220337e-02 -6.600481271743774414e-02
8.467936515808105469e-02 -1.589321903884410858e-02 3.754740655422210693e-01
-2.381438575685024261e-02 9.666064754128456116e-03 -2.492944598197937012e-01
2.038435041904449463e-01 -1.404647342860698700e-02 -1.158391535282135010e-01
-8.259414881467819214e-02 2.738582901656627655e-02 2.396257966756820679e-02
8.902416378259658813e-02 1.840142719447612762e-02 -4.293178021907806396e-02
1.555175781250000000e-01 -5.758764594793319702e-02 -4.104712903499603271e-01
1.163461655378341675e-01 -7.043277472257614136e-02 2.337855100631713867e-02
-2.778210341930389404e-01 -1.662915386259555817e-02 4.359447658061981201e-01
-1.209174748510122299e-02 -7.286100834608078003e-02 -1.207962483167648315e-01
-2.709446847438812256e-01 -1.066541299223899841e-02 3.048115372657775879e-01
-4.681780189275741577e-02 1.142912916839122772e-02 -2.119636833667755127e-01
1.767830252647399902e-01 -9.990893304347991943e-03 -3.471794724464416504e-01
5.914340913295745850e-02 1.552527584135532379e-02 2.584757804870605469e-01
1.912967413663864136e-01 -6.096256524324417114e-02 -2.678130865097045898e-01
3.511018306016921997e-02 2.524106018245220184e-02 1.237144470214843750e-01
5.118238925933837891e-02 2.096461690962314606e-02 1.908693909645080566e-01
-2.488923668861389160e-01 1.136673800647258759e-02 5.505753159523010254e-01
-7.057615369558334351e-02 -6.938563287258148193e-02 2.635975480079650879e-01
5.464533716440200806e-02 1.978079415857791901e-02 -1.335906684398651123e-01
-2.008492201566696167e-01 -5.126980319619178772e-02 3.176656365394592285e-01
-1.301168799400329590e-01 -1.282235048711299896e-02 6.806316375732421875e-01
5.380168557167053223e-02 -2.810100652277469635e-02 4.431357383728027344e-01
-1.748576611280441284e-01 2.363910712301731110e-02 1.577776372432708740e-01
-1.231986656785011292e-01 -6.254625320434570312e-02 3.208650648593902588e-02
2.381685189902782440e-02 2.679459936916828156e-02 8.551706373691558838e-02
-9.194931387901306152e-02 -6.909096240997314453e-02 2.240194678306579590e-01
-1.747010946273803711e-01 2.857603318989276886e-02 3.766549825668334961e-01
1.628810912370681763e-01 -9.058916941285133362e-03 -3.707938790321350098e-01
-8.896409720182418823e-02 9.952733293175697327e-03 -1.665784418582916260e-01
1.057510673999786377e-01 -4.391700029373168945e-03 -3.925010263919830322e-01
6.938543170690536499e-02 2.133142389357089996e-02 -1.560679823160171509e-02
1.301194280385971069e-01 -7.208062708377838135e-02 -9.488683938980102539e-02
-1.015102714300155640e-01 -4.859131574630737305e-02 -1.858142316341400146e-01
-2.433030754327774048e-01 -1.712728291749954224e-03 1.711201220750808716e-01
3.153251111507415771e-02 -6.021800637245178223e-02 3.335078656673431396e-01
-1.335013657808303833e-01 1.968940161168575287e-02 -1.449376344680786133e-03
-1.965040117502212524e-01 2.626166306436061859e-02 3.771022856235504150e-01
-3.163246065378189087e-02 3.048587031662464142e-02 1.025685593485832214e-01
4.838354885578155518e-02 1.359279640018939972e-02 3.154641985893249512e-01
1.046921312808990479e-01 -4.467707127332687378e-03 2.867808938026428223e-01
-2.144846618175506592e-01 -3.712607920169830322e-02 5.637943744659423828e-01
-5.139011889696121216e-03 -7.168843597173690796e-02 -1.615822017192840576e-01
-5.687944591045379639e-02 -6.183099746704101562e-02 3.994067013263702393e-01
-1.297290064394474030e-02 2.589972876012325287e-02 3.075840473175048828e-01
-1.451067477464675903e-01 3.004178963601589203e-02 3.879128992557525635e-01
-1.685934811830520630e-01 -1.273473259061574936e-02 6.923955678939819336e-01
5.841079354286193848e-02 -7.031185179948806763e-02 1.680924594402313232e-01
8.738560229539871216e-02 -7.441049069166183472e-02 -1.968453824520111084e-01
1.748154461383819580e-01 -3.393124416470527649e-02 -4.633787572383880615e-01
-9.341029822826385498e-02 3.176669776439666748e-02 1.709971427917480469e-01
5.861593782901763916e-02 -6.231881678104400635e-02 2.699822187423706055e-01
-1.878399848937988281e-01 2.333722822368144989e-02 5.154374837875366211e-01
9.353237226605415344e-03 1.939263008534908295e-02 -1.661974191665649414e-01
5.743011087179183960e-02 -5.523200333118438721e-02 3.319002985954284668e-01
1.680262833833694458e-01 -6.437060981988906860e-02 -3.092678785324096680e-01
1.320740431547164917e-01 2.209454774856567383e-03 -3.057471215724945068e-01
1.067916303873062134e-01 2.817209810018539429e-03 2.323578745126724243e-01
-2.549950033426284790e-03 2.064227871596813202e-02 3.672351241111755371e-01
2.092084884643554688e-01 -1.621095836162567139e-02 -1.453950256109237671e-01
1.200015395879745483e-01 -2.438284456729888916e-03 -3.692010939121246338e-01
7.512296736240386963e-02 -7.032407820224761963e-02 1.353160291910171509e-01
-7.949364185333251953e-02 -6.189610064029693604e-02 4.015144705772399902e-01
-1.644347459077835083e-01 1.223865710198879242e-02 6.327674388885498047e-01
-8.918233960866928101e-02 2.948381565511226654e-02 3.847132027149200439e-01
-1.145116984844207764e-04 1.721822284162044525e-02 -1.924966275691986084e-01
-5.093349143862724304e-02 2.657901495695114136e-03 -2.652480900287628174e-01
-2.025212198495864868e-01 -4.200760647654533386e-02 5.360772013664245605e-01
2.275083959102630615e-01 -3.926599770784378052e-02 -2.468200027942657471e-01
-5.445888638496398926e-02 -7.307593524456024170e-02 4.597808048129081726e-02
-1.895791590213775635e-01 -3.160430490970611572e-02 -1.750926673412322998e-02
1.204532198607921600e-02 -7.534653693437576294e-02 -1.016972661018371582e-01
1.791683137416839600e-01 -2.359947189688682556e-03 -1.519604623317718506e-01
-9.918828308582305908e-02 -3.245885670185089111e-02 -2.486630976200103760e-01
-4.212857037782669067e-02 -5.909740924835205078e-03 -3.153228163719177246e-01
2.854032255709171295e-02 1.741265691816806793e-02 3.277506828308105469e-01
-1.881856173276901245e-01 2.427055127918720245e-02 4.968812465667724609e-01
1.680131442844867706e-02 2.484095655381679535e-02 2.355431914329528809e-01
1.721521317958831787e-01 -2.021547406911849976e-04 -1.112794131040573120e-01
-2.626514434814453125e-01 1.011995784938335419e-02 4.525281190872192383e-01
6.820271164178848267e-02 -2.252612262964248657e-03 -3.821859657764434814e-01
-2.513966560363769531e-01 -3.200212866067886353e-02 4.908424317836761475e-01
-1.449642330408096313e-01 -5.390707403421401978e-02 -1.519753783941268921e-02
-2.371056675910949707e-01 -3.574384748935699463e-02 5.115597248077392578e-01
-7.123812288045883179e-02 -7.121058553457260132e-02 3.987648338079452515e-02
1.666268259286880493e-01 -1.584604382514953613e-03 -2.625576853752136230e-01
5.275930464267730713e-02 -4.811517149209976196e-02 -4.336032569408416748e-01
-3.134622797369956970e-02 3.019615076482295990e-02 8.380754292011260986e-02
8.550916612148284912e-02 6.190104410052299500e-03 2.742942869663238525e-01
1.115751713514328003e-01 -5.936846137046813965e-02 -4.110182821750640869e-01
-8.173721283674240112e-02 -6.900969892740249634e-02 7.881172001361846924e-03
-1.300453990697860718e-01 3.420885652303695679e-03 -1.325315088033676147e-01
-7.680382579565048218e-02 -5.241398140788078308e-02 -2.192647159099578857e-01
-6.924095749855041504e-02 3.074656240642070770e-02 3.155772089958190918e-01
-1.461793184280395508e-01 2.297046594321727753e-02 6.806445121765136719e-02
-8.783064037561416626e-02 5.821114405989646912e-03 6.133430004119873047e-01
-1.257953792810440063e-01 -5.878335982561111450e-02 -2.310180664062500000e-02
-9.061478078365325928e-02 -6.984741985797882080e-02 1.106051132082939148e-01
-1.632584780454635620e-01 -4.740341752767562866e-02 -1.434313505887985229e-02
1.403814740478992462e-02 -7.105027139186859131e-02 2.176400721073150635e-01
1.504652947187423706e-01 -6.012846529483795166e-02 6.477107107639312744e-02
1.091745793819427490e-01 -6.310983747243881226e-02 -3.804893493652343750e-01
4.112230986356735229e-02 -7.681113481521606445e-02 -7.176595926284790039e-02
6.992096081376075745e-03 -6.233759969472885132e-02 3.449191451072692871e-01
3.764034807682037354e-02 -7.279875129461288452e-02 1.542859822511672974e-01
1.022333502769470215e-01 9.134059771895408630e-03 1.832553446292877197e-01
7.991711795330047607e-02 -5.285128578543663025e-02 -4.353748857975006104e-01
-6.615503132343292236e-02 2.979170717298984528e-02 6.493657827377319336e-02
8.819533511996269226e-03 -7.524454593658447266e-02 1.141984537243843079e-01
8.749163895845413208e-02 -6.004133820533752441e-02 2.353057414293289185e-01
8.561848849058151245e-02 -7.343088090419769287e-02 -2.268439233303070068e-01
-1.214865520596504211e-01 3.057287819683551788e-02 1.736212968826293945e-01
-1.992530822753906250e-01 1.403598301112651825e-02 6.143151521682739258e-01
2.459756843745708466e-02 1.162341423332691193e-02 3.955263197422027588e-01
-4.490631073713302612e-02 -5.387727171182632446e-03 5.947712659835815430e-01
7.264092564582824707e-02 -7.628171145915985107e-02 -1.082625091075897217e-01
-4.675415903329849243e-02 -5.670255422592163086e-02 4.483696520328521729e-01
-1.327158063650131226e-01 -4.189288616180419922e-02 5.914052724838256836e-01
-2.012626640498638153e-02 -7.109297811985015869e-02 -1.405977308750152588e-01
-2.606126368045806885e-01 -3.015224821865558624e-02 4.133465290069580078e-01
-4.267030954360961914e-02 -5.918294191360473633e-02 4.218712449073791504e-01
-2.629871070384979248e-01 -1.084666699171066284e-03 2.753800153732299805e-01
1.084006726741790771e-01 -8.089988492429256439e-03 -4.151997268199920654e-01
3.692328929901123047e-02 -7.618482410907745361e-02 5.044643953442573547e-02
1.928540319204330444e-01 -1.134575810283422470e-02 -5.018201470375061035e-02
-2.632140517234802246e-01 -2.668233960866928101e-02 3.324353098869323730e-01
-1.682234555482864380e-02 -7.447032630443572998e-02 1.430717855691909790e-01
1.303201727569103241e-02 -4.219942167401313782e-02 -4.093417823314666748e-01
-2.835034020245075226e-02 -5.526178330183029175e-02 4.462625980377197266e-01
-1.814019531011581421e-01 -2.772117033600807190e-02 6.574213504791259766e-01
2.019322365522384644e-01 -3.838817030191421509e-02 -4.192076027393341064e-01
-2.428039908409118652e-01 -2.625811658799648285e-02 5.895742177963256836e-01
-8.581367880105972290e-02 -6.556282192468643188e-02 3.387187123298645020e-01
-3.824369609355926514e-02 -7.442233711481094360e-02 9.371294826269149780e-02
-1.827946901321411133e-01 -4.855236411094665527e-02 4.914824068546295166e-01
-1.845488697290420532e-01 2.751390449702739716e-02 3.192545771598815918e-01
4.933239892125129700e-03 -6.735729984939098358e-03 -3.699617087841033936e-01
-2.667916119098663330e-01 7.011378183960914612e-03 4.988903701305389404e-01
1.400879919528961182e-01 6.699234247207641602e-03 2.009510993957519531e-02
-2.364860326051712036e-01 8.156849071383476257e-03 2.003102004528045654e-01
-1.201914325356483459e-01 -5.557569116353988647e-02 -8.079755306243896484e-02
1.368139684200286865e-01 -7.170485705137252808e-02 -1.396839767694473267e-01
-1.213356778025627136e-01 -3.490862995386123657e-02 6.272386312484741211e-01
-1.909756958484649658e-01 2.071573399007320404e-02 5.524422526359558105e-01
3.491149097681045532e-02 1.147201843559741974e-02 -2.657701075077056885e-01
-7.034484297037124634e-02 1.617202721536159515e-02 5.334935188293457031e-01
7.389543950557708740e-02 1.997197978198528290e-02 9.114854037761688232e-02
8.793329447507858276e-02 1.407515443861484528e-02 1.691115200519561768e-01
1.591610349714756012e-02 -2.939998917281627655e-02 -4.264889657497406006e-01
-2.296708226203918457e-01 -4.225858300924301147e-02 2.890406548976898193e-01
-2.477627843618392944e-01 -3.516674786806106567e-02 4.503200948238372803e-01
1.808584332466125488e-01 -6.422650814056396484e-02 -2.179084420204162598e-01
-6.209386885166168213e-02 6.269784644246101379e-03 -2.296849191188812256e-01
-1.205463856458663940e-01 -6.414740532636642456e-02 5.855309590697288513e-02
1.537701040506362915e-01 -6.791242212057113647e-02 -2.711054980754852295e-01
1.300880312919616699e-01 -6.662826985120773315e-02 -3.357431292533874512e-01
1.563466899096965790e-02 -7.404485344886779785e-02 1.491214931011199951e-01
-2.094729058444499969e-02 3.022772260010242462e-02 1.607965230941772461e-01
1.763310730457305908e-01 -1.898044161498546600e-02 9.577300399541854858e-02
1.857869476079940796e-01 -2.068288624286651611e-02 5.920968949794769287e-02
-1.680133491754531860e-01 1.833407394587993622e-02 6.457972526550292969e-02
-2.369027584791183472e-02 -7.306757569313049316e-02 1.903164088726043701e-01
-1.745391041040420532e-01 -9.993701241910457611e-03 -7.607917487621307373e-02
8.079890161752700806e-02 1.420305855572223663e-02 -2.071922421455383301e-01
-1.127553507685661316e-01 -5.511802434921264648e-02 -1.076594740152359009e-01
-2.363518029451370239e-01 -3.086636774241924286e-02 1.713885068893432617e-01
-1.627321392297744751e-01 1.235279254615306854e-02 -4.519864916801452637e-03
2.136334218084812164e-02 1.956891268491744995e-03 4.619382321834564209e-01
4.885767400264739990e-02 2.391753531992435455e-02 8.531557023525238037e-02
-2.107442170381546021e-01 8.147520944476127625e-03 1.014609187841415405e-01
-9.574892371892929077e-02 -5.827373266220092773e-02 4.466165602207183838e-01
1.015329062938690186e-01 1.510358788073062897e-02 -1.295811086893081665e-01
2.239239513874053955e-01 -3.200398758053779602e-02 -1.586970984935760498e-01
1.341914087533950806e-01 9.906785562634468079e-03 -6.091512739658355713e-02
-1.851048469543457031e-01 -5.033160746097564697e-02 4.571018517017364502e-01
-1.467441767454147339e-01 -6.154999136924743652e-02 1.479540765285491943e-01
1.127731613814830780e-02 1.003968156874179840e-02 4.370779693126678467e-01
3.804650902748107910e-02 2.490146644413471222e-02 1.276344060897827148e-03
-1.050799190998077393e-01 -5.289640650153160095e-02 5.039724111557006836e-01
-7.711094617843627930e-02 -5.357761681079864502e-02 4.921894073486328125e-01
-1.403858214616775513e-01 -4.439903050661087036e-02 5.728977322578430176e-01
4.773840308189392090e-02 1.907364092767238617e-02 2.434083968400955200e-01
1.331168115139007568e-01 -6.767372041940689087e-02 -3.170816004276275635e-01
-1.063926517963409424e-01 -6.445188075304031372e-02 3.393081426620483398e-01
-2.590700089931488037e-01 1.171501539647579193e-02 4.335128366947174072e-01
-1.682823598384857178e-01 -3.371614217758178711e-02 -7.655782997608184814e-02
7.879918068647384644e-02 -5.770681053400039673e-02 2.730009555816650391e-01
-1.447367370128631592e-01 2.481933869421482086e-02 9.318788349628448486e-02
-4.047377035021781921e-03 -1.445620041340589523e-02 5.472089052200317383e-01
-5.509109422564506531e-02 2.796087972819805145e-02 3.636701107025146484e-01
6.512783467769622803e-02 9.737988933920860291e-03 3.049680590629577637e-01
-2.325983718037605286e-03 2.900735475122928619e-02 1.296240985393524170e-01
-1.780266687273979187e-02 2.325841598212718964e-02 -1.003957539796829224e-01
-2.271735072135925293e-01 -4.377826675772666931e-02 3.654426932334899902e-01
-1.992578953504562378e-01 -2.857699617743492126e-02 4.995651543140411377e-03
2.830257453024387360e-02 -5.779759958386421204e-03 -3.842056095600128174e-01
-1.911390572786331177e-04 -7.592076063156127930e-02 7.822800427675247192e-02
-1.566668897867202759e-01 8.655630052089691162e-03 -4.528780281543731689e-02
-4.187026619911193848e-02 -7.284712791442871094e-02 1.853511333465576172e-01
4.989814758300781250e-02 -6.768980622291564941e-02 2.222655713558197021e-01
-1.781947165727615356e-02 -7.532278448343276978e-02 9.356538206338882446e-02
-1.893204748630523682e-01 -5.404412001371383667e-02 2.836024761199951172e-01
1.696948111057281494e-01 -3.060866147279739380e-04 -2.082456350326538086e-01
-2.224086970090866089e-02 -4.535022377967834473e-02 5.051233172416687012e-01
1.155270487070083618e-01 -7.349960505962371826e-02 -7.646973431110382080e-02
-1.924355328083038330e-01 2.547975070774555206e-02 2.732543945312500000e-01
-5.322115123271942139e-02 1.966260932385921478e-02 4.779375195503234863e-01
1.730557531118392944e-01 -2.358630485832691193e-02 -4.429982006549835205e-01
-6.801503896713256836e-02 3.131381422281265259e-02 2.888858914375305176e-01
-2.422523647546768188e-01 -8.451546542346477509e-03 1.481949687004089355e-01
1.070375144481658936e-01 -7.178442925214767456e-02 -2.588028907775878906e-01
-1.273469179868698120e-01 -6.504286080598831177e-02 2.451860010623931885e-01
-9.533824026584625244e-02 1.994311250746250153e-02 -6.752432882785797119e-02
1.271288692951202393e-01 -7.004126906394958496e-02 -2.784256041049957275e-01
4.482676833868026733e-02 2.456938661634922028e-02 6.024170294404029846e-02
-2.483811974525451660e-02 -7.527117431163787842e-02 5.029610171914100647e-02
1.216568052768707275e-01 1.230441220104694366e-02 -1.284977048635482788e-02
-3.661620989441871643e-02 2.574432827532291412e-02 3.683228194713592529e-01
-7.447426021099090576e-02 2.465927787125110626e-02 4.518143832683563232e-01
-1.428578048944473267e-01 2.565662376582622528e-02 4.962411522865295410e-01
-2.139640152454376221e-01 -3.347378224134445190e-02 8.161963522434234619e-02
5.857970565557479858e-02 -7.270080596208572388e-02 -2.327309846878051758e-01
6.232682615518569946e-02 -6.710397452116012573e-02 -3.185847401618957520e-01
-1.177325844764709473e-01 -2.327517606317996979e-02 6.625449657440185547e-01
-1.509467810392379761e-01 -5.381742119789123535e-02 6.502240896224975586e-03
-7.239059358835220337e-02 -6.486282497644424438e-02 3.577679693698883057e-01
1.657658256590366364e-02 -1.321811322122812271e-02 -4.028960764408111572e-01
4.188306629657745361e-02 -7.605244964361190796e-02 -1.226047277450561523e-01
-3.338815271854400635e-02 1.499376259744167328e-02 -1.942385137081146240e-01
1.752858906984329224e-01 -5.647977441549301147e-02 7.443174719810485840e-03
-9.976021200418472290e-02 -6.394454836845397949e-02 3.583493530750274658e-01
-2.384046763181686401e-01 -3.964748233556747437e-02 4.052428007125854492e-01
1.587674617767333984e-01 3.203647211194038391e-03 -5.541011691093444824e-02
1.255927681922912598e-01 1.129110343754291534e-02 -1.262213587760925293e-01
-4.978241771459579468e-02 -6.915950030088424683e-02 2.827124297618865967e-01
-1.655276268720626831e-01 1.706043817102909088e-02 4.454513639211654663e-02
-9.559191763401031494e-02 -4.010527580976486206e-02 5.919041633605957031e-01
9.190811961889266968e-02 8.168669417500495911e-03 -2.838209867477416992e-01
-1.599580645561218262e-01 2.797091379761695862e-03 -7.043239474296569824e-02
-2.643702365458011627e-02 2.698783390223979950e-02 3.200288116931915283e-01
-1.522017270326614380e-01 -6.135747581720352173e-02 2.110376656055450439e-01
1.682159602642059326e-01 -6.695076823234558105e-02 -1.956286132335662842e-01
1.545986831188201904e-01 4.933265969157218933e-03 -1.287588179111480713e-01
-8.734057098627090454e-02 -6.997556239366531372e-02 1.932647377252578735e-01
-2.436242550611495972e-01 -3.458629176020622253e-02 2.576997280120849609e-01
-2.530815899372100830e-01 -3.351185098290443420e-02 4.316599369049072266e-01
-1.962561607360839844e-01 -4.929704964160919189e-02 1.629854738712310791e-01
-3.143494576215744019e-02 -6.095735728740692139e-02 3.957170844078063965e-01
2.151442505419254303e-02 1.483040861785411835e-02 -2.269490957260131836e-01
2.651110105216503143e-02 2.200829796493053436e-02 -1.166109442710876465e-01
-9.562002867460250854e-02 3.205920010805130005e-02 2.918311357498168945e-01
-2.118324935436248779e-01 -3.861308470368385315e-02 1.087652966380119324e-01
-1.395250856876373291e-01 1.645846106112003326e-02 5.958539247512817383e-01
2.829211764037609100e-02 -7.692091166973114014e-02 -1.142924278974533081e-02
1.609328091144561768e-01 -1.797723025083541870e-02 1.543829143047332764e-01
-5.567722022533416748e-02 2.890507318079471588e-02 3.431067764759063721e-01
-2.176671624183654785e-01 -1.355032715946435928e-02 4.891926422715187073e-02
-1.073886379599571228e-01 -6.788436323404312134e-02 2.012838721275329590e-01
1.360586471855640411e-02 2.213628403842449188e-02 3.023852109909057617e-01
-1.418093219399452209e-02 -1.110704708844423294e-02 -3.660874962806701660e-01
-1.724041700363159180e-01 2.800535596907138824e-02 4.212187826633453369e-01
-1.928003132343292236e-01 -1.324032712727785110e-02 6.894594430923461914e-01
-2.246274948120117188e-01 9.908257052302360535e-03 1.653792560100555420e-01
-1.153522357344627380e-01 3.188383579254150391e-02 2.300924807786941528e-01
-2.085243016481399536e-01 -2.889683097600936890e-02 3.903541713953018188e-02
1.079695858061313629e-02 -1.569542288780212402e-02 5.239027738571166992e-01
-2.291766405105590820e-01 -3.978867828845977783e-02 4.822272360324859619e-01
-4.905173927545547485e-02 -4.602891951799392700e-02 5.279306769371032715e-01
-7.379847764968872070e-02 2.314377389848232269e-02 4.705696105957031250e-01
4.008603096008300781e-02 1.747978292405605316e-02 2.932290732860565186e-01
-1.749408096075057983e-01 -5.261893570423126221e-02 9.756501764059066772e-02
2.264867126941680908e-01 -3.652907907962799072e-02 -2.936655282974243164e-01
-2.480157613754272461e-01 -3.426589444279670715e-02 2.947004437446594238e-01
7.186847180128097534e-02 -7.063791900873184204e-02 -2.781639397144317627e-01
1.456288248300552368e-01 -6.743837147951126099e-02 -3.035902082920074463e-01
1.803509742021560669e-01 -1.446210779249668121e-02 -3.792666792869567871e-01
3.445071727037429810e-02 2.554103545844554901e-02 2.768381685018539429e-02
-1.458077318966388702e-02 2.714637480676174164e-02 2.830428183078765869e-01
9.339996427297592163e-02 -7.442750036716461182e-02 -1.403368264436721802e-02
-4.748301580548286438e-03 -4.906208813190460205e-02 -3.646375834941864014e-01
1.490448713302612305e-01 -6.928529590368270874e-02 -2.436178326606750488e-01
-2.068427056074142456e-01 -4.964476078748703003e-02 3.404630422592163086e-01
2.593810297548770905e-02 -4.726109653711318970e-02 4.318852424621582031e-01
1.714323163032531738e-01 -9.963815100491046906e-03 6.873694062232971191e-02
-2.763582393527030945e-02 -2.071460895240306854e-02 5.811968445777893066e-01
1.226308196783065796e-01 5.371347069740295410e-04 -3.388172388076782227e-01
-9.367041289806365967e-02 -6.483660638332366943e-02 -4.224498569965362549e-02
-4.410757869482040405e-02 1.732846908271312714e-02 -1.604581475257873535e-01
6.442337483167648315e-02 -6.659507006406784058e-02 2.113479822874069214e-01
-1.160429716110229492e-01 -2.854365855455398560e-03 6.637164354324340820e-01
-1.085864286869764328e-02 7.300524041056632996e-03 -2.783967852592468262e-01
-1.517903357744216919e-01 -5.632810294628143311e-02 4.590014368295669556e-02
9.044485539197921753e-02 -6.988254189491271973e-02 1.081637963652610779e-01
5.170293152332305908e-02 2.330137230455875397e-02 -1.948753744363784790e-02
5.718795955181121826e-02 -1.404532603919506073e-02 -4.338345825672149658e-01
1.244549304246902466e-01 -4.837239161133766174e-03 2.257928252220153809e-01
1.349896341562271118e-01 -1.218181010335683823e-02 -4.261161386966705322e-01
-1.454382538795471191e-01 -2.530645765364170074e-02 6.680108308792114258e-01
-2.143219858407974243e-01 1.796379126608371735e-02 2.141450047492980957e-01
-8.114886283874511719e-02 -6.373023986816406250e-02 3.738472759723663330e-01
-1.490520834922790527e-01 2.749676816165447235e-02 1.573677808046340942e-01
9.475094079971313477e-02 -6.018115580081939697e-02 -4.007316529750823975e-01
-2.539908885955810547e-01 1.128501258790493011e-02 3.391187787055969238e-01
7.111657410860061646e-02 2.079822681844234467e-02 -4.374295473098754883e-02
-7.994908094406127930e-02 2.321390248835086823e-02 -4.856666922569274902e-02
-2.063060551881790161e-02 -7.336878031492233276e-02 -8.496841788291931152e-02
-5.309334769845008850e-02 -1.875196583569049835e-02 -3.316272795200347900e-01
2.935946546494960785e-02 -7.481684535741806030e-02 -1.503881812095642090e-01
1.403990983963012695e-01 -3.692917525768280029e-02 2.256335616111755371e-01
-1.603419333696365356e-02 1.291744224727153778e-02 4.709139466285705566e-01
7.742693275213241577e-02 -2.897064015269279480e-02 3.942025303840637207e-01
1.688434332609176636e-01 -1.708457246422767639e-02 -4.186494052410125732e-01
2.019210904836654663e-01 -5.574323236942291260e-02 -3.189038336277008057e-01
1.086319386959075928e-01 -6.867567449808120728e-02 8.097783476114273071e-02
2.096653282642364502e-01 -5.175138264894485474e-02 -1.392409205436706543e-01
-8.480907976627349854e-02 -7.058230042457580566e-02 1.453155577182769775e-01
-8.005020767450332642e-02 -7.049559801816940308e-02 5.952179059386253357e-02
-2.078858166933059692e-01 -4.849314689636230469e-02 2.409470826387405396e-01
5.786940455436706543e-02 1.298259757459163666e-02 -2.454816699028015137e-01
-1.305623203516006470e-01 1.686713658273220062e-02 -3.674037754535675049e-02
2.151074409484863281e-01 -1.887011155486106873e-02 -2.072786688804626465e-01
1.800087392330169678e-01 -5.780970677733421326e-03 -3.153195977210998535e-02
1.198661029338836670e-01 -5.291109532117843628e-02 2.139656394720077515e-01
1.280592828989028931e-01 5.595941096544265747e-03 1.152323931455612183e-01
8.834981918334960938e-02 -8.939282968640327454e-03 -4.220130145549774170e-01
8.382638543844223022e-02 -3.187679499387741089e-02 -4.784521162509918213e-01
-1.206340193748474121e-01 2.811143361032009125e-02 1.017352119088172913e-01
7.858498021960258484e-03 2.702158130705356598e-02 2.032134234905242920e-01
5.546914041042327881e-02 -4.715930670499801636e-02 3.835676014423370361e-01
-1.143236458301544189e-01 1.790651492774486542e-02 -5.742256343364715576e-02
-1.405926793813705444e-01 -2.188711240887641907e-02 -1.686451435089111328e-01
1.314251869916915894e-01 -5.317321419715881348e-02 1.815750002861022949e-01
-1.388848721981048584e-01 3.066143207252025604e-02 3.656924664974212646e-01
2.661606296896934509e-03 -7.642307877540588379e-02 1.661838591098785400e-02
-2.475246042013168335e-01 -2.713254280388355255e-02 5.685125589370727539e-01
-6.099902838468551636e-02 -5.974654853343963623e-02 4.252316951751708984e-01
-2.610408961772918701e-01 -2.402330935001373291e-02 2.801998853683471680e-01
7.449104636907577515e-02 2.038328908383846283e-02 6.201502680778503418e-02
-2.577410340309143066e-01 -2.559763751924037933e-02 5.404356718063354492e-01
2.168114036321640015e-01 -2.015252597630023956e-02 -2.295396029949188232e-01
5.999606102705001831e-02 -7.620988041162490845e-02 5.318753421306610107e-03
1.062154024839401245e-01 -7.461091130971908569e-02 -1.023551523685455322e-01
-1.487359404563903809e-01 1.630006358027458191e-03 6.723897457122802734e-01
-1.212860047817230225e-01 2.071008644998073578e-02 5.475695133209228516e-01
-3.505357354879379272e-02 3.043364919722080231e-02 2.324715703725814819e-01
-6.324121356010437012e-02 -6.881888210773468018e-02 -6.769898533821105957e-02
1.840254664421081543e-01 -6.057910621166229248e-02 -3.239906132221221924e-01
-1.913295984268188477e-01 -5.345375835895538330e-02 2.616983950138092041e-01
1.428941190242767334e-01 7.146574556827545166e-03 -2.207414060831069946e-02
-2.294317930936813354e-01 -3.335158154368400574e-02 1.530816107988357544e-01
-1.795752793550491333e-01 2.824347279965877533e-02 3.451470732688903809e-01
-1.216117665171623230e-01 3.142204135656356812e-02 3.391508460044860840e-01
1.776893585920333862e-01 -3.425309434533119202e-03 -2.366025447845458984e-01
-1.633012481033802032e-02 -2.052294462919235229e-02 -3.837437629699707031e-01
-1.821495741605758667e-01 -5.182134360074996948e-02 4.373061656951904297e-01
1.898394227027893066e-01 -4.592605307698249817e-02 -4.298735558986663818e-01
-9.656201303005218506e-02 -8.788050152361392975e-03 6.560742855072021484e-01
-1.586747020483016968e-01 -4.602686688303947449e-02 5.509753227233886719e-01
-9.645998477935791016e-02 2.104662917554378510e-02 5.218406915664672852e-01
-1.662872582674026489e-01 2.864656783640384674e-02 2.567616701126098633e-01
1.644789613783359528e-02 -7.260582596063613892e-02 -1.832372248172760010e-01
-5.305222421884536743e-02 -6.462382525205612183e-02 3.611955940723419189e-01
8.140152692794799805e-02 -7.329338043928146362e-02 5.887990444898605347e-02
-1.940388977527618408e-02 -6.586872786283493042e-02 -2.206769883632659912e-01
1.800680905580520630e-01 -5.838830024003982544e-03 -2.763046622276306152e-01
1.190926879644393921e-01 1.307088695466518402e-02 -3.340184688568115234e-02
5.736475810408592224e-03 2.494097314774990082e-02 2.721497416496276855e-01
-3.446019440889358521e-02 -5.063454061746597290e-02 -3.115092515945434570e-01
-3.580179065465927124e-02 2.085882984101772308e-02 -1.260090917348861694e-01
1.764703541994094849e-01 -2.679108083248138428e-02 1.126573756337165833e-01
9.569215029478073120e-02 1.030079089105129242e-02 -2.502855360507965088e-01
-1.263358145952224731e-01 -1.410395745187997818e-02 -1.951391398906707764e-01
-1.603327095508575439e-01 -4.341901466250419617e-02 -5.404525995254516602e-02
-1.701631993055343628e-01 -5.145917087793350220e-02 4.731255769729614258e-01
2.063510715961456299e-01 -1.842580735683441162e-02 -3.206821680068969727e-01
1.145631968975067139e-01 -7.253874093294143677e-02 -2.297594547271728516e-01
8.512216061353683472e-02 -5.826276540756225586e-02 2.555497288703918457e-01
1.019583344459533691e-01 -6.317280232906341553e-02 1.717792153358459473e-01
7.094949483871459961e-02 -4.517484456300735474e-02 3.637957274913787842e-01
1.156026124954223633e-01 -5.377796292304992676e-02 -4.446804225444793701e-01
5.611563473939895630e-02 2.175253070890903473e-02 -7.358659803867340088e-02
-2.243670672178268433e-01 1.211198978126049042e-02 1.847327053546905518e-01
-1.175522431731224060e-01 3.004812635481357574e-02 3.947527408599853516e-01
-9.968128055334091187e-03 2.951035089790821075e-02 1.067029014229774475e-01
6.229388713836669922e-02 1.995104737579822540e-02 -1.142602115869522095e-01
-1.481931209564208984e-01 -4.980438202619552612e-02 5.206764340400695801e-01
2.063950747251510620e-01 -2.797036431729793549e-02 -3.895065188407897949e-01
-2.709909975528717041e-01 -5.852162837982177734e-03 5.667222738265991211e-01
-3.931453078985214233e-02 1.470282115042209625e-02 4.985040128231048584e-01
-2.349345758557319641e-02 -3.668452799320220947e-02 -3.724173009395599365e-01
-1.771886050701141357e-01 -5.430904030799865723e-02 1.454334110021591187e-01
1.704652458429336548e-01 -5.932107567787170410e-03 3.584959357976913452e-02
-4.859264940023422241e-02 2.912675775587558746e-02 3.609362244606018066e-02
1.338661611080169678e-01 -6.697899103164672852e-02 2.963022142648696899e-02
1.675342917442321777e-01 7.863529026508331299e-04 -7.555584609508514404e-02
-1.182726919651031494e-01 -4.385393112897872925e-02 5.774745941162109375e-01
3.342217206954956055e-02 -7.082792371511459351e-02 1.986021846532821655e-01
-1.599184870719909668e-01 2.041439153254032135e-02 5.667219161987304688e-01
-9.206712245941162109e-02 2.882616780698299408e-02 6.802538037300109863e-02
-2.004226595163345337e-01 2.537225745618343353e-02 4.224337041378021240e-01
-1.624159216880798340e-01 -5.958128720521926880e-02 2.409201860427856445e-01
-1.454955637454986572e-01 2.374625019729137421e-02 5.249092578887939453e-01
-6.835887581110000610e-02 1.978988759219646454e-02 -1.066586524248123169e-01
-1.352298408746719360e-01 2.196403779089450836e-02 2.966845780611038208e-02
5.078937858343124390e-02 -5.815196782350540161e-02 -3.843315243721008301e-01
