1.263807713985443115e-01 -3.007709421217441559e-02 -3.601140081882476807e-01
9.357399493455886841e-02 -2.089533209800720215e-02 -4.717822372913360596e-01
-2.790530025959014893e-01 2.464084327220916748e-02 -1.249236106872558594e+00
-3.215100467205047607e-01 8.716505020856857300e-02 -4.242173433303833008e-01
-7.770904898643493652e-02 -3.561350330710411072e-02 -9.960629343986511230e-01
-2.606817185878753662e-01 7.580611109733581543e-02 -5.517726540565490723e-01
-4.890645667910575867e-02 1.402711682021617889e-02 -8.252782821655273438e-01
2.004238218069076538e-02 -2.839934267103672028e-02 2.337787449359893799e-01
2.737507969141006470e-02 -5.904811993241310120e-02 -7.430929541587829590e-01
-1.723060458898544312e-01 6.011349707841873169e-02 -2.331650257110595703e-01
-1.089084893465042114e-01 -9.933186694979667664e-03 -6.880366802215576172e-02
-2.025259286165237427e-02 -4.496613517403602600e-02 -1.099462151527404785e+00
-1.613495647907257080e-01 5.413647741079330444e-02 1.130971014499664307e-01
-1.250990033149719238e-01 -2.087068744003772736e-02 -1.194406390190124512e+00
-3.687359690666198730e-01 9.132780879735946655e-02 -5.717518329620361328e-01
-3.798328340053558350e-01 8.399520069360733032e-02 -9.412980675697326660e-01
-1.034326702356338501e-01 3.886979818344116211e-02 2.204059064388275146e-01
-2.395032644271850586e-01 7.255240529775619507e-02 -9.587916731834411621e-02
-2.153927236795425415e-01 3.681271895766258240e-02 -1.268217802047729492e+00
-2.467531263828277588e-01 1.026666257530450821e-02 -9.545131921768188477e-01
3.727685660123825073e-02 -5.535466969013214111e-02 -2.993466258049011230e-01
-2.833868563175201416e-01 4.779106006026268005e-02 -1.306920647621154785e-01
-1.699313521385192871e-03 -1.517027430236339569e-02 -1.063536405563354492e+00
-2.363493740558624268e-01 8.567998185753822327e-03 -7.692174315452575684e-01
-2.634294629096984863e-01 2.892060577869415283e-02 -3.374305963516235352e-01
1.586104631423950195e-01 -4.199482500553131104e-02 1.547277271747589111e-01
-2.652847766876220703e-01 7.280531525611877441e-02 -1.728039979934692383e-02
1.053218021988868713e-01 -1.739533618092536926e-02 -8.919328451156616211e-03
-2.446950674057006836e-01 9.657179936766624451e-03 -1.035453438758850098e+00
-4.289135709404945374e-02 -2.615960501134395599e-02 -1.635202765464782715e-02
-1.289016008377075195e-01 -2.225217409431934357e-02 -7.331794500350952148e-01
-2.745462954044342041e-01 7.447344809770584106e-02 -4.031753540039062500e-02
-1.305412054061889648e-01 4.495161399245262146e-02 -5.803853273391723633e-01
-3.725451827049255371e-01 8.734362572431564331e-02 -8.360813856124877930e-01
-1.710561662912368774e-01 -8.727297186851501465e-03 -1.220241665840148926e+00
-2.078128308057785034e-01 3.441043896600604057e-03 -5.645340681076049805e-01
-2.862887084484100342e-01 3.303413465619087219e-02 -4.486294984817504883e-01
-1.859364658594131470e-01 -7.589919958263635635e-03 -1.053756237030029297e+00
-1.665171086788177490e-01 4.116790741682052612e-02 -9.797018766403198242e-01
1.268771290779113770e-01 -7.491429895162582397e-02 -4.968024194240570068e-01
-2.396729290485382080e-01 1.556684076786041260e-02 -4.890997111797332764e-01
5.322795361280441284e-02 -9.355247020721435547e-04 1.471586525440216064e-01
1.518718004226684570e-01 -7.671229541301727295e-02 -3.643424212932586670e-01
1.665372550487518311e-01 -6.517735123634338379e-02 4.975387454032897949e-02
-1.023736223578453064e-01 3.738134354352951050e-02 2.462211549282073975e-01
-1.257848441600799561e-01 4.919259622693061829e-02 -2.252382040023803711e-01
-2.894188761711120605e-01 3.629853576421737671e-02 -1.334220647811889648e+00
-2.527897059917449951e-02 2.095429599285125732e-02 -3.289318978786468506e-01
-8.638235926628112793e-02 -1.209483854472637177e-02 2.407345175743103027e-02
-2.405779361724853516e-01 7.247799634933471680e-02 -5.008174180984497070e-01
-3.439247012138366699e-01 6.686379760503768921e-02 -2.800825238227844238e-01
1.465854644775390625e-01 -3.965273499488830566e-02 2.154014408588409424e-01
-1.238269507884979248e-01 -1.826041750609874725e-02 -4.372622072696685791e-01
-3.297074139118194580e-01 8.137949556112289429e-02 -1.834881305694580078e-01
-2.925024628639221191e-01 4.165650159120559692e-02 -2.980628311634063721e-01
1.771073341369628906e-01 -7.563865184783935547e-02 -5.552623867988586426e-01
-2.396903634071350098e-01 5.507174134254455566e-02 -1.071220517158508301e+00
8.328693360090255737e-02 -6.396388262510299683e-02 -9.171967506408691406e-01
6.414994597434997559e-03 -3.741144761443138123e-02 1.526293158531188965e-02
9.896983951330184937e-02 -1.964235864579677582e-02 2.514901459217071533e-01
1.657828688621520996e-01 -7.702230662107467651e-02 -2.952724099159240723e-01
-1.177902221679687500e-01 2.077114954590797424e-02 3.007779419422149658e-01
-1.500363051891326904e-01 -7.486815098673105240e-03 -3.243002295494079590e-01
-4.748387262225151062e-02 2.180096507072448730e-02 -5.844337940216064453e-01
1.066148653626441956e-01 -4.153443500399589539e-02 -7.987476587295532227e-01
-8.723735064268112183e-02 3.807116672396659851e-02 -3.410932421684265137e-01
-1.934671700000762939e-01 2.281039208173751831e-02 -1.346972942352294922e+00
8.173733949661254883e-03 -2.410753816366195679e-02 -1.115166783332824707e+00
-1.140285655856132507e-01 -2.586100064218044281e-02 -1.092573404312133789e+00
-1.831307113170623779e-01 -8.488722145557403564e-03 -8.864025473594665527e-01
1.220530644059181213e-01 -6.482804566621780396e-02 -6.095770001411437988e-02
-9.116313606500625610e-02 -2.208584919571876526e-02 -1.291619300842285156e+00
-1.882595717906951904e-01 5.847294256091117859e-02 -6.206696033477783203e-01
-1.442729383707046509e-01 4.176637157797813416e-02 -8.143693804740905762e-01
-3.234272897243499756e-01 8.216772973537445068e-02 -7.975647449493408203e-01
-1.992789506912231445e-01 5.424178019165992737e-02 -8.596062660217285156e-01
1.117583885788917542e-01 -2.006046287715435028e-02 7.567802071571350098e-02
-1.464580297470092773e-01 -1.673656143248081207e-02 -1.154396533966064453e+00
1.543086171150207520e-01 -7.733457535505294800e-02 -5.498769879341125488e-01
-6.697312742471694946e-02 -3.835897147655487061e-02 -9.618602991104125977e-01
-2.308917045593261719e-02 1.072860322892665863e-03 -9.270942807197570801e-01
-3.066043257713317871e-01 7.532806694507598877e-02 -9.215136766433715820e-01
-1.326519250869750977e-01 -2.239443361759185791e-02 -9.351634383201599121e-01
-1.538463681936264038e-01 5.339931324124336243e-02 -4.553508758544921875e-01
-3.006468117237091064e-01 3.077954426407814026e-02 -1.203892946243286133e+00
-6.028458476066589355e-02 -3.970513492822647095e-02 -7.228147983551025391e-01
-2.203531265258789062e-01 3.476095944643020630e-02 -1.304102659225463867e+00
-1.788209676742553711e-01 5.053305998444557190e-02 -8.197119235992431641e-01
-3.044779896736145020e-01 8.024428784847259521e-02 -1.365615427494049072e-01
1.463224738836288452e-02 -5.533926934003829956e-02 -5.685465931892395020e-01
9.907031804323196411e-02 -6.839068979024887085e-02 -3.296640515327453613e-01
8.847495168447494507e-02 -1.156391017138957977e-02 -4.048824310302734375e-02
1.358140408992767334e-01 -6.876928359270095825e-02 -1.114194989204406738e-01
1.234881207346916199e-01 -5.235770344734191895e-02 1.819616854190826416e-01
-3.265906870365142822e-01 8.708164095878601074e-02 -5.654740929603576660e-01
-3.659440875053405762e-01 5.443942174315452576e-02 -8.390946388244628906e-01
-3.583642244338989258e-01 5.215269699692726135e-02 -1.111201643943786621e+00
-1.849075853824615479e-01 4.549970477819442749e-02 -9.899636507034301758e-01
-2.273818552494049072e-01 4.490200802683830261e-02 -1.198669910430908203e+00
8.027384430170059204e-02 -2.161525189876556396e-02 -6.297589540481567383e-01
-2.716609537601470947e-01 6.665798276662826538e-02 -9.691280126571655273e-01
-2.218109518289566040e-01 6.187954545021057129e-02 -7.899824380874633789e-01
-3.525953590869903564e-01 8.975892513990402222e-02 -4.112910032272338867e-01
4.722573608160018921e-02 -6.275811791419982910e-02 -7.359589338302612305e-01
-2.509871721267700195e-01 7.192261517047882080e-02 -6.524640917778015137e-01
2.288849651813507080e-02 -1.873587071895599365e-02 -9.829519391059875488e-01
-1.182109415531158447e-01 -2.549623511731624603e-02 -1.043678283691406250e+00
9.552504867315292358e-02 -2.950016967952251434e-02 -6.751282215118408203e-01
-3.546862304210662842e-01 4.981570690870285034e-02 -8.226967453956604004e-01
7.089843600988388062e-02 -6.694404780864715576e-02 -6.650850772857666016e-01
4.587791115045547485e-02 -2.212095633149147034e-02 -8.985440731048583984e-01
-2.966780960559844971e-01 8.150504529476165771e-02 -1.795337796211242676e-01
-6.189770996570587158e-03 -4.915686324238777161e-02 -4.687103629112243652e-01
-1.243211701512336731e-01 -1.534546725451946259e-02 -3.362529277801513672e-01
-1.576354354619979858e-02 -4.993868526071310043e-03 -9.907822608947753906e-01
-6.358395516872406006e-02 -1.352590881288051605e-02 1.183348000049591064e-01
9.469305723905563354e-02 -1.388760283589363098e-02 -7.818877696990966797e-02
-4.672225937247276306e-02 2.717288769781589508e-02 -3.249414861202239990e-01
-2.988944947719573975e-01 6.333857029676437378e-02 -1.146310329437255859e+00
-8.911019563674926758e-02 -2.894361875951290131e-02 -4.900595843791961670e-01
-2.656802535057067871e-01 1.660003699362277985e-02 -1.081844091415405273e+00
-1.216003373265266418e-01 4.364835470914840698e-02 -5.348863601684570312e-01
-7.350291311740875244e-02 8.947415277361869812e-03 -1.079441308975219727e+00
-4.870599135756492615e-02 2.769578620791435242e-02 1.727084219455718994e-01
-2.109397202730178833e-02 -9.233769029378890991e-03 3.274336755275726318e-01
-1.853441298007965088e-01 4.703114554286003113e-02 -9.569555521011352539e-01
-2.005135715007781982e-01 4.787254612892866135e-03 -1.334685564041137695e+00
-2.466232478618621826e-01 7.453763484954833984e-02 -4.328989386558532715e-01
9.650040417909622192e-02 -3.279577195644378662e-02 3.250688612461090088e-01
4.178290814161300659e-02 3.584957215934991837e-03 5.436703562736511230e-02
-2.598039507865905762e-01 7.658585160970687866e-02 -4.830871522426605225e-01
-1.137928664684295654e-02 -4.603580757975578308e-02 -3.764318525791168213e-01
-1.451203674077987671e-01 5.395058542490005493e-02 -8.243128657341003418e-02
-8.417490124702453613e-02 -1.950808800756931305e-02 -1.275771260261535645e-01
-8.970768749713897705e-02 4.034108296036720276e-02 -1.851476430892944336e-01
-2.504113018512725830e-01 2.559822984039783478e-02 -1.369016051292419434e+00
-1.810852140188217163e-01 1.572397723793983459e-02 -1.429197192192077637e-02
-2.332895994186401367e-01 7.259274274110794067e-02 -1.883070170879364014e-01
-7.783012837171554565e-02 -1.854442991316318512e-02 -6.119573116302490234e-02
1.233528554439544678e-02 -1.655160635709762573e-02 3.408164680004119873e-01
1.656227409839630127e-01 -4.143786802887916565e-02 -7.604438066482543945e-02
3.802975267171859741e-02 4.529437050223350525e-03 8.660241961479187012e-02
1.366205811500549316e-01 -3.158192709088325500e-02 -2.515695095062255859e-01
-2.487992346286773682e-01 1.403749734163284302e-02 -1.234603166580200195e+00
1.114206239581108093e-01 -2.065512165427207947e-02 1.312551200389862061e-01
-2.560292482376098633e-01 3.880630061030387878e-02 -9.206780791282653809e-02
1.083036735653877258e-01 -6.967139244079589844e-02 -8.073935508728027344e-01
-1.723102033138275146e-01 1.682293042540550232e-02 5.228826403617858887e-02
4.668014496564865112e-02 -4.656892269849777222e-05 2.059430181980133057e-01
1.585348844528198242e-01 -3.989929705858230591e-02 1.058535873889923096e-01
-1.613349765539169312e-01 5.694479495286941528e-02 -1.731279492378234863e-02
-1.242240890860557556e-01 -1.906823925673961639e-02 -4.753011465072631836e-01
7.228257507085800171e-02 -2.235475182533264160e-02 -7.155227661132812500e-01
-1.654850840568542480e-01 -6.676974240690469742e-03 -4.542973339557647705e-01
-2.869302034378051758e-01 3.425450623035430908e-02 -4.213984012603759766e-01
7.667436450719833374e-02 -3.068204410374164581e-02 3.305856883525848389e-01
1.617287397384643555e-01 -7.260575890541076660e-02 -1.288332343101501465e-01
-9.235384315252304077e-02 4.047718271613121033e-02 5.807104706764221191e-02
7.023442536592483521e-02 -2.960688807070255280e-02 -8.613327741622924805e-01
-3.164769709110260010e-01 3.767990693449974060e-02 -6.716774106025695801e-01
-1.770308464765548706e-01 5.430475808680057526e-03 -1.971514523029327393e-01
8.987262845039367676e-03 -5.299030337482690811e-03 -8.371627330780029297e-01
-3.011389821767807007e-02 7.335898932069540024e-03 -8.439282774925231934e-01
-3.680935204029083252e-01 7.878600805997848511e-02 -1.035299897193908691e+00
-2.275103330612182617e-01 5.718423798680305481e-02 1.399218738079071045e-01
1.268333196640014648e-01 -3.315906971693038940e-02 -4.563300609588623047e-01
-2.400207817554473877e-01 4.185982421040534973e-02 -1.277600288391113281e+00
-7.730820775032043457e-02 -2.862742356956005096e-02 -1.239197373390197754e+00
-3.041597306728363037e-01 8.435682952404022217e-02 -2.940403819084167480e-01
5.170030146837234497e-02 -4.031545296311378479e-02 1.646806895732879639e-01
-1.632051467895507812e-01 1.933362148702144623e-02 1.311167776584625244e-01
1.906388401985168457e-01 -5.699609592556953430e-02 2.822950482368469238e-02
1.141790226101875305e-01 -6.557791680097579956e-02 -1.200128793716430664e-01
-1.546543538570404053e-01 5.575874820351600647e-02 -2.808979749679565430e-01
-1.347160041332244873e-01 5.084299296140670776e-02 1.233056187629699707e-02
2.381578832864761353e-02 5.798943340778350830e-03 2.456409037113189697e-01
-5.212157592177391052e-02 -3.837848082184791565e-02 -4.851937890052795410e-01
-1.276299059391021729e-01 1.070673391222953796e-02 1.802311241626739502e-01
-7.852166891098022461e-05 1.306777913123369217e-02 2.344387471675872803e-01
-4.049133881926536560e-02 -4.196481034159660339e-02 -1.082875490188598633e+00
-3.900373876094818115e-01 6.592237949371337891e-02 -9.469991922378540039e-01
-3.705629110336303711e-01 8.992338925600051880e-02 -7.191495895385742188e-01
-9.207997471094131470e-02 -2.123233675956726074e-02 -2.355778217315673828e-01
-3.183163702487945557e-02 2.338933944702148438e-02 -2.942100167274475098e-01
1.286264359951019287e-01 -2.620396204292774200e-02 -7.549771666526794434e-02
4.621263593435287476e-02 -5.350519344210624695e-02 -1.640019714832305908e-01
8.849016577005386353e-02 -3.810080140829086304e-02 -8.668572902679443359e-01
-2.173310518264770508e-01 1.263648271560668945e-03 -1.011410832405090332e+00
-3.594619631767272949e-01 7.193508744239807129e-02 -1.130174636840820312e+00
-3.391362726688385010e-01 6.976278871297836304e-02 -1.139951944351196289e+00
1.208573505282402039e-01 -7.160430401563644409e-02 -3.069468736648559570e-01
-3.062075674533843994e-01 8.506836742162704468e-02 -3.609660267829895020e-01
-3.428268134593963623e-01 8.941289037466049194e-02 -5.303725004196166992e-01
-2.282605171203613281e-01 1.831770502030849457e-02 -1.375005006790161133e+00
3.441493958234786987e-02 -3.144671395421028137e-02 -1.069779396057128906e+00
-8.988894522190093994e-03 4.870212636888027191e-03 -7.395060062408447266e-01
-1.629613339900970459e-01 -1.000530086457729340e-03 -2.491422444581985474e-01
-9.118059277534484863e-02 -3.159807994961738586e-02 -6.831588149070739746e-01
-3.508234620094299316e-01 8.871962130069732666e-02 -3.599728047847747803e-01
-1.760948896408081055e-01 4.839165881276130676e-02 -8.613489270210266113e-01
9.192014485597610474e-02 -6.756629049777984619e-02 -8.413727283477783203e-01
-1.427349448204040527e-02 1.114082708954811096e-02 3.438417613506317139e-01
1.171221807599067688e-01 -6.868948042392730713e-02 -8.272904157638549805e-01
-1.583208143711090088e-02 -4.923849180340766907e-02 -9.570945501327514648e-01
-3.180875182151794434e-01 3.433446213603019714e-02 -9.877597093582153320e-01
-2.322309911251068115e-01 6.606339011341333389e-03 -8.249638080596923828e-01
-1.614229977130889893e-01 -5.614514928311109543e-03 -3.734314739704132080e-01
1.382914185523986816e-01 -4.410936310887336731e-02 -6.000270843505859375e-01
1.794696152210235596e-01 -4.865523427724838257e-02 -1.559348702430725098e-01
1.654097437858581543e-01 -7.641351222991943359e-02 -2.630491256713867188e-01
-3.569805920124053955e-01 5.468466132879257202e-02 -1.176698088645935059e+00
-2.519730478525161743e-02 -4.527490958571434021e-02 -5.017904639244079590e-01
7.969064265489578247e-02 -5.391920730471611023e-02 -1.003232121467590332e+00
-1.002603769302368164e-02 -4.975844174623489380e-02 -5.614824295043945312e-01
-4.015537723898887634e-02 -3.658540174365043640e-02 -1.202205061912536621e+00
-1.683955788612365723e-01 -1.181950047612190247e-02 -7.775565385818481445e-01
-3.189412355422973633e-01 4.997871071100234985e-02 -3.504826724529266357e-01
4.272938519716262817e-02 -1.646415796130895615e-03 2.862990200519561768e-01
-5.317623913288116455e-02 2.068793959915637970e-02 -6.778644919395446777e-01
-1.053242012858390808e-01 4.443027451634407043e-02 -4.089260101318359375e-02
-1.043215692043304443e-01 -2.424040436744689941e-02 -4.618776738643646240e-01
-3.714092820882797241e-02 -4.543808475136756897e-02 -7.702031731605529785e-01
-5.427452176809310913e-02 -4.068565368652343750e-02 -1.007177114486694336e+00
1.580224335193634033e-01 -7.776200026273727417e-02 -5.166882872581481934e-01
-1.574863046407699585e-01 5.532031878829002380e-02 -3.864689171314239502e-01
2.232373505830764771e-02 -5.699912831187248230e-02 -9.043433666229248047e-01
2.708453685045242310e-02 -5.491128936409950256e-02 -1.015887737274169922e+00
-2.321315109729766846e-01 6.300573796033859253e-02 -8.298094868659973145e-01
-2.748437821865081787e-01 7.402111589908599854e-02 -7.683535218238830566e-01
7.834520190954208374e-02 -8.198602125048637390e-03 5.285045504570007324e-02
-1.338176131248474121e-01 4.853082820773124695e-02 1.227777302265167236e-01
-1.797189712524414062e-01 4.505442082881927490e-02 2.345072925090789795e-01
1.352810561656951904e-01 -5.693605914711952209e-02 1.379591524600982666e-01
4.129480570554733276e-02 -5.802085623145103455e-02 -9.783029556274414062e-01
-2.898990511894226074e-01 8.204136788845062256e-02 -2.460458278656005859e-01
-1.398943364620208740e-03 -1.306936517357826233e-02 -1.034266352653503418e+00
6.348607689142227173e-02 -6.264889240264892578e-02 -3.811421394348144531e-01
-9.017698466777801514e-03 -5.118603631854057312e-02 -9.043238759040832520e-01
-1.121397167444229126e-01 4.531278833746910095e-02 4.520836472511291504e-02
-3.965321555733680725e-02 2.688604965806007385e-02 7.689175009727478027e-02
-1.497939229011535645e-04 1.632534340023994446e-02 3.443270921707153320e-03
-1.166957840323448181e-01 3.004089742898941040e-02 -9.217172861099243164e-01
1.174285933375358582e-01 -2.355709299445152283e-02 1.604747474193572998e-01
1.464489400386810303e-01 -6.072266027331352234e-02 -7.460860013961791992e-01
-1.042046546936035156e-01 -2.566174976527690887e-02 -5.264744758605957031e-01
-3.548228740692138672e-01 9.055410325527191162e-02 -5.003975629806518555e-01
-1.677635610103607178e-01 5.919353663921356201e-02 -1.429501175880432129e-01
7.021103054285049438e-02 -1.011918112635612488e-02 -3.794110715389251709e-01
-3.758382797241210938e-01 6.370708346366882324e-02 -6.378526687622070312e-01
-2.839499711990356445e-01 7.990743964910507202e-02 -5.754731893539428711e-01
-2.890786528587341309e-01 2.479532361030578613e-02 -1.116997241973876953e+00
-2.537506818771362305e-01 1.307392772287130356e-02 -8.575867414474487305e-01
-4.880619049072265625e-02 -4.231753572821617126e-02 -7.059364318847656250e-01
-2.650007903575897217e-01 2.213545329868793488e-02 -5.591999292373657227e-01
1.881348490715026855e-01 -7.659862190485000610e-02 -2.246216833591461182e-01
8.778329938650131226e-02 -6.910341233015060425e-02 -7.437080740928649902e-01
1.223540529608726501e-01 -2.368326485157012939e-02 -4.237669706344604492e-02
-2.618959844112396240e-01 5.166477710008621216e-02 -1.213774919509887695e+00
-7.198397815227508545e-02 -3.365385904908180237e-02 -5.016233325004577637e-01
-6.536798924207687378e-02 -3.647252544760704041e-02 -5.640780329704284668e-01
-4.322729259729385376e-02 -3.161272499710321426e-03 -1.107666015625000000e+00
-1.042275056242942810e-01 -1.985641568899154663e-02 -2.979158759117126465e-01
-1.051059886813163757e-01 -3.931941930204629898e-03 -1.324944019317626953e+00
-3.529135882854461670e-02 -3.397710621356964111e-02 -1.231680154800415039e+00
-3.993906080722808838e-03 1.746249757707118988e-02 -3.290942311286926270e-02
4.200036078691482544e-02 2.226619981229305267e-03 -2.133584916591644287e-01
-9.288417547941207886e-02 -5.772438365966081619e-03 1.035727560520172119e-01
-5.587954819202423096e-02 3.108613379299640656e-02 -2.155447304248809814e-01
9.909600019454956055e-03 8.416189812123775482e-03 2.825641334056854248e-01
-1.468387842178344727e-01 3.331708535552024841e-02 -1.033619165420532227e+00
-3.491878211498260498e-01 4.674496501684188843e-02 -8.943285942077636719e-01
-7.985427975654602051e-03 1.163016073405742645e-02 -5.213070511817932129e-01
4.612415283918380737e-02 -8.475875481963157654e-03 -6.048833131790161133e-01
-1.331605017185211182e-02 -1.546004787087440491e-04 3.862978518009185791e-01
4.238188266754150391e-04 1.106394082307815552e-02 -4.399501383304595947e-01
-3.031590878963470459e-01 4.755956307053565979e-02 -2.690808176994323730e-01
-2.160915136337280273e-01 8.217732422053813934e-03 -1.321855306625366211e+00
3.358947485685348511e-02 -7.882479578256607056e-03 -7.036290168762207031e-01
1.040452048182487488e-01 -6.476814299821853638e-02 -1.508468389511108398e-01
-1.495730280876159668e-01 2.725746296346187592e-02 2.541129887104034424e-01
-1.689284145832061768e-01 1.020502392202615738e-02 -3.965961933135986328e-02
-1.768992394208908081e-01 5.762299895286560059e-02 -5.321649312973022461e-01
-8.571589738130569458e-02 3.472207114100456238e-02 -5.020644664764404297e-01
-6.589464843273162842e-02 -3.889987617731094360e-02 -8.191459178924560547e-01
-5.848969891667366028e-02 -4.068335518240928650e-02 -8.739267587661743164e-01
1.921479105949401855e-01 -7.384083420038223267e-02 -1.307592093944549561e-01
-1.321608424186706543e-01 3.659318014979362488e-02 2.951609790325164795e-01
-2.295425534248352051e-01 7.277166936546564102e-03 -1.205928206443786621e+00
7.079269737005233765e-02 -3.271977603435516357e-02 3.090924918651580811e-01
-3.504911065101623535e-01 4.769080132246017456e-02 -1.073150038719177246e+00
-6.417419016361236572e-02 3.118123672902584076e-02 1.870711743831634521e-01
-6.826379895210266113e-02 -7.328064646571874619e-03 -1.250513076782226562e+00
-1.327300369739532471e-01 -1.434895955026149750e-02 -1.296188354492187500e+00
-5.227044224739074707e-03 -4.808408021926879883e-02 -1.078597664833068848e+00
-8.624739944934844971e-03 -5.146699771285057068e-02 -7.006595134735107422e-01
-7.697366178035736084e-03 -1.708431169390678406e-02 2.865478694438934326e-01
8.688106387853622437e-02 -2.160731703042984009e-02 -5.659285783767700195e-01
-6.223784759640693665e-02 -3.742956370115280151e-02 -1.092429518699645996e+00
4.565326124429702759e-02 -6.171188130974769592e-02 -5.616091489791870117e-01
-1.387119293212890625e-01 5.233659967780113220e-02 -5.261361598968505859e-02
6.583643704652786255e-02 -3.706444799900054932e-02 -9.776780605316162109e-01
-1.652265191078186035e-01 5.858625844120979309e-02 -2.120803892612457275e-01
-2.477398216724395752e-01 7.080731540918350220e-02 -1.559346914291381836e-03
-2.184523940086364746e-01 1.120006479322910309e-02 -4.038819372653961182e-01
-2.955758571624755859e-01 4.673826321959495544e-02 -2.273432910442352295e-01
-1.281328946352005005e-01 2.070288732647895813e-02 2.732752859592437744e-01
-3.823831081390380859e-01 8.581269532442092896e-02 -4.329139590263366699e-01
1.514482498168945312e-02 -1.036515459418296814e-03 -6.876976490020751953e-01
-2.803244590759277344e-01 8.106389641761779785e-02 -3.964388370513916016e-01
-3.122740685939788818e-01 3.271910920739173889e-02 -1.089112401008605957e+00
-1.882828921079635620e-01 1.607854291796684265e-02 -5.156010389328002930e-02
8.489011973142623901e-02 -1.121080107986927032e-02 -1.577429175376892090e-01
-2.275792956352233887e-01 5.523334257304668427e-03 -1.149601459503173828e+00
1.406518220901489258e-01 -3.171616792678833008e-02 -1.626625359058380127e-01
-3.748780488967895508e-01 6.106320023536682129e-02 -7.096087932586669922e-01
-3.258471786975860596e-01 6.156921386718750000e-02 -2.211638391017913818e-01
-5.347505211830139160e-04 -5.117973685264587402e-02 -5.112941265106201172e-01
-6.463229656219482422e-02 3.175861388444900513e-02 -3.519080579280853271e-01
-9.653212130069732666e-02 3.272849321365356445e-02 -6.921361088752746582e-01
-1.437962055206298828e-06 1.553782075643539429e-02 -1.762763261795043945e-01
1.742727309465408325e-02 3.520288038998842239e-03 -5.259076356887817383e-01
-2.187816947698593140e-01 1.122990064322948456e-02 -1.348349332809448242e+00
6.920918077230453491e-02 -5.344656761735677719e-03 8.115503191947937012e-02
-3.459067642688751221e-02 1.831591874361038208e-02 3.171572387218475342e-01
-3.859934210777282715e-01 7.094866037368774414e-02 -1.084774732589721680e+00
-5.280426889657974243e-02 -2.782244421541690826e-02 -1.207511425018310547e-01
-2.668327093124389648e-01 6.071504205465316772e-02 -1.078596830368041992e+00
-1.474118828773498535e-01 5.431934073567390442e-02 -2.409748435020446777e-01
-9.757303446531295776e-02 -2.992521785199642181e-02 -1.081066608428955078e+00
8.132380992174148560e-02 -5.919193848967552185e-02 -9.779303073883056641e-01
4.038954526185989380e-02 -1.711094193160533905e-02 -8.488534688949584961e-01
-2.404332458972930908e-01 1.394492480903863907e-02 -1.294930458068847656e+00
-2.700033783912658691e-02 2.320932038128376007e-02 -1.946070194244384766e-01
-3.908256888389587402e-01 6.772839277982711792e-02 -7.756711244583129883e-01
1.302216053009033203e-01 -7.369378209114074707e-02 -3.439848423004150391e-01
1.461591124534606934e-01 -7.452409714460372925e-02 -2.718917131423950195e-01
-2.834020853042602539e-01 6.001657247543334961e-02 -1.484310626983642578e-02
-2.644918262958526611e-01 7.786181569099426270e-02 -1.946043074131011963e-01
-1.078212633728981018e-01 4.068061709403991699e-02 1.986590921878814697e-01
7.973877340555191040e-02 -5.225031450390815735e-02 5.215129256248474121e-02
1.684597730636596680e-01 -7.830210775136947632e-02 -3.946118950843811035e-01
-3.918058276176452637e-01 7.930179685354232788e-02 -1.010049939155578613e+00
-2.457326948642730713e-01 1.107575930655002594e-02 -8.048827648162841797e-01
1.056457832455635071e-01 -4.905916005373001099e-02 1.917375624179840088e-01
-6.180511415004730225e-02 3.342752903699874878e-02 -4.892504215240478516e-02
4.720612615346908569e-02 -5.502392724156379700e-02 -1.042674899101257324e+00
-3.295038640499114990e-01 7.780274003744125366e-02 -9.589339494705200195e-01
-2.229363918304443359e-01 5.961001291871070862e-02 -8.678990602493286133e-01
1.751191616058349609e-01 -4.785833507776260376e-02 7.548853754997253418e-02
-1.949525028467178345e-01 -2.378136385232210159e-03 -1.217889428138732910e+00
-1.397157013416290283e-01 2.022701315581798553e-02 -1.215062856674194336e+00
-1.264860928058624268e-01 5.154634360224008560e-03 -1.322009682655334473e+00
-1.931647658348083496e-01 6.434103101491928101e-02 -3.102888762950897217e-01
-3.246846795082092285e-02 2.538913488388061523e-02 -1.008785963058471680e-01
9.992078691720962524e-02 -6.114255264401435852e-02 -6.634819507598876953e-02
-2.702274620532989502e-01 7.567627727985382080e-02 -7.016319036483764648e-02
-9.920623153448104858e-02 2.356385812163352966e-02 -9.537589550018310547e-01
1.847832798957824707e-01 -7.765745371580123901e-02 -4.521933197975158691e-01
-1.112002432346343994e-01 -2.426474913954734802e-02 -5.515238642692565918e-01
-3.478401899337768555e-02 2.515122666954994202e-02 1.131144464015960693e-01
-1.291875243186950684e-01 1.803510263562202454e-02 2.498205006122589111e-01
-8.118748664855957031e-03 -2.578069828450679779e-02 1.668541729450225830e-01
1.649824529886245728e-02 -1.287310197949409485e-02 3.707590401172637939e-01
-2.984707951545715332e-01 7.019276171922683716e-02 -1.012045502662658691e+00
-1.528331339359283447e-01 -1.563007570803165436e-02 -1.127436757087707520e+00
-2.277249097824096680e-01 5.097366124391555786e-02 -1.096780419349670410e+00
9.432934224605560303e-03 -3.089525364339351654e-02 1.559967696666717529e-01
-1.982862204313278198e-01 5.784877017140388489e-02 -7.383034229278564453e-01
-4.732672497630119324e-02 -8.148262277245521545e-03 -1.184184789657592773e+00
7.531022280454635620e-02 -6.220755353569984436e-02 -9.450124502182006836e-01
-1.050464287400245667e-01 -2.925460226833820343e-02 -9.784833192825317383e-01
-3.063136339187622070e-01 3.011021018028259277e-02 -1.022809624671936035e+00
-1.989640891551971436e-01 6.560491025447845459e-02 -1.187448501586914062e-01
-3.745682537555694580e-03 -1.736508309841156006e-02 -1.099059820175170898e+00
-1.534737348556518555e-01 -1.284577138721942902e-02 -5.694144368171691895e-01
1.198141276836395264e-02 -5.143223330378532410e-02 -3.738704919815063477e-01
-1.611700654029846191e-01 3.042870014905929565e-02 -1.156633377075195312e+00
1.965201199054718018e-01 -5.912296101450920105e-02 -2.097976803779602051e-01
-2.220050394535064697e-01 4.632547497749328613e-02 -1.155477166175842285e+00
-1.412497907876968384e-01 7.648491300642490387e-03 7.364347577095031738e-02
2.549120038747787476e-02 7.275870535522699356e-03 1.676640212535858154e-01
-1.166968792676925659e-02 1.868298463523387909e-02 1.248629391193389893e-01
-5.325920134782791138e-02 -3.391777351498603821e-02 -3.097210824489593506e-01
8.056177943944931030e-02 -1.189197599887847900e-02 2.276562750339508057e-01
8.847900480031967163e-02 -1.573258824646472931e-02 -3.478832244873046875e-01
8.742437511682510376e-02 -6.876491755247116089e-02 -4.872500598430633545e-01
-1.225944235920906067e-01 -2.465397492051124573e-02 -1.016151905059814453e+00
2.887118607759475708e-02 -4.054960235953330994e-02 6.367436051368713379e-02
9.226889163255691528e-02 -6.489345431327819824e-02 -2.317016422748565674e-01
8.367555588483810425e-02 -6.903126090764999390e-02 -6.483169794082641602e-01
1.118342578411102295e-02 4.533483181148767471e-03 3.400081098079681396e-01
2.986694127321243286e-02 -4.410305246710777283e-02 -9.453862905502319336e-03
7.344670593738555908e-03 -4.151089116930961609e-02 -7.788535952568054199e-02
1.550969481468200684e-01 -6.893132627010345459e-02 -4.693666100502014160e-02
-1.661988943815231323e-01 -2.059145364910364151e-03 -3.071656227111816406e-01
-2.774716615676879883e-01 2.221707254648208618e-02 -1.191566109657287598e+00
-3.031383454799652100e-01 2.920617349445819855e-02 -1.066817998886108398e+00
-3.196597099304199219e-01 4.826874285936355591e-02 -3.925022482872009277e-01
-3.484980762004852295e-01 4.681850969791412354e-02 -8.574472665786743164e-01
-2.846831977367401123e-01 7.846110314130783081e-02 -6.631085872650146484e-01
5.137305706739425659e-02 -6.315627694129943848e-02 -7.961338162422180176e-01
-2.137450128793716431e-02 1.530853100121021271e-02 -5.366910696029663086e-01
-1.132237762212753296e-01 -1.851688884198665619e-02 -1.291910052299499512e+00
3.880216926336288452e-02 -5.060504749417304993e-02 -1.260585188865661621e-01
1.901009976863861084e-01 -5.585165321826934814e-02 -2.409914135932922363e-01
-2.167664021253585815e-01 6.860718131065368652e-02 -8.649510145187377930e-02
5.870340019464492798e-02 -4.866465553641319275e-02 3.447356820106506348e-02
-1.567203998565673828e-01 2.091684006154537201e-02 -1.267829060554504395e+00
-2.844249010086059570e-01 7.940948009490966797e-02 -1.435473263263702393e-01
-3.467931151390075684e-01 5.010146275162696838e-02 -6.525555253028869629e-01
1.727375090122222900e-01 -5.403425917029380798e-02 -4.554494619369506836e-01
8.816400915384292603e-02 -1.711444742977619171e-02 2.810610234737396240e-01
6.688392907381057739e-02 -6.494917441159486771e-03 -2.549447715282440186e-01
-6.111846491694450378e-02 -1.806144602596759796e-02 -1.287044048309326172e+00
-3.582620322704315186e-01 8.224896341562271118e-02 -9.447700381278991699e-01
-1.393700838088989258e-01 -1.521298289299011230e-02 -4.929686486721038818e-01
-2.052080631256103516e-02 9.285843931138515472e-03 -7.196409702301025391e-01
-1.423583924770355225e-01 -1.974460110068321228e-02 -9.871212244033813477e-01
-2.917563319206237793e-01 6.994049251079559326e-02 -9.879599213600158691e-01
6.417929381132125854e-02 -6.673733238130807877e-03 2.387728393077850342e-01
8.239608258008956909e-02 -4.328373819589614868e-02 2.154901921749114990e-01
-4.990617185831069946e-02 1.246904581785202026e-02 3.752849996089935303e-01
-1.054687574505805969e-01 2.445350773632526398e-02 -9.738695621490478516e-01
7.591102272272109985e-02 -2.651821263134479523e-02 -7.704737186431884766e-01
-4.088354855775833130e-02 -3.850800916552543640e-02 -1.170422196388244629e+00
-2.845099568367004395e-01 8.086065202951431274e-02 -5.129531025886535645e-01
-1.160073056817054749e-01 -2.436751686036586761e-02 -6.320582032203674316e-01
-2.647373974323272705e-01 2.101564034819602966e-02 -5.999283194541931152e-01
-1.055315136909484863e-01 4.426368325948715210e-02 -4.529148340225219727e-03
-3.142870962619781494e-03 -4.029798135161399841e-02 -1.138330996036529541e-01
7.914922386407852173e-02 -9.568940848112106323e-03 -1.835933029651641846e-01
-1.412902772426605225e-01 5.171631276607513428e-02 -3.596342504024505615e-01
-8.064635097980499268e-02 3.212089091539382935e-02 -5.533148646354675293e-01
-4.733549803495407104e-02 2.112502790987491608e-02 -6.067938208580017090e-01
-4.027297347784042358e-02 -2.829795889556407928e-02 -4.953205585479736328e-02
-2.996549010276794434e-03 5.121686495840549469e-03 -6.808577179908752441e-01
-1.124801039695739746e-01 3.001910820603370667e-02 -8.938130140304565430e-01
-2.094053924083709717e-01 6.543631851673126221e-02 -5.188763737678527832e-01
1.295278221368789673e-02 -4.100800305604934692e-02 -3.123408555984497070e-02
-2.394475936889648438e-01 2.928009256720542908e-02 -1.433980762958526611e-01
1.494960784912109375e-01 -7.693269103765487671e-02 -4.087510108947753906e-01
-2.942686975002288818e-01 8.294068276882171631e-02 -2.762113213539123535e-01
-1.966396868228912354e-01 1.501105725765228271e-03 -1.301917076110839844e+00
-8.534917980432510376e-02 -2.893436513841152191e-02 -4.443424344062805176e-01
-1.919755786657333374e-01 2.862836979329586029e-02 -1.292217493057250977e+00
-3.079480677843093872e-02 2.350576408207416534e-02 -2.641856372356414795e-01
-3.461741805076599121e-01 8.341243118047714233e-02 -8.710824251174926758e-01
1.561524569988250732e-01 -5.344985425472259521e-02 -4.337795823812484741e-02
5.105857253074645996e-01 -9.730125218629837036e-02 -3.024842590093612671e-05
3.526876568794250488e-01 -9.306089580059051514e-02 -3.834069520235061646e-02
7.393718361854553223e-01 -1.391033828258514404e-01 2.073340490460395813e-02
8.014392852783203125e-01 -1.473199725151062012e-01 2.689376473426818848e-02
7.116490602493286133e-01 -1.485639214515686035e-01 -2.489040605723857880e-03
6.940379142761230469e-01 -1.405995190143585205e-01 -1.064837444573640823e-02
6.670481562614440918e-01 -1.422168463468551636e-01 -1.171505730599164963e-02
6.757860183715820312e-01 -1.226871982216835022e-01 9.029381908476352692e-03
8.404116630554199219e-01 -1.643660068511962891e-01 1.822818443179130554e-02
2.627903819084167480e-01 -5.958828702569007874e-02 -2.936672791838645935e-02
4.016146063804626465e-01 -8.073520660400390625e-02 -1.975606009364128113e-02
8.794410228729248047e-01 -1.577045172452926636e-01 3.326550871133804321e-02
8.940843343734741211e-01 -1.730733662843704224e-01 2.139757201075553894e-02
2.683397531509399414e-01 -7.727780193090438843e-02 -5.194609239697456360e-02
9.511474370956420898e-01 -1.780672669410705566e-01 2.009617909789085388e-02
4.938076436519622803e-01 -1.130292937159538269e-01 -1.771824061870574951e-02
5.484573245048522949e-01 -1.133889853954315186e-01 -2.184448391199111938e-02
4.332217574119567871e-01 -8.652133494615554810e-02 -1.936478540301322937e-02
9.592243432998657227e-01 -1.724041551351547241e-01 3.859426453709602356e-02
2.827930450439453125e-01 -6.930660456418991089e-02 -2.541131526231765747e-02
8.214751482009887695e-01 -1.480317562818527222e-01 1.813081279397010803e-02
1.030296206474304199e+00 -1.856380105018615723e-01 3.589692339301109314e-02
4.786464273929595947e-01 -1.063942760229110718e-01 -3.183919936418533325e-02
8.896631002426147461e-02 -3.683867305517196655e-02 -5.294010043144226074e-02
2.253525853157043457e-01 -5.456431955099105835e-02 -3.209419548511505127e-02
6.284569501876831055e-01 -1.349961161613464355e-01 -7.293871138244867325e-03
5.883975028991699219e-01 -1.250049769878387451e-01 -3.609512932598590851e-03
1.008864998817443848e+00 -1.878797709941864014e-01 3.407356888055801392e-02
3.043236136436462402e-01 -7.395537197589874268e-02 -4.300122708082199097e-02
3.710456490516662598e-01 -7.538042217493057251e-02 -1.944382861256599426e-02
4.361198246479034424e-01 -1.061411127448081970e-01 -3.603448718786239624e-02
7.582426071166992188e-01 -1.478813290596008301e-01 1.687719300389289856e-02
3.100211620330810547e-01 -7.236295193433761597e-02 -2.164939604699611664e-02
7.453913688659667969e-01 -1.418356448411941528e-01 6.902441382408142090e-04
9.908695220947265625e-01 -1.762495934963226318e-01 3.757525235414505005e-02
9.345799684524536133e-01 -1.675616949796676636e-01 2.803805470466613770e-02
1.250621378421783447e-01 -5.084802582859992981e-02 -5.011114478111267090e-02
4.722728133201599121e-01 -9.817045181989669800e-02 -5.074026994407176971e-03
8.591427803039550781e-01 -1.656336784362792969e-01 7.914432324469089508e-03
2.091938257217407227e-01 -6.938800215721130371e-02 -5.313853546977043152e-02
5.561192035675048828e-01 -1.039371043443679810e-01 -3.064290620386600494e-03
5.158779025077819824e-01 -1.188488677144050598e-01 -2.210277691483497620e-02
6.718870997428894043e-02 -4.196651279926300049e-02 -5.822199210524559021e-02
2.387651801109313965e-01 -7.441192865371704102e-02 -5.018252506852149963e-02
3.144633769989013672e-02 -3.126554936170578003e-02 -6.186140701174736023e-02
6.112053990364074707e-01 -1.153393387794494629e-01 -4.704301711171865463e-03
7.122106552124023438e-01 -1.281391084194183350e-01 1.511208619922399521e-02
-7.274319976568222046e-02 1.296655274927616119e-02 8.832554519176483154e-02
-8.254393190145492554e-02 1.306448131799697876e-02 3.140857219696044922e-01
5.060898885130882263e-02 -3.187336400151252747e-02 -6.872541904449462891e-01
1.271428465843200684e-01 -1.499318145215511322e-02 -2.852597534656524658e-01
-2.913784421980381012e-02 -1.962364092469215393e-02 -1.480049043893814087e-01
1.087641995400190353e-02 -1.688268780708312988e-02 2.135974317789077759e-01
-1.058108918368816376e-02 3.347415477037429810e-03 -3.205917775630950928e-01
-9.667426347732543945e-04 -7.583627477288246155e-03 -6.459057331085205078e-01
4.467914253473281860e-02 4.178658127784729004e-05 -1.607646495103836060e-01
1.398391872644424438e-01 -3.119364380836486816e-02 -8.184528350830078125e-01
1.038849130272865295e-01 -2.625406160950660706e-02 -8.545266985893249512e-01
-7.398919761180877686e-02 -8.259066380560398102e-03 1.076620370149612427e-01
6.199368834495544434e-02 -3.973877057433128357e-03 2.006405442953109741e-01
1.105146575719118118e-02 -1.013002917170524597e-02 3.598383665084838867e-01
1.158391460776329041e-01 -3.742729127407073975e-02 -3.962746858596801758e-01
1.373587548732757568e-02 5.218768492341041565e-03 1.433856636285781860e-01
5.028734356164932251e-02 -9.535046294331550598e-03 -6.223294734954833984e-01
-5.543013662099838257e-02 1.219957694411277771e-02 1.068898290395736694e-01
1.502568721771240234e-01 -2.228108048439025879e-02 -4.835128784179687500e-01
-4.499536752700805664e-02 6.694247946143150330e-03 -2.535966634750366211e-01
2.437863312661647797e-02 -5.146398209035396576e-03 -5.525777339935302734e-01
2.917126193642616272e-02 -3.727307543158531189e-03 -4.874917268753051758e-01
-5.766505375504493713e-03 -6.930995732545852661e-04 -4.694285988807678223e-01
-6.165790557861328125e-02 7.896386086940765381e-03 -2.206640839576721191e-01
-1.471566222608089447e-02 -1.842700690031051636e-02 5.748338997364044189e-02
6.193432956933975220e-02 -3.273773193359375000e-02 -3.145833015441894531e-01
1.341433525085449219e-01 -3.693805634975433350e-02 -3.391855359077453613e-01
9.246178716421127319e-02 -3.207371011376380920e-02 -1.484423577785491943e-01
9.564188867807388306e-02 -3.737518191337585449e-02 -5.460473895072937012e-01
1.711868867278099060e-02 -2.531075477600097656e-02 -1.095075234770774841e-01
7.316982373595237732e-03 -3.048270009458065033e-03 4.195482134819030762e-01
7.950790971517562866e-02 -8.100446313619613647e-03 1.831052154302597046e-01
-1.119327992200851440e-01 1.247969456017017365e-03 1.279347985982894897e-01
9.547091275453567505e-02 -1.190451066941022873e-02 -4.956516027450561523e-01
7.869096845388412476e-02 -3.061714768409729004e-02 -1.131056621670722961e-01
6.112546473741531372e-02 -3.187173604965209961e-02 -2.522121667861938477e-01
-1.047194749116897583e-01 1.281916350126266479e-02 2.902625799179077148e-01
-7.599329575896263123e-03 -1.561809144914150238e-02 1.994033306837081909e-01
5.885261297225952148e-02 -8.030928671360015869e-03 2.972470521926879883e-01
-2.410396747291088104e-02 -3.696915693581104279e-03 -5.635052323341369629e-01
-8.663836121559143066e-02 -4.421071149408817291e-03 1.698578447103500366e-01
1.230750456452369690e-01 -3.855106979608535767e-02 -7.366175651550292969e-01
3.887120261788368225e-02 -1.424539554864168167e-02 -7.542954683303833008e-01
1.198551282286643982e-01 -1.323085278272628784e-02 -2.483817338943481445e-01
1.127591729164123535e-01 -3.251960128545761108e-02 -1.464426815509796143e-01
4.754135757684707642e-02 -6.056204438209533691e-04 1.846695393323898315e-01
1.248196661472320557e-01 -3.878293186426162720e-02 -4.923729300498962402e-01
-1.712982170283794403e-02 7.795287296175956726e-03 -7.292194664478302002e-02
3.689138591289520264e-02 -3.060171566903591156e-02 -6.209255456924438477e-01
3.750441223382949829e-02 1.990787684917449951e-03 2.018368244171142578e-02
2.959270216524600983e-02 2.238929271697998047e-03 2.132835835218429565e-01
1.255836430937051773e-02 -2.758405730128288269e-02 -4.999863505363464355e-01
5.117750167846679688e-02 -1.076770760118961334e-02 -6.563475728034973145e-01
1.049851328134536743e-01 -3.297577425837516785e-02 -1.693198084831237793e-01
-9.601052105426788330e-02 6.690567359328269958e-03 3.822785615921020508e-01
7.496160268783569336e-02 -4.226954653859138489e-03 -1.188887953758239746e-01
-5.108056962490081787e-02 -1.348630804568529129e-02 4.233630001544952393e-02
1.456944495439529419e-01 -1.964960247278213501e-02 -2.980950176715850830e-01
9.376481175422668457e-02 -3.506552055478096008e-02 -3.059354722499847412e-01
2.251898869872093201e-02 -2.786021865904331207e-02 -2.525838613510131836e-01
-8.953124284744262695e-02 -6.216078065335750580e-03 3.372296690940856934e-02
-7.130975276231765747e-02 -9.226607158780097961e-03 8.289076387882232666e-02
6.616128236055374146e-02 -1.532675325870513916e-02 -7.377886772155761719e-01
1.162771284580230713e-01 -1.857044920325279236e-02 -6.389170289039611816e-01
-1.047379374504089355e-01 -2.903596498072147369e-03 -9.616623073816299438e-02
3.579088672995567322e-02 -2.981528826057910919e-02 -6.732247471809387207e-01
-5.354647338390350342e-02 -1.562490127980709076e-03 4.078544974327087402e-01
2.802089415490627289e-02 -9.835856035351753235e-04 -3.699801266193389893e-01
-3.104356862604618073e-02 -1.414043083786964417e-02 1.520074158906936646e-01
3.363377600908279419e-02 2.414645627140998840e-03 -2.777016162872314453e-02
-8.379463106393814087e-04 4.695607349276542664e-04 -4.156658649444580078e-01
-2.145571820437908173e-02 3.358557820320129395e-03 -3.499739170074462891e-01
1.377545148134231567e-01 -3.794955462217330933e-02 -3.996233642101287842e-01
-9.472613036632537842e-02 -5.796143785119056702e-03 -5.381138622760772705e-02
1.422483772039413452e-01 -2.088030800223350525e-02 -1.060254648327827454e-01
3.059945255517959595e-02 -8.677652105689048767e-03 -6.432614922523498535e-01
1.266588270664215088e-01 -3.937696292996406555e-02 -6.415134668350219727e-01
-5.486653000116348267e-02 -1.188677269965410233e-02 9.490413963794708252e-02
2.449216134846210480e-02 -7.499927654862403870e-03 -6.223651170730590820e-01
1.710624992847442627e-02 -1.119734067469835281e-02 -7.106363773345947266e-01
-7.577539980411529541e-02 7.443396374583244324e-03 -2.363462895154953003e-01
-4.772187769412994385e-02 3.408640623092651367e-03 -3.780813217163085938e-01
-5.474850535392761230e-02 -1.419888436794281006e-02 -4.504867196083068848e-01
-3.664912283420562744e-02 9.715443477034568787e-03 3.348256945610046387e-01
3.747870028018951416e-02 -2.768180891871452332e-02 -1.240271478891372681e-01
5.891353636980056763e-02 -3.365918248891830444e-02 -4.725828170776367188e-01
9.909413009881973267e-02 -3.762362897396087646e-02 -6.494610905647277832e-01
8.224035799503326416e-02 -3.006295673549175262e-02 -8.233739435672760010e-02
-3.324712812900543213e-02 1.060374826192855835e-02 1.568896025419235229e-01
2.771427109837532043e-02 3.091666847467422485e-03 1.582009941339492798e-01
-8.595250546932220459e-02 -7.523084525018930435e-03 -6.669908761978149414e-03
1.673142462968826294e-01 -3.177476674318313599e-02 -6.618325710296630859e-01
8.107578754425048828e-02 -2.974248863756656647e-02 -8.697270154953002930e-01
1.361821442842483521e-01 -3.836508840322494507e-02 -4.292895793914794922e-01
3.214597329497337341e-02 5.369940772652626038e-04 -2.525450289249420166e-01
-6.343857944011688232e-02 -1.273578032851219177e-02 -3.961015343666076660e-01
6.359029561281204224e-03 -2.157119102776050568e-02 2.607356011867523193e-02
4.707602411508560181e-02 -1.187662780284881592e-02 -6.945272088050842285e-01
-3.149498254060745239e-02 -1.751987636089324951e-02 -1.675391197204589844e-02
-5.820877850055694580e-04 -2.262971363961696625e-02 -7.335947453975677490e-02
1.637837588787078857e-01 -2.911431342363357544e-02 -6.279890537261962891e-01
8.854088932275772095e-02 -1.886355876922607422e-02 -7.636265158653259277e-01
8.588662743568420410e-02 -2.065492048859596252e-02 1.641621142625808716e-01
3.231072053313255310e-02 -2.519585378468036652e-02 -2.140900492668151855e-02
9.753831475973129272e-02 -1.092658750712871552e-02 -4.227823615074157715e-01
3.740999102592468262e-02 -7.978168316185474396e-03 3.594354391098022461e-01
-2.088527940213680267e-02 -1.957892812788486481e-02 -5.029274523258209229e-02
-3.461284562945365906e-03 -2.452470734715461731e-02 -2.620051205158233643e-01
1.292072236537933350e-01 -3.643328323960304260e-02 -3.126857578754425049e-01
-1.196095794439315796e-01 6.362529471516609192e-03 2.025543600320816040e-01
-7.303578779101371765e-03 6.253106519579887390e-03 3.243651390075683594e-01
-7.164619863033294678e-02 1.331727392971515656e-02 1.714485138654708862e-01
7.793443650007247925e-02 -8.732061833143234253e-03 -4.633566737174987793e-01
-1.639739610254764557e-02 -2.299621328711509705e-02 -3.918215632438659668e-01
7.388096302747726440e-02 -1.017986051738262177e-02 2.483784109354019165e-01
1.780745387077331543e-02 -1.409766543656587601e-02 2.939106225967407227e-01
1.263142377138137817e-01 -3.436954319477081299e-02 -2.187527716159820557e-01
-5.182017385959625244e-02 -1.601698622107505798e-02 -3.711621463298797607e-01
1.119403988122940063e-01 -1.251965854316949844e-02 -3.577802777290344238e-01
1.758126541972160339e-02 4.407854750752449036e-03 1.887124925851821899e-01
1.244341675192117691e-02 -2.606145478785037994e-02 -6.511626839637756348e-01
1.102261841297149658e-01 -1.111093815416097641e-02 -9.783691912889480591e-02
1.280751917511224747e-02 -2.176411077380180359e-02 4.789356887340545654e-02
9.048865735530853271e-02 -1.373696234077215195e-02 -6.060966253280639648e-01
6.191556155681610107e-02 -2.915204316377639771e-02 -9.406318515539169312e-02
2.623738721013069153e-02 -1.927781850099563599e-02 1.777739673852920532e-01
2.781009115278720856e-02 -2.078750729560852051e-02 1.345929056406021118e-01
1.220441237092018127e-01 -2.222221530973911285e-02 4.697196185588836670e-02
