-7.396034002304077148e-01 2.731883525848388672e-02 -3.198073804378509521e-01
-6.150043606758117676e-01 2.664162516593933105e-01 2.756645679473876953e-01
-6.140255928039550781e-01 3.128231763839721680e-01 -1.841850280761718750e-01
-3.881537914276123047e-01 -7.125755399465560913e-02 1.815043091773986816e-01
-7.716231346130371094e-01 3.328361809253692627e-01 -1.726287044584751129e-02
-4.995416998863220215e-01 2.094796299934387207e-01 -3.291864693164825439e-01
-3.926447033882141113e-01 -4.440210014581680298e-02 -2.333188354969024658e-01
-6.541751623153686523e-01 1.979022622108459473e-01 -3.403502702713012695e-01
-6.933568120002746582e-01 -9.649053961038589478e-02 6.574758887290954590e-02
-6.762379407882690430e-01 -8.010233193635940552e-02 1.541834473609924316e-01
-5.068044662475585938e-01 3.249043226242065430e-01 -1.347301900386810303e-01
-4.173479080200195312e-01 1.528983712196350098e-01 -3.455955386161804199e-01
-6.668459177017211914e-01 2.925327718257904053e-01 -2.280011475086212158e-01
-1.021175384521484375e+00 2.551737427711486816e-01 -1.148215904831886292e-01
-6.912962198257446289e-01 -1.869712024927139282e-02 -2.816765010356903076e-01
-9.670238494873046875e-01 2.719964981079101562e-01 1.174426525831222534e-01
-3.169941902160644531e-02 4.373349249362945557e-02 -1.115569099783897400e-01
-3.707458972930908203e-01 2.748568356037139893e-01 2.347675263881683350e-01
-6.377522349357604980e-01 3.194571733474731445e-01 1.625591516494750977e-01
-8.491321802139282227e-01 3.136146664619445801e-01 -9.209493547677993774e-02
-5.903674364089965820e-01 2.253093719482421875e-01 3.230175971984863281e-01
-5.407613515853881836e-01 2.074722796678543091e-01 3.375945091247558594e-01
-5.936722755432128906e-01 1.845729798078536987e-01 3.504230082035064697e-01
-7.477385401725769043e-01 -9.268792718648910522e-02 -4.419120401144027710e-02
-1.006800532341003418e+00 3.796239197254180908e-02 1.906669437885284424e-01
-2.358641624450683594e-01 2.649421989917755127e-01 -1.694059669971466064e-01
-1.077753543853759766e+00 2.605076879262924194e-02 -1.016288101673126221e-01
-5.335542559623718262e-01 -9.014151245355606079e-02 1.447816491127014160e-01
-6.294085979461669922e-01 -6.742097437381744385e-03 3.009380698204040527e-01
-7.477018833160400391e-01 -8.949414640665054321e-02 6.741490215063095093e-02
-2.399715483188629150e-01 2.904747128486633301e-01 1.124414354562759399e-01
-6.685484647750854492e-01 -2.201720327138900757e-02 2.763205766677856445e-01
-1.926179826259613037e-01 1.525875031948089600e-01 2.880229353904724121e-01
-5.218414068222045898e-01 1.732721626758575439e-01 -3.521632850170135498e-01
-1.002978444099426270e+00 2.391518801450729370e-01 1.563046276569366455e-01
-5.218725204467773438e-01 -5.834271758794784546e-02 -2.285439670085906982e-01
-9.605908393859863281e-01 2.894979715347290039e-01 4.873152449727058411e-02
-2.475911974906921387e-01 -3.815475851297378540e-02 1.989252269268035889e-01
-7.334281206130981445e-01 -8.910640329122543335e-02 -9.214181452989578247e-02
-1.461618542671203613e-01 -8.757658302783966064e-03 -1.642289161682128906e-01
-1.058530807495117188e-01 2.397854775190353394e-01 -8.846971392631530762e-02
-1.044373512268066406e-01 7.151971757411956787e-02 2.354973256587982178e-01
-6.808446645736694336e-01 1.416448205709457397e-01 3.560200929641723633e-01
-5.143648386001586914e-02 1.720770597457885742e-01 1.680799424648284912e-01
-8.658962249755859375e-01 2.701672017574310303e-01 -2.127523422241210938e-01
-2.529146671295166016e-01 8.054343611001968384e-02 -3.000571131706237793e-01
-5.259100198745727539e-01 9.170763194561004639e-02 3.651867806911468506e-01
-6.738470196723937988e-01 -1.024455204606056213e-01 -4.611312411725521088e-03
-1.120734572410583496e+00 5.278843641281127930e-02 -6.393758952617645264e-02
-1.499101221561431885e-01 2.235315740108489990e-01 1.996893882751464844e-01
-6.735872626304626465e-01 2.184019833803176880e-01 -3.242686092853546143e-01
-2.433207333087921143e-01 2.835213840007781982e-01 -1.249511763453483582e-01
-9.086456298828125000e-01 2.542830407619476318e-01 2.042669951915740967e-01
-2.199189662933349609e-01 2.823172807693481445e-01 -1.033893302083015442e-01
-2.305796146392822266e-01 2.982480823993682861e-01 3.585374355316162109e-02
-6.763895750045776367e-01 -1.017170473933219910e-01 2.156963571906089783e-02
-3.943562805652618408e-01 1.522952318191528320e-02 -3.075487613677978516e-01
-6.242233514785766602e-02 -5.711302161216735840e-03 -5.037317052483558655e-02
-1.113274216651916504e+00 9.787820279598236084e-02 1.222222894430160522e-01
-3.458821773529052734e-02 1.028515398502349854e-02 -3.476103767752647400e-02
-5.811671614646911621e-01 1.512666642665863037e-01 -3.620692789554595947e-01
-1.128144383430480957e+00 1.963510215282440186e-01 -5.080766603350639343e-02
-1.116290330886840820e+00 4.343633353710174561e-02 1.255261991173028946e-02
-5.409844517707824707e-01 1.746895611286163330e-01 -3.528328835964202881e-01
-4.753462672233581543e-01 3.196430206298828125e-01 -1.457467377185821533e-01
-2.161190807819366455e-01 2.529019415378570557e-01 1.989512145519256592e-01
-3.614557981491088867e-01 -3.774527460336685181e-02 2.454968690872192383e-01
-6.264597773551940918e-01 3.431974947452545166e-01 1.577532663941383362e-02
-3.787855505943298340e-01 1.035751476883888245e-01 3.530089557170867920e-01
-3.221987187862396240e-01 3.079561293125152588e-01 1.193790659308433533e-01
-3.256940245628356934e-01 4.076597839593887329e-02 3.204022645950317383e-01
-1.025424480438232422e+00 -3.030255436897277832e-03 -1.125610321760177612e-01
-9.462608098983764648e-01 7.089419662952423096e-02 -2.763670384883880615e-01
-9.397764205932617188e-01 -3.687623888254165649e-02 1.044818833470344543e-01
-8.168383836746215820e-01 -7.195167988538742065e-02 -1.117739677429199219e-01
-9.042941331863403320e-01 2.849496901035308838e-02 -2.663941085338592529e-01
-1.139685809612274170e-01 -3.534092754125595093e-02 -2.936179935932159424e-02
-4.311105608940124512e-01 2.174516767263412476e-01 -3.123359978199005127e-01
-6.252912282943725586e-01 -8.069395273923873901e-02 1.665032207965850830e-01
-6.640303134918212891e-01 2.724367976188659668e-01 -2.636516094207763672e-01
-6.371053457260131836e-01 4.026602953672409058e-02 3.395796120166778564e-01
-3.028004467487335205e-01 -8.951940387487411499e-02 4.679011646658182144e-03
-5.125327706336975098e-01 1.045911014080047607e-02 -3.203133940696716309e-01
-8.433892726898193359e-01 2.876896411180496216e-02 -2.923564016819000244e-01
-9.696930050849914551e-01 2.277138084173202515e-01 2.019474804401397705e-01
-5.530221462249755859e-01 3.325724601745605469e-01 1.137071773409843445e-01
-5.521655678749084473e-01 9.765550494194030762e-04 3.146227300167083740e-01
-7.881482839584350586e-01 -1.736246794462203979e-02 2.492970526218414307e-01
-5.996317267417907715e-01 3.431676626205444336e-01 2.769484929740428925e-02
-1.628935337066650391e-03 1.587381958961486816e-01 -7.181882113218307495e-02
-3.558098077774047852e-01 -4.557590931653976440e-02 2.300440669059753418e-01
-8.409749269485473633e-01 -5.454536527395248413e-02 1.451242268085479736e-01
-4.552011787891387939e-01 1.939550042152404785e-01 3.410728573799133301e-01
-1.111504077911376953e+00 2.073247432708740234e-01 -7.554733008146286011e-02
-7.060757875442504883e-01 -9.331277757883071899e-02 -8.589042723178863525e-02
-6.280481815338134766e-01 2.777122855186462402e-01 -2.577392756938934326e-01
-4.783357381820678711e-01 3.139999806880950928e-01 -1.653808057308197021e-01
-8.498057723045349121e-01 3.180375099182128906e-01 -5.914544686675071716e-02
-8.952658176422119141e-01 1.516369283199310303e-01 2.946195304393768311e-01
-2.930866777896881104e-01 1.205895170569419861e-01 -3.188712298870086670e-01
-9.666650295257568359e-01 7.606269419193267822e-02 2.499362528324127197e-01
-1.075862050056457520e+00 1.863431185483932495e-02 5.726805329322814941e-02
-2.886932194232940674e-01 4.012512415647506714e-02 -2.955712378025054932e-01
-1.566895544528961182e-01 2.751668095588684082e-01 3.046023426577448845e-03
-7.338015437126159668e-01 -9.570617228746414185e-02 1.296798232942819595e-02
-3.005509376525878906e-01 3.148230910301208496e-01 -2.143994532525539398e-02
-2.082377970218658447e-01 2.730265259742736816e-01 -1.228733137249946594e-01
-1.154126882553100586e+00 1.186245009303092957e-01 -6.300811469554901123e-02
-4.908373057842254639e-01 2.684673070907592773e-01 2.704989314079284668e-01
-5.975352525711059570e-01 1.060880273580551147e-01 -3.656863868236541748e-01
-9.235730767250061035e-01 2.921807765960693359e-01 -1.114235967397689819e-01
-7.993428707122802734e-01 -6.501499563455581665e-02 1.417379677295684814e-01
-1.072164773941040039e-01 6.985161453485488892e-02 -2.139882147312164307e-01
-4.994243383407592773e-02 2.152859270572662354e-01 7.754354178905487061e-02
-8.266875743865966797e-01 2.711452245712280273e-01 2.186471223831176758e-01
-3.246144056320190430e-01 -7.663082331418991089e-02 -1.252227425575256348e-01
-1.077014684677124023e+00 1.539757400751113892e-01 1.702394783496856689e-01
-1.002517223358154297e+00 1.575728058815002441e-01 2.334780395030975342e-01
-7.020335197448730469e-01 2.664436697959899902e-01 2.642510533332824707e-01
-7.429352402687072754e-01 1.311129778623580933e-01 -3.529105782508850098e-01
-9.603973627090454102e-01 5.556981638073921204e-02 2.413375675678253174e-01
-9.519003033638000488e-01 2.527140676975250244e-01 -1.926306188106536865e-01
-3.287470936775207520e-01 3.960244357585906982e-02 -3.083808422088623047e-01
-7.859840393066406250e-01 3.306046128273010254e-01 -2.830172702670097351e-02
-6.623276472091674805e-01 2.741288244724273682e-01 2.593337893486022949e-01
-4.838731288909912109e-01 2.912850081920623779e-01 2.298996150493621826e-01
-8.683322668075561523e-01 -7.031672447919845581e-02 2.625652216374874115e-02
-3.132088780403137207e-01 1.066294014453887939e-01 -3.255094885826110840e-01
-8.355249166488647461e-01 9.643456339836120605e-02 3.181551992893218994e-01
-5.258933305740356445e-01 2.511854469776153564e-01 -2.918596863746643066e-01
-5.545248389244079590e-01 -1.919303089380264282e-02 2.922431528568267822e-01
-9.854174852371215820e-01 2.656238973140716553e-01 1.143130213022232056e-01
-9.917131662368774414e-01 2.571228742599487305e-01 1.300580203533172607e-01
-6.663679480552673340e-01 -7.446288317441940308e-02 1.748637855052947998e-01
-2.612487673759460449e-01 1.201525181531906128e-01 3.231887221336364746e-01
-3.407349586486816406e-01 -2.047895640134811401e-02 -2.548860609531402588e-01
-1.133207798004150391e+00 1.418342888355255127e-01 -1.190769001841545105e-01
-4.064947366714477539e-01 1.777925193309783936e-01 3.432625234127044678e-01
-7.402964830398559570e-01 3.216337561607360840e-01 1.252774596214294434e-01
-3.001881241798400879e-01 -1.095289736986160278e-02 2.658406496047973633e-01
-8.882451057434082031e-01 -6.636690348386764526e-02 -2.550007542595267296e-03
-2.980056703090667725e-01 3.122706711292266846e-01 -4.685388877987861633e-02
-1.122575700283050537e-01 -3.657204657793045044e-02 2.097703330218791962e-02
-1.861554086208343506e-01 7.650238275527954102e-02 -2.677393853664398193e-01
-1.108381032943725586e+00 1.832093298435211182e-01 -1.302435100078582764e-01
-7.741469144821166992e-02 -1.353507488965988159e-02 -5.510908737778663635e-02
-8.163470029830932617e-01 1.695873588323593140e-01 -3.282471299171447754e-01
-1.083145856857299805e+00 2.368469834327697754e-01 9.920874610543251038e-03
-3.024845719337463379e-01 8.790059387683868408e-02 -3.197662830352783203e-01
-6.861982345581054688e-01 -6.194590777158737183e-02 -2.073143422603607178e-01
2.215486764907836914e-02 7.233440876007080078e-02 3.594021871685981750e-02
-7.900636792182922363e-01 2.503696680068969727e-01 -2.713808417320251465e-01
-7.634560465812683105e-01 -9.137744456529617310e-02 -2.666508592665195465e-02
-8.621945381164550781e-01 -2.722718566656112671e-02 1.971025168895721436e-01
-8.878525495529174805e-01 2.900411486625671387e-01 -1.528047025203704834e-01
-1.309429407119750977e-01 2.601446211338043213e-01 -5.100831016898155212e-02
-1.822157204151153564e-01 1.254277527332305908e-01 -2.701852321624755859e-01
-9.535962939262390137e-01 1.635821014642715454e-01 -2.785528004169464111e-01
-7.530843615531921387e-01 2.107515037059783936e-01 3.125112652778625488e-01
-6.161948442459106445e-01 -9.344273060560226440e-02 1.209114566445350647e-01
-1.411514282226562500e-01 2.439860999584197998e-01 1.507091522216796875e-01
-3.706276416778564453e-03 5.333220213651657104e-02 9.802407771348953247e-02
2.411520481109619141e-02 1.333440840244293213e-01 4.893897473812103271e-02
-2.029310166835784912e-01 1.277358531951904297e-01 2.993882596492767334e-01
-4.700767993927001953e-01 3.004014790058135986e-01 2.075481116771697998e-01
-8.447611331939697266e-01 -6.050089746713638306e-02 -1.349079310894012451e-01
-8.244817256927490234e-01 -1.505782455205917358e-02 2.375379502773284912e-01
-9.826115369796752930e-01 7.678326219320297241e-02 -2.586137056350708008e-01
-3.669659793376922607e-01 1.589625328779220581e-02 3.117381334304809570e-01
-9.405158758163452148e-01 -4.607643932104110718e-02 -7.634568959474563599e-02
-7.111396193504333496e-01 2.373926937580108643e-01 2.980226576328277588e-01
-7.424789667129516602e-02 2.257777452468872070e-01 9.927149116992950439e-02
-4.149920940399169922e-01 6.177321076393127441e-03 -3.037734031677246094e-01
-1.831153333187103271e-01 2.839988470077514648e-01 3.350521624088287354e-02
-8.694676160812377930e-01 2.999064922332763672e-01 -1.347430050373077393e-01
-9.828730821609497070e-01 -3.144120424985885620e-02 5.178192630410194397e-02
-5.603201985359191895e-01 -5.548032373189926147e-02 -2.352949678897857666e-01
-3.827448487281799316e-01 3.052313029766082764e-01 -1.558336019515991211e-01
-1.015561819076538086e+00 2.277914434671401978e-02 -1.824327409267425537e-01
-1.321315169334411621e-01 2.200331985950469971e-01 1.896252632141113281e-01
-3.025664687156677246e-01 -3.945205360651016235e-02 -2.102053165435791016e-01
-3.070462942123413086e-01 -7.657014578580856323e-02 -1.129664257168769836e-01
-6.301432847976684570e-02 -1.197738200426101685e-02 2.724260464310646057e-02
-1.094965696334838867e+00 5.900587886571884155e-02 -1.374891996383666992e-01
-1.874337196350097656e-01 5.875838547945022583e-02 -2.610395252704620361e-01
-8.123811483383178711e-01 3.210769295692443848e-01 -8.584487438201904297e-02
7.511258125305175781e-03 5.246880650520324707e-02 5.961597338318824768e-02
-3.792451024055480957e-01 -9.993114322423934937e-02 -5.722395144402980804e-03
-4.216557741165161133e-02 2.146427482366561890e-01 -2.318194508552551270e-02
-1.370932459831237793e-01 1.916525810956954956e-01 2.295866012573242188e-01
-4.315376281738281250e-01 3.150785565376281738e-01 1.553358137607574463e-01
-1.001519560813903809e+00 -2.834083884954452515e-02 -7.011777255684137344e-03
-8.150656223297119141e-01 3.085578382015228271e-01 1.331626176834106445e-01
-3.909811973571777344e-01 8.825097978115081787e-02 3.528434634208679199e-01
-4.113408625125885010e-01 3.311435580253601074e-01 -4.487797245383262634e-02
-8.271242380142211914e-01 2.538538873195648193e-01 2.454021275043487549e-01
-5.136314630508422852e-01 3.065895140171051025e-01 -1.936824917793273926e-01
-1.028659582138061523e+00 1.319802552461624146e-01 -2.397938072681427002e-01
-6.845244169235229492e-01 1.464729011058807373e-02 3.136035799980163574e-01
-3.337919712066650391e-03 7.252491265535354614e-02 -9.347663074731826782e-02
-4.633247852325439453e-02 7.730376720428466797e-02 1.856663823127746582e-01
-8.328167200088500977e-01 1.765811443328857422e-02 2.739603221416473389e-01
-1.015364646911621094e+00 2.714224755764007568e-01 2.547433972358703613e-02
-1.088726997375488281e+00 2.223503589630126953e-01 -8.970418572425842285e-02
-6.050729155540466309e-01 2.310800552368164062e-02 -3.321122825145721436e-01
-4.692071974277496338e-01 -1.001394614577293396e-01 -8.574667572975158691e-02
-7.020144462585449219e-01 3.397015929222106934e-01 -1.318218279629945755e-02
-8.115561008453369141e-01 -7.312303036451339722e-02 9.944556653499603271e-02
-2.487284839153289795e-01 2.800807058811187744e-01 -1.408309042453765869e-01
-1.075723528861999512e+00 2.422178983688354492e-01 -1.858808472752571106e-02
-1.431898772716522217e-01 1.083405911922454834e-01 -2.481962740421295166e-01
-5.715603828430175781e-01 2.818972170352935791e-01 -2.507374286651611328e-01
-7.713312506675720215e-01 3.221522867679595947e-01 -1.121966689825057983e-01
-1.948616504669189453e-01 2.245450019836425781e-02 2.574851214885711670e-01
-5.481557846069335938e-01 2.735953032970428467e-01 2.665196061134338379e-01
-4.137502908706665039e-01 -7.528326660394668579e-02 1.773387193679809570e-01
-4.333695173263549805e-01 -1.047619208693504333e-01 7.366436533629894257e-03
-8.145073652267456055e-01 -6.749964505434036255e-02 -1.330918669700622559e-01
-5.710965991020202637e-01 5.988255143165588379e-03 3.187310695648193359e-01
-3.156472146511077881e-01 3.186075389385223389e-01 3.938896115869283676e-03
-8.462316989898681641e-01 1.372744888067245483e-01 -3.280820846557617188e-01
-4.405705332756042480e-01 -7.500567287206649780e-02 1.840944290161132812e-01
-3.883118629455566406e-01 3.163939118385314941e-01 -1.185347884893417358e-01
-6.981682777404785156e-02 1.237573251128196716e-01 2.149282693862915039e-01
-1.707698106765747070e-01 -3.240963071584701538e-02 1.555022299289703369e-01
-6.150124669075012207e-01 1.011267751455307007e-01 3.638144135475158691e-01
-5.978223085403442383e-01 1.123115420341491699e-03 3.123613297939300537e-01
-7.004103064537048340e-01 2.497596740722656250e-01 -2.902374565601348877e-01
-4.555192887783050537e-01 -7.124678045511245728e-02 -1.914094090461730957e-01
-5.126654505729675293e-01 3.165042102336883545e-01 1.711452901363372803e-01
-5.990528464317321777e-01 -6.966475397348403931e-02 2.013810873031616211e-01
-7.640222311019897461e-01 -9.064260870218276978e-02 2.991937473416328430e-02
-9.690531492233276367e-01 2.850404679775238037e-01 -7.588341832160949707e-02
-9.019860029220581055e-01 3.037819862365722656e-01 6.832560896873474121e-02
-1.334009468555450439e-01 1.737009733915328979e-01 -2.196974754333496094e-01
-8.224867582321166992e-01 1.470202505588531494e-01 3.228730261325836182e-01
-2.397916913032531738e-01 2.956857681274414062e-01 8.435782790184020996e-02
-1.908016800880432129e-01 2.561019062995910645e-01 -1.516789197921752930e-01
-7.268459200859069824e-01 3.043866753578186035e-01 1.856562495231628418e-01
-2.324438989162445068e-01 -7.518713921308517456e-02 -2.355934353545308113e-03
-1.634013354778289795e-01 2.737249732017517090e-01 -4.799852147698402405e-02
-3.788471519947052002e-01 2.653251290321350098e-01 2.536303997039794922e-01
-9.736758470535278320e-02 2.334176599979400635e-01 1.185597106814384460e-01
-5.736529231071472168e-01 4.097081720829010010e-03 -3.166361153125762939e-01
-4.227689206600189209e-01 2.802423536777496338e-01 -2.299881279468536377e-01
-7.478760480880737305e-01 3.338603377342224121e-01 4.324211925268173218e-02
-7.248175144195556641e-01 8.755914121866226196e-02 -3.523090183734893799e-01
-2.663995623588562012e-01 1.849375069141387939e-01 3.029280900955200195e-01
-6.986911892890930176e-01 -6.585458666086196899e-02 -1.944790780544281006e-01
-1.080329656600952148e+00 4.850051552057266235e-02 -1.444179415702819824e-01
-1.739278435707092285e-01 1.853138208389282227e-01 2.592695653438568115e-01
-1.791858971118927002e-01 -5.335337668657302856e-02 -7.257189601659774780e-02
-6.272458434104919434e-01 2.514870464801788330e-02 -3.325758874416351318e-01
-8.593385815620422363e-01 3.090425133705139160e-01 -1.056103631854057312e-01
-7.905042171478271484e-01 3.304542303085327148e-01 5.904966499656438828e-03
-9.485659599304199219e-01 1.214444115757942200e-01 -2.886244058609008789e-01
-6.695536375045776367e-01 -9.577081352472305298e-02 8.760131895542144775e-02
-9.525707960128784180e-01 2.897811830043792725e-01 -8.003735542297363281e-02
-8.095013499259948730e-01 8.194601535797119141e-02 -3.331313133239746094e-01
-3.933408260345458984e-01 3.015439212322235107e-01 1.827563047409057617e-01
-1.134168624877929688e+00 1.179295033216476440e-01 -1.187311932444572449e-01
-5.298875570297241211e-01 3.425730466842651367e-01 7.101847324520349503e-03
-5.630156397819519043e-01 7.780686020851135254e-02 3.615928292274475098e-01
-1.622173786163330078e-01 -1.815899461507797241e-02 -1.607792079448699951e-01
-6.311678886413574219e-01 -9.296286851167678833e-02 -1.221495419740676880e-01
-2.057705223560333252e-01 8.388849347829818726e-02 2.981684803962707520e-01
-6.120986938476562500e-01 3.260623514652252197e-01 1.421574056148529053e-01
-4.158803820610046387e-01 2.444180846214294434e-01 -2.816414237022399902e-01
-9.090424180030822754e-01 8.720917999744415283e-02 -3.008192777633666992e-01
-3.911958336830139160e-01 3.307795524597167969e-01 -4.659733967855572701e-04
-6.500142216682434082e-01 3.421950340270996094e-01 2.379931136965751648e-02
-1.120001316070556641e+00 1.851962357759475708e-01 8.081023395061492920e-02
-3.717994689941406250e-02 1.622610092163085938e-01 1.594442129135131836e-01
-1.035923242568969727e+00 2.042722404003143311e-01 1.743229329586029053e-01
-8.499074578285217285e-01 2.770140767097473145e-01 -2.071919739246368408e-01
-2.040084600448608398e-01 -5.155799537897109985e-02 1.307053565979003906e-01
-4.342543780803680420e-01 2.708229422569274902e-01 -2.493435740470886230e-01
-1.046840906143188477e+00 1.669766753911972046e-02 -1.329983472824096680e-01
-1.355227530002593994e-01 2.686481177806854248e-02 2.253811359405517578e-01
-9.094986915588378906e-01 -5.794618278741836548e-02 4.213758185505867004e-02
-8.642969131469726562e-01 -2.374155074357986450e-02 -2.162311077117919922e-01
-4.527690410614013672e-01 2.504478693008422852e-01 -2.823030650615692139e-01
3.644406795501708984e-03 1.479377150535583496e-01 1.020759791135787964e-01
-9.125570654869079590e-01 5.417688190937042236e-02 2.677313089370727539e-01
-7.247698307037353516e-01 -7.993423193693161011e-02 -1.413437426090240479e-01
-7.275578975677490234e-01 2.405395954847335815e-01 2.913867533206939697e-01
-5.038554668426513672e-01 3.413518369197845459e-01 3.070673672482371330e-03
-6.648114919662475586e-01 3.376281261444091797e-01 7.102531939744949341e-02
-2.203626930713653564e-01 -6.133610755205154419e-02 -9.359613060951232910e-02
-2.210975885391235352e-01 -5.481544882059097290e-02 -1.198047026991844177e-01
-5.855198502540588379e-01 3.266553282737731934e-01 1.411598324775695801e-01
-3.008586168289184570e-02 1.275012046098709106e-01 1.717830896377563477e-01
-7.999608516693115234e-01 1.580878794193267822e-01 -3.363189995288848877e-01
-3.802602291107177734e-01 3.278587162494659424e-01 4.656813666224479675e-02
-3.780543804168701172e-01 8.933328837156295776e-02 -3.407267034053802490e-01
-8.212226629257202148e-01 7.413470745086669922e-02 3.161854743957519531e-01
-1.128241777420043945e+00 7.119485735893249512e-02 -8.844701945781707764e-02
-9.780905246734619141e-01 -2.151026576757431030e-02 1.056506186723709106e-01
-1.465064287185668945e-01 1.574629396200180054e-01 2.604527771472930908e-01
-4.980849325656890869e-01 1.022447496652603149e-01 -3.613841533660888672e-01
-2.407752275466918945e-01 -7.482419162988662720e-02 -4.130752012133598328e-02
-3.522908985614776611e-01 -9.468282014131546021e-02 5.390239506959915161e-02
-6.479552984237670898e-01 9.981574863195419312e-02 -3.630421757698059082e-01
-8.918328881263732910e-01 1.356536746025085449e-01 -3.126770853996276855e-01
-6.153935194015502930e-01 -9.771125763654708862e-02 -1.021049022674560547e-01
-4.148090481758117676e-01 -1.012290045619010925e-01 5.310839042067527771e-02
-4.749324321746826172e-01 1.122635453939437866e-01 3.653252422809600830e-01
2.944439649581909180e-02 1.089638471603393555e-01 -7.570098154246807098e-03
-1.148247361183166504e+00 1.473353505134582520e-01 5.258354172110557556e-02
-2.644623219966888428e-01 3.075584173202514648e-01 -2.892584307119250298e-04
-1.007386088371276855e+00 -9.242527186870574951e-03 1.014740690588951111e-01
-7.345255613327026367e-01 -6.285222619771957397e-02 1.826010048389434814e-01
-7.694664001464843750e-01 2.659140527248382568e-01 2.482400834560394287e-01
-9.795029163360595703e-01 1.885515600442886353e-01 2.330867648124694824e-01
-3.312779963016510010e-01 6.434568762779235840e-02 3.337231874465942383e-01
-3.354524075984954834e-01 -8.885820955038070679e-02 -7.340118288993835449e-02
-1.130116105079650879e+00 1.976844668388366699e-01 4.933798918500542641e-04
-8.827065229415893555e-01 1.142953857779502869e-01 3.029421269893646240e-01
-2.878307700157165527e-01 1.181055456399917603e-01 3.318330645561218262e-01
1.509529352188110352e-02 1.185089200735092163e-01 -6.674721091985702515e-02
-5.684202909469604492e-01 -1.072889342904090881e-01 2.994239144027233124e-02
-4.137715101242065430e-01 3.322616517543792725e-01 4.473698139190673828e-02
-3.927364051342010498e-01 1.736871600151062012e-01 -3.327430784702301025e-01
-8.713679313659667969e-01 2.840906381607055664e-04 -2.501989006996154785e-01
-3.998644948005676270e-01 3.145001530647277832e-01 -1.329300105571746826e-01
-1.064285993576049805e+00 1.367779821157455444e-02 -9.169861674308776855e-02
-5.020467638969421387e-01 -5.635068565607070923e-02 -2.309742867946624756e-01
-2.494528293609619141e-01 -4.649335891008377075e-02 1.813709139823913574e-01
-8.094505071640014648e-01 2.878394722938537598e-01 1.935075521469116211e-01
-4.598198831081390381e-01 3.268631994724273682e-01 -1.099765822291374207e-01
-8.846367597579956055e-01 -4.886918514966964722e-02 1.253643631935119629e-01
-3.297731280326843262e-01 1.029641181230545044e-01 -3.302158117294311523e-01
-4.922137856483459473e-01 1.638267338275909424e-01 3.584383428096771240e-01
-1.141982793807983398e+00 1.399029642343521118e-01 -1.003969088196754456e-01
-6.550850868225097656e-01 3.424378037452697754e-01 -8.316269144415855408e-03
-7.721515893936157227e-01 -8.905967324972152710e-02 -4.445367678999900818e-02
-3.539885580539703369e-01 9.298762679100036621e-02 3.468853831291198730e-01
-1.986926198005676270e-01 2.893890142440795898e-01 2.467289566993713379e-02
-6.503128409385681152e-01 -8.970204740762710571e-02 -1.312155723571777344e-01
-6.345406770706176758e-01 2.932135760784149170e-01 2.290076613426208496e-01
-1.009614944458007812e+00 2.499728798866271973e-01 1.264237761497497559e-01
-8.115887641906738281e-03 8.161900937557220459e-02 -1.088105961680412292e-01
-5.164672732353210449e-01 3.353749811649322510e-01 9.084225445985794067e-02
-5.889832973480224609e-01 -1.491604000329971313e-02 -2.962893843650817871e-01
-1.987552642822265625e-02 7.096018642187118530e-02 1.480422019958496094e-01
-1.657249331474304199e-01 2.678819000720977783e-02 -2.254877686500549316e-01
-9.347757101058959961e-01 1.726206541061401367e-01 2.684639394283294678e-01
-4.892753958702087402e-01 5.286887288093566895e-03 -3.137184977531433105e-01
-3.429672122001647949e-01 1.689144521951675415e-01 3.346226811408996582e-01
-4.656958580017089844e-01 -5.840576440095901489e-02 2.271618843078613281e-01
-6.887666583061218262e-01 1.440369933843612671e-01 -3.585844039916992188e-01
-5.942146182060241699e-01 -6.595676392316818237e-02 -2.121256887912750244e-01
-9.214977025985717773e-01 1.411876529455184937e-01 -2.998270690441131592e-01
-3.913921117782592773e-01 3.276576399803161621e-01 6.568899005651473999e-02
-7.253161072731018066e-01 6.559909135103225708e-02 3.384708166122436523e-01
-6.493086814880371094e-01 8.263498544692993164e-03 3.135147094726562500e-01
-3.127529919147491455e-01 2.620373368263244629e-01 -2.211031615734100342e-01
-7.257893085479736328e-01 3.277615904808044434e-01 1.042736768722534180e-01
-3.734278678894042969e-01 -8.382082730531692505e-02 -1.255548596382141113e-01
-7.624300718307495117e-01 3.307963609695434570e-01 5.775689333677291870e-02
-7.796961069107055664e-02 3.662890195846557617e-02 -1.628952920436859131e-01
-2.243898510932922363e-01 2.495018541812896729e-01 -1.922332346439361572e-01
-1.136741638183593750e+00 1.701007187366485596e-01 -8.712930977344512939e-02
-3.964073061943054199e-01 -1.009051427245140076e-01 -2.726501785218715668e-02
-6.803016662597656250e-01 5.311516672372817993e-02 -3.453560471534729004e-01
-5.904904603958129883e-01 3.093419075012207031e-01 1.955071687698364258e-01
-4.746416211128234863e-01 -1.051229909062385559e-01 4.947180300951004028e-02
-9.519195556640625000e-01 -3.015572577714920044e-02 -1.303371191024780273e-01
-6.207706332206726074e-01 -1.992184668779373169e-02 2.863667011260986328e-01
-6.850919127464294434e-01 3.355670571327209473e-01 7.755713164806365967e-02
-8.488943576812744141e-01 -6.935101002454757690e-02 7.554902881383895874e-02
-4.829184412956237793e-01 3.391798734664916992e-01 -2.818319015204906464e-02
-3.163207173347473145e-01 2.539393305778503418e-01 -2.358440458774566650e-01
-7.104269266128540039e-01 -9.344606846570968628e-02 7.452667504549026489e-02
-6.677906513214111328e-01 2.107187807559967041e-01 3.280941545963287354e-01
-5.872024297714233398e-01 3.257676362991333008e-01 -1.424390375614166260e-01
-1.703087091445922852e-01 1.108174622058868408e-01 2.847317159175872803e-01
-3.252442479133605957e-01 2.771996557712554932e-01 2.124875187873840332e-01
-7.380250692367553711e-01 5.293110013008117676e-02 3.295646905899047852e-01
-2.600715756416320801e-01 -7.335340231657028198e-02 -8.293189853429794312e-02
-2.671335637569427490e-01 -3.061049431562423706e-02 2.233930528163909912e-01
-2.469504177570343018e-01 2.962028086185455322e-01 -7.476668059825897217e-02
-5.748647451400756836e-02 1.753743886947631836e-01 -1.459444165229797363e-01
-6.296062469482421875e-01 -1.040076538920402527e-01 -4.604938253760337830e-02
-6.316235065460205078e-01 2.455711364746093750e-01 -3.010644912719726562e-01
-4.312033057212829590e-01 -8.290203660726547241e-02 1.579391360282897949e-01
-3.356623649597167969e-01 -5.804165452718734741e-02 -1.860152781009674072e-01
-7.710481286048889160e-01 3.068309128284454346e-01 1.624970138072967529e-01
-3.908316791057586670e-01 2.593766152858734131e-01 2.659647166728973389e-01
-1.050542950630187988e+00 2.492290735244750977e-01 5.974369868636131287e-02
-5.151572227478027344e-01 3.320313096046447754e-01 -1.044641435146331787e-01
-4.493730068206787109e-01 2.005249559879302979e-01 -3.285709619522094727e-01
-4.915677309036254883e-01 3.037289083003997803e-01 2.032565176486968994e-01
-6.813505291938781738e-02 1.286012530326843262e-01 -1.872161626815795898e-01
-1.032832264900207520e-01 2.476575970649719238e-01 -4.808095097541809082e-02
-2.697736024856567383e-01 -6.137118488550186157e-02 -1.397719681262969971e-01
-5.709871649742126465e-01 3.004787862300872803e-01 2.170076072216033936e-01
-9.203182458877563477e-01 1.654671132564544678e-02 2.290418744087219238e-01
-4.335617423057556152e-01 -9.361558407545089722e-02 -1.094649955630302429e-01
-9.879014492034912109e-01 -3.253293782472610474e-02 2.486670017242431641e-02
-4.928523898124694824e-01 3.342927694320678711e-01 8.971506357192993164e-02
-5.514504313468933105e-01 9.617887437343597412e-03 -3.214248418807983398e-01
-5.742619037628173828e-01 3.189186751842498779e-01 -1.656698584556579590e-01
-8.286134600639343262e-01 -7.675277441740036011e-02 5.465045571327209473e-02
-3.761908411979675293e-01 3.277584612369537354e-01 -2.720878086984157562e-02
-6.064485907554626465e-01 -1.005261614918708801e-01 -8.723092079162597656e-02
-4.780944585800170898e-01 1.934768855571746826e-01 3.435675501823425293e-01
-3.846274614334106445e-01 2.871614098548889160e-01 2.147960066795349121e-01
-3.143716454505920410e-01 -8.344577997922897339e-02 9.778419137001037598e-02
-3.174706101417541504e-01 -7.058102637529373169e-02 1.538558602333068848e-01
-1.309610605239868164e-01 2.012827396392822266e-01 2.145388424396514893e-01
-4.837217032909393311e-01 -1.033275201916694641e-01 -6.713778525590896606e-02
2.575498819351196289e-02 8.953327685594558716e-02 5.057262256741523743e-02
-1.045894742012023926e+00 1.704952567815780640e-01 1.930836439132690430e-01
-8.266224265098571777e-01 3.124207854270935059e-01 1.095110699534416199e-01
-4.939251542091369629e-01 3.236441016197204590e-01 1.427991092205047607e-01
-3.398765027523040771e-01 3.193379342555999756e-01 7.033166289329528809e-02
-7.603889703750610352e-01 3.316416740417480469e-01 -5.804557353258132935e-02
-4.387366771697998047e-01 3.229653537273406982e-01 -1.181771159172058105e-01
-8.261601924896240234e-01 3.250381648540496826e-01 1.720409491099417210e-03
-1.983080804347991943e-01 -4.847837239503860474e-02 -1.178686991333961487e-01
-4.344175457954406738e-01 1.817074716091156006e-01 3.453948795795440674e-01
-2.991183996200561523e-01 -8.825372904539108276e-02 3.231301531195640564e-02
-5.080451965332031250e-01 2.742861807346343994e-01 -2.577248811721801758e-01
-3.954660892486572266e-01 2.451077997684478760e-01 2.861186265945434570e-01
-7.489892840385437012e-02 1.881504952907562256e-01 -1.519220471382141113e-01
-6.874491572380065918e-01 2.720800638198852539e-01 -2.615964412689208984e-01
-1.158883571624755859e+00 1.422196328639984131e-01 -1.728163287043571472e-02
-4.708553850650787354e-01 -2.063483744859695435e-02 -2.836045622825622559e-01
-3.915423452854156494e-01 -6.330337375402450562e-02 -1.945386528968811035e-01
-4.135376811027526855e-01 -1.516290009021759033e-03 3.037119805812835693e-01
-7.769740223884582520e-01 3.180567622184753418e-01 1.204522252082824707e-01
-6.816270947456359863e-01 3.962934017181396484e-03 -3.090215921401977539e-01
-6.139990091323852539e-01 3.387222886085510254e-01 7.640662789344787598e-02
-5.139077901840209961e-01 2.493870556354522705e-01 2.977779805660247803e-01
-4.566900432109832764e-01 2.556597441434860229e-02 -3.264980912208557129e-01
-3.032557964324951172e-01 -3.109430521726608276e-02 2.377993166446685791e-01
-1.001225709915161133e+00 2.786161005496978760e-01 8.917263476178050041e-04
-1.005771517753601074e+00 1.405870765447616577e-01 2.355109155178070068e-01
-3.108462095260620117e-01 -8.769413083791732788e-02 6.404878944158554077e-02
-1.106905817985534668e+00 5.077371746301651001e-02 -1.000006943941116333e-01
-8.340055942535400391e-01 -2.298749238252639771e-02 -2.327441573143005371e-01
-8.636698126792907715e-02 8.796639740467071533e-03 -1.327163279056549072e-01
-1.017323970794677734e+00 3.764234483242034912e-03 -1.437122821807861328e-01
2.810955047607421875e-03 1.751257181167602539e-01 -5.569071974605321884e-03
-1.159269332885742188e+00 1.185216233134269714e-01 -2.608244493603706360e-02
-7.749075889587402344e-01 3.088605105876922607e-01 -1.614593267440795898e-01
-8.317543268203735352e-01 3.215684592723846436e-01 -5.668868497014045715e-02
-4.883321225643157959e-01 -9.424605220556259155e-02 1.251837164163589478e-01
-7.013530731201171875e-01 -9.865950793027877808e-02 -3.935687988996505737e-02
-7.861359715461730957e-01 9.849762916564941406e-02 3.338207304477691650e-01
-1.023243904113769531e+00 2.602440416812896729e-01 -9.237981587648391724e-02
-1.148684144020080566e+00 9.347379207611083984e-02 3.209165483713150024e-02
-4.326058030128479004e-01 3.256623148918151855e-01 -1.019626855850219727e-01
-2.812127768993377686e-01 3.103492856025695801e-01 4.284615814685821533e-02
-4.057453870773315430e-01 1.556092798709869385e-01 3.518686592578887939e-01
-7.833128571510314941e-01 2.918569445610046387e-01 -2.031751871109008789e-01
-1.148440599441528320e+00 1.414756774902343750e-01 -8.170104026794433594e-02
-9.998455643653869629e-01 2.523872852325439453e-01 -1.502484679222106934e-01
-8.557587862014770508e-01 -7.399120181798934937e-02 1.301680505275726318e-02
-5.456931591033935547e-01 -3.590110689401626587e-02 -2.684356868267059326e-01
-1.118775963783264160e+00 1.130659654736518860e-01 -1.447142660617828369e-01
-4.653680324554443359e-02 2.948694676160812378e-02 -1.135553494095802307e-01
-2.334204316139221191e-01 -6.773164123296737671e-02 -7.903115451335906982e-02
-7.459251880645751953e-01 8.233040571212768555e-02 -3.473692238330841064e-01
-2.302169203758239746e-01 1.355783343315124512e-01 3.096682131290435791e-01
-9.400199055671691895e-01 2.993195652961730957e-01 2.729663159698247910e-03
-2.151050269603729248e-01 2.876846194267272949e-01 9.045621752738952637e-02
-4.704374074935913086e-02 1.026189327239990234e-01 1.937033236026763916e-01
-1.276310980319976807e-01 2.133542001247406006e-01 -1.728382408618927002e-01
-9.790560603141784668e-02 1.520549356937408447e-01 -2.050071060657501221e-01
-9.386067390441894531e-01 8.603189885616302490e-02 -2.868652343750000000e-01
-7.107990384101867676e-01 5.383608490228652954e-02 -3.417419195175170898e-01
-4.683474004268646240e-01 3.675590455532073975e-02 3.408882915973663330e-01
-7.149540185928344727e-01 -4.792384803295135498e-03 -2.942925095558166504e-01
-8.018857240676879883e-01 -3.242599219083786011e-02 2.192301750183105469e-01
-4.344221949577331543e-01 3.158326447010040283e-01 -1.444728374481201172e-01
-8.460937738418579102e-01 2.234133183956146240e-01 -2.840516269207000732e-01
-9.056936502456665039e-01 -5.509059876203536987e-02 -8.728703111410140991e-02
8.359134197235107422e-03 1.150828674435615540e-01 1.128647401928901672e-01
-8.731732368469238281e-01 5.664863064885139465e-02 2.878438234329223633e-01
-7.892483472824096680e-01 2.781566381454467773e-01 -2.290481626987457275e-01
-8.518567085266113281e-01 -7.498580962419509888e-02 -2.375321835279464722e-02
-3.609620928764343262e-01 2.487061023712158203e-01 2.726927399635314941e-01
-7.665336728096008301e-01 1.820148527622222900e-01 3.268027901649475098e-01
-7.267909049987792969e-01 -3.784822672605514526e-02 2.380381822586059570e-01
-4.708718657493591309e-01 -1.008470579981803894e-01 8.580598980188369751e-02
-5.324124097824096680e-01 3.261271119117736816e-01 -1.353707909584045410e-01
-6.758678555488586426e-01 1.561198532581329346e-01 -3.570803701877593994e-01
-1.115291357040405273e+00 1.417530030012130737e-01 -1.497492790222167969e-01
-8.622239828109741211e-01 2.279781103134155273e-01 2.619884610176086426e-01
-6.590263247489929199e-01 -7.171412557363510132e-02 -1.890134215354919434e-01
-2.538419663906097412e-01 -1.719861477613449097e-02 2.388348877429962158e-01
-7.429466247558593750e-01 2.964453995227813721e-01 -2.053436338901519775e-01
-3.258094787597656250e-01 -9.092744439840316772e-02 5.501790717244148254e-02
-4.984508752822875977e-01 3.198532462120056152e-01 -1.514257192611694336e-01
-5.864713191986083984e-01 -1.075854524970054626e-01 3.867802210152149200e-03
-9.175732135772705078e-01 3.053424060344696045e-01 -2.350487746298313141e-02
-4.217337369918823242e-01 8.899791538715362549e-02 3.574336469173431396e-01
-1.031796455383300781e+00 1.748698353767395020e-01 -2.230018973350524902e-01
-3.896149098873138428e-01 3.276411294937133789e-01 -5.211111158132553101e-02
-1.022719264030456543e+00 2.045581787824630737e-01 -2.057768106460571289e-01
-2.211458086967468262e-01 2.363964915275573730e-01 -2.115569114685058594e-01
-6.216482520103454590e-01 2.209129929542541504e-01 -3.252924680709838867e-01
-8.427877426147460938e-01 1.516846567392349243e-01 3.151012659072875977e-01
-1.147842884063720703e+00 1.580214798450469971e-01 -6.817977130413055420e-02
-7.881690263748168945e-01 -8.546372503042221069e-02 4.563084244728088379e-02
-5.503448843955993652e-01 2.909517586231231689e-01 2.364490032196044922e-01
-7.643440365791320801e-02 2.346631288528442383e-01 -3.871298581361770630e-02
-3.386667370796203613e-01 3.107990324497222900e-01 -1.064881980419158936e-01
-7.227846980094909668e-01 2.726071178913116455e-01 2.504901587963104248e-01
-6.165639162063598633e-01 7.242331653833389282e-02 -3.581945598125457764e-01
-7.096393704414367676e-01 -8.646684139966964722e-02 -1.215045899152755737e-01
-3.776516318321228027e-01 3.236072063446044922e-01 8.324817568063735962e-02
-4.772595763206481934e-01 -3.413691371679306030e-02 2.704646587371826172e-01
-8.873945474624633789e-02 -2.255929261445999146e-02 -3.763849288225173950e-02
-5.837732553482055664e-02 1.625619679689407349e-01 -1.592745780944824219e-01
-5.915767550468444824e-01 3.365069031715393066e-01 9.337589889764785767e-02
-1.047017574310302734e+00 1.512492895126342773e-01 -2.215996086597442627e-01
-8.870014548301696777e-02 2.450449466705322266e-01 2.479204908013343811e-02
-9.217994213104248047e-01 -4.470858722925186157e-02 -1.145109608769416809e-01
-2.919028401374816895e-01 2.031557261943817139e-02 2.958476543426513672e-01
-2.447330951690673828e-02 1.496352106332778931e-01 -1.251245737075805664e-01
-2.039673030376434326e-01 2.897202372550964355e-01 -2.795460075139999390e-02
-8.852024078369140625e-01 6.496652960777282715e-03 2.369498610496520996e-01
-7.925429940223693848e-01 1.790430843830108643e-01 -3.301085233688354492e-01
-1.040713787078857422e+00 -9.301237761974334717e-03 -3.145795688033103943e-02
-3.660557568073272705e-01 3.082179725170135498e-01 1.490794122219085693e-01
-2.816089093685150146e-01 -4.474300891160964966e-02 2.030667066574096680e-01
-6.094413995742797852e-01 1.382883638143539429e-01 -3.644803762435913086e-01
-7.951440215110778809e-01 -5.945614725351333618e-02 -1.723924875259399414e-01
-7.915515899658203125e-01 2.737917602062225342e-01 2.281365096569061279e-01
-9.543787837028503418e-01 2.053692340850830078e-01 2.359767854213714600e-01
-4.171872138977050781e-01 3.163162171840667725e-01 1.450344324111938477e-01
-1.070140361785888672e+00 6.330881267786026001e-02 -1.761105656623840332e-01
-8.048400878906250000e-01 -5.137393623590469360e-02 1.775709092617034912e-01
-3.404718339443206787e-01 3.133913874626159668e-01 1.092503517866134644e-01
-1.091339111328125000e+00 2.126816660165786743e-02 -1.286405138671398163e-02
-3.475452363491058350e-01 1.213690638542175293e-01 3.471408486366271973e-01
-6.960837841033935547e-01 4.031216353178024292e-02 -3.361497819423675537e-01
-4.264273643493652344e-01 2.350196391344070435e-01 3.036344647407531738e-01
-1.015228629112243652e+00 9.615862369537353516e-02 -2.450374662876129150e-01
-2.746300995349884033e-01 3.069561719894409180e-01 -4.775815457105636597e-02
-1.105197668075561523e+00 3.243244439363479614e-02 -2.457946352660655975e-02
-2.535545825958251953e-01 3.024672567844390869e-01 5.914675816893577576e-02
-8.185892105102539062e-01 -5.537555366754531860e-02 1.585604548454284668e-01
-3.023164272308349609e-01 2.950308322906494141e-01 -1.380633413791656494e-01
-5.326392650604248047e-01 3.306037485599517822e-01 -1.159255728125572205e-01
-1.117690920829772949e+00 9.118591994047164917e-02 -1.352740526199340820e-01
-1.088566064834594727e+00 2.056622952222824097e-01 -1.292373836040496826e-01
-9.039659500122070312e-01 -5.756679922342300415e-02 5.845345184206962585e-02
-3.096971809864044189e-01 3.087543845176696777e-01 1.033288240432739258e-01
-6.526927351951599121e-01 3.410487473011016846e-01 -4.291561990976333618e-02
-9.156695604324340820e-01 2.993460893630981445e-01 -8.684509247541427612e-02
-1.009188175201416016e+00 2.257032096385955811e-01 -1.908487379550933838e-01
-2.771815061569213867e-01 -8.400809019804000854e-02 3.717774152755737305e-02
-7.343105077743530273e-01 2.812198996543884277e-01 2.331102788448333740e-01
-5.432533621788024902e-01 2.554340362548828125e-01 -2.880758941173553467e-01
-9.138533473014831543e-01 2.367475032806396484e-01 -2.405271530151367188e-01
-6.218910217285156250e-02 -8.423469960689544678e-03 5.863683298230171204e-02
-2.644911408424377441e-01 3.098910301923751831e-02 2.950841188430786133e-01
-4.798993468284606934e-01 1.259800642728805542e-01 -3.598248064517974854e-01
-1.012515306472778320e+00 -5.336761474609375000e-03 -1.261450648307800293e-01
-5.612214803695678711e-01 1.457683444023132324e-01 -3.629019856452941895e-01
-1.733552217483520508e-01 2.746260911226272583e-02 2.503101229667663574e-01
-3.477164804935455322e-01 2.641445398330688477e-01 -2.326813042163848877e-01
-8.692922592163085938e-01 3.156435489654541016e-01 -4.228731617331504822e-02
-1.119964718818664551e+00 2.035778313875198364e-01 3.413359448313713074e-02
-1.212019920349121094e-01 2.475819587707519531e-01 -8.853486925363540649e-02
-4.070966243743896484e-01 2.801480591297149658e-01 2.357547879219055176e-01
-7.413982152938842773e-01 3.533052653074264526e-02 3.178429305553436279e-01
-3.739590644836425781e-01 3.253877758979797363e-01 6.437261402606964111e-02
-5.599861145019531250e-01 -6.300427764654159546e-02 2.202222645282745361e-01
-1.129088997840881348e+00 1.734504848718643188e-01 -1.020600348711013794e-01
-3.296495079994201660e-01 2.036526054143905640e-02 3.067972958087921143e-01
-1.114090561866760254e+00 6.365590542554855347e-02 -1.094303131103515625e-01
-9.741425514221191406e-01 9.566585719585418701e-02 -2.710914611816406250e-01
-7.168039083480834961e-01 3.386607170104980469e-01 -2.656268188729882240e-04
-4.784463047981262207e-01 3.356308639049530029e-01 -6.541161239147186279e-02
-7.253319025039672852e-01 2.709693908691406250e-01 -2.573107779026031494e-01
-8.017796874046325684e-01 3.288024961948394775e-01 -1.560042053461074829e-02
-8.863274455070495605e-01 2.431302964687347412e-01 2.330639064311981201e-01
-4.808705449104309082e-01 2.914367318153381348e-01 -2.222570180892944336e-01
-1.036917328834533691e+00 4.038090258836746216e-02 1.644842326641082764e-01
-1.135991573333740234e+00 7.066857814788818359e-02 -5.981082469224929810e-02
-1.287729144096374512e-01 2.471454143524169922e-01 1.256097853183746338e-01
-1.142513513565063477e+00 1.182479113340377808e-01 -1.001819595694541931e-01
-4.708681106567382812e-01 -8.389923721551895142e-02 1.622976958751678467e-01
-9.636453390121459961e-01 2.905786037445068359e-01 2.929693087935447693e-02
-7.931000590324401855e-01 -7.822997123003005981e-02 9.163875877857208252e-02
1.535522937774658203e-02 1.527475267648696899e-01 5.305211618542671204e-02
-7.374662160873413086e-01 -6.674266606569290161e-02 -1.789294779300689697e-01
-6.389325857162475586e-01 -9.620202332735061646e-02 9.968890994787216187e-02
-8.344408273696899414e-01 3.189643621444702148e-01 -7.494306564331054688e-02
-6.972182989120483398e-01 2.524002194404602051e-01 2.838025987148284912e-01
-6.611098051071166992e-01 9.082193672657012939e-02 3.572790920734405518e-01
-3.683614730834960938e-02 2.118602991104125977e-01 4.018922895193099976e-02
-7.762632966041564941e-01 -8.367011696100234985e-02 -8.708715438842773438e-02
-1.085041284561157227e+00 2.211351096630096436e-01 7.940343022346496582e-02
-9.320660829544067383e-01 -5.154483765363693237e-02 3.713702782988548279e-02
-6.809432506561279297e-01 3.412011861801147461e-01 -9.639500640332698822e-04
-4.290271997451782227e-01 -1.019288375973701477e-01 -5.106025561690330505e-02
-2.615205347537994385e-01 -6.676720827817916870e-02 -1.143665090203285217e-01
-8.679316043853759766e-01 2.120252102613449097e-01 2.744183242321014404e-01
-8.583800792694091797e-01 1.010334864258766174e-01 3.108215332031250000e-01
-4.440523684024810791e-01 1.647338867187500000e-01 3.539574742317199707e-01
-6.948128938674926758e-01 -9.201375395059585571e-02 9.497912973165512085e-02
-1.102531433105468750e+00 3.116741776466369629e-02 1.274836994707584381e-02
-6.121894121170043945e-01 3.302999734878540039e-01 1.245365068316459656e-01
-1.219825148582458496e-01 6.623797118663787842e-02 -2.234581112861633301e-01
-8.196378350257873535e-01 3.463037312030792236e-02 -3.050865828990936279e-01
-9.761137962341308594e-01 2.430367469787597656e-01 -1.911409497261047363e-01
-5.346359610557556152e-01 -9.525028616189956665e-02 -1.223376989364624023e-01
-5.083231925964355469e-01 -7.552213221788406372e-02 1.904895603656768799e-01
-1.108479619026184082e+00 1.985256969928741455e-01 8.210739493370056152e-02
-4.911282062530517578e-01 7.078657299280166626e-02 -3.539397120475769043e-01
-1.095998406410217285e+00 3.493780642747879028e-02 -8.422975242137908936e-02
-9.286314249038696289e-01 2.003192156553268433e-01 2.548794150352478027e-01
-8.343256711959838867e-01 2.680103778839111328e-01 -2.307067513465881348e-01
-8.266997337341308594e-01 3.024995625019073486e-01 1.460128724575042725e-01
-8.774773478507995605e-01 1.381600499153137207e-01 3.045351207256317139e-01
-6.010068058967590332e-01 3.152829110622406006e-01 1.787963509559631348e-01
-1.052375435829162598e-01 1.308721154928207397e-01 2.423366308212280273e-01
-9.135603308677673340e-01 3.051533102989196777e-01 3.148938342928886414e-02
-9.729020595550537109e-01 2.392130941152572632e-01 1.831082403659820557e-01
