1.076136678457260132e-01 -7.565758377313613892e-02 -8.301783353090286255e-02
-6.469594836235046387e-01 9.505272656679153442e-02 7.011319696903228760e-02
4.300140738487243652e-01 1.057679578661918640e-01 2.814298309385776520e-02
-2.289078086614608765e-01 -1.070697531104087830e-01 6.508305668830871582e-02
-5.678133964538574219e-01 -4.450741782784461975e-02 3.071044944226741791e-02
-1.651547290384769440e-02 -5.412231758236885071e-02 2.690132558345794678e-01
1.837469041347503662e-01 -4.917076602578163147e-02 1.099875196814537048e-01
-6.743108034133911133e-01 7.705426216125488281e-02 -1.341313570737838745e-01
-6.880388855934143066e-01 5.916059389710426331e-02 1.296103000640869141e-01
-1.393084675073623657e-01 -1.581990532577037811e-02 -6.192252635955810547e-01
-6.739702224731445312e-01 6.788473576307296753e-02 3.422122597694396973e-01
-5.111195445060729980e-01 1.064229235053062439e-01 4.543408378958702087e-02
6.872060894966125488e-01 -4.272591322660446167e-02 8.234795928001403809e-02
-8.341494016349315643e-03 -1.568890921771526337e-02 5.917542576789855957e-01
-1.004035025835037231e-01 -8.301939815282821655e-02 -2.590726613998413086e-01
1.232018545269966125e-01 -6.258446723222732544e-02 -1.373014003038406372e-01
4.456022679805755615e-01 -3.698840737342834473e-02 -1.210058480501174927e-01
-2.441292405128479004e-01 4.457835108041763306e-03 -8.617722988128662109e-01
-3.918109536170959473e-01 -8.105450868606567383e-02 -9.373464621603488922e-03
-1.253708004951477051e-01 -2.187178097665309906e-02 -5.722773671150207520e-01
2.233068495988845825e-01 -8.254782855510711670e-02 -2.917161583900451660e-01
-7.239049077033996582e-01 1.901013702154159546e-01 5.360805615782737732e-02
6.872060894966125488e-01 -4.272591322660446167e-02 8.234795928001403809e-02
7.642300724983215332e-01 -1.103707775473594666e-01 -6.027741730213165283e-02
1.636001467704772949e-01 -4.306648671627044678e-02 -2.967987060546875000e-01
6.099463105201721191e-01 4.375579208135604858e-02 -1.197483167052268982e-01
-2.762369066476821899e-02 -1.175230145454406738e-01 -1.534675154834985733e-02
3.914758861064910889e-01 -1.134884133934974670e-01 4.297140985727310181e-02
5.144522786140441895e-01 7.103899493813514709e-03 -1.254596114158630371e-01
-5.968939065933227539e-01 6.777994334697723389e-02 1.273310184478759766e-01
-4.063512086868286133e-01 5.921298265457153320e-02 1.282217651605606079e-01
-7.124442607164382935e-02 1.920767128467559814e-02 1.309726238250732422e-01
-6.903706192970275879e-01 -3.663742681965231895e-03 3.524281084537506104e-02
-5.299825668334960938e-01 1.007378250360488892e-01 1.244999840855598450e-02
9.368776343762874603e-03 -5.454149842262268066e-02 -1.952265948057174683e-01
9.396037459373474121e-01 1.674500294029712677e-02 -1.196713000535964966e-02
5.196920037269592285e-01 -5.464627966284751892e-02 8.884522318840026855e-02
3.213421404361724854e-01 -4.539817199110984802e-02 1.043810173869132996e-01
-5.401213765144348145e-01 -5.509165674448013306e-02 4.145189002156257629e-02
1.691398769617080688e-02 -7.471443712711334229e-02 -2.013832628726959229e-01
-1.735239028930664062e-01 -8.770896494388580322e-02 -5.469710752367973328e-02
3.063303232192993164e-01 -4.725826159119606018e-02 -1.069895774126052856e-01
-3.522129729390144348e-02 -2.779269032180309296e-02 4.974391460418701172e-01
-7.070591449737548828e-01 4.100913405418395996e-01 4.878750443458557129e-02
1.808388382196426392e-01 1.101431399583816528e-01 -1.581832766532897949e-02
-1.469322741031646729e-01 -1.259746868163347244e-02 -6.885207295417785645e-01
-7.088406682014465332e-01 2.200988084077835083e-01 6.049829348921775818e-02
-4.329047352075576782e-02 1.143349111080169678e-01 2.169811725616455078e-02
2.386330515146255493e-01 -6.714303791522979736e-02 -1.100548207759857178e-01
3.650676608085632324e-01 -5.585141107439994812e-02 9.688820689916610718e-02
2.008808106184005737e-01 1.105099171400070190e-01 2.324383892118930817e-02
-6.591680645942687988e-01 6.222582980990409851e-02 3.093067407608032227e-01
2.562909126281738281e-01 1.842170767486095428e-02 -1.110241711139678955e-01
-4.824201762676239014e-02 -1.891134493052959442e-02 -5.411795377731323242e-01
-5.885103344917297363e-01 2.338006794452667236e-01 5.648990720510482788e-02
-4.597701728343963623e-01 1.049296036362648010e-01 2.840496785938739777e-02
3.609138727188110352e-02 -1.014370471239089966e-01 -3.186483681201934814e-01
4.355799779295921326e-02 -2.847384288907051086e-02 -9.912998974323272705e-02
3.758614957332611084e-01 -1.196450963616371155e-01 1.690376736223697662e-02
9.199927002191543579e-02 -3.167008236050605774e-02 -3.594920337200164795e-01
4.551123678684234619e-01 9.230186045169830322e-02 -7.332433760166168213e-02
2.609018683433532715e-01 -1.699884422123432159e-02 -1.112861558794975281e-01
-3.784758150577545166e-01 1.101431399583816528e-01 1.648459024727344513e-02
-1.394918709993362427e-01 1.043270379304885864e-01 6.689076125621795654e-02
-3.258966840803623199e-03 -1.102397814393043518e-01 2.884526252746582031e-01
3.318333998322486877e-02 -5.700415745377540588e-02 8.127381652593612671e-02
-5.772187113761901855e-01 1.009212136268615723e-01 3.702431917190551758e-02
-5.350795015692710876e-02 -7.069564424455165863e-03 7.589014768600463867e-01
-6.280701756477355957e-01 -1.870175451040267944e-02 1.779452152550220490e-02
-3.163064718246459961e-01 9.287823736667633057e-02 -2.878665365278720856e-02
8.502401709556579590e-01 3.966880589723587036e-02 -1.034527570009231567e-01
-6.791837215423583984e-01 8.732412755489349365e-02 3.842086493968963623e-01
-2.833223640918731689e-01 8.894844353199005127e-02 -3.572928905487060547e-02
-2.055910229682922363e-01 -1.183771062642335892e-02 -8.453734219074249268e-02
2.164952009916305542e-01 -1.235224902629852295e-01 2.422906309366226196e-01
-6.183910742402076721e-02 -1.060741990804672241e-01 2.796760797500610352e-01
-3.784758150577545166e-01 1.101431399583816528e-01 1.648459024727344513e-02
2.815988063812255859e-01 -6.606889516115188599e-02 2.647166848182678223e-01
2.277606129646301270e-01 -1.025897935032844543e-01 2.267548441886901855e-01
-2.894004583358764648e-01 -2.205518633127212524e-02 1.401945501565933228e-01
2.076662480831146240e-01 -5.868088081479072571e-02 2.600795030593872070e-01
-1.062077749520540237e-02 -1.133050248026847839e-01 2.782351672649383545e-01
-6.338601708412170410e-01 1.700070202350616455e-01 6.254179030656814575e-02
1.744463741779327393e-01 -1.159248948097229004e-01 4.449092969298362732e-02
-4.203294217586517334e-02 -1.232081130146980286e-01 2.452757023274898529e-02
2.299088835716247559e-01 -8.791854232549667358e-02 -3.027457892894744873e-01
2.295142505317926407e-03 -5.152864381670951843e-02 2.816147804260253906e-01
2.572602927684783936e-01 -4.668189212679862976e-02 -1.672464311122894287e-01
4.204253852367401123e-01 1.055321767926216125e-01 -4.631354287266731262e-02
5.069856643676757812e-01 -1.144053786993026733e-01 -5.899368226528167725e-02
9.992056488990783691e-01 -1.262367330491542816e-02 -3.779898211359977722e-02
2.411219030618667603e-01 -5.925723537802696228e-02 2.531630694866180420e-01
-5.505746603012084961e-01 2.660250067710876465e-01 4.870890825986862183e-02
-7.015836238861083984e-01 8.944621682167053223e-02 3.818507790565490723e-01
7.725349664688110352e-01 -1.132526323199272156e-01 -3.096114099025726318e-02
2.717481255531311035e-01 2.381862699985504150e-02 1.117952316999435425e-01
2.810486257076263428e-01 -1.042665019631385803e-01 2.699825763702392578e-01
1.462304443120956421e-01 -6.289885193109512329e-02 1.023637205362319946e-01
1.418814808130264282e-01 -4.869919270277023315e-02 8.258374780416488647e-02
-3.964480757713317871e-01 -5.089988186955451965e-02 -4.688990861177444458e-02
-4.783450365066528320e-01 1.058203577995300293e-01 2.148853056132793427e-02
-5.445110425353050232e-02 -7.109903544187545776e-02 -2.714384198188781738e-01
2.486147135496139526e-01 7.233850657939910889e-02 -8.684282004833221436e-02
-1.722284033894538879e-02 -1.086154654622077942e-01 2.882954478263854980e-01
1.318212151527404785e-01 -8.081871271133422852e-02 -3.305949568748474121e-01
5.650418400764465332e-01 -6.866255402565002441e-02 -1.119149252772331238e-01
2.335884980857372284e-02 -3.738137334585189819e-02 3.951072990894317627e-01
2.430082112550735474e-01 -1.231033056974411011e-01 2.748555243015289307e-01
-4.556832313537597656e-01 1.056893765926361084e-01 6.571181863546371460e-02
1.492956876754760742e-01 -4.102298989892005920e-02 3.695374131202697754e-01
2.300136834383010864e-01 -4.516237601637840271e-02 8.580618351697921753e-02
5.463622212409973145e-01 6.495048850774765015e-02 -1.079065278172492981e-01
2.241570129990577698e-02 -3.402796387672424316e-02 -4.705480337142944336e-01
1.659318357706069946e-01 -4.091819003224372864e-02 1.996916532516479492e-01
-2.612369358539581299e-01 9.384758025407791138e-02 9.039094299077987671e-02
-7.158094644546508789e-01 7.943833619356155396e-02 4.070276618003845215e-01
1.455492824316024780e-01 5.902959778904914856e-02 1.024947166442871094e-01
4.494652524590492249e-02 -1.948771812021732330e-02 5.169571638107299805e-01
7.903095334768295288e-02 -1.267973184585571289e-01 -2.890177071094512939e-01
-1.570187509059906006e-01 -7.366649061441421509e-02 1.160394027829170227e-01
3.297374770045280457e-02 -6.676578428596258163e-03 6.798078417778015137e-01
-6.558932065963745117e-01 3.110185265541076660e-02 -3.950346261262893677e-03
-2.289618365466594696e-03 -6.743121892213821411e-02 -2.116007208824157715e-01
-1.837413460016250610e-01 -6.152606569230556488e-03 -7.585235238075256348e-01
3.475525975227355957e-02 -4.398343712091445923e-02 -3.484624028205871582e-01
-5.772592872381210327e-02 -2.428206801414489746e-02 -5.699980854988098145e-01
-7.331791520118713379e-01 7.307206839323043823e-02 -2.603302001953125000e-01
-2.581716775894165039e-01 -4.621031880378723145e-02 -6.860858201980590820e-02
5.589755624532699585e-02 -5.951922386884689331e-02 1.117428317666053772e-01
1.146467402577400208e-02 1.034624800086021423e-01 -3.282124176621437073e-02
4.086621999740600586e-01 4.771178960800170898e-02 9.327279031276702881e-02
-5.695440340787172318e-03 -1.927812583744525909e-02 -5.244910717010498047e-01
-1.206170674413442612e-02 -1.424798928201198578e-02 6.092287302017211914e-01
2.197438329458236694e-01 -5.249800160527229309e-02 -1.008066982030868530e-01
5.205565094947814941e-01 1.041960418224334717e-01 2.989829145371913910e-02
-5.964747071266174316e-01 7.223370671272277832e-02 1.743837594985961914e-01
4.169933497905731201e-01 -1.199856698513031006e-01 1.307876594364643097e-02
6.629841774702072144e-02 -6.418259441852569580e-02 -2.983182072639465332e-01
2.797386944293975830e-01 -8.975245803594589233e-02 -8.005739003419876099e-02
-2.576739490032196045e-01 3.825408220291137695e-02 -7.505344599485397339e-02
-7.251623868942260742e-01 2.179505079984664917e-01 5.263870581984519958e-02
1.780473999679088593e-02 -2.799184760078787804e-03 1.259948909282684326e-01
2.744583971798419952e-02 -6.413017958402633667e-02 -2.953315675258636475e-01
4.442255198955535889e-02 -1.190687268972396851e-01 -1.267449278384447098e-02
4.780218005180358887e-02 -4.238531738519668579e-02 1.200215965509414673e-01
6.111514568328857422e-01 8.911610580980777740e-03 -1.289440393447875977e-01
4.812585711479187012e-01 2.971332147717475891e-02 -1.213988289237022400e-01
1.698878109455108643e-01 4.084774479269981384e-02 -9.860602021217346191e-02
-2.776372730731964111e-01 -1.084058806300163269e-01 3.021267428994178772e-02
-7.240881919860839844e-01 5.530939623713493347e-02 2.127894014120101929e-02
3.297374770045280457e-02 -6.676578428596258163e-03 6.798078417778015137e-01
6.042991578578948975e-02 -5.158105120062828064e-02 -2.593346238136291504e-01
-1.501023322343826294e-01 1.098287552595138550e-01 4.559127241373062134e-02
4.161811769008636475e-01 -1.118640974164009094e-01 4.370497167110443115e-02
5.935197472572326660e-01 -7.526461780071258545e-02 -1.094784513115882874e-01
-7.251623868942260742e-01 2.179505079984664917e-01 5.263870581984519958e-02
1.701236069202423096e-01 -4.914456978440284729e-02 -3.086666762828826904e-01
-1.001677289605140686e-01 -9.732385724782943726e-02 -2.609589397907257080e-01
1.648838669061660767e-01 -5.517026036977767944e-02 -2.439036518335342407e-01
4.683282598853111267e-02 -5.247180536389350891e-02 1.345356553792953491e-01
3.666775673627853394e-02 -5.671596899628639221e-02 -8.791697025299072266e-02
7.430615425109863281e-01 -1.125452667474746704e-01 -5.996302887797355652e-02
-3.674462139606475830e-01 -9.287009388208389282e-02 4.470051825046539307e-02
1.402047723531723022e-01 -1.020658090710639954e-01 2.988534867763519287e-01
-1.796806007623672485e-01 9.738440066576004028e-02 -3.143271431326866150e-02
3.911876976490020752e-01 1.145287416875362396e-02 -1.185693740844726562e-01
-1.727641373872756958e-01 -1.003000978380441666e-02 -6.910358071327209473e-01
3.521517217159271240e-01 1.333918049931526184e-02 1.072890684008598328e-01
-5.774806737899780273e-01 2.803556919097900391e-01 5.122397840023040771e-02
8.088987469673156738e-01 -1.164750680327415466e-01 -4.615635424852371216e-02
5.046006757766008377e-03 -3.308479860424995422e-02 4.443607032299041748e-01
6.756262779235839844e-01 -1.150341406464576721e-01 -6.069659441709518433e-02
-7.617094516754150391e-01 9.334980696439743042e-02 -3.181243836879730225e-01
-6.662417054176330566e-01 1.242222264409065247e-02 4.721401724964380264e-03
1.721671074628829956e-01 -1.170514449477195740e-01 -3.280536532402038574e-01
-3.061034157872200012e-02 -8.851070888340473175e-03 7.413222193717956543e-01
1.178049370646476746e-01 -3.282282873988151550e-02 -3.448207974433898926e-01
1.496362686157226562e-01 -1.190163344144821167e-01 2.903389334678649902e-01
7.006722092628479004e-01 8.866025507450103760e-02 3.705051913857460022e-02
1.811794191598892212e-01 -1.186495423316955566e-01 3.207277879118919373e-02
-5.288822054862976074e-01 1.595013737678527832e-01 5.434161797165870667e-02
-7.088406682014465332e-01 2.200988084077835083e-01 6.049829348921775818e-02
1.829347312450408936e-01 -3.384455665946006775e-02 1.167467758059501648e-01
4.683282598853111267e-02 -5.247180536389350891e-02 1.345356553792953491e-01
2.966368198394775391e-01 1.079424545168876648e-01 -3.043716587126255035e-02
1.490861028432846069e-01 -4.450741782784461975e-02 1.482113301753997803e-01
7.080864310264587402e-01 -1.134884133934974670e-01 1.944503560662269592e-02
-4.454919397830963135e-01 -5.108326673507690430e-02 -2.669076062738895416e-02
1.206343844532966614e-01 -1.276618689298629761e-01 1.225628703832626343e-01
1.216561347246170044e-01 -4.102298989892005920e-02 -2.365418225526809692e-01
2.243809849023818970e-01 -1.094276309013366699e-01 5.745925381779670715e-02
-4.795763492584228516e-01 -6.695964932441711426e-02 5.554675310850143433e-02
-7.602947950363159180e-01 3.163788020610809326e-01 5.648990720510482788e-02
1.317425966262817383e-01 -6.072435900568962097e-02 -1.647575646638870239e-01
-1.224889606237411499e-01 8.245117962360382080e-02 -5.341337248682975769e-02
-7.419033646583557129e-01 2.389722131192684174e-02 6.180822849273681641e-02
3.064206987619400024e-02 -2.949559129774570465e-02 5.505961775779724121e-01
9.233985841274261475e-02 -6.855775415897369385e-02 -3.003093302249908447e-01
7.423279881477355957e-01 1.019167602062225342e-01 -3.675103932619094849e-02
2.609018683433532715e-01 -1.699884422123432159e-02 -1.112861558794975281e-01
6.134307384490966797e-01 1.040650606155395508e-01 1.740154065191745758e-02
-6.144207715988159180e-01 3.234262168407440186e-01 5.279589816927909851e-02
-2.429240942001342773e-01 -9.289629012346267700e-02 -3.208768367767333984e-02
6.036586165428161621e-01 -1.160034760832786560e-01 1.803030818700790405e-02
2.480383515357971191e-01 -1.249634176492691040e-01 2.520889043807983398e-01
-7.627456635236740112e-02 -1.108423694968223572e-01 7.249727100133895874e-02
1.762016862630844116e-01 -6.224389374256134033e-02 1.155154332518577576e-01
1.054653748869895935e-01 -1.510048657655715942e-01 1.827935278415679932e-01
2.073898538947105408e-02 1.208164636045694351e-02 1.258115023374557495e-01
7.756270351819694042e-04 -4.044662043452262878e-02 5.638265013694763184e-01
-6.122986674308776855e-01 4.703062772750854492e-02 -1.820240356028079987e-02
-4.365725442767143250e-02 -1.213742122054100037e-01 2.389723202213644981e-03
-1.712446212768554688e-01 -1.166322603821754456e-01 5.803562700748443604e-02
-1.068221777677536011e-01 2.473558485507965088e-02 -9.072022885084152222e-02
2.277344167232513428e-01 -4.746786504983901978e-02 2.384132444858551025e-01
-5.682849287986755371e-01 -4.110159724950790405e-02 7.385960221290588379e-02
-5.468282699584960938e-01 1.180551275610923767e-01 5.814041569828987122e-02
8.772890269756317139e-02 -3.287521749734878540e-02 3.401163220405578613e-01
5.747615098953247070e-01 1.120556369423866272e-01 -2.289196103811264038e-02
-3.557878434658050537e-01 -2.275212900713086128e-03 -7.280036807060241699e-02
-1.423618942499160767e-02 -2.624696120619773865e-02 5.255240797996520996e-01
-4.237208962440490723e-01 -5.733435042202472687e-03 1.396705806255340576e-01
9.302246570587158203e-01 -7.361410558223724365e-02 -1.070959307253360748e-02
4.240525886416435242e-02 3.301435336470603943e-02 -9.525258839130401611e-02
2.003830224275588989e-01 -8.510484360158443451e-03 1.157774254679679871e-01
2.096835523843765259e-01 -5.763291940093040466e-02 -2.216872125864028931e-01
-6.229876875877380371e-01 1.033838838338851929e-01 6.241079419851303101e-02
-1.560756117105484009e-01 6.764894723892211914e-02 1.152010560035705566e-01
-5.166736245155334473e-01 -4.173035919666290283e-02 -9.714046493172645569e-03
2.164428085088729858e-01 1.138109415769577026e-01 -3.164387540891766548e-03
-2.542681097984313965e-01 -1.712983846664428711e-02 1.391728073358535767e-01
-1.209956407546997070e-01 -1.463055144995450974e-03 -7.493015527725219727e-01
-4.273625016212463379e-01 -3.345159068703651428e-02 1.251827329397201538e-01
2.402835488319396973e-01 -1.203262656927108765e-01 -1.799281314015388489e-02
2.844544649124145508e-01 -1.686784811317920685e-02 1.110878661274909973e-01
-6.628096103668212891e-01 3.802248835563659668e-01 5.483939126133918762e-02
-1.346189230680465698e-01 -2.144217491149902344e-03 -7.442714571952819824e-01
2.756255269050598145e-01 -6.981529295444488525e-02 2.533202767372131348e-01
-3.696731030941009521e-01 -6.462796777486801147e-02 -3.648905083537101746e-02
-4.871215820312500000e-01 4.048096388578414917e-02 1.331209093332290649e-01
1.666380092501640320e-03 -9.624972194433212280e-02 2.459060400724411011e-01
7.259538769721984863e-01 -1.075151339173316956e-01 -7.804008573293685913e-02
6.958508398383855820e-03 -5.648019537329673767e-02 -1.208748519420623779e-01
2.035006731748580933e-01 -6.360621750354766846e-02 1.018659397959709167e-01
-3.828772008419036865e-01 8.562121540307998657e-02 -3.389538452029228210e-02
4.505275785923004150e-01 9.934930503368377686e-02 -6.420721113681793213e-02
2.102861255407333374e-01 -4.579113796353340149e-02 8.289813250303268433e-02
7.756270351819694042e-04 -4.044662043452262878e-02 5.638265013694763184e-01
9.689985513687133789e-01 -2.653514593839645386e-02 -6.942074000835418701e-02
-4.392828643321990967e-01 1.163626927882432938e-02 -6.048700213432312012e-02
1.445275396108627319e-01 -1.089298650622367859e-01 -3.314070999622344971e-01
7.755478620529174805e-01 2.368764206767082214e-02 6.990360468626022339e-02
-4.051984548568725586e-01 1.097239553928375244e-01 5.549435690045356750e-02
-3.060627877712249756e-01 1.090689897537231445e-01 6.686299573630094528e-03
-6.540592312812805176e-01 1.617282480001449585e-01 3.956558555364608765e-02
3.690354526042938232e-02 -4.558155685663223267e-02 -3.287086188793182373e-01
8.820047229528427124e-02 -3.979166224598884583e-02 2.636687159538269043e-01
6.339035928249359131e-02 -3.515449166297912598e-02 3.317327797412872314e-01
-6.244286298751831055e-01 3.990459069609642029e-02 -6.659128516912460327e-02
4.490080773830413818e-01 1.063181385397911072e-01 -4.447963833808898926e-02
6.623697876930236816e-01 -5.574663355946540833e-02 7.792039215564727783e-02
3.181720972061157227e-01 1.136799529194831848e-01 3.280476899817585945e-03
6.021128892898559570e-01 -1.982829347252845764e-02 9.198906272649765015e-02
-8.341494016349315643e-03 -1.568890921771526337e-02 5.917542576789855957e-01
-2.762369066476821899e-02 -1.175230145454406738e-01 -1.534675154834985733e-02
-2.322232536971569061e-02 -2.103343792259693146e-02 -5.089290142059326172e-01
-2.757130004465579987e-02 -3.214165568351745605e-02 -4.795079827308654785e-01
1.744463741779327393e-01 -1.159248948097229004e-01 4.449092969298362732e-02
1.490075141191482544e-01 4.064858891069889069e-03 1.186592727899551392e-01
-4.264455437660217285e-01 -4.906596615910530090e-02 -3.703922405838966370e-02
-6.806508898735046387e-01 -2.563399029895663261e-03 7.812997698783874512e-02
-6.776642799377441406e-01 3.808536529541015625e-01 4.878750443458557129e-02
-2.581716775894165039e-01 -4.621031880378723145e-02 -6.860858201980590820e-02
-1.055384352803230286e-01 -1.854456402361392975e-02 -6.272944808006286621e-01
2.810486257076263428e-01 -1.042665019631385803e-01 2.699825763702392578e-01
8.399703502655029297e-01 7.427720725536346436e-02 -4.893340915441513062e-02
7.114516198635101318e-02 -3.376597166061401367e-02 -3.388475179672241211e-01
8.399703502655029297e-01 7.427720725536346436e-02 -4.893340915441513062e-02
-1.970502585172653198e-01 2.388142980635166168e-03 -8.145099878311157227e-01
2.111756708472967148e-03 -2.480603009462356567e-02 4.900773465633392334e-01
1.849520355463027954e-01 -6.541392207145690918e-02 -3.232331275939941406e-01
4.492032900452613831e-02 -2.705912850797176361e-02 -4.224473536014556885e-01
2.476453632116317749e-01 -4.676049575209617615e-02 -1.867644190788269043e-01
-6.144731640815734863e-01 6.219963356852531433e-02 2.765322625637054443e-01
-1.683627516031265259e-01 9.227566421031951904e-02 -3.850634396076202393e-02
-3.722405433654785156e-01 8.742891252040863037e-02 1.041190326213836670e-01
9.249705076217651367e-02 -2.711151912808418274e-02 5.317331552505493164e-01
2.453136742115020752e-01 -4.416682198643684387e-02 1.004774197936058044e-01
-5.968939065933227539e-01 6.777994334697723389e-02 1.273310184478759766e-01
5.144378542900085449e-02 -7.550039142370223999e-02 1.856491863727569580e-01
7.006722092628479004e-01 8.866025507450103760e-02 3.705051913857460022e-02
1.030289009213447571e-01 -1.240726709365844727e-01 1.574594527482986450e-01
1.402047723531723022e-01 -1.020658090710639954e-01 2.988534867763519287e-01
1.158138364553451538e-01 -1.165012642741203308e-01 -2.784350328147411346e-02
1.872837096452713013e-01 -4.091819003224372864e-02 -2.288656234741210938e-01
-6.494483351707458496e-01 6.314278393983840942e-02 3.161707818508148193e-01
2.653032541275024414e-01 -7.183259725570678711e-02 2.443603277206420898e-01
7.828049063682556152e-01 4.304843395948410034e-02 -1.138012185692787170e-01
1.801432669162750244e-02 -5.066408589482307434e-02 2.717902958393096924e-01
-7.602947950363159180e-01 3.163788020610809326e-01 5.648990720510482788e-02
2.407551258802413940e-01 -6.507334113121032715e-02 8.672312647104263306e-02
-5.282678827643394470e-02 -1.213480159640312195e-01 3.335651010274887085e-02
1.628522016108036041e-02 -6.619987636804580688e-02 -2.127010822296142578e-01
3.271176293492317200e-02 -9.289629012346267700e-02 8.834745734930038452e-02
7.014843225479125977e-01 9.536711126565933228e-02 -7.636337727308273315e-02
4.626825451850891113e-03 -6.545592565089464188e-03 6.829778552055358887e-01
-1.617488637566566467e-02 -4.560775309801101685e-02 -2.719885706901550293e-01
-6.069803237915039062e-01 -8.117508143186569214e-03 1.029400900006294250e-01
5.778385698795318604e-02 -6.868875026702880859e-02 1.950020939111709595e-01
-6.558932065963745117e-01 3.110185265541076660e-02 -3.950346261262893677e-03
1.046008169651031494e-01 -4.220192879438400269e-02 3.526130914688110352e-01
-2.736812829971313477e-01 -9.669509530067443848e-02 -2.032449468970298767e-02
7.781939506530761719e-01 -1.458175331354141235e-01 -1.982671953737735748e-02
-6.262363195419311523e-01 5.829603597521781921e-02 -1.567931771278381348e-01
-1.368602272123098373e-02 -3.290141373872756958e-02 -4.743992388248443604e-01
-3.729479312896728516e-01 1.281154006719589233e-01 4.016815498471260071e-02
-1.255017966032028198e-01 -9.004064649343490601e-02 9.929848462343215942e-02
3.494008779525756836e-01 9.206607937812805176e-02 5.895257368683815002e-02
-1.209956407546997070e-01 -1.463055144995450974e-03 -7.493015527725219727e-01
-7.213636040687561035e-01 2.404027730226516724e-01 5.080480128526687622e-02
4.505275785923004150e-01 9.934930503368377686e-02 -6.420721113681793213e-02
-4.967102706432342529e-01 7.666128128767013550e-02 1.126859858632087708e-01
7.423279881477355957e-01 1.019167602062225342e-01 -3.675103932619094849e-02
1.612422764301300049e-01 -1.156105101108551025e-01 -3.426216542720794678e-02
-8.708275854587554932e-03 -1.223068777471780777e-02 6.275677680969238281e-01
-4.373585060238838196e-02 -1.678925380110740662e-02 -5.620074868202209473e-01
5.650418400764465332e-01 -6.866255402565002441e-02 -1.119149252772331238e-01
-5.680229663848876953e-01 4.519671946763992310e-02 1.241347864270210266e-01
1.690756678581237793e-01 -5.896906927227973938e-02 -1.977940499782562256e-01
1.418814808130264282e-01 -2.713771350681781769e-02 4.019975364208221436e-01
2.288609594106674194e-01 -4.545056074857711792e-02 -1.133296489715576172e-01
2.183932997286319733e-02 1.083616316318511963e-01 -1.395822502672672272e-02
-6.544523239135742188e-01 2.962320446968078613e-01 4.218545183539390564e-02
-1.579881161451339722e-01 -5.104662850499153137e-03 -7.247796654701232910e-01
-6.351582705974578857e-02 -2.519901655614376068e-02 -4.873151779174804688e-01
4.094219505786895752e-01 1.068159118294715881e-01 -4.007826372981071472e-02
-1.078701242804527283e-01 -2.648275531828403473e-02 1.330161243677139282e-01
-5.889033079147338867e-01 7.464398443698883057e-02 2.217247039079666138e-01
5.773027539253234863e-01 -1.176802068948745728e-01 -4.728289321064949036e-02
6.956682801246643066e-01 -8.215484023094177246e-02 5.908356979489326477e-02
-1.958071812987327576e-02 -1.089036539196968079e-01 -3.045534789562225342e-01
-7.853406667709350586e-01 9.091334044933319092e-02 -3.277654647827148438e-01
4.520995318889617920e-01 5.926538258790969849e-02 8.525600284337997437e-02
-1.068221777677536011e-01 2.473558485507965088e-02 -9.072022885084152222e-02
-3.247167333029210567e-04 -1.689405366778373718e-02 -5.545670986175537109e-01
-4.582244753837585449e-01 1.221683025360107422e-01 5.318887531757354736e-02
4.733466207981109619e-01 -1.100563928484916687e-01 4.276181757450103760e-02
8.899573087692260742e-01 2.743403986096382141e-02 2.143613249063491821e-02
1.469116210937500000e-01 -8.605845272541046143e-02 2.328067272901535034e-01
-2.880262956023216248e-02 -1.489250338636338711e-03 1.285885572433471680e-01
5.783769488334655762e-01 3.228079155087471008e-02 9.044334292411804199e-02
4.600630141794681549e-03 -7.987557351589202881e-02 1.905483305454254150e-01
-5.023429989814758301e-01 2.274448797106742859e-02 1.324921548366546631e-01
-4.908941984176635742e-01 1.061871424317359924e-01 5.439401417970657349e-02
-5.756467580795288086e-01 6.432171911001205444e-02 1.133409515023231506e-01
2.181313000619411469e-02 -1.091918349266052246e-01 2.500192224979400635e-01
-6.706168055534362793e-01 4.236726090312004089e-02 1.322825551033020020e-01
4.854503870010375977e-01 5.724809318780899048e-02 8.436524868011474609e-02
4.042084217071533203e-01 -1.246228441596031189e-01 -6.544011179357767105e-03
-1.624942719936370850e-01 -3.365162701811641455e-04 -8.399488925933837891e-01
-1.025256067514419556e-01 -2.746784593909978867e-03 -7.322462797164916992e-01
-7.135039567947387695e-01 1.812200397253036499e-01 5.829761177301406860e-02
-6.158354282379150391e-01 6.667959690093994141e-02 -1.521560251712799072e-01
-9.348705410957336426e-02 7.304586470127105713e-02 -6.685327738523483276e-02
1.859069801867008209e-02 -6.981529295444488525e-02 2.740957736968994141e-01
-7.070591449737548828e-01 1.485241353511810303e-01 5.172175541520118713e-02
-7.068495154380798340e-01 7.412000745534896851e-02 2.564902901649475098e-01
-1.068221777677536011e-01 2.473558485507965088e-02 -9.072022885084152222e-02
6.776698231697082520e-01 -4.880399256944656372e-02 -1.253548264503479004e-01
8.784561157226562500e-01 4.118832200765609741e-02 -8.110533654689788818e-02
9.357119351625442505e-02 -4.872538894414901733e-02 1.334615051746368408e-01
-2.882739305496215820e-01 7.427720725536346436e-02 1.163275912404060364e-01
6.696268320083618164e-01 5.030545219779014587e-02 -1.181240007281303406e-01
-5.023429989814758301e-01 2.274448797106742859e-02 1.324921548366546631e-01
-9.000264853239059448e-02 -1.340962667018175125e-02 -6.967994570732116699e-01
-6.993829011917114258e-01 2.335125058889389038e-01 6.209641322493553162e-02
2.343364506959915161e-01 -6.847916543483734131e-02 -9.394264966249465942e-02
-5.404357910156250000e-01 6.369295716285705566e-02 -2.852466702461242676e-02
9.454460144042968750e-01 1.863129809498786926e-02 -4.557998105883598328e-02
2.765542455017566681e-02 -2.818565815687179565e-02 -5.410223603248596191e-01
9.317821264266967773e-02 -1.100825890898704529e-01 2.940853238105773926e-01
6.605882644653320312e-01 -9.273909777402877808e-02 4.933767765760421753e-02
-7.132943868637084961e-01 8.779569715261459351e-02 -2.538853287696838379e-01
2.076662480831146240e-01 -5.868088081479072571e-02 2.600795030593872070e-01
-3.899389877915382385e-02 -3.573086485266685486e-02 5.679396390914916992e-01
3.064206987619400024e-02 -2.949559129774570465e-02 5.505961775779724121e-01
7.872062325477600098e-01 -1.593098193407058716e-01 -2.084846608340740204e-02
3.164691925048828125e-01 -1.073317453265190125e-01 5.494418367743492126e-02
-2.536131441593170166e-01 6.345716863870620728e-02 -6.326406449079513550e-02
1.062775328755378723e-01 -3.038634546101093292e-02 3.591889441013336182e-01
-4.615517258644104004e-01 -3.853411972522735596e-02 1.152010560035705566e-01
-1.330993920564651489e-01 -1.917332597076892853e-02 1.344308555126190186e-01
-4.143155813217163086e-01 1.371015310287475586e-01 3.382808715105056763e-02
2.453778870403766632e-02 -4.854200407862663269e-02 -2.842233479022979736e-01
1.969772130250930786e-01 1.114006713032722473e-01 -1.170514151453971863e-02
-8.269321918487548828e-02 -3.442092984914779663e-02 -4.211374223232269287e-01
-5.873051285743713379e-01 2.612044811248779297e-01 5.413202568888664246e-02
3.799484968185424805e-01 2.455218881368637085e-02 1.057433485984802246e-01
-7.011120319366455078e-01 6.068011373281478882e-02 9.599745273590087891e-02
3.506964072585105896e-02 -8.249543607234954834e-02 1.002416387200355530e-01
4.627623558044433594e-01 6.291741505265235901e-03 1.011061817407608032e-01
-1.624942719936370850e-01 -3.365162701811641455e-04 -8.399488925933837891e-01
-4.294990003108978271e-02 -2.580158412456512451e-02 -4.695524871349334717e-01
1.648838669061660767e-01 -5.517026036977767944e-02 -2.439036518335342407e-01
7.239365577697753906e-01 -1.063361912965774536e-01 2.929572202265262604e-02
2.449469119310379028e-01 -4.309268295764923096e-02 1.510407924652099609e-01
-9.966994076967239380e-02 -6.001701205968856812e-02 -3.860574364662170410e-01
1.775640100240707397e-01 -7.167539000511169434e-02 -2.762327790260314941e-01
5.989150144159793854e-03 -8.353293873369693756e-03 7.502821087837219238e-01
8.647136390209197998e-02 -1.156367063522338867e-01 2.468230128288269043e-01
-7.015836238861083984e-01 8.944621682167053223e-02 3.818507790565490723e-01
-7.743895649909973145e-01 3.712649643421173096e-01 5.939795076847076416e-02
9.619105607271194458e-02 -2.016888000071048737e-02 4.901559352874755859e-01
1.628522016108036041e-02 -6.619987636804580688e-02 -2.127010822296142578e-01
3.383830562233924866e-02 -2.873583324253559113e-02 4.227992296218872070e-01
-5.241140723228454590e-01 5.381606519222259521e-02 1.327017396688461304e-01
9.176348894834518433e-02 -1.376435607671737671e-01 1.435741782188415527e-01
5.919216275215148926e-01 1.077852621674537659e-01 4.799997899681329727e-03
-7.195296883583068848e-01 1.413457095623016357e-01 5.609692260622978210e-02
5.490868687629699707e-01 9.880959056317806244e-03 -1.271625310182571411e-01
-1.947591826319694519e-02 -1.673685386776924133e-02 1.280645877122879028e-01
-5.657698512077331543e-01 1.738582253456115723e-01 3.542620316147804260e-02
2.495696581900119781e-02 1.054273843765258789e-01 5.329366773366928101e-02
1.789263635873794556e-01 -6.732641905546188354e-02 -9.124419838190078735e-02
-6.333099603652954102e-01 6.550066173076629639e-02 -9.373464621603488922e-03
2.652770578861236572e-01 -4.510998353362083435e-02 6.358973681926727295e-02
-2.882739305496215820e-01 7.427720725536346436e-02 1.163275912404060364e-01
-3.218225762248039246e-02 -1.062313914299011230e-01 2.799380719661712646e-01
9.443574398756027222e-02 1.105361133813858032e-01 2.908613346517086029e-02
-3.157562911510467529e-01 1.095667704939842224e-01 5.599213019013404846e-02
-8.044014126062393188e-02 -9.886959195137023926e-02 8.690652251243591309e-02
3.936621546745300293e-02 -2.747829072177410126e-02 4.319163560867309570e-01
6.018509268760681152e-01 5.811265110969543457e-02 -1.126222833991050720e-01
6.472269296646118164e-01 1.075494661927223206e-01 -4.055141005665063858e-03
2.023217380046844482e-01 -4.395724087953567505e-02 -1.571599692106246948e-01
6.446316256187856197e-04 -3.444714471697807312e-02 3.940593302249908447e-01
6.445022821426391602e-01 -6.061957776546478271e-02 -1.183597892522811890e-01
5.599855184555053711e-01 5.344928428530693054e-02 8.179778605699539185e-02
1.738962233066558838e-01 -6.761460751295089722e-02 2.865401208400726318e-01
1.232018545269966125e-01 -6.258446723222732544e-02 -1.373014003038406372e-01
-2.736812829971313477e-01 -9.669509530067443848e-02 -2.032449468970298767e-02
-1.965263187885284424e-01 -7.383945398032665253e-03 -7.299931645393371582e-01
1.757825165987014771e-01 -1.201952770352363586e-01 -1.497997343540191650e-02
3.765688538551330566e-01 4.462035000324249268e-02 9.654762595891952515e-02
-1.612249575555324554e-02 -1.119427010416984558e-01 -3.567689284682273865e-02
1.732936352491378784e-01 -4.081340879201889038e-02 2.673889398574829102e-01
-4.866762161254882812e-01 2.672668173909187317e-02 1.339330673217773438e-01
-6.351582705974578857e-02 -2.519901655614376068e-02 -4.873151779174804688e-01
6.345992088317871094e-01 1.008164286613464355e-01 2.798579260706901550e-02
2.326597571372985840e-01 1.044842302799224854e-01 4.546027630567550659e-02
-5.376993119716644287e-02 -9.297489374876022339e-02 -2.892273068428039551e-01
-4.916539192199707031e-01 9.162069857120513916e-02 9.424214065074920654e-02
-6.122986674308776855e-01 4.619226232171058655e-02 -1.231279298663139343e-01
9.267140030860900879e-01 -7.998037338256835938e-02 -3.612226992845535278e-02
-5.457017421722412109e-01 2.549954056739807129e-01 4.239504039287567139e-02
-3.307943046092987061e-01 -8.951666206121444702e-02 8.017347007989883423e-02
3.291231393814086914e-01 -7.568379491567611694e-02 8.934299647808074951e-02
8.484704792499542236e-02 -1.522362083196640015e-01 1.439671516418457031e-01
6.089507341384887695e-01 1.089641973376274109e-01 -3.373976331204175949e-03
-6.973918676376342773e-01 7.412000745534896851e-02 -1.063084155321121216e-01
1.305636614561080933e-01 -4.594833031296730042e-02 3.101713061332702637e-01
-1.837413460016250610e-01 -6.152606569230556488e-03 -7.585235238075256348e-01
-8.788055181503295898e-02 -8.833772689104080200e-02 -2.965891063213348389e-01
3.268176317214965820e-01 8.407549560070037842e-02 -7.646816968917846680e-02
1.677133440971374512e-01 -1.013322472572326660e-01 -3.353892862796783447e-01
2.682636976242065430e-01 -6.541392207145690918e-02 -1.376419812440872192e-01
7.591213583946228027e-01 -1.830981820821762085e-01 -1.752123981714248657e-02
4.612546414136886597e-02 -1.749662123620510101e-02 5.398285388946533203e-01
1.782975792884826660e-01 -4.400963336229324341e-02 -1.634214371442794800e-01
-6.540592312812805176e-01 1.617282480001449585e-01 3.956558555364608765e-02
-7.011120319366455078e-01 6.068011373281478882e-02 9.599745273590087891e-02
-2.762369066476821899e-02 -1.175230145454406738e-01 -1.534675154834985733e-02
-1.098874062299728394e-01 -1.094695832580327988e-02 -6.459740996360778809e-01
-1.197904869914054871e-01 -2.501563169062137604e-02 -5.285780429840087891e-01
-7.120892405509948730e-01 6.429552286863327026e-02 2.516173422336578369e-01
2.341268807649612427e-01 -6.179851666092872620e-02 -3.034531474113464355e-01
1.671631634235382080e-01 -6.200809776782989502e-02 1.170873492956161499e-01
-4.064821600914001465e-01 1.056369766592979431e-01 7.309983670711517334e-02
4.913830757141113281e-02 -5.632300302386283875e-02 -1.910872012376785278e-01
2.870337292551994324e-02 -4.757264256477355957e-02 2.327281236648559570e-01
-1.376317590475082397e-01 -4.838481172919273376e-02 -8.097434043884277344e-02
-1.244800463318824768e-01 -1.241408288478851318e-02 -6.397912502288818359e-01
-7.268128991127014160e-01 6.777994334697723389e-02 -2.216086089611053467e-01
-6.144731640815734863e-01 6.219963356852531433e-02 2.765322625637054443e-01
6.259798407554626465e-01 1.113482713699340820e-01 -2.265617251396179199e-02
2.111756708472967148e-03 -2.480603009462356567e-02 4.900773465633392334e-01
5.144522786140441895e-01 7.103899493813514709e-03 -1.254596114158630371e-01
4.600630141794681549e-03 -7.987557351589202881e-02 1.905483305454254150e-01
2.423008382320404053e-01 -1.136455982923507690e-01 -3.097670376300811768e-01
1.771710515022277832e-01 -7.196357101202011108e-02 2.496000379323959351e-01
-2.859304845333099365e-02 5.630493909120559692e-02 -8.005739003419876099e-02
-8.023056387901306152e-02 -1.041617020964622498e-01 -2.638146281242370605e-01
-5.830609798431396484e-01 1.932713985443115234e-01 3.621216490864753723e-02
-1.947591826319694519e-02 -1.673685386776924133e-02 1.280645877122879028e-01
-2.196858972311019897e-01 9.604827314615249634e-02 8.549179881811141968e-02
2.060419321060180664e-01 -9.425861388444900513e-02 7.755360752344131470e-02
-4.454919397830963135e-01 -5.108326673507690430e-02 -2.669076062738895416e-02
6.361187100410461426e-01 6.280220299959182739e-02 7.074196636676788330e-02
2.299088835716247559e-01 -8.791854232549667358e-02 -3.027457892894744873e-01
2.733462154865264893e-01 -1.163702681660652161e-01 2.655550241470336914e-01
5.650418400764465332e-01 -6.866255402565002441e-02 -1.119149252772331238e-01
1.749965548515319824e-01 -3.987024724483489990e-02 -2.601991891860961914e-01
-7.130848169326782227e-01 9.366418421268463135e-02 5.635891109704971313e-02
4.216947034001350403e-02 -5.873327329754829407e-02 -1.542519181966781616e-01
-5.845281481742858887e-01 6.591983884572982788e-02 -1.704966276884078979e-02
1.020595580339431763e-01 -1.677719950675964355e-01 1.637209355831146240e-01
3.095645643770694733e-02 -3.190585970878601074e-02 4.666557610034942627e-01
3.475525975227355957e-02 -2.145260944962501526e-02 -5.253555774688720703e-01
-1.190451625734567642e-02 -3.245603665709495544e-02 -3.884153068065643311e-01
1.859069801867008209e-02 -6.981529295444488525e-02 2.740957736968994141e-01
5.989150144159793854e-03 -8.353293873369693756e-03 7.502821087837219238e-01
-1.473396643996238708e-02 -2.663994766771793365e-02 -5.522878170013427734e-01
1.670059710741043091e-01 -3.190585970878601074e-02 3.325187563896179199e-01
3.937289416790008545e-01 8.082686364650726318e-02 7.058476656675338745e-02
-6.069803237915039062e-01 -8.117508143186569214e-03 1.029400900006294250e-01
3.381092548370361328e-01 1.114006713032722473e-01 -1.833339780569076538e-02
-6.711146235466003418e-01 4.206231534481048584e-01 5.271730199456214905e-02
-5.830609798431396484e-01 1.932713985443115234e-01 3.621216490864753723e-02
-7.031031250953674316e-01 6.154466792941093445e-02 2.603938877582550049e-01
5.152643918991088867e-01 2.499756589531898499e-02 -1.254858076572418213e-01
-6.628096103668212891e-01 3.802248835563659668e-01 5.483939126133918762e-02
-8.361019194126129150e-02 -5.676838010549545288e-02 -3.952007591724395752e-01
4.387237876653671265e-02 -3.345159068703651428e-02 4.503339827060699463e-01
2.145564854145050049e-01 -4.259491711854934692e-02 -1.916111707687377930e-01
1.701236069202423096e-01 -4.914456978440284729e-02 -3.086666762828826904e-01
2.966368198394775391e-01 1.079424545168876648e-01 -3.043716587126255035e-02
1.380302906036376953e-01 -1.236534863710403442e-01 2.311127260327339172e-03
9.048643708229064941e-01 3.581760823726654053e-02 -2.962500788271427155e-02
4.717341065406799316e-02 1.047462075948715210e-01 -2.970360405743122101e-02
-2.448889762163162231e-01 5.127480253577232361e-02 1.272000223398208618e-01
1.594083607196807861e-01 -1.200642809271812439e-01 -2.773331105709075928e-01
-1.986483931541442871e-01 8.124604076147079468e-02 1.029924899339675903e-01
-7.190318703651428223e-01 5.662979092448949814e-03 4.281421750783920288e-02
1.418814808130264282e-01 -2.713771350681781769e-02 4.019975364208221436e-01
-1.140674017369747162e-02 -3.662161529064178467e-02 -4.272679090499877930e-01
-5.419028997421264648e-01 1.331979334354400635e-01 5.787843093276023865e-02
8.005270361900329590e-02 -6.072435900568962097e-02 1.138125211000442505e-01
2.027408927679061890e-01 1.425612904131412506e-02 1.156464293599128723e-01
-4.273625016212463379e-01 -3.345159068703651428e-02 1.251827329397201538e-01
4.002118110656738281e-02 -1.267607416957616806e-02 5.980942845344543457e-01
-4.392828643321990967e-01 1.163626927882432938e-02 -6.048700213432312012e-02
-7.031569723039865494e-03 -9.008261375129222870e-03 7.422391772270202637e-01
6.996766328811645508e-01 -6.688104569911956787e-02 6.888186186552047729e-02
1.762016862630844116e-01 -6.224389374256134033e-02 1.155154332518577576e-01
-7.242454290390014648e-01 2.572222650051116943e-01 6.049829348921775818e-02
7.717084884643554688e-02 -9.928875416517257690e-02 7.844436168670654297e-02
2.464664280414581299e-01 -7.442624866962432861e-02 -3.226043581962585449e-01
1.584652215242385864e-01 -4.605313017964363098e-02 1.144674867391586304e-01
6.327129006385803223e-01 -3.845553100109100342e-02 8.860943466424942017e-02
-1.633850187063217163e-01 -1.060218065977096558e-01 8.268854767084121704e-02
-8.036155998706817627e-02 3.698077518492937088e-03 -9.218735247850418091e-02
-3.096258044242858887e-01 -4.269969835877418518e-02 -6.339505314826965332e-02
-4.866762161254882812e-01 2.672668173909187317e-02 1.339330673217773438e-01
4.412008821964263916e-01 -1.221077740192413330e-01 -2.139863744378089905e-02
-3.359292447566986084e-01 -9.462540596723556519e-02 1.056369766592979431e-02
-7.315286397933959961e-01 3.355299830436706543e-01 4.881370440125465393e-02
9.072222113609313965e-01 -5.069027841091156006e-02 -9.155858308076858521e-02
-5.224897265434265137e-01 1.962318420410156250e-01 3.825565427541732788e-02
9.178969264030456543e-02 -1.854456402361392975e-02 5.142062306404113770e-01
3.692974150180816650e-02 -2.954798191785812378e-02 5.598704814910888672e-01
-1.157820969820022583e-01 -4.002743959426879883e-02 -5.671948194503784180e-01
-7.113294601440429688e-01 6.920513696968555450e-03 7.658425718545913696e-02
-4.233802855014801025e-01 1.306042671203613281e-01 4.622004181146621704e-02
-5.682849287986755371e-01 -4.110159724950790405e-02 7.385960221290588379e-02
2.734104357659816742e-02 1.110338941216468811e-01 3.094623796641826630e-02
-4.612373113632202148e-01 -3.552128374576568604e-02 -3.834915533661842346e-02
8.023608475923538208e-02 -4.875158146023750305e-02 -1.504269242286682129e-01
6.486926693469285965e-03 -2.129541896283626556e-02 -9.706030040979385376e-02
-1.098874062299728394e-01 -1.094695832580327988e-02 -6.459740996360778809e-01
9.883712232112884521e-02 -4.002743959426879883e-02 -2.931570708751678467e-01
2.860001623630523682e-01 -4.791323840618133545e-02 1.101447194814682007e-01
3.464142084121704102e-01 -6.769321113824844360e-02 4.648202657699584961e-02
2.164428085088729858e-01 1.138109415769577026e-01 -3.164387540891766548e-03
-1.525793783366680145e-02 -4.191374406218528748e-02 -4.027197957038879395e-01
-5.376993119716644287e-02 -9.297489374876022339e-02 -2.892273068428039551e-01
-3.262095749378204346e-01 1.125534102320671082e-01 4.336439073085784912e-02
-3.242708444595336914e-01 1.078900545835494995e-01 6.372073292732238770e-02
8.081913590431213379e-01 -8.687059581279754639e-02 3.144401311874389648e-02
-4.200674593448638916e-02 -2.658753655850887299e-02 5.545521974563598633e-01
2.401263713836669922e-01 -5.991221219301223755e-02 1.485781222581863403e-01
-7.148019969463348389e-02 -3.911048918962478638e-02 5.657389760017395020e-01
-3.260143846273422241e-02 -1.453617494553327560e-02 6.224590539932250977e-01
-7.924143075942993164e-01 8.533302694559097290e-02 -3.111293613910675049e-01
1.344672590494155884e-01 -2.561819925904273987e-02 4.514081478118896484e-01
2.064873129129409790e-01 1.046152263879776001e-01 -3.918751329183578491e-02
6.928387880325317383e-01 -1.148769482970237732e-01 -6.119437143206596375e-02
-4.615517258644104004e-01 -3.853411972522735596e-02 1.152010560035705566e-01
6.855149567127227783e-02 -5.608720704913139343e-02 -2.068849653005599976e-01
-5.111195445060729980e-01 1.064229235053062439e-01 4.543408378958702087e-02
8.068146556615829468e-02 -5.278618633747100830e-02 8.323871344327926636e-02
7.496111989021301270e-01 -5.104662850499153137e-03 -1.284200549125671387e-01
-9.652610868215560913e-02 -2.982570556923747063e-03 -7.474938631057739258e-01
-5.732626914978027344e-01 2.025561407208442688e-02 1.230344474315643311e-01
3.690354526042938232e-02 1.088332012295722961e-01 -1.293647848069667816e-02
-6.522253751754760742e-01 7.954312860965728760e-02 3.489452600479125977e-01
-6.955579519271850586e-01 8.014569431543350220e-02 -2.639456093311309814e-01
1.757039278745651245e-01 -5.388652160763740540e-02 2.186594605445861816e-01
1.378730833530426025e-01 -1.561921834945678711e-01 1.705587804317474365e-01
7.396819591522216797e-01 -9.750724583864212036e-02 3.629075735807418823e-02
-3.543207049369812012e-01 -8.398875594139099121e-02 -1.589692384004592896e-02
4.064352810382843018e-01 -9.258190542459487915e-02 -8.362039923667907715e-02
-4.881957471370697021e-01 -1.029199082404375076e-02 1.289553344249725342e-01
-1.260519772768020630e-01 -2.050946652889251709e-02 -5.909832119941711426e-01
-4.975486099720001221e-01 1.619378477334976196e-01 3.610736876726150513e-02
4.737657904624938965e-01 1.037768721580505371e-01 -5.702878534793853760e-02
1.527015119791030884e-01 -1.301507502794265747e-01 -2.980038225650787354e-01
-6.263935565948486328e-01 6.521247327327728271e-02 1.068960875272750854e-01
-2.639877796173095703e-01 1.040388494729995728e-01 -1.576593145728111267e-02
-1.947710067033767700e-01 8.266510121757164598e-05 -8.368573784828186035e-01
-5.887866392731666565e-02 -1.126500666141510010e-01 -2.779356837272644043e-01
-5.226207375526428223e-01 2.493888884782791138e-01 4.624624177813529968e-02
-5.774806737899780273e-01 2.803556919097900391e-01 5.122397840023040771e-02
5.650418400764465332e-01 -6.866255402565002441e-02 -1.119149252772331238e-01
-1.140674017369747162e-02 -3.662161529064178467e-02 -4.272679090499877930e-01
-6.932262182235717773e-01 6.293319165706634521e-02 -2.058370262384414673e-01
4.300140738487243652e-01 -9.748104959726333618e-02 6.096987053751945496e-02
1.928378343582153320e-01 -5.865466594696044922e-02 1.618608236312866211e-01
7.389221787452697754e-01 1.402034331113100052e-02 7.951850444078445435e-02
3.381092548370361328e-01 1.114006713032722473e-01 -1.833339780569076538e-02
6.509209275245666504e-01 -7.593536283820867538e-03 -1.300967782735824585e-01
2.717481255531311035e-01 2.381862699985504150e-02 1.117952316999435425e-01
-2.382489293813705444e-02 -3.918909654021263123e-02 -3.338435590267181396e-01
1.206343844532966614e-01 -1.276618689298629761e-01 1.225628703832626343e-01
1.573910713195800781e-01 -4.801801964640617371e-02 7.891593873500823975e-02
2.003830224275588989e-01 -8.510484360158443451e-03 1.157774254679679871e-01
6.194944307208061218e-02 9.188268333673477173e-02 -5.184145271778106689e-02
-5.917589068412780762e-01 7.150014489889144897e-02 1.656334251165390015e-01
