-1.917642056941986084e-01 4.769843071699142456e-02 7.535450458526611328e-01
-1.707051247358322144e-01 9.278512746095657349e-02 2.188211306929588318e-02
-3.208841979503631592e-01 -7.662617415189743042e-02 -1.637941785156726837e-02
7.880673557519912720e-02 8.535102754831314087e-02 4.355011507868766785e-02
9.738931059837341309e-01 2.839005738496780396e-02 -6.103609222918748856e-03
5.990417599678039551e-01 4.944912344217300415e-02 -6.996586173772811890e-02
2.196487486362457275e-01 -4.993445053696632385e-02 -1.045230254530906677e-01
7.459477782249450684e-01 5.457434058189392090e-02 -6.758085638284683228e-02
-3.298391774296760559e-02 1.885004900395870209e-02 -4.790445566177368164e-01
1.723546385765075684e-01 -1.141265332698822021e-01 -2.345817834138870239e-01
-1.900896281003952026e-01 -6.553845852613449097e-02 4.999469965696334839e-02
2.867093496024608612e-02 5.604593828320503235e-02 -6.679431349039077759e-02
-2.913000285625457764e-01 -5.858641862869262695e-02 -5.418554879724979401e-03
-5.012563467025756836e-01 3.800618648529052734e-02 7.620435208082199097e-02
3.349915146827697754e-01 -8.068576455116271973e-02 4.705019760876893997e-03
-1.589069813489913940e-01 2.166637964546680450e-02 8.493245393037796021e-02
6.139099597930908203e-01 7.010222971439361572e-02 -5.710206925868988037e-02
-6.751078367233276367e-01 8.337198197841644287e-02 -3.440817818045616150e-04
-1.146068349480628967e-01 2.197084575891494751e-02 5.692148208618164062e-01
-6.796495318412780762e-01 3.351527824997901917e-02 -1.396383792161941528e-01
4.857795238494873047e-01 -2.386625157669186592e-03 8.356233686208724976e-02
2.544342577457427979e-01 -7.989920675754547119e-02 -6.052864249795675278e-03
1.770485490560531616e-01 -3.110814280807971954e-02 2.023050189018249512e-01
-1.632456481456756592e-01 2.120967954397201538e-02 6.543897986412048340e-01
3.253500461578369141e-01 -6.947116553783416748e-02 -3.525646030902862549e-02
2.924928069114685059e-01 -5.275077000260353088e-02 -2.119749933481216431e-01
8.880488574504852295e-03 7.736945524811744690e-03 -3.604794740676879883e-01
-7.185707092285156250e-01 5.142816901206970215e-02 -2.944618836045265198e-02
-2.402000576257705688e-01 -6.936968863010406494e-02 -4.347710683941841125e-02
6.354764699935913086e-01 9.456119686365127563e-02 4.932065494358539581e-04
2.867093496024608612e-02 5.604593828320503235e-02 -6.679431349039077759e-02
-2.038921862840652466e-01 -5.980430170893669128e-02 2.236418798565864563e-02
4.113623499870300293e-01 -6.670558452606201172e-02 -3.974736481904983521e-02
2.691756188869476318e-01 -1.190741509199142456e-01 -2.588631510734558105e-01
-2.346928045153617859e-02 -6.236691027879714966e-02 3.241164609789848328e-02
-1.091517731547355652e-01 -2.513489220291376114e-03 4.299966692924499512e-01
2.924928069114685059e-01 -5.275077000260353088e-02 -2.119749933481216431e-01
-7.826359272003173828e-01 2.274616658687591553e-01 4.933371208608150482e-03
3.055596053600311279e-01 -6.541159003973007202e-02 2.181881219148635864e-01
-7.888013720512390137e-01 5.827870592474937439e-02 -2.727418243885040283e-01
2.860228419303894043e-01 -9.420922398567199707e-02 -2.233418375253677368e-01
6.157889217138290405e-02 -2.319196984171867371e-02 1.187030673027038574e-01
2.016343623399734497e-01 -1.405791379511356354e-02 6.440620124340057373e-02
-4.391941055655479431e-02 1.343111740425229073e-03 -4.882039725780487061e-01
-5.812807679176330566e-01 1.053698286414146423e-01 1.538678724318742752e-02
-2.372315078973770142e-01 -8.060963451862335205e-02 2.928953850641846657e-03
1.925778761506080627e-02 -8.413640409708023071e-02 3.385787084698677063e-02
1.839512214064598083e-02 -6.295047700405120850e-02 -2.591942995786666870e-02
2.686949446797370911e-02 -7.312479615211486816e-02 -5.755877122282981873e-02
-2.521778515074402094e-05 -3.346777334809303284e-02 2.227805256843566895e-01
-4.935177862644195557e-01 -4.800613969564437866e-02 -2.840592153370380402e-02
-1.437343060970306396e-01 1.248158514499664307e-02 -5.676448941230773926e-01
-6.394596695899963379e-01 1.625083982944488525e-01 -5.215576849877834320e-03
-8.031621575355529785e-01 2.821898758411407471e-01 5.085605196654796600e-03
5.165308117866516113e-01 9.461193531751632690e-02 7.369118276983499527e-03
1.029866039752960205e-01 7.576026767492294312e-02 -5.030227079987525940e-02
5.740499496459960938e-01 1.755606010556221008e-02 -7.676565647125244141e-02
3.821333944797515869e-01 6.066371127963066101e-02 7.265222072601318359e-02
-7.016726732254028320e-01 3.120638616383075714e-02 -3.538332134485244751e-02
5.887659788131713867e-01 6.505312770605087280e-02 -6.111090630292892456e-02
-1.684709824621677399e-02 6.751424819231033325e-02 6.750163435935974121e-02
-2.167559862136840820e-01 5.097146332263946533e-02 7.563614249229431152e-01
8.199335932731628418e-01 -5.259853601455688477e-02 6.133614853024482727e-02
-2.951058745384216309e-01 4.544029012322425842e-02 -8.223327398300170898e-01
8.424896597862243652e-01 -3.131112456321716309e-02 7.143434882164001465e-02
-2.241647243499755859e-01 -7.693063467741012573e-02 4.555453732609748840e-02
2.177458256483078003e-01 -8.043203502893447876e-02 -7.246672175824642181e-04
-6.389014720916748047e-01 3.204367682337760925e-02 1.364129930734634399e-01
5.673263072967529297e-01 -2.912910468876361847e-02 7.744760066270828247e-02
3.455732390284538269e-02 -6.317881494760513306e-02 -1.067063491791486740e-02
-1.822749525308609009e-01 -3.255437687039375305e-02 -6.758085638284683228e-02
-7.768764495849609375e-01 5.218933895230293274e-02 2.290221303701400757e-01
5.819915533065795898e-01 8.215410262346267700e-02 4.913204163312911987e-02
-6.575754880905151367e-01 -1.441312767565250397e-02 -1.546601206064224243e-02
-1.684709824621677399e-02 6.751424819231033325e-02 6.750163435935974121e-02
-2.940909862518310547e-01 7.883032411336898804e-02 -4.626806825399398804e-02
-6.856120228767395020e-01 4.653130099177360535e-02 -3.939215838909149170e-02
8.828824758529663086e-01 -6.883686035871505737e-02 -1.457798015326261520e-02
-7.981637716293334961e-01 2.526564300060272217e-01 3.816986689344048500e-03
2.141936868429183960e-01 -3.859299421310424805e-02 -2.376010864973068237e-01
7.904762625694274902e-01 -2.707394026219844818e-02 -6.973750889301300049e-02
-7.874820232391357422e-01 3.762559965252876282e-02 1.685707829892635345e-03
-6.391283124685287476e-02 -2.758138626813888550e-02 3.563152849674224854e-01
1.788767613470554352e-02 -3.568392421584576368e-04 3.087421059608459473e-01
7.307750582695007324e-01 -5.191349610686302185e-02 -5.547823756933212280e-02
5.777303874492645264e-02 8.593458682298660278e-02 -3.419082239270210266e-02
-2.666620165109634399e-02 1.869781687855720520e-02 4.856382608413696289e-01
-7.395282387733459473e-01 1.339499186724424362e-02 -2.513288706541061401e-02
2.002388983964920044e-01 -7.649930566549301147e-02 5.577959865331649780e-02
-5.722990036010742188e-01 2.531999908387660980e-02 -6.073031574487686157e-02
5.673263072967529297e-01 -2.912910468876361847e-02 7.744760066270828247e-02
-7.680975198745727539e-01 2.121621072292327881e-01 2.776719629764556885e-03
-1.264811009168624878e-01 6.062372587621212006e-03 -5.072079300880432129e-01
1.707562059164047241e-01 1.672956277616322041e-03 -7.559853047132492065e-02
-6.990847587585449219e-01 3.455553948879241943e-02 -5.679760128259658813e-02
-7.527219057083129883e-01 3.666144981980323792e-02 -9.097418189048767090e-02
3.055596053600311279e-01 -6.541159003973007202e-02 2.181881219148635864e-01
1.117908135056495667e-01 -1.481908839195966721e-02 -1.033812686800956726e-01
1.303380131721496582e-01 -1.502206921577453613e-02 -8.374305814504623413e-02
4.938986599445343018e-01 -7.358149439096450806e-02 3.576079756021499634e-02
7.282885909080505371e-01 7.898256182670593262e-02 5.440948903560638428e-02
3.920046612620353699e-02 -1.631605811417102814e-02 1.833772361278533936e-01
8.702977895736694336e-01 -1.166891455650329590e-01 2.421506447717547417e-03
-1.884657889604568481e-01 2.265590243041515350e-02 6.486811041831970215e-01
-6.338777542114257812e-01 5.632503703236579895e-02 -4.596359655261039734e-02
-6.412864923477172852e-01 3.328692167997360229e-02 -5.238280817866325378e-02
-2.948014140129089355e-01 4.965209960937500000e-02 7.825952023267745972e-02
1.773544214665889740e-02 -1.214084029197692871e-01 1.660986542701721191e-01
3.607966750860214233e-02 2.078907797113060951e-03 -2.993574440479278564e-01
1.467539370059967041e-01 6.822467595338821411e-02 -5.859903618693351746e-02
2.128996998071670532e-01 -1.181607320904731750e-01 -2.667793035507202148e-01
9.466446936130523682e-02 2.722293138504028320e-02 -7.633432000875473022e-02
8.930820822715759277e-01 -3.422894701361656189e-02 5.824071913957595825e-02
-7.742630839347839355e-01 3.662485182285308838e-01 4.222944844514131546e-03
2.692517340183258057e-01 -7.568740099668502808e-02 -2.796938419342041016e-01
-7.120246291160583496e-01 5.766976997256278992e-02 2.906249091029167175e-02
-3.399741370230913162e-03 -1.142787635326385498e-01 1.404979377985000610e-01
2.621982097625732422e-01 8.050490170717239380e-02 5.202448740601539612e-02
7.942821383476257324e-01 -7.424118369817733765e-02 3.401010483503341675e-02
-1.897090524435043335e-01 3.818379342555999756e-02 -7.444649338722229004e-01
-6.462340950965881348e-01 3.935091942548751831e-02 -1.427591890096664429e-01
-6.212930679321289062e-01 -1.398179773241281509e-02 4.357548803091049194e-02
-2.548906803131103516e-01 -8.063500374555587769e-02 3.055815817788243294e-03
5.094265937805175781e-01 1.811424456536769867e-02 8.508468419313430786e-02
9.229708313941955566e-01 6.469791382551193237e-02 -4.708129446953535080e-03
-6.741690635681152344e-01 1.676843613386154175e-01 -3.008180065080523491e-03
-6.084038615226745605e-01 1.076533421874046326e-01 -5.773768294602632523e-03
-2.511848323047161102e-02 -1.601158268749713898e-02 -2.580512166023254395e-01
-4.193797111511230469e-01 -4.856433346867561340e-02 -4.809487983584403992e-02
3.407524898648262024e-02 -2.841867692768573761e-02 2.725864648818969727e-01
6.870838999748229980e-01 8.162128925323486328e-02 5.007081851363182068e-02
2.831050455570220947e-01 -3.453341498970985413e-02 2.709119021892547607e-01
4.425703585147857666e-01 8.121532946825027466e-02 5.078124254941940308e-02
-5.697109699249267578e-01 1.623054146766662598e-01 1.170779298990964890e-02
-3.955297172069549561e-01 -7.629633694887161255e-02 -1.031542290002107620e-02
2.069371938705444336e-01 -9.382863342761993408e-02 2.986946702003479004e-01
-7.420400977134704590e-01 3.919868543744087219e-02 1.461559683084487915e-01
-5.275928974151611328e-01 1.131591424345970154e-01 1.371221058070659637e-02
1.099893748760223389e-01 -6.014876533299684525e-03 1.878935247659683228e-01
1.521836370229721069e-01 -1.000702455639839172e-01 2.720282971858978271e-01
2.660040557384490967e-01 -1.061342284083366394e-01 -2.415591925382614136e-01
3.801036179065704346e-01 7.677516341209411621e-02 5.730194225907325745e-02
9.691992402076721191e-01 -3.887209296226501465e-02 8.536247536540031433e-03
1.560655981302261353e-01 4.318214952945709229e-02 8.016244322061538696e-02
-1.032653898000717163e-01 -4.435252025723457336e-02 -7.072702795267105103e-02
-8.433758467435836792e-02 -8.399875834584236145e-03 3.692806065082550049e-01
-7.913894057273864746e-01 2.985296547412872314e-01 1.457356498576700687e-03
-3.875374197959899902e-01 -6.490413844585418701e-02 -2.919246628880500793e-02
-2.622232735157012939e-01 -8.015293627977371216e-02 3.203105926513671875e-02
-3.357270359992980957e-01 8.476746082305908203e-02 -3.622061014175415039e-02
-1.743066124618053436e-02 -2.783511392772197723e-02 -2.469635009765625000e-01
6.974879652261734009e-02 -2.555160038173198700e-02 2.927575111389160156e-01
-2.412896044552326202e-02 -2.682021260261535645e-02 2.622091770172119141e-01
1.194278970360755920e-01 -3.874522820115089417e-02 -1.996440291404724121e-01
2.673487961292266846e-01 -8.058426529169082642e-02 2.345389453694224358e-03
-7.916938066482543945e-01 4.178667068481445312e-02 1.221524085849523544e-02
-6.946938484907150269e-02 -1.423552539199590683e-02 3.229760229587554932e-01
2.387033998966217041e-01 -3.072755970060825348e-02 -7.661341875791549683e-02
4.623100757598876953e-01 -7.627096772193908691e-02 -2.104793488979339600e-02
1.147340089082717896e-01 -5.262392386794090271e-02 2.574645578861236572e-01
-1.264811009168624878e-01 6.062372587621212006e-03 -5.072079300880432129e-01
7.918731868267059326e-02 4.438538104295730591e-03 3.242192566394805908e-01
9.738931059837341309e-01 2.839005738496780396e-02 -6.103609222918748856e-03
-7.012667059898376465e-01 3.668682277202606201e-02 8.315637707710266113e-02
7.588890939950942993e-02 -9.068246185779571533e-02 2.488379627466201782e-01
2.860228419303894043e-01 -9.420922398567199707e-02 -2.233418375253677368e-01
4.389435425400733948e-02 2.065148577094078064e-02 -7.663878798484802246e-02
-1.155709847807884216e-01 2.499016374349594116e-02 -6.608122587203979492e-01
5.803169608116149902e-01 -4.595098271965980530e-02 6.828817725181579590e-02
4.333616048097610474e-02 -4.288092628121376038e-02 -2.563259005546569824e-01
-1.090249121189117432e-01 1.545014698058366776e-02 6.114344596862792969e-01
1.281559914350509644e-01 -9.110303595662117004e-03 1.444306522607803345e-01
7.124055624008178711e-01 1.114762271754443645e-03 -7.554777711629867554e-02
9.920343756675720215e-01 1.080700289458036423e-02 -1.046765688806772232e-02
1.659608185291290283e-01 -5.830731987953186035e-02 -7.537017762660980225e-02
-4.034190624952316284e-02 -2.238004840910434723e-02 2.890785336494445801e-01
1.147340089082717896e-01 -5.262392386794090271e-02 2.574645578861236572e-01
8.512431383132934570e-01 -5.485668033361434937e-02 -4.525316879153251648e-02
-4.089263379573822021e-01 2.129655331373214722e-03 8.236984163522720337e-02
4.152189791202545166e-01 9.095832705497741699e-02 2.984903566539287567e-02
-6.497100591659545898e-01 2.179324254393577576e-02 5.917949602007865906e-02
9.854121804237365723e-01 1.243083737790584564e-02 -1.688686572015285492e-02
-1.507624685764312744e-01 2.250367030501365662e-02 6.063092350959777832e-01
3.599072098731994629e-01 -7.477398961782455444e-02 -2.462543919682502747e-02
1.515239477157592773e-01 -3.032159991562366486e-02 -2.226821482181549072e-01
-6.552159190177917480e-01 4.315677657723426819e-02 5.633779242634773254e-02
-3.621903955936431885e-01 -6.744137406349182129e-02 -3.495199233293533325e-02
1.099639981985092163e-01 -4.597635194659233093e-02 1.769580245018005371e-01
2.965523898601531982e-01 -2.517100796103477478e-02 8.158329874277114868e-02
1.377721130847930908e-01 -5.253702402114868164e-03 -1.802341639995574951e-01
-5.272883772850036621e-01 5.279827490448951721e-02 -6.298846006393432617e-02
1.017941012978553772e-01 -1.251019537448883057e-02 -1.305043250322341919e-01
2.006969973444938660e-02 -2.090845629572868347e-02 -3.208732306957244873e-01
8.064608573913574219e-01 9.639876894652843475e-03 -7.526868581771850586e-02
8.194261193275451660e-01 -4.988369345664978027e-02 -5.517376959323883057e-02
3.166487067937850952e-02 -2.565308660268783569e-02 1.431874185800552368e-01
3.333944827318191528e-02 -3.722288832068443298e-02 2.145852446556091309e-01
1.335095614194869995e-01 -6.018487364053726196e-02 -9.604866057634353638e-02
1.819707900285720825e-01 5.127593502402305603e-02 7.770132273435592651e-02
-1.465506404638290405e-01 3.184069693088531494e-02 -7.166314721107482910e-01
-7.757346630096435547e-01 9.969721548259258270e-03 1.102274004369974136e-02
8.601249009370803833e-02 -3.719751164317131042e-02 2.208014875650405884e-01
-3.076651990413665771e-01 2.534537762403488159e-02 8.478020876646041870e-02
2.094744294881820679e-01 -3.290958702564239502e-02 2.459201216697692871e-01
4.277797043323516846e-02 5.376242473721504211e-02 7.635658979415893555e-02
-3.308541327714920044e-02 5.819372599944472313e-04 8.381606638431549072e-02
-1.549235284328460693e-01 -3.770496696233749390e-02 7.348950952291488647e-02
-1.003983095288276672e-01 -6.127589195966720581e-02 -2.685820870101451874e-02
1.474150177091360092e-02 -7.283488288521766663e-03 2.708357870578765869e-01
9.821659326553344727e-02 -2.042637765407562256e-02 9.163075685501098633e-02
-7.216915488243103027e-01 4.361347854137420654e-02 -1.374817341566085815e-01
4.006312787532806396e-02 -8.055889606475830078e-02 6.049755029380321503e-03
6.660262495279312134e-02 -1.370269991457462311e-02 1.691940873861312866e-01
2.716113626956939697e-01 -2.301435917615890503e-02 7.962962239980697632e-02
-4.739556908607482910e-01 -4.381970316171646118e-02 4.857384786009788513e-02
-2.918328344821929932e-01 -7.946787774562835693e-02 1.746732182800769806e-02
-2.548906803131103516e-01 -8.063500374555587769e-02 3.055815817788243294e-03
9.998490810394287109e-01 -1.710260286927223206e-02 -3.058925271034240723e-03
6.246692687273025513e-02 -1.038761064410209656e-01 1.551631689071655273e-01
-3.057368695735931396e-01 -7.954400777816772461e-02 2.068961225450038910e-02
6.869316697120666504e-01 -1.342360302805900574e-02 8.181165158748626709e-02
1.494687795639038086e-01 -2.179648540914058685e-02 2.485588639974594116e-01
6.825324147939682007e-03 -7.959474623203277588e-02 1.964934542775154114e-02
1.931092590093612671e-01 6.655009835958480835e-02 -5.991839990019798279e-02
1.261008232831954956e-01 -8.577487431466579437e-03 8.455186337232589722e-02
2.010254263877868652e-01 5.840557068586349487e-02 -6.552569568157196045e-02
7.596502453088760376e-02 -7.374217384494841099e-04 2.587585449218750000e-01
1.508388817310333252e-01 -6.523399055004119873e-02 -7.037181407213211060e-02
8.876778483390808105e-01 7.827213406562805176e-02 -2.170891966670751572e-03
7.588890939950942993e-02 -9.068246185779571533e-02 2.488379627466201782e-01
-7.069755196571350098e-01 1.506595015525817871e-01 -1.424082984158303589e-05
3.000537753105163574e-01 -6.921743601560592651e-02 5.146629735827445984e-02
3.973314464092254639e-01 3.728111274540424347e-03 -7.582687586545944214e-02
9.872403740882873535e-02 -5.752078816294670105e-02 1.150494441390037537e-01
6.105608344078063965e-01 1.165509689599275589e-03 8.389218151569366455e-02
-5.000131130218505859e-01 -5.160901322960853577e-02 9.018322452902793884e-03
-2.404791563749313354e-01 3.823453560471534729e-02 8.160866796970367432e-02
-1.225991323590278625e-01 3.601256757974624634e-03 4.876426756381988525e-01
6.834048628807067871e-01 9.423135221004486084e-02 1.241821981966495514e-02
2.290111482143402100e-01 6.627100706100463867e-02 6.849115341901779175e-02
-3.085263818502426147e-02 1.357259415090084076e-02 -5.410292744636535645e-01
-2.622232735157012939e-01 -8.015293627977371216e-02 3.203105926513671875e-02
-7.402640581130981445e-01 1.354614496231079102e-01 5.288584157824516296e-03
7.890822738409042358e-02 -8.106633275747299194e-02 6.075258180499076843e-02
4.887226819992065430e-01 -6.761898100376129150e-02 4.662017151713371277e-02
9.895381517708301544e-03 -7.715899497270584106e-02 5.197374522686004639e-02
2.125698626041412354e-01 5.125056207180023193e-02 7.772669941186904907e-02
2.995717227458953857e-01 -1.158518493175506592e-01 -2.595228254795074463e-01
3.430853188037872314e-01 -6.708617508411407471e-02 -3.911306336522102356e-02
-6.751078367233276367e-01 8.337198197841644287e-02 -3.440817818045616150e-04
2.231755107641220093e-01 -7.606797665357589722e-02 -5.035302042961120605e-02
-5.000877752900123596e-02 -1.682350598275661469e-02 3.380471765995025635e-01
-3.272877307608723640e-03 3.247500583529472351e-02 -7.496421784162521362e-02
1.374422907829284668e-01 -4.962998256087303162e-02 -1.460575908422470093e-01
1.107759177684783936e-01 -2.742915414273738861e-02 2.518318891525268555e-01
-6.407536268234252930e-01 2.257978543639183044e-02 7.321041822433471680e-02
9.854121804237365723e-01 1.243083737790584564e-02 -1.688686572015285492e-02
6.337258219718933105e-01 1.905302889645099640e-02 -7.668953388929367065e-02
-1.949864923954010010e-01 -5.904311686754226685e-02 -4.916051775217056274e-02
-2.177962660789489746e-01 9.423135221004486084e-02 1.246896386146545410e-02
-4.823271185159683228e-02 -4.508832469582557678e-02 8.252207934856414795e-02
-1.507624685764312744e-01 2.250367030501365662e-02 6.063092350959777832e-01
-2.419761121273040771e-01 5.428062286227941513e-03 -7.600447535514831543e-02
-7.185707092285156250e-01 5.142816901206970215e-02 -2.944618836045265198e-02
-6.800046563148498535e-01 4.097475111484527588e-02 -1.193912327289581299e-01
2.629847526550292969e-01 -7.832612097263336182e-02 -1.371532026678323746e-02
-9.265974164009094238e-02 3.931091632694005966e-03 -5.074362158775329590e-01
2.402257323265075684e-01 -3.006788156926631927e-02 2.669284641742706299e-01
-7.509204745292663574e-01 5.442211031913757324e-02 -6.205098237842321396e-03
4.029147699475288391e-02 1.068014837801456451e-02 -4.108943641185760498e-01
2.138130962848663330e-01 -7.172930985689163208e-02 7.003886997699737549e-02
1.455106884241104126e-01 -3.681692853569984436e-02 -2.418382912874221802e-01
-1.501027792692184448e-01 5.533551052212715149e-02 -6.717489659786224365e-02
7.459477782249450684e-01 5.457434058189392090e-02 -6.758085638284683228e-02
1.153429374098777771e-01 -5.795211717486381531e-02 2.419112920761108398e-01
7.786020636558532715e-01 -7.812315225601196289e-02 -1.445111818611621857e-02
2.300260514020919800e-01 -3.275734558701515198e-02 1.513319313526153564e-01
4.707590937614440918e-01 7.152308523654937744e-02 -5.590956658124923706e-02
-7.286688685417175293e-01 4.457763209939002991e-02 1.571168303489685059e-01
-1.359942834824323654e-02 -7.332776486873626709e-02 6.268088519573211670e-02
2.372571676969528198e-01 -6.287434697151184082e-02 2.115913033485412598e-01
7.537117600440979004e-01 -4.851359501481056213e-02 -5.819308012723922729e-02
2.859974801540374756e-01 -4.222124814987182617e-02 -7.712087035179138184e-02
3.343825936317443848e-01 -2.238004840910434723e-02 -7.148820161819458008e-02
-2.024205923080444336e-01 3.650921583175659180e-02 -7.328443527221679688e-01
2.934823334217071533e-01 -4.605247825384140015e-02 2.665478587150573730e-01
3.777961432933807373e-02 -7.944250851869583130e-02 2.307461388409137726e-02
1.780887991189956665e-01 -8.044662885367870331e-03 -7.615672051906585693e-02
1.281559914350509644e-01 -9.110303595662117004e-03 1.444306522607803345e-01
9.963744878768920898e-02 6.700679659843444824e-02 6.790758669376373291e-02
-2.648112475872039795e-01 4.214187711477279663e-02 8.093388676643371582e-01
-2.730051241815090179e-02 -5.559247732162475586e-02 8.335936069488525391e-02
-2.303794957697391510e-02 -1.484445761889219284e-02 3.723759949207305908e-01
9.159441292285919189e-02 -5.598102579824626446e-04 3.689507246017456055e-01
2.338826358318328857e-01 -2.732766792178153992e-02 -2.413054555654525757e-01
8.811064362525939941e-01 5.302662774920463562e-02 -5.113956332206726074e-02
-2.010251134634017944e-01 -4.813300445675849915e-02 6.684195250272750854e-02
8.851152658462524414e-01 3.856437653303146362e-02 -5.722893029451370239e-02
-4.097621887922286987e-02 -4.871656745672225952e-02 -1.035842522978782654e-01
6.553698331117630005e-02 6.188158318400382996e-02 -6.364813446998596191e-02
2.400735169649124146e-01 -1.054238080978393555e-01 2.924276888370513916e-01
6.354764699935913086e-01 9.456119686365127563e-02 4.932065494358539581e-04
3.055596053600311279e-01 -6.541159003973007202e-02 2.181881219148635864e-01
2.829528152942657471e-01 -4.709273949265480042e-02 2.237954288721084595e-01
1.248068436980247498e-01 -1.447848742827773094e-03 -2.453396618366241455e-01
2.066073566675186157e-01 -3.549756854772567749e-02 1.620137095451354980e-01
-2.774974703788757324e-01 -5.876401811838150024e-02 -2.145519945770502090e-03
2.993433475494384766e-01 -6.792344152927398682e-02 6.067646667361259460e-02
2.996478378772735596e-01 -7.977234572172164917e-02 -7.473716977983713150e-03
2.978971302509307861e-01 -7.771719247102737427e-02 2.985678017139434814e-01
5.131562948226928711e-01 9.248065948486328125e-02 -1.485707610845565796e-02
6.354764699935913086e-01 9.456119686365127563e-02 4.932065494358539581e-04
8.164843916893005371e-02 -8.502443134784698486e-02 -2.759400755167007446e-02
-3.806107640266418457e-01 -7.847835868597030640e-02 -1.105252653360366821e-03
-8.257943391799926758e-01 3.668320477008819580e-01 3.969220910221338272e-03
4.742097258567810059e-01 -7.365760207176208496e-02 -2.721342071890830994e-02
7.561124861240386963e-03 8.187500387430191040e-02 4.963948577642440796e-02
-1.832644492387771606e-01 3.947778418660163879e-02 7.527838945388793945e-01
-6.293360590934753418e-01 7.629308849573135376e-02 1.887381804408505559e-04
-5.435521006584167480e-01 1.481222659349441528e-01 -1.841051038354635239e-03
-5.620231628417968750e-01 -3.915118798613548279e-02 6.201989017426967621e-03
-6.751078367233276367e-01 8.337198197841644287e-02 -3.440817818045616150e-04
-3.146157786250114441e-02 -1.486982591450214386e-02 3.706253170967102051e-01
8.045325875282287598e-01 7.360362261533737183e-02 -5.235743522644042969e-02
-6.368970870971679688e-01 2.595430985093116760e-02 6.232566758990287781e-02
7.030698657035827637e-02 -1.081025414168834686e-02 1.853055506944656372e-01
-7.495503425598144531e-01 5.802498012781143188e-02 2.793609201908111572e-01
1.071223020553588867e-01 -2.716469811275601387e-03 2.292758524417877197e-01
-7.076337933540344238e-02 5.580295342952013016e-03 -5.244357585906982422e-01
-4.631724357604980469e-01 -5.830731987953186035e-02 1.475247833877801895e-02
-1.277750879526138306e-01 -6.315344572067260742e-02 -5.271264910697937012e-02
7.835242748260498047e-01 -5.508504062891006470e-02 6.131077557802200317e-02
5.307915434241294861e-02 -1.895478554069995880e-02 3.379203379154205322e-01
-1.926015019416809082e-01 -8.114246279001235962e-02 -2.904023043811321259e-02
6.870838999748229980e-01 8.162128925323486328e-02 5.007081851363182068e-02
-7.082188129425048828e-01 1.863837838172912598e-01 9.551142342388629913e-03
8.632949590682983398e-01 4.823125153779983521e-02 -6.057808548212051392e-02
5.819915533065795898e-01 8.215410262346267700e-02 4.913204163312911987e-02
-3.501371294260025024e-02 -4.171380028128623962e-02 -1.516902595758438110e-01
6.413121223449707031e-01 -5.351195111870765686e-02 -5.420961976051330566e-02
-5.784740671515464783e-03 3.778858808800578117e-03 8.417128026485443115e-02
-7.294808030128479004e-01 5.467583239078521729e-02 2.569317221641540527e-01
-2.476595342159271240e-01 8.806587010622024536e-02 3.725776821374893188e-02
-1.865628808736801147e-01 3.795543685555458069e-02 7.766085267066955566e-01
-2.501713931560516357e-01 -5.916998162865638733e-02 3.560856357216835022e-02
-2.622739970684051514e-01 -8.044662885367870331e-03 8.262356370687484741e-02
5.105937123298645020e-01 -5.414625257253646851e-02 -5.370217189192771912e-02
-7.183676958084106445e-01 5.086997523903846741e-02 2.152956724166870117e-01
-1.171694397926330566e-01 -6.231615319848060608e-02 6.727328151464462280e-02
3.854064345359802246e-01 1.755606010556221008e-02 8.511005342006683350e-02
-5.701155215501785278e-02 1.971270889043807983e-02 5.962871909141540527e-01
8.875002264976501465e-01 -6.759361177682876587e-02 2.648552763275802135e-04
2.356587201356887817e-01 -2.765750326216220856e-02 2.514513134956359863e-01
4.892555177211761475e-01 7.537968456745147705e-02 -5.078434944152832031e-02
3.455732390284538269e-02 -6.317881494760513306e-02 -1.067063491791486740e-02
1.149384211748838425e-02 9.589129127562046051e-03 -3.739014565944671631e-01
-2.940909862518310547e-01 7.883032411336898804e-02 -4.626806825399398804e-02
-6.786345839500427246e-01 2.701994962990283966e-02 -7.846560329198837280e-02
-1.413746774196624756e-01 2.940494939684867859e-02 -7.577612996101379395e-02
8.663396835327148438e-01 -1.137966960668563843e-01 1.465098746120929718e-02
1.742068529129028320e-01 -1.735632121562957764e-02 2.499289661645889282e-01
1.593639999628067017e-01 -3.415283188223838806e-02 2.115913033485412598e-01
-6.747272610664367676e-01 2.077980786561965942e-01 -4.175309091806411743e-03
5.562132000923156738e-01 -6.784734129905700684e-02 4.623958840966224670e-02
-2.646322175860404968e-02 -8.323759771883487701e-03 3.108987510204315186e-01
-1.507624685764312744e-01 2.250367030501365662e-02 6.063092350959777832e-01
1.192517206072807312e-02 -1.793988421559333801e-02 3.520527184009552002e-01
6.723932623863220215e-01 -4.430178180336952209e-02 -6.098404154181480408e-02
-8.098844438791275024e-02 -6.155499070882797241e-02 2.256716601550579071e-02
2.290111482143402100e-01 6.627100706100463867e-02 6.849115341901779175e-02
-6.053845882415771484e-01 7.789155095815658569e-02 2.236418798565864563e-02
1.757291704416275024e-01 -9.998332709074020386e-03 1.205806285142898560e-01
-2.811242453753948212e-02 -3.844076395034790039e-02 1.810429841279983521e-01
-3.203006386756896973e-01 -5.818045511841773987e-02 1.914059044793248177e-03
2.138638347387313843e-01 -1.174249351024627686e-01 2.771281301975250244e-01
8.215066790580749512e-01 -7.035919278860092163e-02 3.768909722566604614e-02
8.024266958236694336e-01 -7.797091454267501831e-02 2.315073087811470032e-02
-2.496625110507011414e-02 -2.529787272214889526e-02 2.774072289466857910e-01
-4.520339667797088623e-01 1.182190515100955963e-02 -7.219862192869186401e-02
-7.183676958084106445e-01 5.086997523903846741e-02 2.152956724166870117e-01
-6.134022474288940430e-01 4.873869940638542175e-02 -5.370217189192771912e-02
1.125519871711730957e-01 -2.773362025618553162e-02 8.503393828868865967e-02
5.645861029624938965e-01 1.698325271718204021e-03 -7.559853047132492065e-02
2.095773443579673767e-02 -1.740706898272037506e-02 3.576346635818481445e-01
6.413121223449707031e-01 -5.351195111870765686e-02 -5.420961976051330566e-02
-7.813926339149475098e-01 2.758975028991699219e-01 1.584218465723097324e-03
-7.341493368148803711e-01 6.580632179975509644e-04 1.126210918300785124e-04
-7.416328042745590210e-02 -8.281702548265457153e-02 -3.226252272725105286e-02
3.801036179065704346e-01 7.677516341209411621e-02 5.730194225907325745e-02
-7.773838043212890625e-01 5.627428740262985229e-02 -2.843370139598846436e-01
6.994149088859558105e-01 -7.984846830368041992e-02 -6.534939166158437729e-03
6.609503626823425293e-01 -6.104753538966178894e-02 5.519603565335273743e-02
-6.307569146156311035e-01 1.456865221261978149e-01 1.378832757472991943e-02
3.537924587726593018e-01 -2.844404615461826324e-02 -6.940766423940658569e-02
1.782156825065612793e-01 -1.781302876770496368e-02 2.644926905632019043e-01
5.615921616554260254e-01 4.097475111484527588e-02 8.082212507724761963e-02
-4.851956367492675781e-01 1.583073846995830536e-02 -7.039719074964523315e-02
-1.551011353731155396e-01 3.658533096313476562e-02 -7.001394033432006836e-01
6.515118479728698730e-01 -1.121620554476976395e-02 -7.394932210445404053e-02
1.626384630799293518e-02 -1.259500682353973389e-01 -1.445098817348480225e-01
-1.672023348510265350e-02 -1.291615702211856842e-02 3.892232477664947510e-01
-1.367569118738174438e-01 9.466268122196197510e-02 1.761824940331280231e-03
-7.144604325294494629e-01 1.552626397460699081e-02 -3.292220085859298706e-02
-6.134275794029235840e-01 -2.367403730750083923e-02 -1.160941272974014282e-02
3.640950471162796021e-02 6.326847360469400883e-04 4.408052861690521240e-01
-7.981637716293334961e-01 2.526564300060272217e-01 3.816986689344048500e-03
6.343251559883356094e-03 -1.132131367921829224e-01 1.256043612957000732e-01
1.886944621801376343e-01 -1.195201091468334198e-02 -8.407289534807205200e-02
2.694561146199703217e-02 -6.348328292369842529e-02 8.143105357885360718e-02
5.241425037384033203e-01 -3.795868530869483948e-02 -6.499287486076354980e-02
-2.998997829854488373e-02 -3.752735629677772522e-02 1.606689542531967163e-01
-2.689455077052116394e-02 -4.168842360377311707e-02 1.901009082794189453e-01
3.016790561378002167e-02 -6.820254027843475342e-02 -1.053349375724792480e-01
-2.746811211109161377e-01 -6.170722469687461853e-02 5.443486571311950684e-02
-1.614695936441421509e-01 3.833602368831634521e-02 -7.336816787719726562e-01
2.184308618307113647e-01 7.482149451971054077e-02 5.986455082893371582e-02
-3.208841979503631592e-01 -7.662617415189743042e-02 -1.637941785156726837e-02
6.923359632492065430e-01 7.711576297879219055e-03 8.460260927677154541e-02
-3.006609529256820679e-02 -5.526264011859893799e-02 -7.108224183320999146e-02
5.041998624801635742e-01 -2.107528271153569221e-03 -7.524331659078598022e-02
-6.281181573867797852e-01 3.265262022614479065e-02 -5.195147916674613953e-02
-7.412282228469848633e-01 2.551429271697998047e-01 -9.530185488983988762e-04
-2.724483609199523926e-01 9.184635430574417114e-02 2.594169229269027710e-02
4.277797043323516846e-02 -6.160572916269302368e-02 8.092360943555831909e-02
4.280334338545799255e-02 -3.892283886671066284e-02 2.062631100416183472e-01
6.131742000579833984e-01 -1.053115725517272949e-02 -7.410155981779098511e-02
-1.337107922881841660e-02 1.778440922498703003e-02 -4.709761440753936768e-01
7.392494678497314453e-01 9.420598298311233521e-02 1.257045473903417587e-02
2.409615367650985718e-01 -1.013642325997352600e-01 -2.094631493091583252e-01
2.530134022235870361e-01 -8.345134556293487549e-02 2.263072878122329712e-01
7.224529981613159180e-01 -2.004579640924930573e-02 8.034005016088485718e-02
3.273037374019622803e-01 -6.376238167285919189e-02 -4.373083263635635376e-02
8.679127693176269531e-01 -8.390804380178451538e-02 -4.200681578367948532e-03
-2.346928045153617859e-02 -6.236691027879714966e-02 3.241164609789848328e-02
7.006581425666809082e-01 -4.787927493453025818e-02 6.704492866992950439e-02
-1.437343060970306396e-01 1.248158514499664307e-02 -5.676448941230773926e-01
4.333616048097610474e-02 -4.288092628121376038e-02 -2.563259005546569824e-01
3.040372431278228760e-01 -7.020696252584457397e-02 2.964872419834136963e-01
3.927390277385711670e-01 -9.769982658326625824e-03 8.262356370687484741e-02
7.859092354774475098e-01 -5.508504062891006470e-02 -5.291562899947166443e-02
6.400689482688903809e-01 -2.207558229565620422e-02 7.990872114896774292e-02
-1.453820522874593735e-02 2.205771859735250473e-03 3.573809564113616943e-01
-1.473625600337982178e-01 -6.061620265245437622e-02 -1.427351124584674835e-02
3.088579773902893066e-01 -1.021761521697044373e-01 2.349592745304107666e-01
6.856630444526672363e-01 -4.488534480333328247e-02 -6.060345470905303955e-02
5.965059250593185425e-02 -3.011862747371196747e-02 2.625897824764251709e-01
4.742097258567810059e-01 -7.365760207176208496e-02 -2.721342071890830994e-02
6.469970196485519409e-02 -5.815508961677551270e-02 1.049766242504119873e-01
-1.106741055846214294e-01 -6.112366169691085815e-02 -3.759071975946426392e-02
-4.387134909629821777e-01 9.111055731773376465e-02 1.586886309087276459e-02
2.304320037364959717e-01 -1.588472910225391388e-02 1.060676351189613342e-01
7.942821383476257324e-01 -7.424118369817733765e-02 3.401010483503341675e-02
5.884615182876586914e-01 9.293736517429351807e-02 -1.290340349078178406e-02
9.311675280332565308e-02 -3.587815165519714355e-02 2.279818654060363770e-01
5.462686717510223389e-02 -4.825986549258232117e-02 -1.332699209451675415e-01
-6.830225884914398193e-02 -6.173259019851684570e-02 7.723026792518794537e-04
-6.313658952713012695e-01 -2.007116563618183136e-02 -8.590101264417171478e-03
-4.612680897116661072e-02 -6.203705817461013794e-02 4.618884250521659851e-02
-3.856598436832427979e-01 -6.454893201589584351e-02 4.722910746932029724e-02
-1.926015019416809082e-01 -8.114246279001235962e-02 -2.904023043811321259e-02
-5.487534403800964355e-01 8.552863448858261108e-02 -1.267505157738924026e-02
-7.163379192352294922e-01 2.866046428680419922e-01 -2.805201336741447449e-03
-6.408043503761291504e-01 3.529134020209312439e-02 -7.471049576997756958e-02
-1.040251646190881729e-02 7.888107746839523315e-02 5.451098084449768066e-02
-8.426147699356079102e-02 1.070551760494709015e-02 5.710924267768859863e-01
-7.210064530372619629e-01 3.777782991528511047e-02 -1.495843529701232910e-01
2.022433131933212280e-01 -5.653126165270805359e-02 -2.895129621028900146e-01
-6.064502000808715820e-01 2.172365933656692505e-01 4.222944844514131546e-03
2.509343065321445465e-02 1.298903115093708038e-02 -4.194956123828887939e-01
5.498447418212890625e-01 2.126041799783706665e-02 -7.661341875791549683e-02
-2.402000576257705688e-01 -6.936968863010406494e-02 -4.347710683941841125e-02
8.756005764007568359e-01 -1.260261684656143188e-01 -1.308101043105125427e-02
1.465255767107009888e-01 -3.991235420107841492e-02 2.707343101501464844e-01
-1.822749525308609009e-01 -3.255437687039375305e-02 -6.758085638284683228e-02
-6.900267601013183594e-01 1.279766112565994263e-01 8.942205458879470825e-03
1.243403181433677673e-03 -1.537728216499090195e-02 3.712850213050842285e-01
1.283857505768537521e-02 -1.334748696535825729e-02 3.867367804050445557e-01
-6.769092679023742676e-01 2.504490315914154053e-01 1.180928293615579605e-02
-4.935177862644195557e-01 -4.800613969564437866e-02 -2.840592153370380402e-02
4.600026085972785950e-02 -7.035919278860092163e-02 1.436441093683242798e-01
-7.428013682365417480e-01 4.683577269315719604e-02 -2.198150604963302612e-01
5.777303874492645264e-02 8.593458682298660278e-02 -3.419082239270210266e-02
-7.624902725219726562e-01 5.954732745885848999e-02 2.899411916732788086e-01
-3.752557933330535889e-02 -4.813300445675849915e-02 -1.119063794612884521e-01
-2.017101943492889404e-01 -7.880818843841552734e-02 -3.642359375953674316e-02
-2.898284196853637695e-01 -7.977234572172164917e-02 -3.896213136613368988e-03
2.265768498182296753e-02 8.574236184358596802e-03 -3.607078492641448975e-01
-1.389642953872680664e-01 -7.269345968961715698e-02 5.547513067722320557e-02
3.610503673553466797e-02 -1.948760263621807098e-02 -1.619153171777725220e-01
7.432075738906860352e-01 9.410449117422103882e-02 -5.773768294602632523e-03
-2.177962660789489746e-01 9.423135221004486084e-02 1.246896386146545410e-02
-4.540891051292419434e-01 -3.379761800169944763e-02 -5.484392493963241577e-02
4.835467338562011719e-01 7.360362261533737183e-02 6.151375547051429749e-02
-5.233049392700195312e-01 8.009894937276840210e-02 -3.759071975946426392e-02
1.560655981302261353e-01 4.318214952945709229e-02 8.016244322061538696e-02
2.177458256483078003e-01 -8.043203502893447876e-02 -7.246672175824642181e-04
-2.590517401695251465e-01 -8.020367473363876343e-02 -3.015661612153053284e-02
-2.622739970684051514e-01 -8.044662885367870331e-03 8.262356370687484741e-02
1.956211179494857788e-01 4.196427762508392334e-02 -7.217325270175933838e-02
-2.031564116477966309e-01 2.955718338489532471e-02 -7.124703526496887207e-01
8.263274431228637695e-01 9.019714593887329102e-02 2.150152809917926788e-02
1.723546385765075684e-01 -9.781210124492645264e-02 2.270430773496627808e-01
9.872403740882873535e-02 -5.752078816294670105e-02 1.150494441390037537e-01
3.555431365966796875e-01 -1.060727331787347794e-02 8.242058008909225464e-02
8.175993561744689941e-01 2.738596638664603233e-03 8.206536620855331421e-02
2.085102796554565430e-01 -9.410773217678070068e-02 2.145852446556091309e-01
4.017969965934753418e-01 4.348661750555038452e-02 8.008632808923721313e-02
8.226230740547180176e-01 -7.799628376960754395e-02 -2.855945844203233719e-03
8.468537330627441406e-01 1.622208743356168270e-03 -6.996586173772811890e-02
1.725322604179382324e-01 4.800289869308471680e-02 7.874159514904022217e-02
-7.043114304542541504e-01 2.289332598447799683e-01 -2.830573823302984238e-03
-1.562682539224624634e-01 2.316334843635559082e-02 -6.068959236145019531e-01
1.956211179494857788e-01 4.196427762508392334e-02 -7.217325270175933838e-02
3.427047133445739746e-01 -7.926490902900695801e-02 -9.909464046359062195e-03
5.777303874492645264e-02 8.593458682298660278e-02 -3.419082239270210266e-02
7.903508096933364868e-02 -8.114246279001235962e-02 2.731700539588928223e-01
-7.420400977134704590e-01 3.130787983536720276e-02 -4.175178706645965576e-02
-4.802973195910453796e-02 -8.319761604070663452e-02 1.186002697795629501e-02
-1.169664561748504639e-01 2.351856231689453125e-02 -7.651193439960479736e-02
-3.727184981107711792e-02 -5.084784701466560364e-02 -1.854862421751022339e-01
3.787842392921447754e-01 -1.334748696535825729e-02 8.183702081441879272e-02
-6.919296979904174805e-01 2.144709974527359009e-01 1.158093195408582687e-02
-1.715156249701976776e-02 -7.921414822340011597e-02 -2.046437002718448639e-02
2.568192481994628906e-01 -1.191502586007118225e-01 -2.349369972944259644e-01
7.742379903793334961e-01 -7.208450883626937866e-02 3.926218301057815552e-02
-1.944790333509445190e-01 -5.995653569698333740e-02 1.835535466670989990e-02
2.136608660221099854e-01 -5.097471177577972412e-02 8.493245393037796021e-02
7.786020636558532715e-01 -7.812315225601196289e-02 -1.445111818611621857e-02
-4.739556908607482910e-01 -4.381970316171646118e-02 4.857384786009788513e-02
-4.612680897116661072e-02 -6.203705817461013794e-02 4.618884250521659851e-02
1.179816797375679016e-01 -7.939177006483078003e-02 -2.714224755764007568e-01
-2.225662469863891602e-01 4.891630262136459351e-02 -7.464947104454040527e-01
-7.163379192352294922e-01 2.866046428680419922e-01 -2.805201336741447449e-03
-3.308541327714920044e-02 5.819372599944472313e-04 8.381606638431549072e-02
1.733441948890686035e-01 -5.036577954888343811e-02 -2.148928344249725342e-01
-6.856120228767395020e-01 4.653130099177360535e-02 -3.939215838909149170e-02
4.447791725397109985e-02 -1.073013767600059509e-01 -1.210911795496940613e-01
-7.029666900634765625e-01 4.932226240634918213e-02 -2.363324761390686035e-01
-7.144604325294494629e-01 1.552626397460699081e-02 -3.292220085859298706e-02
-7.874820232391357422e-01 3.762559965252876282e-02 1.685707829892635345e-03
-6.295644044876098633e-01 1.174470782279968262e-01 -4.606639500707387924e-03
4.804005622863769531e-01 -2.438446506857872009e-02 -7.105687260627746582e-02
-4.440148919820785522e-02 3.880353644490242004e-03 -7.585224509239196777e-02
2.337050586938858032e-01 -6.005800887942314148e-02 -2.590153813362121582e-01
6.139607429504394531e-01 -7.566201686859130859e-02 3.086393140256404877e-02
-2.754422724246978760e-01 -5.881477519869804382e-02 9.906355291604995728e-03
-1.898105293512344360e-01 3.455553948879241943e-02 -7.093749642372131348e-01
8.621547371149063110e-02 8.266156166791915894e-02 -3.989960253238677979e-02
7.381584644317626953e-01 8.524953573942184448e-02 -3.538332134485244751e-02
-7.913894057273864746e-01 2.985296547412872314e-01 1.457356498576700687e-03
1.475658565759658813e-01 -4.483459517359733582e-02 -1.640466004610061646e-01
-7.266898751258850098e-01 2.354793399572372437e-01 9.728748351335525513e-03
-2.093979865312576294e-01 -8.091410249471664429e-02 -2.574182301759719849e-02
-2.665619552135467529e-01 -1.971595175564289093e-02 -7.207176834344863892e-02
-3.357270359992980957e-01 8.476746082305908203e-02 -3.622061014175415039e-02
5.759543180465698242e-02 -1.195308491587638855e-01 -1.446621119976043701e-01
-1.347017437219619751e-01 -8.195436745882034302e-02 -2.051511593163013458e-02
1.560655981302261353e-01 4.318214952945709229e-02 8.016244322061538696e-02
6.622343789786100388e-03 -3.798405453562736511e-02 -1.922352910041809082e-01
6.513596177101135254e-01 2.039775811135768890e-02 8.498319238424301147e-02
-4.219930768013000488e-01 -6.515786051750183105e-02 -1.787638664245605469e-02
-2.530384659767150879e-01 -7.360686361789703369e-02 3.571005165576934814e-02
-1.347017437219619751e-01 -8.195436745882034302e-02 -2.051511593163013458e-02
1.208233758807182312e-01 -1.816824264824390411e-02 -7.158968597650527954e-02
9.024699330329895020e-01 1.114762271754443645e-03 -5.821845307946205139e-02
4.333616048097610474e-02 -4.288092628121376038e-02 -2.563259005546569824e-01
6.870838999748229980e-01 8.162128925323486328e-02 5.007081851363182068e-02
-7.051487565040588379e-01 3.574804589152336121e-02 1.505453884601593018e-01
7.917702794075012207e-01 6.665159016847610474e-02 -5.953781679272651672e-02
2.181264013051986694e-01 -6.188482418656349182e-02 -7.379708439111709595e-02
9.052862524986267090e-01 3.719426691532135010e-02 5.788550525903701782e-02
-6.777465343475341797e-01 3.823453560471534729e-02 -9.351141750812530518e-02
6.426836550235748291e-02 -6.361014395952224731e-02 2.370892278850078583e-02
-1.828077435493469238e-01 3.902107849717140198e-02 -7.334787249565124512e-01
-3.550528199411928654e-04 5.736530199646949768e-02 -6.608388572931289673e-02
2.400227785110473633e-01 -3.159021958708763123e-02 -1.316714584827423096e-01
-4.379523098468780518e-01 4.135533422231674194e-02 -6.986436992883682251e-02
5.508850216865539551e-01 -7.436802238225936890e-02 3.388324379920959473e-02
1.877556741237640381e-01 -5.186273902654647827e-02 -2.856056094169616699e-01
2.337050586938858032e-01 -6.005800887942314148e-02 -2.590153813362121582e-01
-4.851956367492675781e-01 1.583073846995830536e-02 -7.039719074964523315e-02
3.498865291476249695e-02 -9.230630099773406982e-02 -1.267999559640884399e-01
1.516508013010025024e-01 -4.683901369571685791e-02 -1.539230197668075562e-01
-1.572324186563491821e-01 7.248723506927490234e-02 -5.461557582020759583e-02
-5.021176114678382874e-02 -1.946223340928554535e-02 3.046571612358093262e-01
-6.750063300132751465e-01 2.146339789032936096e-02 -2.830443158745765686e-02
4.214098155498504639e-01 -5.797748640179634094e-02 -5.040376260876655579e-02
-2.074697166681289673e-01 4.782529175281524658e-02 7.879234105348587036e-02
3.797484040260314941e-01 8.862406015396118164e-02 3.586228564381599426e-02
1.723546385765075684e-01 -3.676617890596389771e-02 -2.366623282432556152e-01
2.939390540122985840e-01 -4.473311081528663635e-02 -6.453616917133331299e-02
9.691992402076721191e-01 -3.887209296226501465e-02 8.536247536540031433e-03
1.104207038879394531e-01 -9.972963482141494751e-03 1.512304544448852539e-01
-1.832644492387771606e-01 3.947778418660163879e-02 7.527838945388793945e-01
-7.754302024841308594e-01 3.029298782348632812e-02 2.530738152563571930e-02
-7.446027398109436035e-01 5.292513966560363770e-02 2.305444777011871338e-01
5.482984706759452820e-02 -8.464384078979492188e-02 2.416562661528587341e-02
6.721156090497970581e-02 -1.320984796620905399e-03 2.597734332084655762e-01
-1.009818762540817261e-01 5.580295342952013016e-03 -4.527333974838256836e-01
6.761752068996429443e-02 -7.406356185674667358e-02 6.549721956253051758e-02
-1.206454485654830933e-01 -8.215735107660293579e-02 -1.747043058276176453e-02
-3.629515767097473145e-01 3.184069693088531494e-02 -7.514181733131408691e-02
5.777303874492645264e-02 8.593458682298660278e-02 -3.419082239270210266e-02
2.691756188869476318e-01 -1.190741509199142456e-01 -2.588631510734558105e-01
7.840217091143131256e-03 -1.219499274156987667e-03 -3.071467578411102295e-01
3.927390277385711670e-01 -9.769982658326625824e-03 8.262356370687484741e-02
-5.116844177246093750e-01 8.217947930097579956e-02 -3.259236365556716919e-02
7.006581425666809082e-01 -4.787927493453025818e-02 6.704492866992950439e-02
-2.660545110702514648e-01 -7.792016118764877319e-02 2.365817688405513763e-02
-7.738571166992187500e-01 4.797752946615219116e-02 1.944649666547775269e-01
2.181264013051986694e-01 -6.188482418656349182e-02 -7.379708439111709595e-02
-1.930821314454078674e-02 -3.379761800169944763e-02 1.669105738401412964e-01
3.080460727214813232e-01 -1.005015745759010315e-01 2.753774523735046387e-01
3.797484040260314941e-01 8.862406015396118164e-02 3.586228564381599426e-02
1.283857505768537521e-02 -1.133399978280067444e-01 -1.567647159099578857e-01
-6.120321154594421387e-01 3.019149415194988251e-02 -2.906560339033603668e-02
1.953166425228118896e-01 -7.893505692481994629e-02 3.238627314567565918e-02
-1.921701580286026001e-01 3.260187059640884399e-02 -6.984140872955322266e-01
1.339916288852691650e-01 -4.988369345664978027e-02 1.544019877910614014e-01
-7.112634778022766113e-01 6.304871290922164917e-02 2.421506447717547417e-03
3.789872229099273682e-01 -7.994994521141052246e-02 -5.469299852848052979e-03
1.251366883516311646e-01 -5.130454525351524353e-02 -2.450859546661376953e-01
5.965059250593185425e-02 -3.011862747371196747e-02 2.625897824764251709e-01
1.339916288852691650e-01 -4.988369345664978027e-02 1.544019877910614014e-01
-5.435267090797424316e-01 -3.800943121314048767e-02 3.705478832125663757e-02
-4.973997771739959717e-01 2.034701965749263763e-02 7.846249639987945557e-02
9.981506317853927612e-02 -7.637244462966918945e-02 5.656614154577255249e-02
