-1.333937644958496094e-01 -7.861199555918574333e-04 -5.290163159370422363e-01
9.881901144981384277e-01 -4.899655655026435852e-02 -9.082581847906112671e-03
7.833586931228637695e-01 8.505259454250335693e-02 -1.883526705205440521e-02
-4.638036787509918213e-01 4.787675663828849792e-02 -7.566727697849273682e-02
4.037579596042633057e-01 1.419480517506599426e-02 9.568338096141815186e-02
1.837444305419921875e-01 -2.378536015748977661e-02 -4.821899905800819397e-02
-6.759747862815856934e-01 5.393448844552040100e-02 -4.324211552739143372e-02
2.434670776128768921e-01 -2.765628509223461151e-02 2.718835882842540741e-02
1.147718429565429688e-01 -1.170391291379928589e-01 -1.143763810396194458e-01
1.533301472663879395e-01 -1.315424740314483643e-01 2.381027340888977051e-01
2.523399889469146729e-01 -1.016560196876525879e-01 -2.271103858947753906e-01
4.066486060619354248e-01 6.735699623823165894e-02 6.544502079486846924e-02
-1.727061271667480469e-01 -3.519701585173606873e-02 9.241572767496109009e-02
6.210387684404850006e-03 -1.682274974882602692e-02 4.786522388458251953e-01
1.904808282852172852e-01 -2.411213889718055725e-02 -1.013994449749588966e-03
7.216668874025344849e-02 -3.997280448675155640e-02 3.325127661228179932e-01
3.106968291103839874e-02 -4.469834268093109131e-02 2.730414569377899170e-01
2.003340721130371094e-01 -1.308638006448745728e-01 2.314920127391815186e-01
9.825763851404190063e-02 -1.244039162993431091e-01 -9.713323414325714111e-02
8.443295955657958984e-02 -7.723598275333642960e-03 3.398272693157196045e-01
6.023558378219604492e-01 7.145413011312484741e-02 -5.525702238082885742e-02
-5.832237601280212402e-01 -5.285430699586868286e-03 -7.606945186853408813e-02
6.492758542299270630e-02 -2.805844135582447052e-02 -1.539166457951068878e-02
-8.917991816997528076e-02 9.268196299672126770e-03 5.219863653182983398e-01
-1.107967048883438110e-01 1.137959491461515427e-02 9.568338096141815186e-02
5.008072853088378906e-01 2.781840041279792786e-02 -8.670188486576080322e-02
2.950959801673889160e-01 -7.760109007358551025e-02 -6.209395825862884521e-02
1.612227857112884521e-01 6.207847967743873596e-02 7.205573469400405884e-02
4.363339841365814209e-01 3.168931603431701660e-02 8.987701684236526489e-02
6.940260529518127441e-01 -9.127494692802429199e-02 4.837782308459281921e-02
2.581715285778045654e-01 -4.185799881815910339e-02 7.213114202022552490e-02
7.028150558471679688e-02 -2.164882048964500427e-02 9.568338096141815186e-02
8.005766868591308594e-01 -9.934353828430175781e-02 -2.145104575902223587e-03
-8.063541650772094727e-01 6.363689899444580078e-02 2.464478164911270142e-01
2.736048698425292969e-01 -5.651215836405754089e-02 2.211109399795532227e-01
6.262850761413574219e-01 -6.842651963233947754e-02 -7.272639125585556030e-02
1.838701367378234863e-01 -7.174445688724517822e-02 1.181799098849296570e-01
-4.765224158763885498e-01 2.751677297055721283e-02 -8.579699695110321045e-02
-4.974102377891540527e-01 1.186842694878578186e-01 -3.150536213070154190e-03
8.915848284959793091e-02 -1.181702464818954468e-01 -1.051766946911811829e-01
-2.064383625984191895e-01 -9.703104943037033081e-02 3.970597684383392334e-02
-6.613039970397949219e-02 -2.042911713942885399e-03 4.304920732975006104e-01
1.560272881761193275e-03 -7.931032031774520874e-02 9.693850763142108917e-03
3.109817802906036377e-01 -6.762216985225677490e-02 -7.315370440483093262e-02
-1.347259581089019775e-01 6.074628606438636780e-02 -6.867953389883041382e-02
2.790257148444652557e-02 4.835433885455131531e-02 -7.682353258132934570e-02
1.598151773214340210e-01 -6.453048437833786011e-02 -2.572733461856842041e-01
2.516277134418487549e-02 1.275013783015310764e-03 -4.406639933586120605e-01
3.692968189716339111e-01 -1.032647266983985901e-01 -7.423620205372571945e-03
5.282304286956787109e-01 9.324686229228973389e-02 -1.139673404395580292e-03
-7.635982036590576172e-01 3.216054737567901611e-01 9.568171575665473938e-03
-7.561077475547790527e-01 5.803161859512329102e-02 -1.169905066490173340e-01
9.823083877563476562e-01 -2.097014896571636200e-02 -2.959338203072547913e-02
-4.216258525848388672e-01 8.756616711616516113e-02 3.226578980684280396e-02
7.744605541229248047e-01 5.416070669889450073e-02 7.499662041664123535e-02
-5.291818380355834961e-01 -4.732441622763872147e-03 8.909780532121658325e-02
3.566032648086547852e-01 -9.853920340538024902e-02 3.312040492892265320e-02
-5.792020559310913086e-01 -6.058416143059730530e-02 9.643577970564365387e-03
1.196481883525848389e-01 -6.478182226419448853e-02 2.429790645837783813e-01
-5.762109160423278809e-01 -7.271157577633857727e-03 8.160733431577682495e-02
4.468909800052642822e-01 -3.298506140708923340e-02 -8.979359269142150879e-02
2.369317710399627686e-01 -9.295904636383056641e-02 1.909228563308715820e-01
9.593845605850219727e-01 -6.455561518669128418e-02 1.803893223404884338e-02
-2.541460692882537842e-01 -7.149308919906616211e-02 -6.767410039901733398e-02
2.859465479850769043e-01 -7.277501374483108521e-02 2.082162797451019287e-01
4.424083232879638672e-02 -6.251960247755050659e-02 1.969051808118820190e-01
1.996302455663681030e-01 -7.815407216548919678e-02 1.997455209493637085e-01
7.641463726758956909e-02 -6.240586284548044205e-03 3.638319671154022217e-01
-7.784534692764282227e-01 5.197389423847198486e-02 1.517864465713500977e-01
1.797729730606079102e-01 -1.037674322724342346e-01 1.260960195213556290e-02
-7.333849668502807617e-01 -1.400754787027835846e-02 -1.488894876092672348e-02
2.232579141855239868e-01 -5.296801030635833740e-02 1.576682329177856445e-01
5.500734448432922363e-01 -3.959577903151512146e-02 9.166165441274642944e-02
-5.170412659645080566e-01 8.560558408498764038e-02 2.721349336206912994e-02
-2.243756171083077788e-04 -3.911818563938140869e-02 1.250671148300170898e-01
8.038442730903625488e-01 5.423611402511596680e-02 -6.521079689264297485e-02
-6.655434966087341309e-01 2.480832785367965698e-01 1.127740554511547089e-02
9.754965305328369141e-01 -5.756787210702896118e-02 1.069928240031003952e-02
-7.268748283386230469e-01 1.971833407878875732e-01 1.162930671125650406e-02
5.772200226783752441e-01 -7.219689339399337769e-02 -6.888061761856079102e-02
-5.787998437881469727e-01 -5.570780485868453979e-02 3.141117095947265625e-02
2.569147348403930664e-01 8.397174626588821411e-02 4.458232223987579346e-02
-5.989672616124153137e-02 -3.009445220232009888e-02 -3.847871720790863037e-01
-3.436043262481689453e-01 -3.120042942464351654e-02 9.249113500118255615e-02
-3.010243475437164307e-01 -4.869493097066879272e-02 -8.071957528591156006e-02
-5.139495730400085449e-01 8.615856617689132690e-02 1.728485710918903351e-02
-2.508533000946044922e-01 -5.329477041959762573e-02 8.386956155300140381e-02
-5.522146821022033691e-02 -2.169910259544849396e-02 -5.029002428054809570e-01
-1.807244569063186646e-01 3.048279695212841034e-02 7.421255707740783691e-01
7.522656321525573730e-01 8.663614094257354736e-02 -1.561788562685251236e-02
7.596219331026077271e-02 -2.333291992545127869e-02 1.626953780651092529e-01
1.963626146316528320e-01 -1.144250184297561646e-01 2.680645883083343506e-01
-7.268748283386230469e-01 1.971833407878875732e-01 1.162930671125650406e-02
6.965144872665405273e-01 -8.101955056190490723e-02 6.034245714545249939e-02
-2.468818575143814087e-01 1.313910167664289474e-02 9.568338096141815186e-02
-7.775485515594482422e-01 1.077634096145629883e-02 -2.582301385700702667e-02
6.759198009967803955e-02 -2.506728470325469971e-02 -1.380291581153869629e-01
-1.983873080462217331e-03 1.501234131865203381e-03 -4.927453696727752686e-01
-2.397935539484024048e-01 6.841269880533218384e-02 6.411282718181610107e-02
-1.856259256601333618e-01 3.078442439436912537e-02 -7.375176548957824707e-01
5.087668076157569885e-02 4.641888663172721863e-02 8.278872072696685791e-02
-1.118021309375762939e-01 -3.356318175792694092e-02 9.339601546525955200e-02
-6.417399048805236816e-01 1.259736418724060059e-01 1.288609486073255539e-02
2.539738416671752930e-01 9.415174275636672974e-02 4.943186882883310318e-03
-7.024679183959960938e-01 2.966205179691314697e-01 1.044792402535676956e-02
5.626915693283081055e-01 -9.650319069623947144e-02 4.204360395669937134e-02
9.617136418819427490e-02 -4.464805871248245239e-02 -2.949518859386444092e-01
1.526766121387481689e-01 -4.213449358940124512e-02 2.590408325195312500e-01
-7.902506738901138306e-02 -2.086962014436721802e-02 3.885655701160430908e-01
-5.718874931335449219e-01 8.419797569513320923e-02 9.392220526933670044e-03
7.309671491384506226e-02 -4.934846982359886169e-02 2.734939157962799072e-01
2.922053635120391846e-01 -3.451834619045257568e-02 -8.906465023756027222e-02
-6.016483306884765625e-01 2.209115177392959595e-01 5.822938866913318634e-03
-5.371498465538024902e-01 1.326346397399902344e-01 -2.572413301095366478e-03
3.062311410903930664e-01 8.847105503082275391e-02 -2.200237289071083069e-02
3.871181011199951172e-01 -8.385989814996719360e-02 5.928675830364227295e-02
-1.481158076785504818e-03 -8.144685626029968262e-02 -5.726788565516471863e-02
7.183575034141540527e-01 6.172657757997512817e-02 -6.400427967309951782e-02
-6.014472842216491699e-01 2.321472018957138062e-01 4.170875035924836993e-05
-5.580377578735351562e-01 1.010892242193222046e-01 -7.825792767107486725e-03
1.434769183397293091e-01 -1.973849907517433167e-02 1.556825041770935059e-01
2.481423318386077881e-01 -1.229711771011352539e-01 -2.515423893928527832e-01
4.468909800052642822e-01 -3.298506140708923340e-02 -8.979359269142150879e-02
-1.248727366328239441e-01 2.120769023895263672e-02 -6.288304924964904785e-01
2.350465804338455200e-01 -7.526344805955886841e-02 2.789232432842254639e-01
2.168231457471847534e-01 5.969057977199554443e-02 7.502175122499465942e-02
8.089469075202941895e-01 -1.735060662031173706e-02 8.799182623624801636e-02
9.074204415082931519e-02 9.171357750892639160e-02 -1.013828534632921219e-02
2.477401494979858398e-01 -9.062142670154571533e-02 2.681651413440704346e-01
1.300543993711471558e-01 4.129118099808692932e-02 -8.021685481071472168e-02
1.669034659862518311e-01 -8.670023828744888306e-02 2.125396430492401123e-01
2.770736217498779297e-01 -8.755485713481903076e-02 -4.960146918892860413e-02
4.969111680984497070e-01 5.192361772060394287e-02 8.014945685863494873e-02
-6.898748874664306641e-01 6.361176818609237671e-02 -1.479578018188476562e-01
-5.855110883712768555e-01 1.582479923963546753e-01 9.191134013235569000e-03
-3.660757541656494141e-01 -2.318210527300834656e-02 9.487903118133544922e-02
1.429490596055984497e-01 -1.649598963558673859e-02 2.443112730979919434e-01
-8.137189149856567383e-01 4.147838354110717773e-01 -2.647820627316832542e-03
-2.649544477462768555e-01 1.292161643505096436e-01 -7.833653092384338379e-01
-1.422164291143417358e-01 9.796043857932090759e-03 -6.674894094467163086e-01
-7.107375860214233398e-01 5.999220907688140869e-02 1.176017820835113525e-01
1.824876666069030762e-01 -3.705706447362899780e-02 2.234485596418380737e-01
-2.557547688484191895e-01 1.736191846430301666e-02 -9.064820408821105957e-02
-9.724850207567214966e-02 2.025253511965274811e-02 -9.034657478332519531e-02
-7.840515114367008209e-03 -3.723300993442535400e-02 -2.427951246500015259e-01
-1.947838254272937775e-02 -3.695651516318321228e-02 3.737857341766357422e-01
1.505149304866790771e-01 -6.581240892410278320e-02 2.238004654645919800e-01
1.307245902717113495e-02 -3.481997549533843994e-02 2.766593918204307556e-02
2.619921565055847168e-01 -5.352099984884262085e-02 2.294560223817825317e-01
4.468909800052642822e-01 -3.298506140708923340e-02 -8.979359269142150879e-02
2.281342446804046631e-01 -1.379521042108535767e-01 -2.272109389305114746e-01
1.095436066389083862e-01 -9.356229752302169800e-02 2.492127418518066406e-01
8.038442730903625488e-01 5.423611402511596680e-02 -6.521079689264297485e-02
-6.895983815193176270e-01 5.383393913507461548e-02 4.920730367302894592e-02
-5.732699632644653320e-01 2.148789167404174805e-01 4.239385016262531281e-03
1.549388319253921509e-01 -4.364262893795967102e-02 -2.487774491310119629e-01
6.543029844760894775e-02 -3.220586106181144714e-02 -8.969303965568542480e-02
1.735644489526748657e-01 -1.074121221899986267e-01 -2.220329642295837402e-01
1.870372295379638672e-01 -7.136741280555725098e-02 2.739714980125427246e-01
1.025558561086654663e-01 -8.313096314668655396e-02 6.019164249300956726e-02
1.493838131427764893e-01 -9.223011136054992676e-02 1.963019222021102905e-01
8.363700509071350098e-01 7.457096874713897705e-02 -3.753794822841882706e-03
-1.118021309375762939e-01 -3.356318175792694092e-02 9.339601546525955200e-02
1.764048039913177490e-01 -2.169910259544849396e-02 -1.463742405176162720e-01
-9.938504546880722046e-02 1.266152877360582352e-02 -5.468375682830810547e-01
3.018992953002452850e-02 -2.549459226429462433e-02 1.739059388637542725e-01
1.668029278516769409e-01 -4.034984484314918518e-02 9.123434126377105713e-02
4.150439798831939697e-01 3.080956637859344482e-02 9.030432254076004028e-02
-7.727224826812744141e-01 2.766375541687011719e-01 8.135431446135044098e-03
8.651922643184661865e-02 9.447850286960601807e-02 8.460537646897137165e-04
-6.065080314874649048e-02 -7.124172896146774292e-02 7.399118691682815552e-02
3.909638524055480957e-01 9.229169785976409912e-02 1.112659089267253876e-02
7.729523777961730957e-01 -7.926005125045776367e-02 -5.538269877433776855e-02
-1.585882902145385742e-02 9.276927262544631958e-02 1.102604623883962631e-02
-5.587918162345886230e-01 1.705645322799682617e-01 6.401062477380037308e-03
-6.169559955596923828e-01 2.711831033229827881e-01 1.750942086800932884e-03
-1.592584848403930664e-01 1.788976415991783142e-02 7.260386943817138672e-01
4.542221128940582275e-02 -3.249429399147629738e-03 3.768523037433624268e-01
4.182864725589752197e-01 4.385503754019737244e-02 8.402036875486373901e-02
1.076332852244377136e-01 -9.092305600643157959e-02 -1.071372777223587036e-01
4.878874719142913818e-01 -3.569972142577171326e-02 -8.851166814565658569e-02
-5.582473054528236389e-02 -1.003489643335342407e-01 -2.011719159781932831e-02
-1.038089394569396973e-01 2.025253511965274811e-02 -6.331790089607238770e-01
6.498373150825500488e-01 9.010488539934158325e-02 1.796352304518222809e-02
9.785546362400054932e-02 -6.538509577512741089e-02 -1.409449130296707153e-01
2.362949028611183167e-02 -4.409508779644966125e-02 -2.656184136867523193e-01
-3.619031608104705811e-01 6.980832666158676147e-03 -8.991926163434982300e-02
1.378464996814727783e-01 9.007973968982696533e-02 -1.659818179905414581e-02
-1.224345713853836060e-01 -1.037482055835425854e-03 5.805526971817016602e-01
8.849647827446460724e-03 -4.786544665694236755e-02 -1.758836656808853149e-01
-6.999543905258178711e-01 2.540656030178070068e-01 -5.689250770956277847e-03
8.982543349266052246e-01 5.539235845208168030e-02 1.200634241104125977e-02
1.775359064340591431e-01 -5.379749462008476257e-02 -2.393515259027481079e-01
2.003340721130371094e-01 -1.308638006448745728e-01 2.314920127391815186e-01
-4.951228499412536621e-01 -7.176958769559860229e-02 -3.617895767092704773e-02
4.135106503963470459e-01 -1.038428470492362976e-01 9.869800880551338196e-03
4.099916517734527588e-01 -3.982198983430862427e-02 9.153597056865692139e-02
3.571980446577072144e-02 -1.003609411418437958e-02 4.484892785549163818e-01
-8.923020213842391968e-02 -3.336793743073940277e-04 -9.064820408821105957e-02
-7.279807925224304199e-01 3.764014840126037598e-01 1.449312665499746799e-03
2.022192478179931641e-01 -9.454260021448135376e-02 -6.445671617984771729e-02
1.191706061363220215e-01 -1.516379136592149734e-02 2.393343746662139893e-01
-7.562082409858703613e-01 2.348367571830749512e-01 -3.829202149063348770e-03
-8.173973113298416138e-02 -2.272966504096984863e-02 9.568338096141815186e-02
4.175323545932769775e-01 8.105600625276565552e-02 4.825214296579360962e-02
-6.610190868377685547e-01 3.312205150723457336e-02 6.820996105670928955e-02
-4.460578262805938721e-01 7.175575941801071167e-02 -5.430186167359352112e-02
8.197552561759948730e-01 -1.377510130405426025e-01 1.487182173877954483e-02
2.232242934405803680e-02 -2.715356089174747467e-02 1.550038307905197144e-01
8.005766868591308594e-01 -9.934353828430175781e-02 -2.145104575902223587e-03
6.957855224609375000e-01 -7.056306302547454834e-02 -6.847844272851943970e-02
-1.324470620602369308e-02 -4.665893688797950745e-02 6.577178835868835449e-02
-7.320024967193603516e-01 2.560764849185943604e-01 1.069928240031003952e-02
-7.561077475547790527e-01 5.803161859512329102e-02 -1.169905066490173340e-01
-7.482401728630065918e-01 4.468451440334320068e-02 -1.522811502218246460e-01
9.593845605850219727e-01 -6.455561518669128418e-02 1.803893223404884338e-02
-1.190161034464836121e-01 4.853029549121856689e-02 8.175814896821975708e-02
-3.233952224254608154e-01 9.126113355159759521e-02 1.695809327065944672e-02
4.328567162156105042e-02 -4.919765517115592957e-02 -2.317102551460266113e-01
1.011985242366790771e-01 -1.465234160423278809e-01 -1.329517215490341187e-01
1.548382937908172607e-01 -1.170391291379928589e-01 -2.058455199003219604e-01
-3.436043262481689453e-01 -3.120042942464351654e-02 9.249113500118255615e-02
5.427337884902954102e-01 9.219114482402801514e-02 1.022170204669237137e-02
5.959210395812988281e-01 2.701405808329582214e-02 -8.707892149686813354e-02
-8.669148385524749756e-02 1.570294983685016632e-02 -5.707417130470275879e-01
-7.002056837081909180e-01 3.281156420707702637e-01 5.094001535326242447e-03
8.294995129108428955e-02 -1.441103816032409668e-01 1.002580896019935608e-01
5.588960647583007812e-01 9.846317581832408905e-03 -9.064820408821105957e-02
1.561202257871627808e-01 -2.147287316620349884e-02 -1.231990456581115723e-01
2.337143868207931519e-01 -1.361423283815383911e-01 -2.463895380496978760e-01
4.390988647937774658e-01 9.201519936323165894e-02 -6.820360664278268814e-03
-4.521909654140472412e-01 8.711372315883636475e-02 3.427664935588836670e-02
1.924414336681365967e-01 8.894862979650497437e-02 2.618292719125747681e-02
-3.913457319140434265e-02 -1.853198185563087463e-02 4.814925789833068848e-01
1.417928189039230347e-01 -2.325752191245555878e-02 5.624532699584960938e-02
1.966391056776046753e-01 -1.004243791103363037e-01 2.490100264549255371e-02
-7.230289578437805176e-01 2.900600433349609375e-01 -7.976607419550418854e-03
2.477401494979858398e-01 -9.062142670154571533e-02 2.681651413440704346e-01
5.815685391426086426e-01 -2.557000890374183655e-02 -9.064820408821105957e-02
-7.196859717369079590e-01 -2.069366350769996643e-02 1.034738123416900635e-02
-1.576246619224548340e-01 2.364586852490901947e-02 -6.646992564201354980e-01
-6.937206983566284180e-01 6.408934295177459717e-02 1.585479676723480225e-01
-2.268234789371490479e-01 2.688837796449661255e-02 -7.719285488128662109e-01
3.606500923633575439e-01 5.385908111929893494e-02 -8.252934366464614868e-02
9.825763851404190063e-02 -1.244039162993431091e-01 -9.713323414325714111e-02
2.177782803773880005e-01 -2.682680077850818634e-02 -1.373756378889083862e-01
-3.247359022498130798e-02 9.339767694473266602e-02 -3.452165517956018448e-03
2.497007548809051514e-01 -6.510860472917556763e-02 -9.841515868902206421e-02
4.316084086894989014e-01 -5.505428835749626160e-02 8.422145992517471313e-02
7.068955898284912109e-01 -9.828784316778182983e-02 3.166252747178077698e-02
1.838701367378234863e-01 -7.174445688724517822e-02 1.181799098849296570e-01
-7.684493660926818848e-01 7.173062115907669067e-02 -2.456606030464172363e-01
-5.324997901916503906e-01 -3.539809584617614746e-02 7.431795448064804077e-02
-7.753617763519287109e-01 5.830811336636543274e-02 -1.480332016944885254e-01
-6.999543905258178711e-01 2.540656030178070068e-01 -5.689250770956277847e-03
-9.149242192506790161e-02 -1.058907434344291687e-02 -4.173882603645324707e-01
9.881901144981384277e-01 -4.899655655026435852e-02 -9.082581847906112671e-03
2.771490216255187988e-01 -1.405781321227550507e-02 9.568338096141815186e-02
-1.210520938038825989e-01 -4.657034762203693390e-03 9.568338096141815186e-02
2.497761547565460205e-01 -1.041696071624755859e-01 2.098249644041061401e-01
5.090266466140747070e-01 -1.026865988969802856e-01 -9.937197901308536530e-03
-4.241896569728851318e-01 9.043165296316146851e-02 -4.457597155123949051e-03
7.466101050376892090e-01 8.465041220188140869e-02 -2.506894245743751526e-02
-5.763868689537048340e-01 3.812407702207565308e-02 -7.275152951478958130e-02
-6.655434966087341309e-01 2.480832785367965698e-01 1.127740554511547089e-02
9.823083877563476562e-01 -2.097014896571636200e-02 -2.959338203072547913e-02
-7.178510427474975586e-01 5.848406255245208740e-02 -9.818893671035766602e-02
-1.422164291143417358e-01 9.796043857932090759e-03 -6.674894094467163086e-01
-1.058449521660804749e-01 5.790594220161437988e-02 7.725884765386581421e-02
5.106856226921081543e-01 -4.645784199237823486e-02 -8.330855518579483032e-02
8.383055329322814941e-01 -9.939382225275039673e-02 1.665646396577358246e-02
1.711932010948657990e-02 -3.148880787193775177e-03 -3.570372462272644043e-01
1.498865485191345215e-01 -6.455561518669128418e-02 1.703366488218307495e-01
-7.602551579475402832e-01 7.052410393953323364e-02 -2.316097021102905273e-01
9.423173666000366211e-01 2.686324529349803925e-02 -2.599209256004542112e-04
4.018979370594024658e-01 9.317144751548767090e-02 -2.572413301095366478e-03
1.062005534768104553e-01 6.089709699153900146e-02 -6.850358098745346069e-02
-7.822071760892868042e-02 -9.709325619041919708e-03 -4.041920006275177002e-01
-7.745573520660400391e-01 5.823270604014396667e-02 2.469756603240966797e-01
1.604435592889785767e-01 -9.987138956785202026e-02 2.723862975835800171e-02
3.802811801433563232e-01 -1.566650718450546265e-02 9.568338096141815186e-02
5.288085341453552246e-01 -3.127582743763923645e-02 9.565824270248413086e-02
3.204997628927230835e-02 -9.383879601955413818e-02 -6.118906661868095398e-02
1.614992767572402954e-01 -7.463505864143371582e-02 -1.961431056261062622e-01
-7.019401192665100098e-01 2.555617876350879669e-02 -5.229099839925765991e-02
2.350465804338455200e-01 -7.526344805955886841e-02 2.789232432842254639e-01
7.813980579376220703e-01 -3.519701585173606873e-02 9.070648998022079468e-02
-6.610190868377685547e-01 3.312205150723457336e-02 6.820996105670928955e-02
-3.823888599872589111e-01 8.404716104269027710e-02 4.423042014241218567e-02
-1.385214626789093018e-01 8.815745823085308075e-03 9.568338096141815186e-02
1.682105213403701782e-01 -5.462697893381118774e-02 -2.330675721168518066e-01
1.719809025526046753e-01 -9.806161373853683472e-02 5.823105201125144958e-02
1.013157237321138382e-02 -3.391509130597114563e-02 -1.285529732704162598e-01
-8.225918412208557129e-01 7.288686931133270264e-02 3.122532963752746582e-01
8.038442730903625488e-01 5.423611402511596680e-02 -6.521079689264297485e-02
2.517367303371429443e-01 -9.273283183574676514e-02 4.533639550209045410e-02
2.028225064277648926e-01 -7.762622088193893433e-02 -2.725558876991271973e-01
-1.593338996171951294e-01 2.688837796449661255e-02 7.003750205039978027e-01
-1.891449391841888428e-01 -7.413233816623687744e-02 -6.495943665504455566e-02
1.509673744440078735e-01 -2.267938107252120972e-02 4.800078645348548889e-02
-7.195100188255310059e-01 3.216054737567901611e-01 7.934345863759517670e-03
-6.821582317352294922e-01 6.894055008888244629e-02 -3.728493303060531616e-02
1.845487803220748901e-01 -9.632724523544311523e-02 6.383633613586425781e-02
-1.038592234253883362e-01 -6.416541524231433868e-03 -5.373362302780151367e-01
2.262490540742874146e-01 -2.579621970653533936e-02 -3.917011618614196777e-02
9.617136418819427490e-02 -4.464805871248245239e-02 -2.949518859386444092e-01
-6.726569533348083496e-01 2.629385590553283691e-01 1.102604623883962631e-02
-4.373105168342590332e-01 7.708454877138137817e-02 -4.766601696610450745e-02
-3.405714035034179688e-02 -2.119637839496135712e-02 4.611325860023498535e-01
-1.891449391841888428e-01 -7.413233816623687744e-02 -6.495943665504455566e-02
-6.442031860351562500e-01 -9.357423521578311920e-03 -5.990714207291603088e-02
-7.173231840133666992e-01 6.202821061015129089e-02 -1.352642178535461426e-01
6.198754310607910156e-01 -3.089878521859645844e-02 -9.064820408821105957e-02
8.292480558156967163e-02 -1.450152546167373657e-01 -1.240285336971282959e-01
-4.526770114898681641e-02 -2.687706612050533295e-02 3.515154123306274414e-01
-4.242399334907531738e-01 -8.642373979091644287e-02 2.364421263337135315e-02
-1.520696580410003662e-01 9.745769202709197998e-03 -5.759447813034057617e-01
1.857719570398330688e-02 -3.592595085501670837e-02 -3.534679710865020752e-01
1.378464996814727783e-01 9.007973968982696533e-02 -1.659818179905414581e-02
-8.213350772857666016e-01 4.096442088484764099e-02 3.108274657279253006e-03
-1.094142273068428040e-01 1.990063302218914032e-02 6.286625862121582031e-01
9.538044333457946777e-01 -3.542322665452957153e-02 -4.281480982899665833e-02
1.422704011201858521e-01 -2.004013583064079285e-02 -1.390848606824874878e-01
3.650488853454589844e-01 1.844275370240211487e-02 9.568338096141815186e-02
2.517367303371429443e-01 -9.273283183574676514e-02 4.533639550209045410e-02
1.869115531444549561e-01 -8.290472626686096191e-02 -1.877980232238769531e-01
-2.006822675466537476e-01 7.462123781442642212e-02 -5.128556862473487854e-02
1.543355733156204224e-01 -7.903382182121276855e-02 9.480362385511398315e-02
-9.830421954393386841e-02 3.889136714860796928e-03 -4.881706535816192627e-01
7.056473405100405216e-04 -2.908902242779731750e-02 4.102326035499572754e-01
-7.084753513336181641e-01 6.439097225666046143e-02 -1.912164986133575439e-01
-8.857665956020355225e-02 8.086810819804668427e-03 -5.087568759918212891e-01
-7.498740553855895996e-01 3.935572877526283264e-02 -8.919032663106918335e-02
-6.898497939109802246e-01 6.713077425956726074e-02 4.322498664259910583e-02
-7.029455900192260742e-01 2.535126209259033203e-01 1.072441693395376205e-02
-2.884564101696014404e-01 1.635648868978023529e-02 -9.064820408821105957e-02
-7.017726451158523560e-02 -1.667193509638309479e-02 4.669389426708221436e-01
1.588348895311355591e-01 -1.036920323967933655e-01 1.958243548870086670e-01
-3.111624903976917267e-02 7.989975064992904663e-02 4.968488588929176331e-02
-2.323030680418014526e-01 -1.040942072868347168e-01 -3.728659590706229210e-03
-1.038592234253883362e-01 -6.416541524231433868e-03 -5.373362302780151367e-01
2.539486885070800781e-01 -1.381029337644577026e-01 -2.414126545190811157e-01
3.734442591667175293e-01 -4.210936278104782104e-02 9.045513719320297241e-02
1.336991041898727417e-01 -3.715761005878448486e-02 -8.765704184770584106e-02
6.960871815681457520e-01 -4.472347721457481384e-02 8.796669542789459229e-02
4.829860031604766846e-01 9.410148113965988159e-02 1.851485227234661579e-03
-7.950264215469360352e-02 -1.606868207454681396e-02 -3.921770751476287842e-01
-6.813789606094360352e-01 2.582381367683410645e-01 -4.281646106392145157e-03
-2.083571255207061768e-02 8.765481412410736084e-03 -9.064820408821105957e-02
-5.522313714027404785e-01 1.753786392509937286e-02 8.567933738231658936e-02
-2.232039272785186768e-01 -1.858225651085376740e-02 -9.064820408821105957e-02
5.732485651969909668e-01 -4.914737120270729065e-02 -8.205176144838333130e-02
-6.016483306884765625e-01 2.209115177392959595e-01 5.822938866913318634e-03
-7.572137117385864258e-01 6.675373762845993042e-02 -2.667763084173202515e-02
-1.947838254272937775e-02 -3.695651516318321228e-02 3.737857341766357422e-01
-7.460031509399414062e-01 5.481423810124397278e-02 -2.298753410577774048e-01
-3.396831452846527100e-01 1.055012084543704987e-02 9.545715153217315674e-02
-7.069169878959655762e-01 3.616348281502723694e-02 1.158422753214836121e-01
1.962439157068729401e-03 -6.754676997661590576e-02 8.753938227891921997e-02
5.805882215499877930e-01 -2.079420350492000580e-02 9.568338096141815186e-02
6.605200171470642090e-01 -1.272562425583600998e-02 -9.007008373737335205e-02
1.804767996072769165e-01 -6.081037223339080811e-02 1.854181140661239624e-01
2.210208177566528320e-01 -7.169417291879653931e-02 -1.027887910604476929e-01
-8.102250695228576660e-01 3.676542341709136963e-01 -1.189944799989461899e-03
-2.785780727863311768e-01 -9.786053001880645752e-02 3.608642518520355225e-02
4.107372462749481201e-02 -6.098633632063865662e-02 1.514345556497573853e-01
5.739524364471435547e-01 -8.561939001083374023e-02 5.707480385899543762e-02
-1.891449391841888428e-01 -7.413233816623687744e-02 -6.495943665504455566e-02
1.378464996814727783e-01 9.007973968982696533e-02 -1.659818179905414581e-02
1.962439157068729401e-03 -6.754676997661590576e-02 8.753938227891921997e-02
-5.900607109069824219e-01 1.321821808815002441e-01 -6.367916241288185120e-03
5.486909747123718262e-01 4.868111014366149902e-02 -7.664757221937179565e-02
1.027318090200424194e-01 -8.921381831169128418e-02 -2.221586406230926514e-01
2.795117795467376709e-01 -1.001227572560310364e-01 -1.926240921020507812e-01
1.766812950372695923e-01 2.203717455267906189e-02 -8.949195593595504761e-02
5.772200226783752441e-01 -7.219689339399337769e-02 -6.888061761856079102e-02
-7.107375860214233398e-01 5.999220907688140869e-02 1.176017820835113525e-01
1.962871998548507690e-01 -8.617237955331802368e-02 -8.019171655178070068e-02
-3.026078641414642334e-01 -6.128796190023422241e-02 -7.501374930143356323e-02
5.258591100573539734e-02 3.857651725411415100e-02 -8.152391761541366577e-02
1.640882641077041626e-01 -1.240268722176551819e-01 -2.453087121248245239e-01
1.606446653604507446e-01 9.485554695129394531e-02 2.278793370351195335e-03
4.994247853755950928e-01 -9.921785444021224976e-02 -2.514434792101383209e-02
7.507575750350952148e-01 -2.294264500960707664e-03 -8.763191103935241699e-02
1.779129505157470703e-01 5.735295265913009644e-02 -7.247503846883773804e-02
-7.031214237213134766e-01 2.809106409549713135e-01 1.027197297662496567e-02
-1.363597959280014038e-01 4.366719163954257965e-03 -6.202089190483093262e-01
-6.558590568602085114e-03 -3.861548006534576416e-02 2.959401905536651611e-01
-4.694592654705047607e-01 -8.205011487007141113e-02 -8.026879280805587769e-03
4.168285727500915527e-01 -9.107387065887451172e-02 -4.517757520079612732e-02
-6.303870677947998047e-02 8.187349885702133179e-03 -9.064820408821105957e-02
-5.229984521865844727e-01 -7.204607874155044556e-02 1.748594455420970917e-02
-3.862597942352294922e-01 -9.486937522888183594e-02 -6.619275081902742386e-03
8.905376791954040527e-01 -6.943194568157196045e-02 -4.610759764909744263e-02
-7.711473852396011353e-02 1.507456321269273758e-02 -5.713701248168945312e-01
-2.567350566387176514e-01 -4.686001688241958618e-02 8.678530901670455933e-02
2.362949028611183167e-02 -4.409508779644966125e-02 -2.656184136867523193e-01
1.624292880296707153e-01 -1.146260946989059448e-01 2.187984585762023926e-01
-1.578760296106338501e-01 2.862275205552577972e-02 7.286779284477233887e-01
1.309593021869659424e-01 -2.554487623274326324e-02 -2.931923568248748779e-01
4.250479936599731445e-01 -5.568267405033111572e-02 -7.885951548814773560e-02
1.627812087535858154e-01 -7.787758111953735352e-02 -2.619234621524810791e-01
-1.843439936637878418e-01 3.146309405565261841e-02 7.762348055839538574e-01
-7.561077475547790527e-01 5.803161859512329102e-02 -1.169905066490173340e-01
-7.740797996520996094e-01 5.629725009202957153e-02 -2.273868918418884277e-01
-1.209515482187271118e-01 2.186121977865695953e-02 -6.464758515357971191e-01
2.844886779785156250e-01 -2.921470254659652710e-02 -9.064820408821105957e-02
1.090157479047775269e-01 -1.481189019978046417e-02 2.329498827457427979e-01
3.909638524055480957e-01 9.229169785976409912e-02 1.112659089267253876e-02
1.417928189039230347e-01 -2.325752191245555878e-02 5.624532699584960938e-02
1.963626146316528320e-01 -1.144250184297561646e-01 2.680645883083343506e-01
8.651922643184661865e-02 9.447850286960601807e-02 8.460537646897137165e-04
1.675569862127304077e-01 -3.705706447362899780e-02 2.492881566286087036e-01
2.487455904483795166e-01 -8.086873590946197510e-02 -7.986495643854141235e-02
4.182864725589752197e-01 4.385503754019737244e-02 8.402036875486373901e-02
4.316084086894989014e-01 -5.505428835749626160e-02 8.422145992517471313e-02
1.766812950372695923e-01 2.203717455267906189e-02 -8.949195593595504761e-02
-5.242049694061279297e-01 -7.443396747112274170e-02 5.873211193829774857e-03
-1.534269750118255615e-01 1.643189415335655212e-02 6.165220141410827637e-01
-4.216258525848388672e-01 8.756616711616516113e-02 3.226578980684280396e-02
1.568994224071502686e-01 -7.488642632961273193e-02 1.069190725684165955e-01
-6.127080321311950684e-01 -3.838925063610076904e-02 4.604019597172737122e-02
1.492581516504287720e-01 -5.651215836405754089e-02 2.353126555681228638e-01
3.018992953002452850e-02 -2.549459226429462433e-02 1.739059388637542725e-01
-6.244465112686157227e-01 -3.647894039750099182e-02 4.438123479485511780e-02
-7.978079915046691895e-01 6.119872629642486572e-02 -2.007680833339691162e-01
-1.631127856671810150e-02 -6.014365702867507935e-03 -3.626174032688140869e-01
9.541729092597961426e-02 -1.444119960069656372e-01 1.521383523941040039e-01
-3.823888599872589111e-01 8.404716104269027710e-02 4.423042014241218567e-02
-6.554137468338012695e-01 6.788484752178192139e-02 4.837782308459281921e-02
3.148275613784790039e-01 -7.689728587865829468e-02 6.800887733697891235e-02
6.274077296257019043e-02 -5.568267405033111572e-02 1.954975724220275879e-01
-1.979927420616149902e-01 3.231770917773246765e-02 8.957538753747940063e-02
-8.070915192365646362e-02 -1.049236953258514404e-01 5.169408861547708511e-03
6.336750388145446777e-01 7.585289329290390015e-02 -4.972714930772781372e-02
1.520482152700424194e-01 -3.230639174580574036e-02 2.232726216316223145e-01
-3.457660377025604248e-01 9.555935114622116089e-02 3.837212454527616501e-03
-7.759398221969604492e-01 5.592021346092224121e-02 3.435205668210983276e-02
-4.501549899578094482e-01 -5.719082802534103394e-02 -6.307424604892730713e-02
1.650182753801345825e-01 7.323876768350601196e-02 5.805510282516479492e-02
1.094933375716209412e-01 -5.877437815070152283e-02 -2.055438905954360962e-01
3.951530531048774719e-02 -5.520509928464889526e-02 -1.988075077533721924e-01
4.047046601772308350e-02 -1.046220436692237854e-01 2.789216116070747375e-02
-7.614113688468933105e-01 4.946031793951988220e-02 1.864235550165176392e-01
2.084026485681533813e-01 -7.998898625373840332e-02 6.413795799016952515e-02
4.362083077430725098e-01 -2.069366350769996643e-02 9.568338096141815186e-02
-2.545231282711029053e-01 9.030596911907196045e-02 -7.840440273284912109e-01
-5.738481283187866211e-01 7.273605465888977051e-02 5.131871253252029419e-02
6.653627753257751465e-02 -6.722000986337661743e-02 1.215732395648956299e-01
-7.455255985260009766e-01 6.323472410440444946e-02 2.607249319553375244e-01
9.330589324235916138e-02 -1.247426215559244156e-02 -9.064820408821105957e-02
-8.063541650772094727e-01 6.363689899444580078e-02 2.464478164911270142e-01
-4.301217496395111084e-01 -5.486509297043085098e-03 -8.841111510992050171e-02
-4.056731238961219788e-02 8.834537863731384277e-02 -2.351052314043045044e-02
3.018992953002452850e-02 -2.549459226429462433e-02 1.739059388637542725e-01
2.523399889469146729e-01 -1.016560196876525879e-01 -2.271103858947753906e-01
9.118779301643371582e-01 -2.295587584376335144e-02 -6.149069964885711670e-02
-3.247359022498130798e-02 9.339767694473266602e-02 -3.452165517956018448e-03
2.002083957195281982e-01 -1.214749272912740707e-02 9.568338096141815186e-02
8.849647827446460724e-03 -4.786544665694236755e-02 -1.758836656808853149e-01
8.651922643184661865e-02 9.447850286960601807e-02 8.460537646897137165e-04
8.005766868591308594e-01 -9.934353828430175781e-02 -2.145104575902223587e-03
-7.922026515007019043e-01 4.327690973877906799e-02 -2.544597722589969635e-02
9.347012042999267578e-01 -6.606374680995941162e-02 3.369852527976036072e-02
-5.331281423568725586e-01 -7.244823873043060303e-02 -2.599209256004542112e-04
-1.777584254741668701e-01 -6.488237529993057251e-02 7.869158685207366943e-02
1.275408267974853516e-01 -2.413727156817913055e-02 2.568021230399608612e-02
1.296773701906204224e-01 -1.345587819814682007e-01 1.038776412606239319e-01
-3.720329403877258301e-01 -3.818817436695098877e-02 8.716234564781188965e-02
-6.733355522155761719e-01 2.329396642744541168e-02 -5.990714207291603088e-02
2.901693582534790039e-01 -1.042450219392776489e-01 -3.049992723390460014e-03
1.503304950892925262e-02 -1.044460982084274292e-01 -2.245647832751274109e-03
1.045164465904235840e-01 -1.481189019978046417e-02 2.249567210674285889e-01
-5.805593729019165039e-01 9.827400743961334229e-02 1.288609486073255539e-02
-2.639072760939598083e-02 1.427021250128746033e-02 9.568338096141815186e-02
1.675569862127304077e-01 -7.875733077526092529e-02 1.983127743005752563e-01
1.824876666069030762e-01 -3.705706447362899780e-02 2.234485596418380737e-01
2.146111875772476196e-01 -5.972954258322715759e-02 1.552551984786987305e-01
4.775063693523406982e-01 -1.054515317082405090e-01 2.806645119562745094e-03
2.561606466770172119e-01 -1.327992677688598633e-01 -2.543324530124664307e-01
6.863093972206115723e-01 -4.869493097066879272e-02 8.625745773315429688e-02
-7.499997019767761230e-01 5.818243324756622314e-02 -2.492298781871795654e-01
-5.587918162345886230e-01 1.705645322799682617e-01 6.401062477380037308e-03
-1.280079595744609833e-03 -5.417453870177268982e-02 -1.000238507986068726e-01
-6.553886532783508301e-01 2.575726620852947235e-02 6.632477790117263794e-02
1.093425229191780090e-01 -1.566650718450546265e-02 -2.044881880283355713e-01
1.897518932819366455e-01 -1.343325525522232056e-01 -2.177096158266067505e-01
9.857268333435058594e-01 -4.057607799768447876e-02 2.482559531927108765e-02
-1.415126174688339233e-01 -8.064250648021697998e-02 6.273035705089569092e-02
-2.375313341617584229e-01 -3.575000539422035217e-02 9.191300719976425171e-02
3.664982691407203674e-02 -6.101739709265530109e-04 -4.115065038204193115e-01
-7.769704461097717285e-01 2.555486261844635010e-01 6.677556317299604416e-03
2.874044179916381836e-01 -8.955248631536960602e-03 9.568338096141815186e-02
-2.452228814363479614e-01 7.577748596668243408e-02 -7.812790870666503906e-01
4.376158714294433594e-01 -1.039182469248771667e-01 -4.482733085751533508e-03
2.410791665315628052e-01 -8.008951693773269653e-02 -1.877226084470748901e-01
-6.037345528602600098e-01 5.018925294280052185e-02 6.853672862052917480e-02
-5.448162555694580078e-01 4.991275817155838013e-02 7.534852623939514160e-02
-2.539952695369720459e-01 1.492493897676467896e-01 -7.828626036643981934e-01
4.240677058696746826e-01 -1.024101078510284424e-01 -1.109344512224197388e-02
1.716792732477188110e-01 -1.304364949464797974e-01 -2.431218922138214111e-01
-5.652517080307006836e-01 1.893660873174667358e-01 -4.861429624725133181e-04
-7.154882550239562988e-01 5.531695112586021423e-02 6.919025629758834839e-02
2.024957388639450073e-01 9.327199310064315796e-02 -3.854338312521576881e-03
-6.553886532783508301e-01 2.575726620852947235e-02 6.632477790117263794e-02
7.799819856882095337e-02 -3.341236710548400879e-02 9.422550350427627563e-02
1.871126294136047363e-01 -8.757998794317245483e-02 8.361819386482238770e-02
-2.268234789371490479e-01 2.688837796449661255e-02 -7.719285488128662109e-01
1.818341165781021118e-01 2.154762391000986099e-03 -9.064820408821105957e-02
1.988007873296737671e-01 -8.212552964687347412e-02 2.786970138549804688e-01
-2.468818575143814087e-01 1.313910167664289474e-02 9.568338096141815186e-02
5.049964413046836853e-02 -8.754169568419456482e-03 -2.955048680305480957e-01
-2.452228814363479614e-01 7.577748596668243408e-02 -7.812790870666503906e-01
2.524908185005187988e-01 -9.796106070280075073e-02 -2.772311568260192871e-01
5.875257253646850586e-01 1.306369435042142868e-02 9.568338096141815186e-02
-7.086262702941894531e-01 4.176876321434974670e-02 5.513935163617134094e-02
-6.192181706428527832e-01 1.822023987770080566e-01 -4.809498321264982224e-03
8.058717846870422363e-02 -5.834707245230674744e-02 1.891633570194244385e-01
-5.106818675994873047e-01 4.531290754675865173e-02 8.143138140439987183e-02
1.470628473907709122e-02 -2.672625146806240082e-02 2.114336639642715454e-01
-2.024669051170349121e-01 8.550503104925155640e-02 -3.477135300636291504e-02
5.456997752189636230e-01 -1.556596718728542328e-02 9.568338096141815186e-02
4.970117807388305664e-01 -2.298102714121341705e-02 -9.064820408821105957e-02
3.468505740165710449e-01 8.309199661016464233e-02 -4.065313190221786499e-02
1.683864742517471313e-01 -8.838433772325515747e-02 8.296466618776321411e-02
-1.593338996171951294e-01 2.688837796449661255e-02 7.003750205039978027e-01
3.618063926696777344e-01 -6.656647473573684692e-02 7.866644114255905151e-02
-7.762163281440734863e-01 4.976194724440574646e-02 -1.144015267491340637e-01
5.401698946952819824e-01 5.390934646129608154e-02 -7.710002362728118896e-02
-5.337314009666442871e-01 6.926731765270233154e-02 5.989001691341400146e-02
-2.375313341617584229e-01 -3.575000539422035217e-02 9.191300719976425171e-02
1.251947041600942612e-02 -3.346265107393264771e-02 3.791647851467132568e-01
-3.518825396895408630e-02 6.176490802317857742e-03 4.642242789268493652e-01
-5.536640882492065430e-01 1.567901223897933960e-01 7.029457017779350281e-03
-5.805593729019165039e-01 9.827400743961334229e-02 1.288609486073255539e-02
1.736901402473449707e-01 -4.263719916343688965e-02 -2.276131212711334229e-01
7.326597571372985840e-01 -6.815002113580703735e-02 7.492121309041976929e-02
2.817488908767700195e-01 8.143302798271179199e-02 4.779969900846481323e-02
-9.724850207567214966e-02 2.025253511965274811e-02 -9.034657478332519531e-02
-2.892944402992725372e-02 -3.115014731884002686e-02 2.975991368293762207e-01
-1.585882902145385742e-02 9.276927262544631958e-02 1.102604623883962631e-02
-6.641610264778137207e-01 2.161859869956970215e-01 -6.795225664973258972e-03
4.969111680984497070e-01 5.192361772060394287e-02 8.014945685863494873e-02
4.897726476192474365e-01 -3.233154118061065674e-02 9.515552222728729248e-02
-4.241896569728851318e-01 9.043165296316146851e-02 -4.457597155123949051e-03
-3.619031608104705811e-01 6.980832666158676147e-03 -8.991926163434982300e-02
2.530186772346496582e-01 -6.035793200135231018e-02 -2.044127732515335083e-01
-4.965304732322692871e-01 7.884404808282852173e-02 -4.517757520079612732e-02
1.196481883525848389e-01 -6.478182226419448853e-02 2.429790645837783813e-01
-1.949764341115951538e-01 3.236798569560050964e-02 -7.563694715499877930e-01
7.777785062789916992e-01 -6.038306280970573425e-02 7.773642241954803467e-02
2.503794133663177490e-01 -9.441691637039184570e-02 1.348935347050428391e-02
-1.416382938623428345e-01 3.713181475177407265e-03 -6.079426407814025879e-01
9.209519028663635254e-01 1.630621403455734253e-02 5.413391813635826111e-02
-9.066293388605117798e-02 6.954380869865417480e-02 -5.764492228627204895e-02
8.787655830383300781e-02 -1.472774744033813477e-01 -1.331779509782791138e-01
7.242643833160400391e-01 -7.220883388072252274e-03 9.339601546525955200e-02
3.422004282474517822e-01 -9.884083271026611328e-02 3.181334212422370911e-02
-7.097824811935424805e-01 6.139981374144554138e-02 1.322056800127029419e-01
-5.587500706315040588e-02 -2.313184179365634918e-02 5.081616640090942383e-01
-7.003564834594726562e-01 6.165117025375366211e-02 -1.282764673233032227e-01
1.980467140674591064e-01 -1.360166519880294800e-01 2.423004060983657837e-01
-4.501549899578094482e-01 -5.719082802534103394e-02 -6.307424604892730713e-02
8.737384527921676636e-02 -4.138040915131568909e-02 3.216541111469268799e-01
8.375428617000579834e-02 8.661101013422012329e-02 3.545803204178810120e-02
-2.397935539484024048e-01 6.841269880533218384e-02 6.411282718181610107e-02
1.966391056776046753e-01 -1.004243791103363037e-01 2.490100264549255371e-02
-3.518825396895408630e-02 6.176490802317857742e-03 4.642242789268493652e-01
-7.602551579475402832e-01 7.052410393953323364e-02 -2.316097021102905273e-01
-9.689661115407943726e-02 -1.184586621820926666e-02 -4.627834856510162354e-01
-1.118775308132171631e-01 -5.952844768762588501e-02 8.140625059604644775e-02
-8.102250695228576660e-01 3.676542341709136963e-01 -1.189944799989461899e-03
2.817740142345428467e-01 -8.828379213809967041e-02 -1.936295330524444580e-01
-2.023412287235260010e-01 3.339854627847671509e-02 -7.667757272720336914e-01
-7.582442760467529297e-01 4.212066531181335449e-02 -8.117201179265975952e-02
5.950161814689636230e-01 -5.249043926596641541e-02 8.545310795307159424e-02
-7.599031925201416016e-01 7.215793430805206299e-02 -2.509391009807586670e-01
2.512089014053344727e-01 -5.176150426268577576e-02 -2.295988351106643677e-01
1.818341165781021118e-01 2.154762391000986099e-03 -9.064820408821105957e-02
6.149991750717163086e-01 -8.539318293333053589e-02 5.737643688917160034e-02
2.188659505918622017e-03 -5.134607665240764618e-03 -3.549007177352905273e-01
4.783107638359069824e-01 8.711372315883636475e-02 3.234119340777397156e-02
5.805882215499877930e-01 -2.079420350492000580e-02 9.568338096141815186e-02
-5.418000221252441406e-01 1.312270313501358032e-01 8.034888654947280884e-03
3.150286972522735596e-01 5.511586368083953857e-02 -8.381126821041107178e-02
-2.251981385052204132e-02 6.553524639457464218e-03 4.803112149238586426e-01
-5.221437811851501465e-01 4.601671174168586731e-02 7.989810407161712646e-02
-3.357955813407897949e-02 -1.501297764480113983e-02 3.313816487789154053e-01
2.262490540742874146e-01 -2.579621970653533936e-02 -3.917011618614196777e-02
1.966391056776046753e-01 -1.004243791103363037e-01 2.490100264549255371e-02
2.246152311563491821e-01 -1.011784449219703674e-01 1.916266679763793945e-01
-9.651956707239151001e-02 -9.675455093383789062e-02 4.091249406337738037e-02
-7.113242894411087036e-02 7.771293818950653076e-02 5.244982242584228516e-02
1.560272881761193275e-03 -7.931032031774520874e-02 9.693850763142108917e-03
2.512089014053344727e-01 -8.861055225133895874e-02 -6.247099116444587708e-02
-7.753617763519287109e-01 5.830811336636543274e-02 -1.480332016944885254e-01
-1.149189695715904236e-01 -1.177045889198780060e-02 9.568338096141815186e-02
1.062759533524513245e-01 -1.140228435397148132e-01 2.496903389692306519e-01
-1.372228935360908508e-02 -2.569568902254104614e-02 2.632133960723876953e-01
-6.573743820190429688e-01 2.440866976976394653e-01 8.110295049846172333e-03
-3.790206611156463623e-01 9.118571877479553223e-02 1.763675920665264130e-02
1.011985242366790771e-01 -1.465234160423278809e-01 -1.329517215490341187e-01
8.039951324462890625e-01 -9.861460328102111816e-02 1.939626410603523254e-02
-3.274169266223907471e-01 7.663209736347198486e-02 -4.877198860049247742e-02
6.841728687286376953e-01 -3.481997549533843994e-02 -8.795867860317230225e-02
-1.101180315017700195e-01 3.260740777477622032e-03 -6.226471066474914551e-01
1.020280048251152039e-01 -6.671728938817977905e-02 2.379267960786819458e-01
-4.878671467304229736e-02 1.080147363245487213e-02 5.292254090309143066e-01
2.512089014053344727e-01 -8.861055225133895874e-02 -6.247099116444587708e-02
-3.071323037147521973e-01 3.352423012256622314e-02 -8.396208286285400391e-02
1.372935175895690918e-01 -1.812981627881526947e-02 -1.860636621713638306e-01
7.372511178255081177e-02 -4.615621268749237061e-02 -8.320801705121994019e-02
4.061207175254821777e-01 6.132440641522407532e-02 -6.795059144496917725e-02
-1.482992917299270630e-01 8.201116323471069336e-02 -4.201046377420425415e-02
5.288085341453552246e-01 -3.127582743763923645e-02 9.565824270248413086e-02
-6.988232135772705078e-01 4.819159861654043198e-03 5.508907884359359741e-02
-3.765573799610137939e-01 5.421098321676254272e-02 -7.350560277700424194e-02
-5.045236349105834961e-01 -5.236475542187690735e-02 -5.937929078936576843e-02
1.709251850843429565e-01 -6.596321612596511841e-02 -2.012456804513931274e-01
-7.869241833686828613e-01 5.551803857088088989e-02 3.214010596275329590e-02
1.777118593454360962e-01 -2.132206037640571594e-02 1.642538011074066162e-01
2.015405744314193726e-01 8.849618583917617798e-02 -2.283185534179210663e-02
1.588348895311355591e-01 -9.637751430273056030e-02 2.037923932075500488e-01
9.953035712242126465e-01 -4.572890698909759521e-02 -2.848906675353646278e-03
1.803008317947387695e-01 -8.393531292676925659e-02 2.535361051559448242e-01
-5.900607109069824219e-01 1.321821808815002441e-01 -6.367916241288185120e-03
-1.724296361207962036e-01 7.698400318622589111e-02 -4.829440638422966003e-02
