-2.974022030830383301e-01 -8.435121178627014160e-02 -5.138882994651794434e-02
9.219797849655151367e-01 -5.923645198345184326e-02 2.079288102686405182e-02
2.338881492614746094e-01 -1.085092276334762573e-01 2.023633867502212524e-01
-7.069190740585327148e-01 2.517880797386169434e-01 -1.782273873686790466e-02
-2.417510747909545898e-01 8.746571093797683716e-02 3.179554641246795654e-02
-8.649960160255432129e-01 1.004084646701812744e-01 2.730568051338195801e-01
1.867680549621582031e-01 -8.073681592941284180e-02 -2.782190740108489990e-01
1.859176009893417358e-01 -7.042513787746429443e-02 1.095848977565765381e-01
4.314877092838287354e-02 -1.868073642253875732e-02 -3.003838360309600830e-01
-2.315953932702541351e-02 -1.222265418618917465e-02 4.897879958152770996e-01
-9.249756485223770142e-02 -2.442505210638046265e-03 -5.648729801177978516e-01
-7.425316572189331055e-01 3.569473326206207275e-02 -4.455867782235145569e-02
-6.537927389144897461e-01 -7.810957264155149460e-03 -5.412620678544044495e-02
-3.446551859378814697e-01 -8.007241040468215942e-02 -5.207981914281845093e-02
5.194790363311767578e-01 6.556669622659683228e-02 -7.897521555423736572e-02
-5.529050529003143311e-02 -1.759109646081924438e-02 -9.882784634828567505e-02
1.330038458108901978e-01 -5.463871359825134277e-02 8.290211111307144165e-02
-1.471653878688812256e-01 -8.498904109001159668e-02 -5.460458248853683472e-02
-4.375665485858917236e-01 2.604747749865055084e-02 7.950031757354736328e-02
-4.026184678077697754e-01 7.074911147356033325e-02 5.855805799365043640e-02
2.204404473304748535e-01 -5.976796895265579224e-02 1.926363855600357056e-01
-6.877043247222900391e-01 -1.469426695257425308e-02 1.491947937756776810e-02
4.187310114502906799e-02 -1.341820955276489258e-01 9.879484772682189941e-02
2.353532984852790833e-02 -1.602309383451938629e-02 -4.452522397041320801e-01
3.337891101837158203e-01 -5.854545533657073975e-02 7.564673572778701782e-02
3.298557996749877930e-01 7.635674625635147095e-02 -6.677661091089248657e-02
-8.171318173408508301e-01 6.208517774939537048e-02 -8.189862966537475586e-02
4.376002773642539978e-02 -1.649576723575592041e-01 -1.297628581523895264e-01
5.372620746493339539e-02 6.490228325128555298e-02 6.206615641713142395e-02
2.193508148193359375e-01 -4.222749546170234680e-02 -2.599078714847564697e-01
8.038241416215896606e-02 -3.707166388630867004e-02 1.080966144800186157e-01
5.781066417694091797e-01 8.106078207492828369e-02 4.330315813422203064e-02
1.697325259447097778e-01 3.037943504750728607e-02 -9.696748852729797363e-02
-3.572790622711181641e-01 -3.810815140604972839e-02 -9.098777920007705688e-02
1.341200470924377441e-01 -4.533694684505462646e-02 2.158376574516296387e-01
7.851108908653259277e-01 -7.916878908872604370e-02 -5.354152247309684753e-02
2.635209262371063232e-01 5.315548181533813477e-02 7.003909349441528320e-02
3.501070737838745117e-01 -1.058515757322311401e-01 -2.117512971162796021e-01
6.696360707283020020e-01 -8.583949506282806396e-02 -5.154829099774360657e-02
-3.906590640544891357e-01 -4.193515330553054810e-02 7.083639502525329590e-02
8.812646269798278809e-01 -5.660536885261535645e-02 1.250102091580629349e-02
3.193315267562866211e-01 -1.203357577323913574e-01 2.257772535085678101e-01
7.059395313262939453e-01 -5.503736808896064758e-02 6.350128352642059326e-02
-4.290242213755846024e-03 -2.075370587408542633e-02 -4.204297959804534912e-01
-8.475087285041809082e-01 7.975853979587554932e-02 1.807301193475723267e-01
-7.620918750762939453e-01 8.220357447862625122e-02 -1.396758854389190674e-01
-6.313055753707885742e-02 1.818083971738815308e-02 6.586017608642578125e-01
1.925617456436157227e-01 -2.404918894171714783e-02 -2.093594223260879517e-01
3.922839164733886719e-01 7.861574739217758179e-02 -6.385319679975509644e-02
2.585511207580566406e-01 -1.303550899028778076e-01 2.482078075408935547e-01
1.382925659418106079e-01 -5.455897375941276550e-02 1.692225188016891479e-01
4.260361194610595703e-01 -8.177329599857330322e-02 4.176172614097595215e-02
-5.779169797897338867e-01 1.461731493473052979e-01 -2.860182896256446838e-03
5.563971400260925293e-02 -1.110339984297752380e-01 1.954800784587860107e-01
5.892688035964965820e-01 5.140143632888793945e-02 -8.859589695930480957e-02
1.014044061303138733e-01 -7.103639096021652222e-02 -9.598416090011596680e-02
2.470700889825820923e-01 -7.826519012451171875e-02 -2.961050271987915039e-01
-9.823808819055557251e-02 -9.676243364810943604e-02 -2.103849314153194427e-02
-2.028928138315677643e-02 -1.007376820780336857e-03 4.658691287040710449e-01
3.509609773755073547e-02 -7.098324596881866455e-02 6.310263276100158691e-02
6.829012185335159302e-02 7.739322632551193237e-02 4.808692634105682373e-02
4.694920405745506287e-02 6.992524117231369019e-02 5.781391635537147522e-02
2.839050889015197754e-01 -6.545533984899520874e-02 1.832283139228820801e-01
8.147549815475940704e-03 -4.756937175989151001e-02 -6.619192659854888916e-02
7.881671786308288574e-01 -8.506877720355987549e-02 -4.493074491620063782e-02
-4.471606314182281494e-01 6.676264107227325439e-02 -7.748693227767944336e-02
-1.548194140195846558e-01 -9.500838071107864380e-02 -3.217403590679168701e-02
1.052314266562461853e-01 -6.075130775570869446e-02 8.303499966859817505e-02
-2.369106747210025787e-02 -1.045493409037590027e-01 -5.012877285480499268e-03
2.759055495262145996e-01 -1.296375244855880737e-01 -2.688109874725341797e-01
8.799357414245605469e-01 4.555460810661315918e-02 3.049329668283462524e-02
2.125472426414489746e-01 -1.175452247262001038e-01 -2.295309603214263916e-01
2.803969681262969971e-01 -4.448649287223815918e-02 -1.130196824669837952e-01
9.355868697166442871e-01 -1.679380796849727631e-02 -4.931586235761642456e-02
-5.523734912276268005e-02 9.224561974406242371e-03 -6.551266908645629883e-01
-1.353388577699661255e-01 1.889839954674243927e-02 -7.199732661247253418e-01
4.676814377307891846e-01 7.832340151071548462e-02 -6.422527134418487549e-02
2.401601970195770264e-01 7.656935602426528931e-02 -6.651084125041961670e-02
9.476525783538818359e-01 1.671912893652915955e-02 3.665354233817197382e-05
3.103486597537994385e-01 -5.450582876801490784e-02 -2.339160740375518799e-01
-8.545479923486709595e-02 -1.705956831574440002e-02 8.154671639204025269e-02
-2.055504731833934784e-02 4.741496592760086060e-02 7.383953034877777100e-02
2.598799467086791992e-01 -1.289199590682983398e-01 2.058714628219604492e-01
-3.098666071891784668e-01 -4.818063229322433472e-02 -8.769229799509048462e-02
6.497302651405334473e-01 -5.827968567609786987e-02 -8.099503070116043091e-02
-2.028928138315677643e-02 -1.007376820780336857e-03 4.658691287040710449e-01
5.970025658607482910e-01 -8.841741085052490234e-02 2.982888370752334595e-02
5.689378380775451660e-01 -4.632026702165603638e-02 -9.008418023586273193e-02
-3.865397274494171143e-01 9.472109377384185791e-02 -3.283844888210296631e-02
-2.590789198875427246e-01 1.834029704332351685e-02 8.226427435874938965e-02
3.562762588262557983e-02 -5.155583471059799194e-02 -1.376560777425765991e-01
6.921463608741760254e-01 -9.245703369379043579e-02 1.991585828363895416e-02
-8.013984560966491699e-01 8.225672692060470581e-02 -7.936289533972740173e-03
-1.775157153606414795e-01 1.950965635478496552e-02 -7.599443197250366211e-01
1.750212460756301880e-01 -3.380275517702102661e-02 -2.688375711441040039e-01
2.317354679107666016e-01 -3.165006637573242188e-02 2.424938529729843140e-01
-1.471919566392898560e-01 9.575758129358291626e-02 -2.287227101624011993e-02
-1.657157689332962036e-01 2.790783345699310303e-02 -8.105193972587585449e-01
-6.716256141662597656e-01 1.785698831081390381e-01 3.305559745058417320e-03
-7.813066840171813965e-01 4.914243519306182861e-02 -4.800265189260244370e-03
-3.033518977463245392e-02 -1.458795461803674698e-02 4.551853835582733154e-01
3.227864801883697510e-01 -1.105290502309799194e-01 -2.718673050403594971e-01
1.729482710361480713e-01 -2.521854825317859650e-02 -1.581465452909469604e-01
8.055481910705566406e-01 -8.719489723443984985e-02 1.250102091580629349e-02
2.958113253116607666e-01 -1.186083033680915833e-01 -2.601736485958099365e-01
3.669034242630004883e-01 -5.317700281739234924e-02 -8.599141240119934082e-02
-4.625449702143669128e-02 -9.808038594201207161e-04 4.847650229930877686e-01
6.437771320343017578e-01 -6.906973570585250854e-02 -7.368649542331695557e-02
-5.349162220954895020e-01 -2.325189113616943359e-02 6.100309267640113831e-02
1.341200470924377441e-01 -4.533694684505462646e-02 2.158376574516296387e-01
-7.552883028984069824e-01 6.989865750074386597e-02 -5.970726907253265381e-02
-6.631974130868911743e-02 -1.820236444473266602e-02 3.795487284660339355e-01
4.997892305254936218e-02 8.948552608489990234e-02 2.735727094113826752e-02
7.904793024063110352e-01 -4.536351934075355530e-02 -2.082587964832782745e-02
8.884402513504028320e-01 4.007985442876815796e-02 3.113113157451152802e-02
7.275993824005126953e-01 -3.087933175265789032e-02 7.173999398946762085e-02
5.550683289766311646e-02 -1.245879903435707092e-01 -1.554357409477233887e-01
3.095016814768314362e-02 -1.764425262808799744e-02 -4.627927243709564209e-01
7.143642902374267578e-01 -9.219512343406677246e-03 7.681610435247421265e-02
-1.876945048570632935e-01 -9.811782836914062500e-02 -1.264032721519470215e-02
2.179688364267349243e-01 -9.391874819993972778e-02 -2.131332755088806152e-01
5.423116311430931091e-02 -3.728426992893218994e-02 -2.506858408451080322e-01
4.575326293706893921e-02 -1.062502264976501465e-01 -1.387191414833068848e-01
8.073819279670715332e-01 -6.622605025768280029e-02 4.572162032127380371e-02
-8.354961276054382324e-01 3.695484697818756104e-01 -1.713175140321254730e-02
-2.315953932702541351e-02 -1.222265418618917465e-02 4.897879958152770996e-01
-1.058921143412590027e-01 -2.670683152973651886e-02 -4.386081397533416748e-01
-2.571122646331787109e-01 -6.245219707489013672e-02 -7.961305230855941772e-02
-5.882551670074462891e-01 7.245000451803207397e-02 7.371760904788970947e-03
-4.050635099411010742e-01 5.645096674561500549e-02 6.900261342525482178e-02
-8.144741058349609375e-01 3.268666267395019531e-01 7.010655826888978481e-04
7.030693292617797852e-01 7.335360348224639893e-02 4.569504410028457642e-02
4.166048765182495117e-02 -6.699676811695098877e-02 1.233515068888664246e-01
-6.042276024818420410e-01 7.736665755510330200e-02 -2.454658783972263336e-02
6.584507972002029419e-02 -4.073920845985412598e-02 -7.948016375303268433e-02
5.282260850071907043e-02 -4.632026702165603638e-02 1.861517280340194702e-01
4.913079440593719482e-01 8.440942317247390747e-02 3.857254609465599060e-02
1.860504895448684692e-01 3.178799152374267578e-02 -9.648910909891128540e-02
-7.931563258171081543e-02 4.547106102108955383e-03 -6.588473916053771973e-01
-2.555974125862121582e-01 -7.106296718120574951e-02 -7.238424569368362427e-02
4.160733520984649658e-02 -6.925576925277709961e-02 -1.036116033792495728e-01
-5.063730478286743164e-01 -2.040820755064487457e-02 6.828504800796508789e-02
6.647194027900695801e-01 3.580104559659957886e-02 -9.175849705934524536e-02
3.147072196006774902e-01 -4.108469933271408081e-02 -9.329993277788162231e-02
-2.818018198013305664e-01 9.461478888988494873e-02 1.510551571846008301e-02
-4.678602516651153564e-02 -2.856718748807907104e-02 4.168886542320251465e-01
6.241671741008758545e-02 -6.346210837364196777e-02 5.411978811025619507e-02
-2.761941850185394287e-01 3.495059162378311157e-02 7.811834663152694702e-02
-8.862306475639343262e-01 1.003021523356437683e-01 -2.885307371616363525e-01
-4.929785132408142090e-01 7.893466949462890625e-02 4.473828896880149841e-02
3.245139420032501221e-01 -1.221163868904113770e-01 -2.847037315368652344e-01
1.115566194057464600e-01 -6.981387734413146973e-02 9.682819247245788574e-02
-6.137651577591896057e-02 -1.493345294147729874e-02 4.231872856616973877e-01
3.562762588262557983e-02 -5.437294393777847290e-02 -1.106543689966201782e-01
-1.189411655068397522e-01 1.148356124758720398e-02 6.346297860145568848e-01
1.005539670586585999e-01 -5.386799946427345276e-02 1.645716279745101929e-01
-6.349234580993652344e-01 -3.489238396286964417e-02 3.757359692826867104e-03
-1.525869816541671753e-01 -5.028017237782478333e-02 7.065035402774810791e-02
4.777272939682006836e-01 8.600400388240814209e-02 3.506445139646530151e-02
-2.381898164749145508e-01 1.131385862827301025e-01 -8.664096593856811523e-01
6.346880197525024414e-01 -2.338477596640586853e-02 7.926113158464431763e-02
4.901385903358459473e-01 -3.560995310544967651e-02 -9.393776208162307739e-02
2.627767920494079590e-01 -1.029016003012657166e-01 1.809693127870559692e-01
2.166931629180908203e-01 -8.639761060476303101e-02 -1.995792537927627563e-01
8.493045344948768616e-03 -4.650631546974182129e-02 1.139434352517127991e-01
-8.080426454544067383e-01 7.781845331192016602e-02 1.795873343944549561e-01
-7.513018250465393066e-01 -3.691602963954210281e-03 -1.901867985725402832e-02
8.528012037277221680e-01 -8.209221065044403076e-02 -3.544294089078903198e-02
-8.330245018005371094e-01 2.772749066352844238e-01 -3.471441566944122314e-03
2.362800389528274536e-01 -4.408783838152885437e-02 -1.125678792595863342e-01
-6.640512347221374512e-01 6.628426164388656616e-02 -2.374929189682006836e-02
6.241671741008758545e-02 -1.308334618806838989e-01 1.392708271741867065e-01
6.603342890739440918e-01 -3.441401198506355286e-02 -9.199769049882888794e-02
-3.963695839047431946e-02 -1.121274288743734360e-02 -4.207487106323242188e-01
1.714599877595901489e-01 -4.714414477348327637e-02 -2.164287567138671875e-01
-2.539196424186229706e-02 5.017891898751258850e-02 -8.941976726055145264e-02
7.828785181045532227e-01 8.432968705892562866e-02 -1.901867985725402832e-02
1.586767286062240601e-01 -2.872664481401443481e-02 -8.596482872962951660e-02
-1.381825357675552368e-01 -9.152686595916748047e-02 2.310503646731376648e-02
-5.411882400512695312e-01 1.219885647296905518e-01 1.551512512378394604e-03
-2.717293500900268555e-01 8.956525474786758423e-02 2.714466303586959839e-02
-4.372973740100860596e-02 -4.528378322720527649e-02 -3.307076096534729004e-01
-8.562257289886474609e-01 3.271324038505554199e-01 -5.278642289340496063e-03
1.712208092212677002e-01 -6.758145242929458618e-02 1.207470148801803589e-01
1.115034744143486023e-01 -1.267445366829633713e-02 3.066494762897491455e-01
3.429314196109771729e-01 -3.343067318201065063e-02 7.734762877225875854e-02
4.260361194610595703e-01 -8.177329599857330322e-02 4.176172614097595215e-02
-1.337939500808715820e-02 -4.105812683701515198e-02 -2.033265382051467896e-01
-1.446406245231628418e-01 1.095203217118978500e-02 6.660431623458862305e-01
2.622718214988708496e-01 9.565126895904541016e-02 6.415007635951042175e-03
2.215832471847534180e-01 -2.784961834549903870e-02 -2.384340912103652954e-01
2.487178295850753784e-01 -5.971482396125793457e-02 1.887296438217163086e-01
9.679039120674133301e-01 -2.306585945188999176e-02 2.063342183828353882e-02
6.685499101877212524e-02 -1.225150451064109802e-01 -1.198498308658599854e-01
-3.137467205524444580e-01 8.658868819475173950e-02 3.432030975818634033e-02
-2.295258790254592896e-01 -2.096631936728954315e-02 -9.834945946931838989e-02
3.398485779762268066e-01 -1.290794163942337036e-01 -2.453439682722091675e-01
-5.558850169181823730e-01 1.164872273802757263e-01 4.129430744796991348e-03
2.440138012170791626e-01 -1.065957173705101013e-01 -9.265113621950149536e-03
-1.074601262807846069e-01 9.330873377621173859e-03 6.774178743362426758e-01
2.448110878467559814e-01 -2.447440661489963531e-02 8.215796947479248047e-02
6.284193694591522217e-02 -1.554471068084239960e-02 -3.129279613494873047e-01
1.348942145705223083e-02 -3.542392328381538391e-02 2.905441224575042725e-01
3.645381033420562744e-01 9.658145159482955933e-02 -1.398476655595004559e-03
1.066665500402450562e-01 -5.248602479696273804e-02 1.727306097745895386e-01
4.192591011524200439e-01 8.608373999595642090e-02 -5.223927646875381470e-02
3.071445040404796600e-03 -5.578530952334403992e-03 8.319445699453353882e-02
2.493556588888168335e-01 -4.812746495008468628e-02 -1.053922325372695923e-01
-8.019266277551651001e-02 -5.043962970376014709e-02 7.479628920555114746e-02
2.873600423336029053e-01 -3.125141188502311707e-02 2.389060407876968384e-01
2.409309148788452148e-01 -6.138913705945014954e-02 -1.431574076414108276e-01
1.827284395694732666e-01 -2.269378863275051117e-02 2.061372399330139160e-01
8.519773483276367188e-01 -4.150992631912231445e-02 1.250102091580629349e-02
7.344596087932586670e-02 4.307919647544622421e-03 8.348679542541503906e-02
9.134221076965332031e-01 1.435382757335901260e-02 -5.149513483047485352e-02
-7.789148092269897461e-01 8.587113022804260254e-02 -2.116449922323226929e-01
-4.990113377571105957e-01 1.107467114925384521e-01 -1.867318712174892426e-02
-1.572644412517547607e-01 1.270608603954315186e-02 6.718633770942687988e-01
-8.564084023237228394e-02 5.639781057834625244e-02 -8.519411087036132812e-02
-1.829373091459274292e-01 5.222530663013458252e-02 8.328637480735778809e-01
3.077973425388336182e-01 9.597019106149673462e-02 -2.111822180449962616e-02
5.688881129026412964e-02 9.684720635414123535e-02 -1.365023292601108551e-02
-5.231428146362304688e-01 9.504000842571258545e-02 -2.647570800036191940e-03
-4.124783575534820557e-01 -5.198106169700622559e-02 -7.791215181350708008e-02
-3.446551859378814697e-01 -8.007241040468215942e-02 -5.207981914281845093e-02
2.641056180000305176e-01 -3.042753227055072784e-02 -1.142687797546386719e-01
-4.367658123373985291e-02 -2.027532272040843964e-02 -3.567525744438171387e-01
-6.313055753707885742e-02 1.818083971738815308e-02 6.586017608642578125e-01
1.814030483365058899e-02 -1.796316727995872498e-02 -4.623675048351287842e-01
-1.771436631679534912e-01 6.195229291915893555e-02 6.405939161777496338e-02
-7.749814391136169434e-01 7.141352444887161255e-02 6.658415496349334717e-02
-7.772670388221740723e-01 7.064279913902282715e-02 -7.796531170606613159e-02
-5.565494298934936523e-01 8.560536801815032959e-02 2.783564850687980652e-02
1.591019332408905029e-01 -3.146401792764663696e-02 -2.954937815666198730e-01
3.503197133541107178e-01 -1.450822595506906509e-02 8.191878348588943481e-02
2.643216773867607117e-02 -4.065949097275733948e-02 -3.327008485794067383e-01
-4.503232538700103760e-01 -7.619223743677139282e-02 -2.212812937796115875e-02
7.554549723863601685e-02 -9.572594612836837769e-02 6.233191862702369690e-02
1.835523098707199097e-01 -1.241361871361732483e-01 -2.737807929515838623e-01
3.265071809291839600e-01 -9.819754958152770996e-02 -1.205564383417367935e-02
-6.750273704528808594e-01 -2.311900630593299866e-02 4.926724825054407120e-03
5.975906923413276672e-02 -6.314319372177124023e-02 6.599947065114974976e-02
3.103486597537994385e-01 -5.450582876801490784e-02 -2.339160740375518799e-01
5.681139826774597168e-01 8.781120181083679199e-02 3.105140291154384613e-02
3.736538589000701904e-01 -7.930167764425277710e-02 -6.217887625098228455e-02
7.863333821296691895e-01 4.972711950540542603e-02 -7.020498067140579224e-02
-4.175279140472412109e-01 7.444324344396591187e-02 -7.044416666030883789e-02
-5.152229666709899902e-01 8.047610521316528320e-02 4.170856997370719910e-02
4.023829996585845947e-01 -5.602068454027175903e-02 -5.811267718672752380e-02
3.491769134998321533e-01 -7.842466980218887329e-02 -2.911352217197418213e-01
6.057462096214294434e-01 -9.248360991477966309e-02 2.103207260370254517e-02
4.777272939682006836e-01 8.600400388240814209e-02 3.506445139646530151e-02
2.163210958242416382e-01 -3.079961426556110382e-02 2.425470203161239624e-01
4.963343217968940735e-02 -5.498420074582099915e-02 -1.586780697107315063e-01
-6.300334334373474121e-01 8.361212164163589478e-02 -3.998752310872077942e-02
3.494426906108856201e-01 -7.029224932193756104e-02 6.273056566715240479e-02
-8.165436983108520508e-02 2.766479505226016045e-03 -5.577504634857177734e-01
6.497302651405334473e-01 -5.827968567609786987e-02 -8.099503070116043091e-02
-7.606833577156066895e-01 5.530434660613536835e-03 7.610949687659740448e-03
2.457146793603897095e-01 9.636883437633514404e-02 -1.761012710630893707e-02
1.812401562929153442e-01 -2.848745882511138916e-02 9.254937618970870972e-02
-3.485319018363952637e-02 2.022337401285767555e-03 6.133420467376708984e-01
-9.005253762006759644e-02 1.868578605353832245e-02 7.478987574577331543e-01
-7.859575748443603516e-01 1.275164633989334106e-01 -1.386284455657005310e-02
-6.924315541982650757e-02 3.867129981517791748e-02 7.678952068090438843e-02
-1.206952109932899475e-01 -9.168632328510284424e-02 -4.012040421366691589e-02
1.886018365621566772e-01 -1.000579148530960083e-01 2.595559656620025635e-01
4.806542024016380310e-02 -7.297647744417190552e-02 1.356830000877380371e-01
-5.239667296409606934e-01 8.581797033548355103e-02 5.910054780542850494e-03
-4.681029021739959717e-01 5.568024516105651855e-02 6.764721870422363281e-02
-4.978951811790466309e-01 6.152707338333129883e-02 -7.974593341350555420e-02
1.970265656709671021e-01 -3.087933175265789032e-02 2.227209657430648804e-01
-6.791467666625976562e-01 9.450848400592803955e-02 4.660960752516984940e-03
-6.772829592227935791e-02 -1.559786684811115265e-02 3.930230140686035156e-01
-3.473925590515136719e-01 -6.476434320211410522e-02 5.566122382879257202e-02
-6.740706562995910645e-01 5.342124775052070618e-02 -3.578843921422958374e-02
-8.784171342849731445e-01 1.042354702949523926e-01 -3.344017565250396729e-01
-5.162595510482788086e-01 7.013785094022750854e-02 5.670866928994655609e-03
3.122621774673461914e-01 -7.587332278490066528e-02 1.821121126413345337e-01
2.548038363456726074e-01 -1.190069317817687988e-01 1.893940567970275879e-01
-2.835292816162109375e-01 2.859881892800331116e-02 8.035077154636383057e-02
-1.506469100713729858e-01 -5.790762230753898621e-02 6.538821011781692505e-02
5.537095069885253906e-01 -9.394531697034835815e-02 -3.523033484816551208e-02
7.504054158926010132e-02 -4.469911754131317139e-02 2.364875674247741699e-01
-3.994558453559875488e-01 -2.367711812257766724e-02 7.761339098215103149e-02
2.177562117576599121e-01 -2.604241855442523956e-02 -1.254308968782424927e-01
9.159769117832183838e-02 -4.807815887033939362e-03 8.330075442790985107e-02
7.137299329042434692e-02 -8.451066911220550537e-02 -9.749902039766311646e-02
6.443352699279785156e-01 -2.811538800597190857e-02 7.756024599075317383e-02
-9.823808819055557251e-02 -9.676243364810943604e-02 -2.103849314153194427e-02
1.626897603273391724e-01 -9.979214519262313843e-02 -5.869736149907112122e-02
-5.491843074560165405e-02 -1.828209310770034790e-02 3.881063461303710938e-01
-4.418153688311576843e-02 1.430067233741283417e-02 6.694980859756469727e-01
1.845922321081161499e-02 -3.848021104931831360e-02 1.541004925966262817e-01
-2.277718335390090942e-01 2.022337401285767555e-03 -1.010336875915527344e-01
2.316025793552398682e-01 -6.431253999471664429e-02 1.214380040764808655e-01
-4.149233698844909668e-01 8.735939860343933105e-02 3.267256543040275574e-02
-1.868706494569778442e-01 2.939610742032527924e-02 -8.339332342147827148e-01
1.743568480014801025e-01 -4.238695278763771057e-02 2.190799713134765625e-01
-8.273903131484985352e-01 3.247936666011810303e-01 -4.948763526044785976e-04
-4.569673538208007812e-01 9.448190778493881226e-02 -2.877224609255790710e-02
6.599622368812561035e-01 8.491437137126922607e-02 -4.907667636871337891e-02
-4.073756933212280273e-01 -8.203906565904617310e-02 -3.057945147156715393e-02
8.142387270927429199e-01 -1.735191047191619873e-02 -7.985223829746246338e-02
3.048739433288574219e-01 -2.136496268212795258e-02 -7.788558304309844971e-02
6.499463319778442383e-02 -1.315244585275650024e-01 1.595486700534820557e-01
1.862099468708038330e-01 -2.609557472169399261e-02 -2.505263686180114746e-01
7.796395570039749146e-02 5.254422128200531006e-02 7.043774425983428955e-02
2.094377875328063965e-01 -2.646764554083347321e-02 -1.886829137802124023e-01
-1.841332614421844482e-01 2.461235038936138153e-02 -8.037955164909362793e-01
6.696129590272903442e-02 -4.095183312892913818e-02 -2.405867725610733032e-01
6.645634025335311890e-02 -1.461453828960657120e-02 3.015201985836029053e-01
1.200114004313945770e-02 -1.490688044577836990e-02 -3.526066541671752930e-01
8.214409351348876953e-01 6.625768542289733887e-02 2.812799066305160522e-02
2.551493346691131592e-01 -2.070054970681667328e-02 -9.919991344213485718e-02
-2.796988375484943390e-02 -3.473292663693428040e-02 3.138516843318939209e-01
-1.873490214347839355e-01 -9.352008998394012451e-02 -3.616050630807876587e-02
3.116277977824211121e-02 -2.253432199358940125e-02 4.046900868415832520e-01
-2.853364944458007812e-01 -8.145438134670257568e-02 -5.827213451266288757e-02
2.031391710042953491e-01 -2.415549010038375854e-02 6.631838530302047729e-02
1.416943520307540894e-01 -1.743163913488388062e-02 -2.720798850059509277e-01
4.192591011524200439e-01 8.608373999595642090e-02 -5.223927646875381470e-02
1.338311471045017242e-02 -1.131905429065227509e-02 -3.787578940391540527e-01
-3.925991654396057129e-01 -3.199555352330207825e-02 7.511520385742187500e-02
-1.871098279953002930e-01 -6.774090975522994995e-02 5.858463421463966370e-02
8.953235745429992676e-01 4.390686750411987305e-02 2.196224592626094818e-02
2.666037976741790771e-01 -5.030674487352371216e-02 9.438315033912658691e-02
1.858644336462020874e-01 -4.278560727834701538e-02 2.432911545038223267e-01
1.534677296876907349e-01 -3.558338060975074768e-02 -2.827104926109313965e-01
-2.730547077953815460e-02 -1.384381297975778580e-02 4.667195975780487061e-01
2.951734960079193115e-01 -4.392838105559349060e-02 -9.864180535078048706e-02
1.963621675968170166e-01 8.826300501823425293e-02 -4.737578332424163818e-02
7.660821676254272461e-01 8.169861882925033569e-02 -3.677177056670188904e-02
9.154453873634338379e-02 -2.460728958249092102e-02 3.593240082263946533e-01
8.426257967948913574e-02 -1.038583442568778992e-01 -3.706411272287368774e-02
7.769519090652465820e-01 -4.775540530681610107e-02 6.148147210478782654e-02
-1.651576608419418335e-01 -9.232415258884429932e-02 -3.871185332536697388e-02
-8.019266277551651001e-02 -5.043962970376014709e-02 7.479628920555114746e-02
-6.316013932228088379e-01 1.250182837247848511e-01 5.936631467193365097e-03
-3.174029057845473289e-03 -3.396221250295639038e-02 -3.320630192756652832e-01
1.511555761098861694e-01 -6.367471069097518921e-02 -2.470448613166809082e-01
6.279907226562500000e-01 1.060654409229755402e-02 8.178590238094329834e-02
-2.673973739147186279e-01 8.076843619346618652e-02 4.367523267865180969e-02
-6.185257434844970703e-01 -7.943841628730297089e-03 -6.547436118125915527e-02
-8.901638984680175781e-01 4.205752909183502197e-01 -9.929525665938854218e-03
6.552616506814956665e-02 -6.372787803411483765e-02 -1.213646903634071350e-01
-2.796988375484943390e-02 -3.473292663693428040e-02 3.138516843318939209e-01
-7.514613270759582520e-01 6.567300111055374146e-02 -2.584883384406566620e-02
7.660821676254272461e-01 8.169861882925033569e-02 -3.677177056670188904e-02
3.167801797389984131e-01 -1.142535638064146042e-02 -9.973144531250000000e-02
-3.282043635845184326e-01 -5.881122499704360962e-02 6.201300024986267090e-02
-7.824911735951900482e-03 -8.475370705127716064e-03 -4.160712957382202148e-01
-8.093680441379547119e-02 -1.945145241916179657e-02 -4.522950351238250732e-01
5.306145548820495605e-01 4.119607061147689819e-02 -9.329993277788162231e-02
-7.781707048416137695e-01 4.122264310717582703e-02 -3.570870682597160339e-02
5.570315718650817871e-01 -5.923645198345184326e-02 -8.181889355182647705e-02
2.217161208391189575e-01 5.334151908755302429e-02 -8.726707845926284790e-02
-1.551648974418640137e-01 2.899746410548686981e-02 8.184857964515686035e-01
2.342070639133453369e-01 -9.298857301473617554e-02 1.956661045551300049e-01
-5.775713920593261719e-01 -4.881846159696578979e-02 8.700584992766380310e-03
-2.329242415726184845e-02 -2.944421395659446716e-02 -4.338509440422058105e-01
-8.558768779039382935e-02 -1.193417352624237537e-03 -5.861075520515441895e-01
4.192591011524200439e-01 8.608373999595642090e-02 -5.223927646875381470e-02
-3.278022632002830505e-02 -1.817578077316284180e-02 3.464344143867492676e-01
8.209359645843505859e-01 -1.035394296050071716e-01 1.576992869377136230e-02
-3.460902869701385498e-01 8.209726959466934204e-02 4.274505376815795898e-02
-3.583652153611183167e-02 -2.202937565743923187e-02 -4.547932147979736328e-01
2.554682493209838867e-01 -7.919538021087646484e-02 2.794883251190185547e-01
-6.837975978851318359e-01 7.906755059957504272e-02 2.159017510712146759e-02
3.924202919006347656e-02 -3.478607162833213806e-02 1.644387543201446533e-01
3.105878829956054688e-01 -1.161366775631904602e-01 2.338830828666687012e-01
8.055481910705566406e-01 -8.719489723443984985e-02 1.250102091580629349e-02
9.114588797092437744e-02 -4.661260917782783508e-02 -1.000503599643707275e-01
5.242395773530006409e-02 -4.042029380798339844e-02 2.244749963283538818e-01
-4.929785132408142090e-01 7.893466949462890625e-02 4.473828896880149841e-02
7.639294266700744629e-01 -1.240868493914604187e-02 7.091612368822097778e-02
2.353532984852790833e-02 -1.602309383451938629e-02 -4.452522397041320801e-01
-5.331090092658996582e-01 -4.775540530681610107e-02 -5.471088737249374390e-02
-4.872910976409912109e-01 7.688827812671661377e-02 -6.523517519235610962e-02
7.796395570039749146e-02 5.254422128200531006e-02 7.043774425983428955e-02
2.950937747955322266e-01 -5.830625817179679871e-02 9.262910485267639160e-02
3.143351674079895020e-01 -1.008020564913749695e-01 2.158376574516296387e-01
1.545307785272598267e-01 -1.573075167834758759e-02 8.194535970687866211e-02
3.227864801883697510e-01 -1.105290502309799194e-01 -2.718673050403594971e-01
-1.443098299205303192e-04 -1.413615513592958450e-02 4.306818544864654541e-01
7.149224281311035156e-01 4.853117838501930237e-02 6.520217657089233398e-02
5.608053803443908691e-01 -5.232654884457588196e-02 6.924179941415786743e-02
1.622679829597473145e-02 9.700667858123779297e-02 -5.012877285480499268e-03
-4.765808284282684326e-01 9.607649594545364380e-02 -1.240113843232393265e-02
-8.070327639579772949e-01 5.568024516105651855e-02 1.082670316100120544e-02
8.989113569259643555e-01 -4.281217977404594421e-02 -1.104573812335729599e-02
1.509429663419723511e-01 -2.923160046339035034e-02 -2.397894859313964844e-01
3.597809374332427979e-01 6.035390309989452362e-03 8.332733064889907837e-02
8.330016732215881348e-01 5.419196188449859619e-02 -5.510953813791275024e-02
9.848099946975708008e-02 -1.051074489951133728e-01 1.297939848154783249e-02
-4.535089805722236633e-02 9.445533156394958496e-02 -3.368889912962913513e-02
3.167801797389984131e-01 -1.142535638064146042e-02 -9.973144531250000000e-02
-6.687553524971008301e-01 6.684236973524093628e-02 1.631241990253329277e-03
4.243617355823516846e-01 -8.788589388132095337e-02 -4.833253473043441772e-02
-5.521377921104431152e-01 -3.111852891743183136e-02 5.000043287873268127e-02
4.503570124506950378e-02 -1.007376820780336857e-03 4.993554651737213135e-01
-5.405504107475280762e-01 9.894675016403198242e-02 6.441584322601556778e-03
9.355868697166442871e-01 -1.679380796849727631e-02 -4.931586235761642456e-02
-5.648413300514221191e-01 1.347186863422393799e-01 -1.686598546802997589e-02
-8.013984560966491699e-01 8.225672692060470581e-02 -7.936289533972740173e-03
2.841176986694335938e-01 -1.078752614557743073e-02 -9.981117397546768188e-02
6.921463608741760254e-01 -9.245703369379043579e-02 1.991585828363895416e-02
-4.088374078273773193e-01 -5.918328464031219482e-02 -7.195901870727539062e-02
-9.414531290531158447e-02 8.529783808626234531e-04 -6.035151481628417969e-01
4.572669044137001038e-02 4.411948099732398987e-02 -9.231660515069961548e-02
-7.770278453826904297e-01 1.480334997177124023e-01 -1.644076406955718994e-02
2.746864967048168182e-02 -4.020769149065017700e-02 -2.315773516893386841e-01
-6.125460863113403320e-01 1.078232973814010620e-01 6.919960957020521164e-03
6.246420741081237793e-01 -7.821204513311386108e-02 4.574819281697273254e-02
-8.147399425506591797e-01 7.122748345136642456e-02 -9.837604314088821411e-02
8.032626509666442871e-01 -1.036723107099533081e-01 -9.052501991391181946e-03
2.469903379678726196e-01 2.309748157858848572e-02 -9.922648966312408447e-02
7.762609124183654785e-01 3.750194236636161804e-02 -7.886891067028045654e-02
-5.946300551295280457e-02 8.927291631698608398e-02 2.783564850687980652e-02
-1.052011325955390930e-01 -9.771917760372161865e-02 -1.511193905025720596e-02
8.785040676593780518e-02 8.927291631698608398e-02 2.783564850687980652e-02
-8.379411697387695312e-01 7.428377866744995117e-02 -1.261218935251235962e-01
7.851108908653259277e-01 -7.916878908872604370e-02 -5.354152247309684753e-02
-4.119202792644500732e-01 8.263955242000520229e-04 8.189219981431961060e-02
3.360781446099281311e-02 -6.420625001192092896e-02 -2.013864666223526001e-01
5.973249673843383789e-02 -2.497936226427555084e-02 3.813825249671936035e-01
4.320157766342163086e-01 9.307335317134857178e-02 1.938433013856410980e-02
8.694911599159240723e-01 5.865681171417236328e-02 -3.507087007164955139e-02
2.943230569362640381e-01 -1.282555609941482544e-01 2.565528154373168945e-01
2.123877853155136108e-01 -5.014728754758834839e-02 1.690630614757537842e-01
9.832154214382171631e-02 -3.260681405663490295e-02 8.234400302171707153e-02
-1.358969658613204956e-01 -6.394048035144805908e-02 -7.857656478881835938e-02
-2.956447005271911621e-02 8.613304235041141510e-03 5.537043809890747070e-01
-8.330245018005371094e-01 2.772749066352844238e-01 -3.471441566944122314e-03
-7.926016449928283691e-01 8.177834749221801758e-02 -2.052134871482849121e-01
-7.777720689773559570e-01 5.530817434191703796e-02 -5.712934955954551697e-02
1.160480454564094543e-01 -4.071263596415519714e-02 -2.621403038501739502e-01
2.452097386121749878e-01 -2.832800149917602539e-02 -2.437227964401245117e-01
-1.281366348266601562e-01 6.938989739865064621e-03 6.072559952735900879e-01
-7.076367139816284180e-01 7.242342829704284668e-02 -1.970966905355453491e-02
-1.155127957463264465e-01 -8.870974928140640259e-02 2.919104881584644318e-02
2.828685939311981201e-01 -2.814196050167083740e-02 -9.298101812601089478e-02
3.126342594623565674e-01 -1.101835444569587708e-01 2.770166993141174316e-01
-2.315953932702541351e-02 -1.222265418618917465e-02 4.897879958152770996e-01
5.625097081065177917e-02 -3.157033026218414307e-02 3.071012794971466064e-01
-1.031015887856483459e-01 -2.620187588036060333e-02 7.995212078094482422e-02
-3.925991654396057129e-01 -3.199555352330207825e-02 7.511520385742187500e-02
-8.351472020149230957e-02 1.687858626246452332e-02 6.522234082221984863e-01
5.011180788278579712e-02 -3.505572443827986717e-03 4.103508889675140381e-01
-5.822223424911499023e-01 -2.399603277444839478e-02 -6.403923034667968750e-02
-7.069190740585327148e-01 2.517880797386169434e-01 -1.782273873686790466e-02
-7.762837409973144531e-01 3.043031990528106689e-01 -1.907183416187763214e-02
7.150587439537048340e-02 -2.386314794421195984e-02 3.859802186489105225e-01
2.316025793552398682e-01 -6.431253999471664429e-02 1.214380040764808655e-01
1.075967326760292053e-01 -2.952394261956214905e-02 -3.489125370979309082e-01
-5.496661663055419922e-01 2.012092433869838715e-02 6.924179941415786743e-02
-8.177696466445922852e-01 5.942752957344055176e-02 -2.499839104712009430e-02
-2.978540062904357910e-01 7.175901532173156738e-02 -7.323469221591949463e-02
2.171715497970581055e-01 -6.920261681079864502e-02 1.086812987923622131e-01
6.278878450393676758e-02 -5.445268377661705017e-02 8.571921288967132568e-02
-8.070327639579772949e-01 5.568024516105651855e-02 1.082670316100120544e-02
4.617016911506652832e-01 7.319414615631103516e-02 5.356168001890182495e-02
-6.496468186378479004e-01 3.877761214971542358e-02 -6.714867800474166870e-02
2.837722003459930420e-01 -3.869283571839332581e-02 -9.906703233718872070e-02
-8.314564824104309082e-01 2.328656166791915894e-01 -1.176330260932445526e-02
-4.768962413072586060e-02 -4.238695278763771057e-02 7.851698994636535645e-02
8.872743695974349976e-02 -6.431253999471664429e-02 -1.308259218931198120e-01
1.084737554192543030e-01 3.287763148546218872e-02 7.875618338584899902e-02
3.321148157119750977e-01 -1.222758442163467407e-01 2.639144957065582275e-01
4.852066282182931900e-03 4.543244722299277782e-04 -5.411667823791503906e-01
-3.038834221661090851e-02 -2.497936226427555084e-02 -3.458562493324279785e-01
2.975654006004333496e-01 -1.160569563508033752e-01 -9.690337814390659332e-03
6.076897680759429932e-02 -5.102431401610374451e-02 1.630036085844039917e-01
-2.706396877765655518e-01 5.722168087959289551e-02 6.724856793880462646e-02
3.890416324138641357e-01 4.063795879483222961e-02 -9.348596632480621338e-02
1.408704817295074463e-01 -1.796316727995872498e-02 3.178913295269012451e-01
3.298557996749877930e-01 7.635674625635147095e-02 -6.677661091089248657e-02
3.044221401214599609e-01 8.504725992679595947e-02 3.716399148106575012e-02
2.803969681262969971e-01 -4.448649287223815918e-02 -1.130196824669837952e-01
6.466473937034606934e-01 9.312650561332702637e-02 1.414876244962215424e-02
4.896070361137390137e-01 -4.674931522458791733e-03 8.332733064889907837e-02
-4.832746461033821106e-02 2.822674810886383057e-02 8.032418787479400635e-02
5.890862643718719482e-02 -4.127074778079986572e-02 2.315177619457244873e-01
1.343858242034912109e-01 -7.571770809590816498e-03 8.292868733406066895e-02
2.195634394884109497e-01 -3.040095977485179901e-02 -1.960445940494537354e-01
-1.757847890257835388e-02 -1.527895126491785049e-02 -4.754697084426879883e-01
-1.031015887856483459e-01 -2.620187588036060333e-02 7.995212078094482422e-02
5.925377011299133301e-01 1.794165372848510742e-02 8.231742680072784424e-02
8.872743695974349976e-02 -6.431253999471664429e-02 -1.308259218931198120e-01
3.194644153118133545e-01 -9.955295175313949585e-02 2.319429963827133179e-01
-5.331090092658996582e-01 -4.775540530681610107e-02 -5.471088737249374390e-02
-1.877742558717727661e-01 9.549181163311004639e-02 7.690678350627422333e-03
8.334269523620605469e-01 7.497476786375045776e-02 -7.962866686284542084e-03
-8.471632003784179688e-01 9.344542026519775391e-02 2.252988815307617188e-01
1.371497809886932373e-01 -1.291364058852195740e-02 -9.951882809400558472e-02
-6.835318207740783691e-01 6.931398063898086548e-02 3.150320425629615784e-02
3.494426906108856201e-01 -7.029224932193756104e-02 6.273056566715240479e-02
-4.011533036828041077e-02 -1.796316727995872498e-02 -3.709975481033325195e-01
2.961834073066711426e-01 -5.168871954083442688e-02 -1.123286932706832886e-01
-1.171605363488197327e-01 3.962421324104070663e-03 -5.941336750984191895e-01
-6.316013932228088379e-01 1.250182837247848511e-01 5.936631467193365097e-03
-5.827007293701171875e-01 -3.167663887143135071e-02 3.873200714588165283e-02
-2.571122646331787109e-01 -6.245219707489013672e-02 -7.961305230855941772e-02
-7.975449562072753906e-01 5.754060298204421997e-02 4.731620848178863525e-02
-4.975230991840362549e-01 1.023447327315807343e-02 -9.441614896059036255e-02
4.192591011524200439e-01 8.608373999595642090e-02 -5.223927646875381470e-02
4.503570124506950378e-02 -1.007376820780336857e-03 4.993554651737213135e-01
-1.474311649799346924e-01 1.422094274312257767e-02 7.027718424797058105e-01
5.570315718650817871e-01 -5.923645198345184326e-02 -8.181889355182647705e-02
1.443785727024078369e-01 -2.335819229483604431e-02 -1.995792537927627563e-01
3.024023175239562988e-01 -8.169355988502502441e-02 -2.128940820693969727e-01
2.241877317428588867e-01 -7.768052816390991211e-02 4.513693600893020630e-02
-1.593374162912368774e-01 3.221321851015090942e-02 -8.302125334739685059e-01
-7.553680539131164551e-01 6.737389415502548218e-02 2.528430707752704620e-02
1.010323390364646912e-01 -3.563652560114860535e-02 -8.110132813453674316e-02
-7.697690278291702271e-02 -2.442505210638046265e-03 4.980798065662384033e-01
3.361809849739074707e-01 4.263119772076606750e-02 -9.282156080007553101e-02
1.997639685869216919e-01 -6.282425671815872192e-02 2.535762488842010498e-01
8.015617132186889648e-01 -3.991534933447837830e-02 7.807950023561716080e-04
2.938215807080268860e-02 -2.402260527014732361e-02 2.538951635360717773e-01
3.939316868782043457e-01 -9.755972027778625488e-02 -1.239017816260457039e-03
2.177562117576599121e-01 -2.604241855442523956e-02 -1.254308968782424927e-01
6.277515292167663574e-01 -8.610526472330093384e-02 -5.192036181688308716e-02
9.228868037462234497e-02 -9.804197587072849274e-03 -3.558489680290222168e-01
-4.091262817382812500e-02 -2.660053037106990814e-02 2.995801270008087158e-01
-1.031015887856483459e-01 -2.620187588036060333e-02 7.995212078094482422e-02
2.452097386121749878e-01 -2.832800149917602539e-02 -2.437227964401245117e-01
-1.154862269759178162e-01 1.871236786246299744e-02 8.223769813776016235e-02
4.657713323831558228e-02 -3.739058226346969604e-02 2.460019588470458984e-01
1.063476279377937317e-01 -3.085275925695896149e-02 2.248736619949340820e-01
-7.140415906906127930e-01 -7.199699990451335907e-03 -2.999476715922355652e-02
7.150587439537048340e-02 -2.386314794421195984e-02 3.859802186489105225e-01
2.561858296394348145e-01 2.450603805482387543e-02 8.159986138343811035e-02
3.117306530475616455e-01 -7.807915657758712769e-02 7.003909349441528320e-02
5.781066417694091797e-01 8.106078207492828369e-02 4.330315813422203064e-02
-5.349162220954895020e-01 -2.325189113616943359e-02 6.100309267640113831e-02
-1.747217588126659393e-02 1.166960131376981735e-02 -6.183714270591735840e-01
-6.313055753707885742e-02 1.818083971738815308e-02 6.586017608642578125e-01
-8.218624591827392578e-01 9.634225070476531982e-02 2.403677403926849365e-01
-6.515037268400192261e-02 7.200937252491712570e-04 6.075482964515686035e-01
-8.037106990814208984e-01 3.985168039798736572e-01 -1.378311496227979660e-02
-8.701939135789871216e-03 -2.551089040935039520e-02 3.413051664829254150e-01
3.977852761745452881e-01 9.267470985651016235e-02 2.028792910277843475e-02
2.448110878467559814e-01 -2.447440661489963531e-02 8.215796947479248047e-02
6.277515292167663574e-01 -8.610526472330093384e-02 -5.192036181688308716e-02
1.891067773103713989e-01 -2.410233393311500549e-02 -1.837928444147109985e-01
3.429314196109771729e-01 -3.343067318201065063e-02 7.734762877225875854e-02
-7.040489315986633301e-01 4.465100914239883423e-02 3.657931461930274963e-02
1.955231884494423866e-03 -4.403469339013099670e-02 1.332113891839981079e-01
1.322065442800521851e-01 -4.002163931727409363e-02 2.459753900766372681e-01
-2.590789198875427246e-01 1.834029704332351685e-02 8.226427435874938965e-02
1.113174334168434143e-01 8.892742544412612915e-02 2.857979014515876770e-02
1.350236535072326660e-01 -1.836182177066802979e-02 2.399956732988357544e-01
2.719191014766693115e-01 -4.209461063146591187e-02 -1.278227716684341431e-01
5.645792484283447266e-01 -3.494555130600929260e-02 -9.417696297168731689e-02
2.890609204769134521e-01 -4.982837289571762085e-02 -1.209128946065902710e-01
2.405056953430175781e-01 -2.107262052595615387e-02 -8.080898970365524292e-02
8.614951372146606445e-02 -6.792695820331573486e-02 9.244306385517120361e-02
8.953235745429992676e-01 4.390686750411987305e-02 2.196224592626094818e-02
2.729023993015289307e-01 -8.602552860975265503e-02 2.812157869338989258e-01
2.667366862297058105e-01 -6.266479939222335815e-02 1.078042685985565186e-01
1.823297739028930664e-01 -1.051340252161026001e-01 2.712495923042297363e-01
4.591272771358489990e-02 -4.650631546974182129e-02 -9.954540431499481201e-02
-1.593374162912368774e-01 -3.877255320549011230e-02 7.543411850929260254e-02
9.736976027488708496e-01 -5.206460133194923401e-03 1.491947937756776810e-02
-2.055504731833934784e-02 -8.459040522575378418e-02 -8.718734979629516602e-02
5.441419482231140137e-01 -9.665612131357192993e-02 -2.178263477981090546e-02
-2.717293500900268555e-01 8.956525474786758423e-02 2.714466303586959839e-02
3.892311081290245056e-02 -4.679865762591362000e-02 -1.466920822858810425e-01
2.629894018173217773e-01 -1.166416257619857788e-01 -2.293183505535125732e-01
-5.529050529003143311e-02 -1.759109646081924438e-02 -9.882784634828567505e-02
8.872743695974349976e-02 -6.431253999471664429e-02 -1.308259218931198120e-01
-8.271776437759399414e-01 5.743429437279701233e-02 1.619515009224414825e-02
-8.082286119461059570e-01 8.791751414537429810e-02 -2.374241799116134644e-01
5.566629394888877869e-02 -4.145677760243415833e-02 -7.368649542331695557e-02
-7.824911735951900482e-03 -8.475370705127716064e-03 -4.160712957382202148e-01
2.122548967599868774e-01 -9.511468559503555298e-02 -8.373241126537322998e-02
-7.806422710418701172e-01 8.475491404533386230e-02 -1.237456128001213074e-02
-8.467114567756652832e-01 2.530903220176696777e-01 -7.564219180494546890e-03
2.031391710042953491e-01 -2.415549010038375854e-02 6.631838530302047729e-02
-2.818018198013305664e-01 9.461478888988494873e-02 1.510551571846008301e-02
7.038399577140808105e-01 -6.880396604537963867e-02 5.449185892939567566e-02
1.306651085615158081e-01 -1.490688044577836990e-02 2.869563102722167969e-01
-1.281366348266601562e-01 6.938989739865064621e-03 6.072559952735900879e-01
7.110722362995147705e-02 -3.265995904803276062e-02 2.200633138418197632e-01
-1.664830558001995087e-02 -1.490688044577836990e-02 3.579154908657073975e-01
4.975799620151519775e-01 -6.136642768979072571e-03 -1.004755869507789612e-01
-2.956447005271911621e-02 8.613304235041141510e-03 5.537043809890747070e-01
4.317535087466239929e-02 -3.672615811228752136e-02 1.453036814928054810e-01
2.195634394884109497e-01 -3.040095977485179901e-02 -1.960445940494537354e-01
-2.288349121809005737e-01 2.881143242120742798e-02 8.013816177845001221e-02
1.027598157525062561e-01 -5.596753954887390137e-02 -1.732685565948486328e-01
1.432357877492904663e-01 -3.061358258128166199e-02 -1.200890243053436279e-01
-8.471632003784179688e-01 9.344542026519775391e-02 2.252988815307617188e-01
-7.195395231246948242e-02 1.653309911489486694e-02 -6.868323683738708496e-01
-7.531887888908386230e-01 5.509556084871292114e-02 -6.241806969046592712e-02
-7.690815329551696777e-01 6.915452331304550171e-02 4.840584099292755127e-02
7.573384642601013184e-01 3.178799152374267578e-02 -8.338691294193267822e-02
-7.750843465328216553e-02 -5.445646587759256363e-03 4.762339591979980469e-01
4.694920405745506287e-02 6.992524117231369019e-02 5.781391635537147522e-02
-7.076367139816284180e-01 7.242342829704284668e-02 -1.970966905355453491e-02
-7.770013213157653809e-01 2.261910960078239441e-02 1.417534053325653076e-02
-1.876945048570632935e-01 -9.811782836914062500e-02 -1.264032721519470215e-02
4.311918914318084717e-01 -9.561963379383087158e-02 -2.829387038946151733e-02
-7.770013213157653809e-01 2.261910960078239441e-02 1.417534053325653076e-02
-7.808282971382141113e-01 3.499084413051605225e-01 -1.641418598592281342e-02
-1.459428668022155762e-01 2.971503324806690216e-02 7.981923967599868774e-02
2.740186452865600586e-01 -9.987188130617141724e-02 2.868609689176082611e-02
1.484447717666625977e-01 -5.166214331984519958e-02 1.822449862957000732e-01
-7.554477453231811523e-01 8.071529120206832886e-02 8.541125804185867310e-03
1.955231884494423866e-03 -4.403469339013099670e-02 1.332113891839981079e-01
-5.075158476829528809e-01 4.789333790540695190e-02 6.987963616847991943e-02
-7.718986272811889648e-01 5.682303756475448608e-02 -8.653854951262474060e-03
1.720180958509445190e-01 -5.615356937050819397e-02 1.607977747917175293e-01
5.892688035964965820e-01 5.140143632888793945e-02 -8.859589695930480957e-02
2.643182277679443359e-01 -7.773367315530776978e-02 -6.507571786642074585e-02
6.779544949531555176e-01 6.110185012221336365e-02 6.017922237515449524e-02
3.029338419437408447e-01 -8.913497626781463623e-02 -2.592168748378753662e-01
-3.328286707401275635e-01 -9.094218164682388306e-02 -2.369614131748676300e-02
-8.833869695663452148e-01 9.671433269977569580e-02 2.840594649314880371e-01
3.890416324138641357e-01 4.063795879483222961e-02 -9.348596632480621338e-02
1.186825800687074661e-02 -1.459176652133464813e-03 4.438372254371643066e-01
3.562762588262557983e-02 -5.354908481240272522e-02 1.211988180875778198e-01
1.088458225131034851e-01 -5.942248180508613586e-02 2.325808256864547729e-01
2.808753848075866699e-01 -5.966165661811828613e-02 2.728176116943359375e-01
5.745453834533691406e-01 8.122024685144424438e-02 -6.045140698552131653e-02
6.728021055459976196e-02 -4.121758416295051575e-02 1.709233969449996948e-01
