3.054205477237701416e-01 -2.831795811653137207e-02 -1.203607395291328430e-01
-6.848630309104919434e-01 3.293623328208923340e-01 2.950755879282951355e-03
3.916397094726562500e-01 -1.087396964430809021e-01 -5.595741048455238342e-02
-7.781223207712173462e-02 -8.986379951238632202e-02 8.092714101076126099e-02
-9.858395159244537354e-02 1.153256520628929138e-01 -2.551419660449028015e-02
4.019706249237060547e-01 -1.043435484170913696e-01 -6.145257502794265747e-02
-5.764497071504592896e-02 -7.898338139057159424e-02 -3.225278556346893311e-01
-1.175422817468643188e-01 6.796154193580150604e-03 5.957416296005249023e-01
-3.300677835941314697e-01 1.171940043568611145e-01 -1.812320202589035034e-02
-7.440460324287414551e-01 7.633745670318603516e-02 3.168620467185974121e-01
1.420218348503112793e-01 -1.827046126127243042e-01 1.698114275932312012e-01
1.992265135049819946e-01 -1.432218402624130249e-01 3.443653583526611328e-01
-7.665761709213256836e-01 6.999054551124572754e-02 1.529687494039535522e-01
-5.997979044914245605e-01 2.608418278396129608e-02 8.532327413558959961e-02
7.066712528467178345e-02 9.936220198869705200e-02 6.490873545408248901e-02
-1.301811486482620239e-01 -2.034995704889297485e-02 6.245362758636474609e-01
3.142402768135070801e-01 1.168368309736251831e-01 -1.831553317606449127e-02
4.882384091615676880e-02 -1.039314270019531250e-01 -6.200209259986877441e-02
-1.571686379611492157e-02 -3.782043000683188438e-03 6.370652914047241211e-01
1.879064589738845825e-01 -1.241536214947700500e-01 -2.271166443824768066e-02
1.384499669075012207e-01 -1.370081491768360138e-02 -2.662573456764221191e-01
1.103971675038337708e-01 -7.420258224010467529e-02 3.723357319831848145e-01
-6.943697333335876465e-01 1.826139390468597412e-01 -1.089705992490053177e-02
4.718690812587738037e-01 -1.221478879451751709e-01 1.531487610191106796e-02
8.351956494152545929e-03 -4.018750041723251343e-02 -1.912483572959899902e-01
6.951313465833663940e-02 -2.260298281908035278e-02 2.503980398178100586e-01
2.767083048820495605e-01 -1.073933765292167664e-01 -5.766091123223304749e-02
-4.166440665721893311e-01 8.677827566862106323e-02 -7.692146301269531250e-02
2.660476863384246826e-01 -5.398036539554595947e-02 -3.342600166797637939e-01
-7.143720984458923340e-01 6.968831270933151245e-02 -6.859628856182098389e-02
5.375088453292846680e-01 -6.884478777647018433e-02 -9.667657315731048584e-02
4.284298121929168701e-01 1.789638400077819824e-02 1.163984313607215881e-01
6.416147351264953613e-01 -2.285025455057621002e-02 1.135958954691886902e-01
8.455677628517150879e-01 -4.854015260934829712e-02 8.436162024736404419e-02
-7.607787847518920898e-01 1.959397196769714355e-01 -7.599960081279277802e-03
2.767083048820495605e-01 -1.073933765292167664e-01 -5.766091123223304749e-02
-2.192639932036399841e-02 1.149684712290763855e-01 -2.688798867166042328e-02
-7.648177146911621094e-01 6.301168352365493774e-02 1.110406443476676941e-01
-6.129925325512886047e-02 -1.227206643670797348e-02 4.477019011974334717e-01
-9.918841719627380371e-02 2.207271009683609009e-02 1.163984313607215881e-01
-4.569236338138580322e-01 1.178259477019309998e-01 1.039670407772064209e-02
6.640075445175170898e-01 8.070611953735351562e-02 8.282297849655151367e-02
6.884061098098754883e-01 -1.160207912325859070e-01 3.446552529931068420e-02
7.762187719345092773e-01 6.007177010178565979e-02 -8.227925002574920654e-02
-5.415492057800292969e-01 9.873449802398681641e-03 -9.162102639675140381e-02
-3.579007983207702637e-01 6.603817921131849289e-03 1.129089966416358948e-01
2.640419602394104004e-01 -1.010189875960350037e-01 -3.013439774513244629e-01
-3.808218985795974731e-02 -2.526813372969627380e-02 -3.633019924163818359e-01
2.680809199810028076e-01 -1.206916794180870056e-01 -1.897495239973068237e-02
3.824565187096595764e-02 7.793106138706207275e-02 -8.901083469390869141e-02
3.730385899543762207e-01 -9.022098034620285034e-02 -7.920195907354354858e-02
-7.024201154708862305e-01 -2.160968491807579994e-03 3.721310570836067200e-02
2.167835533618927002e-01 -1.336877495050430298e-01 -3.626425564289093018e-01
-4.338501766324043274e-02 5.737914890050888062e-02 -1.000561043620109558e-01
9.354137182235717773e-01 -6.013495475053787231e-02 -3.658695518970489502e-02
1.807352751493453979e-01 -1.177517622709274292e-01 -3.180615976452827454e-02
-7.547615766525268555e-01 1.382954418659210205e-01 -5.896458867937326431e-03
-1.788745447993278503e-02 -5.134268477559089661e-02 -1.040400937199592590e-01
1.296027600765228271e-01 -9.716815315186977386e-03 3.403813540935516357e-01
2.064801156520843506e-01 1.135397255420684814e-01 -3.263043612241744995e-02
-8.088065385818481445e-01 3.418363630771636963e-01 6.302806083112955093e-03
-1.562557071447372437e-01 3.556333854794502258e-02 8.470904827117919922e-01
3.308906555175781250e-01 -1.131041720509529114e-02 -1.136291623115539551e-01
-5.813891291618347168e-01 -4.625965282320976257e-02 -3.620229288935661316e-02
-7.479751110076904297e-01 3.490899503231048584e-01 1.003951858729124069e-02
7.419289946556091309e-01 5.380728095769882202e-02 9.504971653223037720e-02
3.105310499668121338e-01 -9.327080100774765015e-02 3.217527568340301514e-01
4.997782781720161438e-02 -2.120170742273330688e-02 2.826271951198577881e-01
2.115568891167640686e-02 -3.455496579408645630e-02 1.959959119558334351e-01
2.949797511100769043e-01 -3.922585025429725647e-02 -1.591016501188278198e-01
1.477093249559402466e-01 -1.436889320611953735e-01 1.666517108678817749e-01
-7.914967536926269531e-01 8.375593274831771851e-02 -3.483276665210723877e-01
1.592216938734054565e-01 -5.222192034125328064e-02 3.512892425060272217e-01
1.709813475608825684e-01 -1.241536214947700500e-01 2.078256569802761078e-02
1.849053241312503815e-02 -3.749487921595573425e-02 -4.443007111549377441e-01
-8.251059055328369141e-02 1.109569966793060303e-01 4.556575790047645569e-02
1.779052615165710449e-01 -1.933335140347480774e-02 -1.762740314006805420e-01
8.467491865158081055e-01 -9.978257119655609131e-02 4.073001444339752197e-02
8.237182348966598511e-02 -2.790581248700618744e-02 1.536831259727478027e-01
2.294773906469345093e-01 1.110985130071640015e-02 1.163984313607215881e-01
8.910340070724487305e-02 7.804095745086669922e-02 9.164271503686904907e-02
-4.210402071475982666e-01 7.573299109935760498e-02 9.125805646181106567e-02
1.429560184478759766e-01 -8.321464806795120239e-02 1.365656852722167969e-01
9.497560858726501465e-01 2.240241877734661102e-02 -6.171218119561672211e-03
-9.284150600433349609e-02 -1.045866683125495911e-02 4.949877858161926270e-01
1.971932798624038696e-01 -3.705526143312454224e-02 -3.388209939002990723e-01
7.324985414743423462e-02 -4.001851193606853485e-03 -5.004338026046752930e-01
-2.280775159597396851e-01 -2.611987479031085968e-02 1.157664880156517029e-01
5.591598153114318848e-01 2.221009135246276855e-02 -1.130521744489669800e-01
-6.862093806266784668e-01 1.711840033531188965e-01 -1.111686695367097855e-02
1.447906438261270523e-02 -4.724879562854766846e-02 2.730930745601654053e-01
3.007221817970275879e-01 -8.706127107143402100e-02 -8.313100039958953857e-02
-8.841788768768310547e-02 7.729911804199218750e-02 -8.980762958526611328e-02
-2.248078882694244385e-01 -5.417269095778465271e-02 1.026330515742301941e-01
1.993089318275451660e-01 -1.878383755683898926e-02 -2.354844212532043457e-01
-4.440924525260925293e-01 -3.043358214199542999e-02 -9.403889626264572144e-02
-6.608766913414001465e-01 -2.535057067871093750e-02 2.196402661502361298e-02
9.640710353851318359e-01 -2.573522366583347321e-02 3.949360176920890808e-02
3.934468328952789307e-02 -4.669927060604095459e-02 3.677197992801666260e-01
-8.043004274368286133e-01 9.298781305551528931e-02 4.023393392562866211e-01
-7.257471084594726562e-01 6.048391386866569519e-02 -2.065798640251159668e-01
-2.469808906316757202e-01 -2.864766493439674377e-02 1.130738556385040283e-01
-1.467278786003589630e-02 -3.672133665531873703e-03 -4.432841241359710693e-01
1.378729939460754395e-01 -8.343444764614105225e-02 8.991173654794692993e-02
6.457360982894897461e-01 -5.933815985918045044e-02 1.015340089797973633e-01
4.176255688071250916e-02 -1.046183109283447266e-01 -3.035695254802703857e-01
9.730005860328674316e-01 -5.540910363197326660e-02 -2.364398969803005457e-04
3.775720596313476562e-01 -1.095639616250991821e-01 5.768259614706039429e-02
-6.300275772809982300e-02 -1.065965741872787476e-01 3.562898337841033936e-01
3.105310499668121338e-01 -8.359929919242858887e-02 -3.517346680164337158e-01
-7.968681864440441132e-03 -3.826420009136199951e-02 4.042351543903350830e-01
-7.172845602035522461e-01 1.439005136489868164e-01 -1.139162480831146240e-02
-6.504358649253845215e-01 6.347877532243728638e-02 2.028099149465560913e-01
9.207965731620788574e-01 -5.211200937628746033e-02 -5.073700472712516785e-02
7.467859238386154175e-02 -3.345593437552452087e-02 -4.775739312171936035e-01
-1.394954472780227661e-01 -2.716396190226078033e-02 -1.136291623115539551e-01
-6.653826832771301270e-01 2.345065120607614517e-03 5.798483267426490784e-02
2.660476863384246826e-01 -5.398036539554595947e-02 -3.342600166797637939e-01
4.310887306928634644e-02 -4.461111873388290405e-02 -3.936902582645416260e-01
-6.127390265464782715e-01 -3.252175450325012207e-02 4.366992786526679993e-02
7.242557406425476074e-02 -6.093174964189529419e-02 2.531181275844573975e-01
7.840493917465209961e-01 -1.286871284246444702e-01 -1.817815378308296204e-02
8.893092274665832520e-01 -8.978136628866195679e-02 -1.545804645866155624e-02
-3.190224766731262207e-01 9.378878399729728699e-03 -1.110189631581306458e-01
-6.617833971977233887e-01 3.149100542068481445e-01 1.686867792159318924e-03
-7.748188972473144531e-01 8.095340430736541748e-02 3.394196927547454834e-01
-4.745905995368957520e-01 1.177984774112701416e-01 -1.472851959988474846e-03
1.263606101274490356e-01 -5.260657146573066711e-02 -3.506631255149841309e-01
4.500470682978630066e-02 -1.870140992105007172e-02 3.030142188072204590e-01
-7.461067438125610352e-01 6.111585721373558044e-02 -1.988866329193115234e-01
-2.420901805162429810e-01 8.779487758874893188e-02 7.919616252183914185e-02
9.511573910713195801e-01 2.102862484753131866e-02 1.221010833978652954e-02
2.327744811773300171e-01 -6.884478777647018433e-02 -3.663243055343627930e-01
-3.802723437547683716e-02 -6.950420141220092773e-02 -3.396452665328979492e-01
4.640597105026245117e-02 -1.242360621690750122e-01 -8.369283750653266907e-03
9.347205609083175659e-02 -1.343746334314346313e-01 3.206262290477752686e-01
6.572210192680358887e-01 1.086490303277969360e-01 4.051020741462707520e-02
1.154527142643928528e-01 -1.241536214947700500e-01 -3.988405317068099976e-02
6.998022645711898804e-02 -7.774696499109268188e-02 -9.184083342552185059e-02
7.390165328979492188e-01 -1.745992302894592285e-01 1.457302924245595932e-02
-1.702958494424819946e-01 1.278588082641363144e-02 -7.832149863243103027e-01
3.549045324325561523e-01 -8.280250430107116699e-02 9.125805646181106567e-02
-6.848630309104919434e-01 3.293623328208923340e-01 2.950755879282951355e-03
2.416766434907913208e-01 -1.204443871974945068e-01 -3.716821372509002686e-01
7.344280481338500977e-01 -7.046587020158767700e-02 -8.865363895893096924e-02
-7.394575476646423340e-01 6.765510141849517822e-02 9.804457426071166992e-02
-6.819781064987182617e-01 7.950140163302421570e-03 5.559443309903144836e-02
4.107903242111206055e-01 5.103223025798797607e-02 1.058751866221427917e-01
8.761484026908874512e-01 2.171552181243896484e-02 7.207992672920227051e-02
5.460813045501708984e-01 -9.390274435281753540e-02 7.697062194347381592e-02
8.656250834465026855e-01 -8.434115350246429443e-02 4.913761094212532043e-02
-3.451033309102058411e-02 -1.171198189258575439e-01 3.511518537998199463e-01
1.590843349695205688e-01 -1.578897796571254730e-02 2.476779222488403320e-01
1.529022604227066040e-01 -1.468993723392486572e-02 2.683672308921813965e-01
-7.403092980384826660e-01 5.886284261941909790e-02 -1.847915351390838623e-01
-3.713089823722839355e-01 -9.590847790241241455e-02 -1.540309470146894455e-02
7.066712528467178345e-02 9.936220198869705200e-02 6.490873545408248901e-02
-3.244077563285827637e-01 -7.760958373546600342e-02 7.199750095605850220e-02
1.005333513021469116e-01 -4.716635867953300476e-02 -3.882500231266021729e-01
2.801427841186523438e-01 -3.224699199199676514e-02 1.163984313607215881e-01
3.266318738460540771e-01 -6.598731130361557007e-02 -3.231048285961151123e-01
6.866138428449630737e-02 1.121659427881240845e-01 4.081244021654129028e-02
-7.112123966217041016e-01 2.539411783218383789e-01 -9.523268789052963257e-03
6.313874572515487671e-02 -3.884119912981987000e-02 -4.453997313976287842e-01
-2.725671045482158661e-02 -3.513196110725402832e-02 4.160497784614562988e-01
-7.514919042587280273e-01 3.875836133956909180e-01 5.478531587868928909e-03
2.114944392815232277e-03 -1.892121881246566772e-02 -3.379692733287811279e-01
1.530121564865112305e-01 -1.626197695732116699e-01 -1.797084957361221313e-01
2.578324079513549805e-01 -1.114323213696479797e-01 8.535075187683105469e-02
7.106615304946899414e-01 -1.078837364912033081e-02 1.117275431752204895e-01
-7.528657317161560059e-01 3.683505356311798096e-01 -6.610830780118703842e-03
1.755423545837402344e-01 -1.051362138241529465e-02 1.163984313607215881e-01
-1.401273906230926514e-01 -1.790461316704750061e-02 6.394281983375549316e-01
3.058876395225524902e-01 -5.678289756178855896e-02 -3.296715617179870605e-01
1.005545817315578461e-02 -4.535296931862831116e-02 -3.066193461418151855e-01
7.561614513397216797e-01 4.614153504371643066e-02 -9.304977953433990479e-02
-7.976301759481430054e-02 -2.763104997575283051e-02 -1.136291623115539551e-01
4.959316551685333252e-02 -7.335082441568374634e-02 -2.449361085891723633e-01
5.143404752016067505e-02 -1.587140560150146484e-02 -3.142850995063781738e-01
5.544614195823669434e-01 3.405217453837394714e-02 -1.107716783881187439e-01
-6.649705767631530762e-01 8.444283157587051392e-02 2.077555656433105469e-01
-2.472556531429290771e-01 3.333779424428939819e-02 8.676699399948120117e-01
-5.168271437287330627e-02 -7.879102975130081177e-02 3.264786005020141602e-01
-1.715322732925415039e-01 -6.815790385007858276e-02 -9.552260488271713257e-02
1.197389513254165649e-01 -7.271888107061386108e-02 -3.685498535633087158e-01
-4.582424759864807129e-01 8.452525734901428223e-02 -7.634446769952774048e-02
1.968635767698287964e-01 9.636734426021575928e-02 6.867292523384094238e-02
8.759285211563110352e-01 -1.466246508061885834e-02 8.002044260501861572e-02
-1.320220381021499634e-01 9.461305104196071625e-03 -7.740654945373535156e-01
3.419359326362609863e-01 -1.175319403409957886e-01 -3.276781737804412842e-02
3.771599531173706055e-01 3.880548849701881409e-02 1.117550134658813477e-01
5.480870008468627930e-01 1.200514957308769226e-01 3.775030374526977539e-03
-1.356763243675231934e-01 -7.983511686325073242e-02 -8.928558230400085449e-02
-7.380562424659729004e-01 6.259954720735549927e-02 2.181688994169235229e-01
5.327492579817771912e-02 -1.047007292509078979e-01 3.585977852344512939e-01
-6.868413090705871582e-01 8.032145351171493530e-02 -2.565583884716033936e-01
2.948086336255073547e-02 4.543137270957231522e-03 4.893552362918853760e-01
-7.832265496253967285e-01 2.977376580238342285e-01 9.902139194309711456e-03
8.237245082855224609e-01 -3.746740520000457764e-02 -9.043957293033599854e-02
-3.808218985795974731e-02 -2.526813372969627380e-02 -3.633019924163818359e-01
-2.194501012563705444e-01 3.583810105919837952e-02 1.128815263509750366e-01
2.022151090204715729e-02 -6.148127838969230652e-02 -2.509807944297790527e-01
5.735021829605102539e-01 -1.101959049701690674e-01 5.581424012780189514e-02
-3.978569060564041138e-02 -9.139827452600002289e-03 -6.452589035034179688e-01
2.303016632795333862e-01 -4.216576367616653442e-02 3.456841707229614258e-01
8.693068623542785645e-01 2.929884940385818481e-02 7.224478572607040405e-02
3.775108605623245239e-02 1.410887576639652252e-03 4.427562654018402100e-01
7.654482722282409668e-01 -5.735989660024642944e-02 9.309893846511840820e-02
-7.001121044158935547e-01 2.241573929786682129e-01 1.286952849477529526e-02
-2.509099245071411133e-01 9.614752978086471558e-02 -6.593113392591476440e-02
-5.873788595199584961e-01 9.169645607471466064e-02 -5.375934392213821411e-02
-1.088112313300371170e-02 -4.408906400203704834e-02 -2.126520276069641113e-01
-1.710102409124374390e-01 -8.123222738504409790e-03 -6.356973052024841309e-01
2.819287180900573730e-01 8.666836470365524292e-02 8.084471523761749268e-02
6.396914124488830566e-01 -6.791061162948608398e-02 9.724777936935424805e-02
-6.559859514236450195e-01 2.745796740055084229e-02 -6.760716438293457031e-02
-1.963978856801986694e-01 -1.183287426829338074e-01 -2.933333814144134521e-02
4.277154505252838135e-01 5.336767435073852539e-02 1.047486811876296997e-01
3.610253706574440002e-02 1.215393841266632080e-02 1.163984313607215881e-01
-3.760073482990264893e-01 2.042416483163833618e-02 1.125243380665779114e-01
-7.689665555953979492e-01 5.452166125178337097e-02 -3.568025305867195129e-02
-7.223950624465942383e-01 8.732779324054718018e-02 2.449303418397903442e-01
2.542880475521087646e-01 1.698968000710010529e-02 1.163984313607215881e-01
3.170640394091606140e-02 -1.119543537497520447e-01 5.468773469328880310e-02
-7.474805116653442383e-01 2.565788626670837402e-01 -9.468316100537776947e-03
1.190520450472831726e-01 -6.538283824920654297e-02 2.597947716712951660e-01
-8.690673112869262695e-02 -1.166759617626667023e-02 6.103312969207763672e-01
7.580510526895523071e-02 -1.408589333295822144e-01 -3.420082032680511475e-01
2.476938515901565552e-01 -2.644960209727287292e-02 2.227023988962173462e-01
8.658723831176757812e-01 -7.989006489515304565e-02 -5.123157054185867310e-02
4.871394485235214233e-02 -9.618324786424636841e-02 -7.170105725526809692e-02
-1.411165297031402588e-01 2.866690792143344879e-02 -7.539806365966796875e-01
2.484906464815139771e-01 -8.684144914150238037e-02 3.777484595775604248e-01
-1.264993846416473389e-01 -5.760296713560819626e-03 6.219535470008850098e-01
-1.783187985420227051e-01 2.501262538135051727e-02 -7.528267502784729004e-01
4.107903242111206055e-01 5.103223025798797607e-02 1.058751866221427917e-01
3.866940736770629883e-01 1.072202920913696289e-01 5.504491925239562988e-02
2.741256058216094971e-01 -7.815908640623092651e-02 -3.442887067794799805e-01
-1.476557850837707520e-01 2.097368054091930389e-02 7.064967155456542969e-01
2.741256058216094971e-01 -1.227523535490036011e-01 -3.094218671321868896e-01
-2.465412616729736328e-01 2.927137725055217743e-02 8.881943225860595703e-01
6.582375764846801758e-01 1.088688373565673828e-01 -3.661442920565605164e-02
8.632834255695343018e-02 -4.936028737574815750e-03 -4.777662754058837891e-01
7.613818645477294922e-01 -1.414633989334106445e-01 1.245739031583070755e-02
-1.020184233784675598e-01 -1.173945590853691101e-01 -3.337228298187255859e-02
3.516836091876029968e-02 -2.353716082870960236e-02 -5.449995994567871094e-01
-2.718465030193328857e-01 1.080720424652099609e-01 -5.087438598275184631e-02
-2.489379420876502991e-02 7.455568760633468628e-03 5.271344780921936035e-01
-7.094327360391616821e-02 1.363763120025396347e-02 -7.274390459060668945e-01
6.819429993629455566e-02 1.109569966793060303e-01 -4.279648885130882263e-02
2.680809199810028076e-01 -1.206916794180870056e-01 -1.897495239973068237e-02
-7.244557738304138184e-01 6.553946435451507568e-02 -6.005131080746650696e-02
-1.380723406327888370e-04 -5.016123875975608826e-02 -1.903965920209884644e-01
-3.597142100334167480e-01 -2.820383058860898018e-03 1.128815263509750366e-01
1.345620607025921345e-03 -5.296377092599868774e-02 -2.312531620264053345e-01
-5.987263917922973633e-01 2.922062994912266731e-03 -7.925690710544586182e-02
5.327492579817771912e-02 -9.099030494689941406e-02 3.549435436725616455e-01
-2.496460378170013428e-01 3.479401394724845886e-02 9.430635571479797363e-01
-1.728298328816890717e-02 -1.136029064655303955e-01 3.622246086597442627e-01
8.009470701217651367e-01 -1.650334708392620087e-02 -9.453346580266952515e-02
-5.517702102661132812e-01 1.064234972000122070e-01 -3.837288171052932739e-02
-2.298084944486618042e-01 -1.137677654623985291e-01 -3.015761263668537140e-02
1.280304044485092163e-02 -4.274276271462440491e-02 -3.765453100204467773e-01
9.877489507198333740e-02 -1.589105278253555298e-01 1.364557892084121704e-01
-6.504358649253845215e-01 6.347877532243728638e-02 2.028099149465560913e-01
-6.720656156539916992e-02 1.181007102131843567e-01 -1.452386844903230667e-02
-5.394335389137268066e-01 9.774113446474075317e-02 -5.123157054185867310e-02
2.237349450588226318e-01 -6.810293346643447876e-02 -2.386991083621978760e-01
-4.745144397020339966e-02 -6.749428808689117432e-03 4.525101482868194580e-01
3.498764634132385254e-01 7.468891143798828125e-02 9.601137042045593262e-02
-1.233946159482002258e-01 3.094739653170108795e-02 7.993924617767333984e-01
3.072339594364166260e-01 -6.436622887849807739e-02 -3.610489666461944580e-01
-7.294288277626037598e-01 4.015962481498718262e-01 1.851722714491188526e-03
1.664478480815887451e-01 -6.917449086904525757e-02 2.457546293735504150e-01
2.410721927881240845e-01 -1.228073015809059143e-01 -4.046104475855827332e-02
1.388346403837203979e-01 -8.535776287317276001e-02 -1.183824837207794189e-01
-7.704290747642517090e-02 -5.210781469941139221e-03 6.778119206428527832e-01
6.172711253166198730e-01 -8.019229769706726074e-02 9.106571972370147705e-02
1.192443817853927612e-01 -7.510928809642791748e-02 1.789334267377853394e-01
1.449892222881317139e-01 -1.416007727384567261e-01 -3.324740827083587646e-01
-7.722361683845520020e-01 8.603642135858535767e-02 2.539424300193786621e-01
-7.195101380348205566e-01 9.694432467222213745e-02 -2.438768930733203888e-02
6.283651292324066162e-02 -1.048930734395980835e-01 9.543438255786895752e-02
4.549440145492553711e-01 -2.617483958601951599e-02 -1.136291623115539551e-01
2.549686841666698456e-02 -2.905978821218013763e-02 2.510025203227996826e-01
6.071875095367431641e-01 1.165345907211303711e-01 -9.221035055816173553e-03
-6.059799790382385254e-01 1.067806705832481384e-01 2.155188843607902527e-02
-6.659597158432006836e-01 3.688217699527740479e-02 -6.494200229644775391e-02
5.001692175865173340e-01 -1.189606785774230957e-01 -2.655827812850475311e-02
4.587631225585937500e-01 -5.398941575549542904e-04 1.163984313607215881e-01
3.307807445526123047e-01 8.411312103271484375e-02 8.403190970420837402e-02
2.560190260410308838e-01 -7.535655796527862549e-02 -1.853960007429122925e-01
-7.176417708396911621e-01 8.350865542888641357e-02 2.040463238954544067e-01
2.164813280105590820e-01 -9.123759716749191284e-02 1.165632829070091248e-01
-7.400345206260681152e-01 8.727283775806427002e-02 3.513716757297515869e-01
-7.362977862358093262e-01 3.413417637348175049e-01 8.088734000921249390e-03
-1.916171014308929443e-01 1.385743916034698486e-02 7.378466725349426270e-01
-5.350099205970764160e-01 -2.600998617708683014e-02 7.886645942926406860e-02
1.328449100255966187e-01 -1.644881218671798706e-01 1.429950296878814697e-01
-4.533579945564270020e-02 -1.236590594053268433e-01 8.748154155910015106e-03
5.474001169204711914e-01 -1.238788589835166931e-01 -4.605095833539962769e-03
3.720157220959663391e-02 -6.909207999706268311e-02 2.537500858306884766e-01
-7.709723114967346191e-01 9.133926033973693848e-02 2.952935099601745605e-01
7.242557406425476074e-02 -6.093174964189529419e-02 2.531181275844573975e-01
-2.413208484649658203e-01 -1.169549673795700073e-01 1.144078467041254044e-02
3.063484840095043182e-02 -6.159116700291633606e-02 3.333475589752197266e-01
-7.087395191192626953e-01 3.278786242008209229e-01 -4.742474760860204697e-03
3.433783771470189095e-03 9.463636577129364014e-02 -6.804677098989486694e-02
2.811594009399414062e-01 -1.170373857021331787e-01 -6.062829867005348206e-02
1.346857845783233643e-01 -5.648066103458404541e-02 -3.440963923931121826e-01
-1.583713442087173462e-01 -1.238197647035121918e-02 1.163984313607215881e-01
2.288454473018646240e-01 -9.568866342306137085e-02 3.788749575614929199e-01
9.357159733772277832e-01 -7.719743996858596802e-02 7.526897825300693512e-04
6.285088062286376953e-01 -1.094265803694725037e-01 5.564938858151435852e-02
9.497560858726501465e-01 2.240241877734661102e-02 -6.171218119561672211e-03
-8.690673112869262695e-02 -1.166759617626667023e-02 6.103312969207763672e-01
8.656250834465026855e-01 -8.434115350246429443e-02 4.913761094212532043e-02
-5.997979044914245605e-01 2.608418278396129608e-02 8.532327413558959961e-02
-7.914967536926269531e-01 8.375593274831771851e-02 -3.483276665210723877e-01
6.283651292324066162e-02 -1.048930734395980835e-01 9.543438255786895752e-02
-6.871160864830017090e-01 2.127549350261688232e-01 -1.032006740570068359e-02
7.831152677536010742e-01 -1.128335818648338318e-01 -3.313732100650668144e-03
1.215248703956604004e-01 -1.055524945259094238e-01 -3.757210671901702881e-01
3.623991459608078003e-02 2.847458235919475555e-02 -1.136291623115539551e-01
8.569152951240539551e-01 1.328460755757987499e-03 -8.299361914396286011e-02
1.666676402091979980e-01 7.150171697139739990e-02 9.601137042045593262e-02
-1.098765134811401367e-01 9.571214206516742706e-03 7.747466564178466797e-01
2.016718387603759766e-01 6.636373698711395264e-02 -9.571492671966552734e-02
7.952870130538940430e-01 8.963575959205627441e-02 2.820103615522384644e-02
1.612549275159835815e-01 -1.155811697244644165e-01 7.356362044811248779e-02
4.791714251041412354e-02 -7.321343570947647095e-02 2.406990677118301392e-01
4.324625059962272644e-02 4.982743877917528152e-03 5.162815451622009277e-01
1.297950893640518188e-01 -1.410512477159500122e-01 -3.309629261493682861e-01
2.897043824195861816e-01 1.168093532323837280e-01 -1.889252476394176483e-02
1.184750571846961975e-01 -1.391004621982574463e-01 -1.272846460342407227e-01
8.712513744831085205e-02 -7.612588256597518921e-02 -1.568761020898818970e-01
7.495397925376892090e-01 5.985196307301521301e-02 -8.780188858509063721e-02
1.455937027931213379e-01 -2.164132334291934967e-02 -1.802305579185485840e-01
-7.112123966217041016e-01 2.774330079555511475e-01 -8.781420998275279999e-03
2.722784690558910370e-02 -7.675782591104507446e-02 -1.146457642316818237e-01
-2.572293579578399658e-01 1.174180395901203156e-02 1.151620149612426758e-01
7.569857239723205566e-01 -6.721956655383110046e-03 -1.024465039372444153e-01
-7.588554620742797852e-01 1.160125508904457092e-01 7.813976146280765533e-03
-5.500667095184326172e-01 1.107646748423576355e-01 -1.611746661365032196e-02
7.233553528785705566e-01 -3.716517239809036255e-02 -1.077768206596374512e-01
4.697668366134166718e-03 -6.524545699357986450e-02 3.512068390846252441e-01
-2.551411986351013184e-01 1.192821785807609558e-01 1.295195519924163818e-02
-5.638595223426818848e-01 8.861915767192840576e-02 6.287552416324615479e-02
6.168252974748611450e-02 1.151058524847030640e-01 -2.642089873552322388e-02
-8.392497301101684570e-01 4.739401042461395264e-01 -2.187223406508564949e-03
1.674094945192337036e-01 -1.795956864953041077e-02 1.987984478473663330e-01
9.810235500335693359e-01 -4.664432629942893982e-02 -1.199609227478504181e-02
5.118676275014877319e-02 -6.944926083087921143e-02 -9.576988220214843750e-02
-2.858316898345947266e-01 5.040029063820838928e-02 -1.028036847710609436e-01
3.176135569810867310e-02 -1.062393784523010254e-01 8.452647924423217773e-02
-7.474805116653442383e-01 2.565788626670837402e-01 -9.468316100537776947e-03
4.697668366134166718e-03 -6.524545699357986450e-02 3.512068390846252441e-01
2.178276479244232178e-01 -2.653201855719089508e-02 1.163984313607215881e-01
-6.146624088287353516e-01 7.639241218566894531e-02 -1.091231256723403931e-01
2.609921395778656006e-01 1.029065847396850586e-01 -5.768838897347450256e-02
-5.415492057800292969e-01 9.873449802398681641e-03 -9.162102639675140381e-02
2.022151090204715729e-02 -6.148127838969230652e-02 -2.509807944297790527e-01
7.390165328979492188e-01 -1.745992302894592285e-01 1.457302924245595932e-02
2.178276479244232178e-01 -2.653201855719089508e-02 1.163984313607215881e-01
-5.545727014541625977e-01 -6.112407520413398743e-02 1.109875505790114403e-03
9.093803353607654572e-03 -7.211440801620483398e-02 3.625817894935607910e-01
-6.121682748198509216e-02 -1.064591929316520691e-01 -3.542074859142303467e-01
4.995372295379638672e-01 7.960708439350128174e-02 -8.692266792058944702e-02
-1.914247572422027588e-01 1.179358586668968201e-01 1.798002980649471283e-02
1.762841790914535522e-01 -1.820684969425201416e-02 2.092667222023010254e-01
4.274407029151916504e-01 1.545104198157787323e-02 -1.136291623115539551e-01
-6.599699854850769043e-01 6.301168352365493774e-02 -6.222189962863922119e-02
9.910459816455841064e-02 -1.242085695266723633e-01 -2.381069771945476532e-02
2.121126651763916016e-01 -2.161385118961334229e-02 -1.695699393749237061e-01
-1.222406402230262756e-01 -1.870140992105007172e-02 1.163984313607215881e-01
-1.797475367784500122e-01 2.545224130153656006e-02 7.595250606536865234e-01
-8.270292729139328003e-02 9.235586971044540405e-02 7.370100170373916626e-02
-3.177860677242279053e-01 -1.057997792959213257e-01 9.929614141583442688e-03
6.245185062289237976e-02 -2.889493480324745178e-02 1.577770262956619263e-01
4.169723987579345703e-01 6.636373698711395264e-02 -9.571492671966552734e-02
8.712513744831085205e-02 -7.612588256597518921e-02 -1.568761020898818970e-01
5.327492579817771912e-02 -1.232743933796882629e-01 3.513716757297515869e-01
3.142402768135070801e-01 1.168368309736251831e-01 -1.831553317606449127e-02
-8.055981248617172241e-02 -6.450361013412475586e-02 -9.772066026926040649e-02
6.819429993629455566e-02 1.109569966793060303e-01 -4.279648885130882263e-02
2.425284087657928467e-01 -8.115396648645401001e-02 -3.045037090778350830e-01
-2.934487350285053253e-02 -2.691669203341007233e-02 5.079563856124877930e-01
-4.603581130504608154e-01 -5.656309798359870911e-02 6.845311820507049561e-02
2.764060795307159424e-01 -1.187958270311355591e-01 2.998696453869342804e-02
1.179255396127700806e-01 -1.468993723392486572e-02 -2.705436050891876221e-01
5.870202779769897461e-01 1.123857349157333374e-01 -2.991032786667346954e-02
1.301797628402709961e-01 -5.903592333197593689e-02 3.127956092357635498e-01
-6.103761196136474609e-01 -2.205345779657363892e-02 5.795735493302345276e-02
-6.261747479438781738e-01 7.339755445718765259e-02 -7.969652116298675537e-02
-2.209125272929668427e-02 -2.853775583207607269e-02 4.984497725963592529e-01
-7.861114740371704102e-01 7.457900792360305786e-02 -2.279011011123657227e-01
-7.426996827125549316e-01 9.359227865934371948e-02 -3.150544166564941406e-01
2.167835533618927002e-01 -1.336877495050430298e-01 -3.626425564289093018e-01
5.870202779769897461e-01 1.123857349157333374e-01 -2.991032786667346954e-02
-6.594892591238021851e-03 -8.373668044805526733e-02 3.150211870670318604e-01
-1.773021817207336426e-01 -3.557155653834342957e-02 1.130463778972625732e-01
-2.971517443656921387e-01 1.148585602641105652e-01 3.078376501798629761e-02
1.798285692930221558e-01 -1.179166138172149658e-01 3.753580451011657715e-01
-2.370895892381668091e-01 -4.400664940476417542e-02 -1.035455390810966492e-01
-6.635143160820007324e-01 2.215197086334228516e-01 9.407575242221355438e-03
7.233553528785705566e-01 -3.716517239809036255e-02 -1.077768206596374512e-01
9.429632872343063354e-02 -7.008119672536849976e-02 3.686814308166503906e-01
6.022418737411499023e-01 -1.223127394914627075e-01 -6.500927731394767761e-03
5.640779733657836914e-01 1.141441911458969116e-01 2.770647406578063965e-02
4.392278194427490234e-01 -1.081584580242633820e-02 -1.136291623115539551e-01
6.621391773223876953e-01 1.190665829926729202e-02 -1.102771162986755371e-01
-7.944915890693664551e-01 1.973684728145599365e-01 2.978231525048613548e-03
-6.755487918853759766e-01 7.103463262319564819e-02 -2.401003688573837280e-01
-6.149371266365051270e-01 3.822848945856094360e-02 1.034573167562484741e-01
-6.253779530525207520e-01 5.641748756170272827e-02 1.635194718837738037e-01
-6.652453541755676270e-01 -2.131161652505397797e-02 -2.886624634265899658e-02
1.449892222881317139e-01 -1.416007727384567261e-01 -3.324740827083587646e-01
-1.591131985187530518e-01 6.163790076971054077e-02 1.007646843791007996e-01
1.735640913248062134e-01 -1.147568821907043457e-01 4.768139868974685669e-02
8.521620035171508789e-01 2.012192830443382263e-02 -8.359808474779129028e-02
2.919024527072906494e-01 -6.758090108633041382e-02 3.674450218677520752e-01
1.987044662237167358e-01 -5.524424836039543152e-02 -2.984865009784698486e-01
5.327492579817771912e-02 -1.084649339318275452e-01 -3.700335621833801270e-01
-7.675653100013732910e-01 3.011171817779541016e-01 -1.306764967739582062e-02
5.695668607950210571e-02 -4.716635867953300476e-02 3.847548067569732666e-01
1.980450451374053955e-01 -2.037743851542472839e-02 1.876432597637176514e-01
-6.195867806673049927e-02 -1.298643555492162704e-02 -6.236628890037536621e-01
2.262901812791824341e-01 -1.066515222191810608e-01 -3.755836784839630127e-01
-1.919742822647094727e-01 1.517627853900194168e-02 -7.902212738990783691e-01
4.384309947490692139e-01 -1.181913763284683228e-01 3.270707279443740845e-02
4.309850633144378662e-01 3.438188135623931885e-02 -1.111288666725158691e-01
-7.781223207712173462e-02 -8.986379951238632202e-02 8.092714101076126099e-02
-3.908992409706115723e-01 -5.681036785244941711e-02 8.617502450942993164e-02
3.345174491405487061e-01 -1.784965954720973969e-02 1.163984313607215881e-01
1.255912929773330688e-01 -4.219323769211769104e-02 4.096478819847106934e-01
1.175683587789535522e-01 -1.242360621690750122e-01 3.109547495841979980e-01
-3.646111488342285156e-02 -6.419721525162458420e-03 -6.618543267250061035e-01
-2.370895892381668091e-01 -4.400664940476417542e-02 -1.035455390810966492e-01
1.848566532135009766e-01 -7.906579226255416870e-02 1.836592555046081543e-01
1.912859827280044556e-01 -3.150514140725135803e-02 3.374139666557312012e-01
5.922956466674804688e-01 -2.386686764657497406e-02 1.149422079324722290e-01
-6.960168548175715841e-07 -2.727387100458145142e-02 5.292776226997375488e-01
-5.017641782760620117e-01 -6.392660737037658691e-02 4.399963840842247009e-02
2.457155883312225342e-01 -1.114872619509696960e-01 -5.252293124794960022e-02
-9.319867938756942749e-02 -1.210213825106620789e-01 2.023304812610149384e-02
1.606504470109939575e-01 -1.936083473265171051e-02 -1.856707632541656494e-01
-6.960168548175715841e-07 -2.727387100458145142e-02 5.292776226997375488e-01
5.922956466674804688e-01 -2.386686764657497406e-02 1.149422079324722290e-01
9.737362712621688843e-02 -2.320745401084423065e-02 -2.110309600830078125e-01
2.118653804063796997e-01 -8.409388363361358643e-02 1.480505764484405518e-01
-7.510248422622680664e-01 2.145133763551712036e-01 -1.029259245842695236e-02
-1.793628633022308350e-01 -1.222852692008018494e-01 -1.196861732751131058e-02
6.439776420593261719e-01 1.173313856124877930e-01 -1.335472683422267437e-03
-3.430638313293457031e-01 -3.702779114246368408e-02 -9.925930947065353394e-02
-1.715322732925415039e-01 -6.815790385007858276e-02 -9.552260488271713257e-02
2.741256058216094971e-01 -9.948033839464187622e-02 3.169170022010803223e-01
5.091200396418571472e-02 -8.813282847404479980e-02 1.115901619195938110e-01
-6.635143160820007324e-01 2.215197086334228516e-01 9.407575242221355438e-03
2.185145318508148193e-01 -1.925092563033103943e-02 -2.513379752635955811e-01
8.658723831176757812e-01 -7.989006489515304565e-02 -5.123157054185867310e-02
-3.794480860233306885e-02 -1.130533814430236816e-01 -5.054467171430587769e-02
-7.737199068069458008e-01 2.827358543872833252e-01 1.207272987812757492e-02
-3.760073482990264893e-01 2.042416483163833618e-02 1.125243380665779114e-01
6.785831414163112640e-03 9.323923848569393158e-03 5.534563660621643066e-01
2.203491516411304474e-02 -3.015884011983871460e-02 -5.054893493652343750e-01
7.812743186950683594e-01 8.554186671972274780e-02 -5.288011953234672546e-02
-1.476557850837707520e-01 2.097368054091930389e-02 7.064967155456542969e-01
-1.968374997377395630e-01 2.284203469753265381e-02 8.679996132850646973e-01
4.871394485235214233e-02 -9.618324786424636841e-02 -7.170105725526809692e-02
1.299599558115005493e-01 9.169645607471466064e-02 -7.175601273775100708e-02
1.332845240831375122e-01 -1.167626231908798218e-01 6.955215334892272949e-02
-6.766203641891479492e-01 8.128310739994049072e-02 1.737130135297775269e-01
-7.569321393966674805e-01 7.521095126867294312e-02 -3.027727007865905762e-01
2.242569774389266968e-01 -6.631701439619064331e-02 2.519366741180419922e-01
-1.458148956298828125e-01 -9.236409515142440796e-02 -7.477834820747375488e-02
6.415872573852539062e-01 -1.206367090344429016e-01 1.306185871362686157e-02
-4.473620355129241943e-01 -1.240944862365722656e-02 1.069742292165756226e-01
2.535736858844757080e-01 1.132375001907348633e-01 -3.367451950907707214e-02
7.961388230323791504e-01 -1.060470491647720337e-01 -3.787831962108612061e-02
2.949797511100769043e-01 -3.922585025429725647e-02 -1.591016501188278198e-01
6.646332144737243652e-02 -4.996889084577560425e-02 3.645050823688507080e-01
-4.975603818893432617e-01 1.084292232990264893e-01 4.336769506335258484e-02
-3.097081780433654785e-01 2.800749242305755615e-02 1.139805614948272705e-01
2.764060795307159424e-01 -1.187958270311355591e-01 2.998696453869342804e-02
5.460813045501708984e-01 -9.390274435281753540e-02 7.697062194347381592e-02
6.215024590492248535e-01 -9.145738929510116577e-02 -7.400903105735778809e-02
2.379336766898632050e-02 1.081269979476928711e-01 -5.114914104342460632e-02
2.664873003959655762e-01 -3.156010806560516357e-02 -1.136291623115539551e-01
2.953581884503364563e-02 -5.252415314316749573e-02 -2.706260085105895996e-01
-1.099102199077606201e-02 -9.802410751581192017e-02 7.199750095605850220e-02
-7.849300503730773926e-01 2.416087314486503601e-02 1.259476877748966217e-02
7.270033657550811768e-02 -7.568626105785369873e-02 -1.538262963294982910e-01
6.177657246589660645e-01 2.443562634289264679e-02 1.142278388142585754e-01
2.154097706079483032e-01 -1.088495850563049316e-01 -5.582002922892570496e-02
8.882102966308593750e-01 5.419194325804710388e-02 -1.707912050187587738e-02
-7.717416286468505859e-01 2.774055302143096924e-01 -9.028703905642032623e-03
-2.209125272929668427e-02 -2.853775583207607269e-02 4.984497725963592529e-01
-7.706975936889648438e-01 7.702435553073883057e-02 -1.969908028841018677e-01
4.176318049430847168e-01 -1.011563688516616821e-01 -6.546404212713241577e-02
-2.741269767284393311e-01 3.781635686755180359e-02 9.559497237205505371e-01
-5.885390937328338623e-02 -7.051663938909769058e-03 6.637443304061889648e-01
8.351956494152545929e-03 -4.018750041723251343e-02 -1.912483572959899902e-01
-5.457255244255065918e-01 1.063960120081901550e-01 4.248846694827079773e-02
6.318742875009775162e-03 -1.272858679294586182e-01 3.309021890163421631e-01
-3.923617303371429443e-02 -2.169627882540225983e-02 -3.790730834007263184e-01
-7.976301759481430054e-02 -2.763104997575283051e-02 -1.136291623115539551e-01
-8.095209002494812012e-01 4.047834575176239014e-01 -6.308597046881914139e-03
4.995372295379638672e-01 7.960708439350128174e-02 -8.692266792058944702e-02
-1.344673782587051392e-01 -6.051960587501525879e-02 1.019736230373382568e-01
-7.715493440628051758e-01 3.093324601650238037e-01 -8.451710455119609833e-03
5.761610716581344604e-02 -4.540791362524032593e-02 -4.033068120479583740e-01
2.741256058216094971e-01 -7.815908640623092651e-02 -3.442887067794799805e-01
2.382971346378326416e-01 -5.433756485581398010e-02 3.455193042755126953e-01
4.695062041282653809e-01 7.620008289813995361e-02 -9.098908305168151855e-02
2.237349450588226318e-01 -6.810293346643447876e-02 -2.386991083621978760e-01
1.170188337564468384e-01 -1.241810917854309082e-01 3.463038057088851929e-02
2.735211253166198730e-01 7.507357746362686157e-02 9.581904113292694092e-02
3.324292898178100586e-01 -1.179440915584564209e-01 -3.092693537473678589e-02
-5.108586549758911133e-01 1.613792777061462402e-02 -9.615454077720642090e-02
-6.973370909690856934e-01 3.218064606189727783e-01 1.130340620875358582e-02
-1.562557071447372437e-01 3.556333854794502258e-02 8.470904827117919922e-01
3.189661502838134766e-01 -1.112674623727798462e-01 3.982330858707427979e-02
-1.351880189031362534e-02 -1.084649339318275452e-01 5.908386409282684326e-02
7.472318410873413086e-01 -1.602019071578979492e-01 -7.874718867242336273e-03
-6.599699854850769043e-01 6.301168352365493774e-02 -6.222189962863922119e-02
1.054789870977401733e-01 -6.582245975732803345e-02 3.650546073913574219e-01
-5.122050046920776367e-01 -3.249428421258926392e-02 -7.733360677957534790e-02
-3.941963613033294678e-01 -5.329347774386405945e-02 -8.719742298126220703e-02
1.592216938734054565e-01 -5.222192034125328064e-02 3.512892425060272217e-01
-7.362977862358093262e-01 3.413417637348175049e-01 8.088734000921249390e-03
1.974680423736572266e-01 -8.395650237798690796e-02 -1.498148292303085327e-01
1.967199519276618958e-02 -3.378564119338989258e-02 -2.161689400672912598e-01
1.081990972161293030e-01 -2.131161652505397797e-02 -2.205101102590560913e-01
2.262901812791824341e-01 -1.066515222191810608e-01 -3.755836784839630127e-01
8.911501765251159668e-01 -8.217056095600128174e-02 3.938369825482368469e-02
-7.914967536926269531e-01 8.375593274831771851e-02 -3.483276665210723877e-01
-4.210402071475982666e-01 7.573299109935760498e-02 9.125805646181106567e-02
6.866138428449630737e-02 1.121659427881240845e-01 4.081244021654129028e-02
-1.019422616809606552e-02 -3.156010806560516357e-02 -3.026078641414642334e-01
-7.024201154708862305e-01 -2.160968491807579994e-03 3.721310570836067200e-02
7.437148690223693848e-01 -1.815231442451477051e-01 -1.169385854154825211e-02
-1.944196373224258423e-01 2.646884508430957794e-02 7.774941921234130859e-01
-2.533552646636962891e-01 -1.093441471457481384e-01 3.685592114925384521e-02
-7.496510744094848633e-01 6.622635573148727417e-02 2.394077032804489136e-01
-2.066251449286937714e-02 -3.274155408143997192e-02 -1.124751791357994080e-01
9.610973298549652100e-02 -6.771828234195709229e-02 -2.141906768083572388e-01
6.416147351264953613e-01 -2.285025455057621002e-02 1.135958954691886902e-01
-7.087395191192626953e-01 3.278786242008209229e-01 -4.742474760860204697e-03
3.115476667881011963e-01 -1.820684969425201416e-02 1.163984313607215881e-01
2.953581884503364563e-02 -5.252415314316749573e-02 -2.706260085105895996e-01
4.862664341926574707e-01 7.529338449239730835e-02 -9.140121936798095703e-02
1.305369436740875244e-01 -3.232942894101142883e-02 -4.157258570194244385e-01
-1.775494813919067383e-01 3.633266314864158630e-02 8.424471020698547363e-01
3.950953856110572815e-02 -1.147843748331069946e-01 3.736270964145660400e-01
-7.183011770248413086e-01 7.647483795881271362e-02 1.305209994316101074e-01
-5.346864461898803711e-02 1.863823644816875458e-02 6.975121498107910156e-01
-7.689665555953979492e-01 5.452166125178337097e-02 -3.568025305867195129e-02
5.431688427925109863e-01 9.265810251235961914e-02 7.306905835866928101e-02
-7.916890978813171387e-01 4.018160998821258545e-01 -6.665783002972602844e-03
1.279542297124862671e-01 -7.002625614404678345e-02 -2.232027351856231689e-01
7.963860630989074707e-01 -7.502684742212295532e-02 -7.587738335132598877e-02
7.300256937742233276e-02 -5.340338870882987976e-02 -3.307156264781951904e-01
7.789326459169387817e-02 -7.406520098447799683e-02 3.110646605491638184e-01
-7.504753470420837402e-01 6.636373698711395264e-02 1.075237467885017395e-01
1.321854889392852783e-01 1.175512000918388367e-01 -1.669445820152759552e-02
1.426263004541397095e-01 -1.251977086067199707e-01 2.016577636823058128e-03
-1.301811486482620239e-01 -2.034995704889297485e-02 6.245362758636474609e-01
-1.380723406327888370e-04 -5.016123875975608826e-02 -1.903965920209884644e-01
-7.968681864440441132e-03 -3.826420009136199951e-02 4.042351543903350830e-01
1.205632165074348450e-01 -1.411886364221572876e-01 -1.846266835927963257e-01
4.422501623630523682e-01 -1.143722310662269592e-01 -4.656067490577697754e-02
3.457001149654388428e-01 -2.216336689889431000e-02 1.163984313607215881e-01
-5.424009561538696289e-01 3.611285611987113953e-02 -9.151113033294677734e-02
-2.943492233753204346e-01 -8.508300036191940308e-02 6.861796975135803223e-02
-7.380562424659729004e-01 6.259954720735549927e-02 2.181688994169235229e-01
3.105310499668121338e-01 -8.359929919242858887e-02 -3.517346680164337158e-01
4.957180917263031006e-01 7.757803890854120255e-03 1.163984313607215881e-01
7.184858620166778564e-02 -4.796315729618072510e-02 -3.872059583663940430e-01
-7.588554620742797852e-01 1.160125508904457092e-01 7.813976146280765533e-03
1.950090751051902771e-03 1.091752573847770691e-02 6.084629893302917480e-01
1.345484107732772827e-01 -1.410787254571914673e-01 1.821755766868591309e-01
3.623991459608078003e-02 2.847458235919475555e-02 -1.136291623115539551e-01
-1.418034285306930542e-01 1.744750479701906443e-04 -6.791915297508239746e-01
-5.769992619752883911e-02 1.424210146069526672e-02 1.163984313607215881e-01
-7.914967536926269531e-01 8.375593274831771851e-02 -3.483276665210723877e-01
7.280397694557905197e-03 -3.535176068544387817e-02 -2.427655160427093506e-01
2.064801156520843506e-01 1.135397255420684814e-01 -3.263043612241744995e-02
7.437148690223693848e-01 -1.815231442451477051e-01 -1.169385854154825211e-02
4.995372295379638672e-01 7.960708439350128174e-02 -8.692266792058944702e-02
-7.022827267646789551e-01 4.048151895403862000e-02 -6.403530389070510864e-02
3.312203586101531982e-01 -9.615575522184371948e-02 -3.082129359245300293e-01
6.848891377449035645e-01 -7.280131429433822632e-02 9.331873804330825806e-02
-1.418034285306930542e-01 1.744750479701906443e-04 -6.791915297508239746e-01
9.425573945045471191e-01 -4.793568328022956848e-02 4.454915225505828857e-02
3.676258325576782227e-01 7.922242581844329834e-02 -8.738975971937179565e-02
7.952321171760559082e-01 6.647364050149917603e-02 7.551440596580505371e-02
-3.978569060564041138e-02 -9.139827452600002289e-03 -6.452589035034179688e-01
-1.496065557003021240e-01 4.443803429603576660e-02 1.090349107980728149e-01
3.548770546913146973e-01 -9.882092475891113281e-02 -6.840395927429199219e-02
-7.354460358619689941e-01 1.673099100589752197e-01 1.396856084465980530e-02
9.640710353851318359e-01 -2.573522366583347321e-02 3.949360176920890808e-02
8.098217248916625977e-01 -7.653802633285522461e-02 7.441537082195281982e-02
2.182672470808029175e-01 -9.813401848077774048e-02 1.081556826829910278e-01
-9.660568833351135254e-02 7.903009653091430664e-02 9.040630608797073364e-02
-2.944865822792053223e-01 -7.346072793006896973e-02 8.257568627595901489e-02
-6.428525447845458984e-01 7.235346734523773193e-02 7.419556379318237305e-02
-1.742248982191085815e-01 3.740422055125236511e-02 -8.604494929313659668e-01
4.593401253223419189e-01 1.076599061489105225e-01 -5.172613635659217834e-02
9.933876991271972656e-01 -6.914282683283090591e-03 -1.185871381312608719e-02
2.503589987754821777e-01 1.168093532323837280e-01 2.232121117413043976e-02
-7.728681564331054688e-01 6.878160685300827026e-02 -1.756970435380935669e-01
-8.088065385818481445e-01 3.418363630771636963e-01 6.302806083112955093e-03
-4.091431796550750732e-01 5.869798734784126282e-02 -9.733600169420242310e-02
1.668324917554855347e-01 -8.555009216070175171e-02 1.312078982591629028e-01
-3.258702158927917480e-02 -1.193728297948837280e-01 -3.361558616161346436e-01
-3.451033309102058411e-02 -1.171198189258575439e-01 3.511518537998199463e-01
6.671060621738433838e-02 -1.197025328874588013e-01 5.773754417896270752e-02
-7.473493367433547974e-02 -2.007520385086536407e-02 4.781451225280761719e-01
-4.525000452995300293e-01 -3.040191484615206718e-03 1.075512170791625977e-01
2.307899668812751770e-02 -2.796075679361820221e-02 2.694388031959533691e-01
-9.630344808101654053e-02 -3.664311766624450684e-02 1.130463778972625732e-01
-6.788733601570129395e-01 2.188037522137165070e-02 -6.068325415253639221e-02
6.657110452651977539e-01 1.096106767654418945e-01 3.515242040157318115e-02
2.082935273647308350e-01 -2.274036407470703125e-02 2.860341966152191162e-01
-6.659597158432006836e-01 3.688217699527740479e-02 -6.494200229644775391e-02
6.646332144737243652e-02 -4.996889084577560425e-02 3.645050823688507080e-01
1.800209134817123413e-01 -6.277263164520263672e-02 -3.173623979091644287e-01
