-6.875928491353988647e-02 1.361657585948705673e-02 -5.367375612258911133e-01
-2.336001098155975342e-01 4.841043055057525635e-02 8.772420883178710938e-01
-8.457337021827697754e-01 3.763192594051361084e-01 3.241773229092359543e-03
-7.088602185249328613e-01 6.949840486049652100e-02 1.083377078175544739e-01
9.769553691148757935e-02 -1.677612364292144775e-01 -1.462262421846389771e-01
-7.405847311019897461e-01 8.116691559553146362e-02 -2.903844974935054779e-02
1.278325617313385010e-01 -1.011369675397872925e-01 -7.198172807693481445e-02
-5.339649319648742676e-01 8.721629157662391663e-03 9.397036582231521606e-02
-1.883813291788101196e-01 1.149984356015920639e-02 -6.676841974258422852e-01
8.462527990341186523e-01 4.049912840127944946e-02 -7.121441513299942017e-02
9.375311434268951416e-02 -2.104497142136096954e-02 -1.572332680225372314e-01
9.901849925518035889e-02 -8.417662978172302246e-02 -6.536693125963211060e-02
-7.294983267784118652e-01 3.408903777599334717e-01 8.507153950631618500e-03
2.163650393486022949e-01 6.128625478595495224e-03 -1.008487194776535034e-01
1.250278800725936890e-01 -5.689719319343566895e-02 2.438617497682571411e-01
-8.934453874826431274e-02 -1.039151847362518311e-01 4.155469313263893127e-02
-6.429768204689025879e-01 -4.051894322037696838e-02 1.123245153576135635e-02
-1.549369096755981445e-01 -1.112972944974899292e-01 -3.505322616547346115e-03
-6.875928491353988647e-02 1.361657585948705673e-02 -5.367375612258911133e-01
-1.013305708765983582e-01 -1.435079053044319153e-02 -4.906721115112304688e-01
-7.728914618492126465e-01 2.923113405704498291e-01 1.096785999834537506e-02
5.279485583305358887e-01 -5.665905028581619263e-02 9.378514438867568970e-02
2.401783317327499390e-01 -1.091276481747627258e-01 -2.136528305709362030e-02
3.304306566715240479e-01 -1.077517792582511902e-01 2.472664043307304382e-02
1.320660263299942017e-01 -2.538427710533142090e-02 3.385856747627258301e-01
-4.997325316071510315e-02 -3.766135126352310181e-02 -4.187824726104736328e-01
-2.886881530284881592e-01 -1.007136106491088867e-01 4.692591354250907898e-02
8.846185803413391113e-01 -2.869168482720851898e-02 -7.161130011081695557e-02
2.599433362483978271e-01 1.909363642334938049e-02 1.065914034843444824e-01
-1.108294129371643066e-01 -3.687741933390498161e-03 6.105332970619201660e-01
7.617950439453125000e-01 -1.166949719190597534e-01 2.464726381003856659e-02
-3.531163036823272705e-01 -4.927694424986839294e-02 8.960459381341934204e-02
4.467717409133911133e-01 1.695043779909610748e-02 1.065914034843444824e-01
5.695953369140625000e-01 2.819560095667839050e-02 1.058240905404090881e-01
-7.298159003257751465e-01 5.274973064661026001e-02 1.784281283617019653e-01
-5.222170352935791016e-01 3.732402250170707703e-02 -8.920667320489883423e-02
-4.208518564701080322e-01 -5.758512020111083984e-02 -6.994436681270599365e-02
1.420411467552185059e-01 2.991544827818870544e-02 1.050038561224937439e-01
-5.153434723615646362e-02 -2.578117325901985168e-02 4.315897226333618164e-01
-8.321865200996398926e-01 7.968519628047943115e-02 3.097186982631683350e-01
8.445329666137695312e-01 -2.109789289534091949e-02 8.656178414821624756e-02
-7.432571053504943848e-01 8.251633495092391968e-02 3.200292214751243591e-02
5.975362658500671387e-01 -3.661276306957006454e-03 1.064326465129852295e-01
-4.725002348423004150e-01 4.817228764295578003e-02 -8.862456679344177246e-02
-6.394372135400772095e-02 -1.021424159407615662e-01 4.912202805280685425e-02
2.513176500797271729e-01 -1.215105578303337097e-01 -2.120567262172698975e-01
8.907306790351867676e-01 6.525510456413030624e-03 7.550185173749923706e-02
1.677330285310745239e-01 -1.601772569119930267e-02 -2.479883283376693726e-01
-1.652559936046600342e-01 1.200257055461406708e-02 7.221382260322570801e-01
-9.804963320493698120e-02 -1.429787930101156235e-02 4.521749913692474365e-01
-1.818459033966064453e-01 2.724306657910346985e-02 7.135654091835021973e-01
2.277954220771789551e-01 8.955448120832443237e-02 6.057886034250259399e-02
-4.184176325798034668e-01 -2.493447251617908478e-02 9.764819592237472534e-02
2.008599489927291870e-01 1.000852435827255249e-01 4.377726465463638306e-02
-2.564873099327087402e-01 3.306408971548080444e-02 -8.073093295097351074e-01
-2.690083347260951996e-02 -4.290027171373367310e-02 -1.497717797756195068e-01
-6.156709790229797363e-01 2.278037965297698975e-01 -2.764465054497122765e-03
1.293407380580902100e-01 -2.181228436529636383e-02 1.150318831205368042e-01
8.387383222579956055e-01 -9.399297833442687988e-02 3.692433238029479980e-02
-6.008008718490600586e-01 2.303703427314758301e-01 -1.494423602707684040e-03
-6.947309970855712891e-01 5.169136449694633484e-02 -5.618558824062347412e-02
7.049547880887985229e-02 -1.641461066901683807e-02 4.372255504131317139e-01
2.405752092599868774e-01 -1.036241352558135986e-01 2.121106982231140137e-01
1.987696737051010132e-01 7.666885107755661011e-02 7.674542814493179321e-02
8.969750404357910156e-01 -8.036649972200393677e-02 3.605117648839950562e-02
4.200744032859802246e-01 1.076261103153228760e-01 -6.653966847807168961e-03
-5.153434723615646362e-02 -2.578117325901985168e-02 4.315897226333618164e-01
-5.257096886634826660e-01 1.341117769479751587e-01 -5.966028664261102676e-03
8.330173045396804810e-02 -2.141539938747882843e-02 -1.619165539741516113e-01
-2.742414474487304688e-01 1.085521876811981201e-01 1.027991995215415955e-02
-6.211802735924720764e-02 1.029957532882690430e-01 3.224105387926101685e-02
1.030138283967971802e-01 -8.875405788421630859e-02 -1.291600614786148071e-01
3.510952591896057129e-01 -7.965209335088729858e-02 7.732752710580825806e-02
-1.520587410777807236e-02 3.729756549000740051e-02 -9.568917751312255859e-02
-3.402042388916015625e-01 5.007735639810562134e-02 -8.878332376480102539e-02
3.464326262474060059e-02 -4.824503138661384583e-02 -2.673035264015197754e-01
1.856194585561752319e-01 -1.299774795770645142e-01 2.963303327560424805e-01
5.576093196868896484e-01 -2.588700503110885620e-02 -1.008487194776535034e-01
8.210107088088989258e-01 6.396843492984771729e-02 6.444190442562103271e-02
2.469783276319503784e-01 -6.163339316844940186e-02 -1.437920033931732178e-01
9.893176555633544922e-01 -1.487998291850090027e-02 2.888073585927486420e-02
1.822326630353927612e-01 1.065677478909492493e-01 -1.234269514679908752e-02
-7.358486056327819824e-01 2.378582954406738281e-01 -6.812721956521272659e-03
2.822219729423522949e-01 -8.277428150177001953e-02 3.026276230812072754e-01
1.720987856388092041e-01 -9.737975895404815674e-02 8.785828948020935059e-02
-7.865503430366516113e-02 -1.021688729524612427e-01 -4.335287585854530334e-02
-1.510003209114074707e-02 -6.978431483730673790e-04 4.066916406154632568e-01
-7.634455561637878418e-01 5.909994244575500488e-02 4.367142915725708008e-02
3.696696460247039795e-01 -1.115089803934097290e-01 8.321939036250114441e-03
-5.243867039680480957e-01 -1.167841907590627670e-02 9.164196252822875977e-02
1.905408650636672974e-01 -7.031200826168060303e-02 -1.558309346437454224e-01
-6.327371597290039062e-01 1.941476911306381226e-01 1.252895221114158630e-02
-2.636048495769500732e-01 -1.090482622385025024e-01 1.901145651936531067e-02
2.617631852626800537e-02 -4.993841424584388733e-02 2.532282769680023193e-01
-8.934453874826431274e-02 -1.039151847362518311e-01 4.155469313263893127e-02
9.684883058071136475e-02 -1.293689310550689697e-01 -1.639009863138198853e-01
3.700136244297027588e-01 -7.253458350896835327e-02 8.613844215869903564e-02
-6.077444180846214294e-03 9.859372861683368683e-03 5.279805660247802734e-01
-6.947369128465652466e-02 8.509954437613487244e-03 5.072630643844604492e-01
1.454543918371200562e-01 -7.144974172115325928e-02 -1.593235433101654053e-01
7.658109068870544434e-02 -1.339992880821228027e-01 1.531066745519638062e-01
3.045800030231475830e-01 -9.097663313150405884e-02 6.309248507022857666e-02
7.771883904933929443e-02 6.928673386573791504e-02 8.597969263792037964e-02
8.066169023513793945e-01 -8.195405453443527222e-02 5.957341194152832031e-02
9.713988751173019409e-02 -7.213769108057022095e-02 1.364638358354568481e-01
1.183072477579116821e-01 -1.116941869258880615e-01 -3.152561560273170471e-02
-6.443262100219726562e-01 1.890841685235500336e-02 7.618978619575500488e-02
-1.382940560579299927e-01 4.885039757937192917e-03 -6.688483953475952148e-01
7.179197669029235840e-02 -7.674159109592437744e-02 7.949718832969665527e-02
5.704949498176574707e-01 -9.184978902339935303e-02 -5.626496672630310059e-02
-4.807555079460144043e-01 -2.668078429996967316e-02 -8.669304847717285156e-02
-7.514330744743347168e-01 7.719803601503372192e-02 -1.911010444164276123e-01
-3.581171035766601562e-01 -6.539059430360794067e-02 7.714231312274932861e-02
-6.430032849311828613e-01 2.233321964740753174e-01 -5.066415760666131973e-03
-6.719231605529785156e-01 3.840885311365127563e-02 -6.309144198894500732e-02
6.927365064620971680e-01 -3.820030251517891884e-03 -9.812341630458831787e-02
-5.523276329040527344e-01 1.408059597015380859e-01 1.133828796446323395e-02
5.704949498176574707e-01 -9.184978902339935303e-02 -5.626496672630310059e-02
8.373360633850097656e-01 4.646908957511186600e-03 8.783182501792907715e-02
4.051720350980758667e-02 -7.206813897937536240e-03 -4.709864556789398193e-01
1.061889380216598511e-01 -4.930339753627777100e-02 3.054058253765106201e-01
-9.492744505405426025e-02 -2.549988916143774986e-03 6.253240108489990234e-01
7.933343648910522461e-01 -1.645067483186721802e-01 -2.289991639554500580e-02
7.957156896591186523e-01 -1.019042804837226868e-01 1.204414642415940762e-03
2.717441320419311523e-01 -5.126137658953666687e-02 -2.549735605716705322e-01
4.124012589454650879e-01 -5.369561910629272461e-02 9.521394222974777222e-02
2.118934392929077148e-01 -9.782956540584564209e-02 -2.052831798791885376e-01
2.048759162425994873e-02 -2.112434804439544678e-02 2.349449843168258667e-01
-1.274516899138689041e-02 -3.371891751885414124e-02 -2.667743563652038574e-01
1.413738075643777847e-02 -6.327386200428009033e-02 -2.175602465867996216e-01
-7.385209798812866211e-01 4.134581983089447021e-02 8.336023241281509399e-02
-1.531170681118965149e-02 -2.408778108656406403e-02 -2.713782489299774170e-01
7.622183561325073242e-01 -7.709531579166650772e-03 1.013524830341339111e-01
1.271710842847824097e-01 -3.885201737284660339e-02 -3.256460726261138916e-01
-6.156709790229797363e-01 2.278037965297698975e-01 -2.764465054497122765e-03
-4.818138480186462402e-01 -5.491273850202560425e-02 6.766992807388305664e-02
5.031827688217163086e-01 -1.039680987596511841e-01 -3.557387366890907288e-02
-5.967526435852050781e-01 1.970053017139434814e-01 -3.928669728338718414e-03
5.475547909736633301e-01 -1.037299782037734985e-01 -3.665870055556297302e-02
-6.740928292274475098e-01 4.097539186477661133e-02 -1.150837764143943787e-01
-2.505455864593386650e-03 -2.877106145024299622e-02 -2.661128640174865723e-01
8.359277993440628052e-02 1.046362221240997314e-01 -1.996294409036636353e-02
6.073526144027709961e-01 7.177389413118362427e-02 8.219602704048156738e-02
2.613721191883087158e-01 -7.705909758806228638e-02 -2.246777713298797607e-01
8.928150683641433716e-02 -6.266528367996215820e-02 -1.943819820880889893e-01
6.145759820938110352e-01 3.047108650207519531e-02 -9.828217327594757080e-02
-3.690240904688835144e-02 9.849769622087478638e-02 -4.361746832728385925e-02
2.935142070055007935e-02 -9.343735128641128540e-02 -8.275062590837478638e-02
-3.875455632805824280e-02 -2.474926225841045380e-02 -2.983666360378265381e-01
9.748385846614837646e-02 -6.147462129592895508e-02 -2.476972639560699463e-01
-1.029974967241287231e-01 2.345939911901950836e-02 -6.638211011886596680e-01
1.754591166973114014e-01 1.483370549976825714e-02 1.065914034843444824e-01
1.116395369172096252e-01 -7.216414064168930054e-02 -2.211586833000183105e-01
2.187992781400680542e-01 -2.226209081709384918e-02 1.314895153045654297e-01
6.728391647338867188e-01 9.894749522209167480e-02 -3.258398175239562988e-02
6.266355514526367188e-02 -6.880383193492889404e-02 -8.137474209070205688e-02
-1.777182817459106445e-01 4.134581983089447021e-02 -9.375765919685363770e-02
3.463326394557952881e-01 1.098486855626106262e-01 9.133635903708636761e-04
-3.322664499282836914e-01 -4.184190556406974792e-02 -8.880978822708129883e-02
9.928308427333831787e-02 -7.835560292005538940e-02 -1.325733065605163574e-01
5.636155605316162109e-01 8.286029845476150513e-02 -6.322373449802398682e-02
-6.739340424537658691e-01 1.887764781713485718e-01 1.350794266909360886e-02
-4.886784590780735016e-03 -3.369246423244476318e-02 -1.623928248882293701e-01
-1.620808988809585571e-01 1.038855593651533127e-02 7.074797749519348145e-01
5.794116854667663574e-01 -6.967697292566299438e-02 8.748786151409149170e-02
7.285034656524658203e-02 8.722607046365737915e-02 6.351582705974578857e-02
6.818617582321166992e-01 7.195911556482315063e-02 -7.298717647790908813e-02
-1.634038537740707397e-01 9.878874570131301880e-02 -4.322057962417602539e-02
5.576093196868896484e-01 1.013817489147186279e-01 -3.181666508316993713e-02
4.169522225856781006e-01 -7.978439331054687500e-02 7.714231312274932861e-02
3.536089062690734863e-01 -1.110062450170516968e-01 -4.722445737570524216e-03
4.691447131335735321e-03 -1.091541051864624023e-01 1.856165006756782532e-02
-7.873646616935729980e-01 3.665294051170349121e-01 1.006824616342782974e-02
2.414483577013015747e-01 -4.051894322037696838e-02 -2.521688640117645264e-01
-2.393682152032852173e-01 -1.480059698224067688e-02 1.065914034843444824e-01
1.718019135296344757e-02 5.043793935328722000e-03 -4.918363094329833984e-01
1.162169724702835083e-01 -9.984047710895538330e-02 8.034387975931167603e-02
-1.857089549303054810e-01 -2.527844533324241638e-02 -1.006635054945945740e-01
2.106969244778156281e-02 5.546521395444869995e-03 -4.752728641033172607e-01
-5.404797568917274475e-02 -1.747297681868076324e-02 5.243557095527648926e-01
2.265253663063049316e-01 -2.321462519466876984e-02 -1.081249937415122986e-01
1.575462371110916138e-01 -5.070572718977928162e-02 -2.599743306636810303e-01
-7.175917029380798340e-01 2.962537407875061035e-01 -5.674976389855146408e-03
5.143749713897705078e-01 -1.063229739665985107e-01 3.102393075823783875e-02
4.837617278099060059e-01 1.014082059264183044e-01 3.742705658078193665e-02
-1.777182817459106445e-01 4.134581983089447021e-02 -9.375765919685363770e-02
1.524866744875907898e-02 -1.074871793389320374e-01 2.586438693106174469e-02
2.267635166645050049e-01 -6.372366845607757568e-02 -2.881533801555633545e-01
-2.844282388687133789e-01 -3.625902161002159119e-02 1.007703766226768494e-01
9.019228816032409668e-01 9.383111260831356049e-03 -6.380583345890045166e-02
7.616097927093505859e-01 -3.996329382061958313e-02 -9.161445498466491699e-02
-4.818138480186462402e-01 -5.491273850202560425e-02 6.766992807388305664e-02
3.779190778732299805e-02 -7.565674930810928345e-02 8.047617971897125244e-02
-7.771249413490295410e-01 6.156064942479133606e-02 2.181169390678405762e-01
2.294623553752899170e-01 -1.421487331390380859e-01 2.831007242202758789e-01
-8.051452636718750000e-01 7.574278116226196289e-02 -2.270326167345046997e-01
-6.429768204689025879e-01 -4.051894322037696838e-02 1.123245153576135635e-02
2.368180006742477417e-01 -1.272521913051605225e-01 2.212391197681427002e-01
7.081621885299682617e-01 -1.001579836010932922e-01 -4.343225434422492981e-02
-5.402886867523193359e-01 1.651484072208404541e-01 -2.499873517081141472e-03
-7.793475389480590820e-01 5.468125641345977783e-02 -7.240507751703262329e-02
4.368760287761688232e-01 -8.989181369543075562e-02 -5.872566998004913330e-02
9.741830229759216309e-01 -3.120530210435390472e-02 3.523094579577445984e-02
-4.654355943202972412e-01 3.221739828586578369e-02 1.023843958973884583e-01
2.692569792270660400e-01 -1.310093998908996582e-01 2.791053950786590576e-01
-1.469727009534835815e-01 -1.862051780335605145e-03 -1.008487194776535034e-01
8.261378854513168335e-02 -2.866521850228309631e-02 2.653466165065765381e-01
8.448654785752296448e-03 -4.693186841905117035e-03 -3.572118878364562988e-01
2.252288609743118286e-01 -9.854397177696228027e-02 -2.050450295209884644e-01
-3.079504668712615967e-01 -4.070414975285530090e-02 -9.119110554456710815e-02
1.030932068824768066e-01 -9.695640951395034790e-02 -8.087202161550521851e-02
5.493746697902679443e-02 -9.155873954296112061e-02 2.321932166814804077e-01
8.458294272422790527e-01 -7.398982346057891846e-02 -5.536535382270812988e-02
1.523337811231613159e-01 -7.721785455942153931e-02 -2.981020510196685791e-01
-6.327371597290039062e-01 1.941476911306381226e-01 1.252895221114158630e-02
1.026434004306793213e-01 -3.572982922196388245e-02 -3.605987131595611572e-01
-4.615196585655212402e-01 -3.464500606060028076e-02 -8.335919678211212158e-02
-7.889257669448852539e-01 2.396839857101440430e-01 6.311040371656417847e-03
-4.687429964542388916e-01 -7.338126003742218018e-02 4.742863774299621582e-02
-7.008695006370544434e-01 9.209456294775009155e-02 1.176163554191589355e-02
8.846185803413391113e-01 -2.869168482720851898e-02 -7.161130011081695557e-02
1.538419574499130249e-01 7.767429947853088379e-02 7.547538727521896362e-02
-7.935560941696166992e-01 6.216920912265777588e-02 1.498257368803024292e-01
1.822326630353927612e-01 -9.968170523643493652e-02 8.214310556650161743e-02
-1.048231795430183411e-01 -1.069844439625740051e-01 2.808696217834949493e-02
-1.271018236875534058e-01 1.060650199651718140e-01 -1.430067606270313263e-02
-2.851690649986267090e-01 -1.103183180093765259e-01 7.210653275251388550e-03
-6.564975380897521973e-01 9.307355433702468872e-02 2.980680949985980988e-02
4.420884549617767334e-01 -7.409566640853881836e-02 -7.854361087083816528e-02
4.862753152847290039e-01 -1.117471009492874146e-01 7.290030829608440399e-03
1.454543918371200562e-01 -7.144974172115325928e-02 -1.593235433101654053e-01
7.832005023956298828e-01 -1.696133762598037720e-01 -6.468753796070814133e-03
-6.721612811088562012e-01 8.653812855482101440e-02 4.020527377724647522e-02
-3.092998564243316650e-01 7.193265855312347412e-02 8.253999054431915283e-02
-5.852957963943481445e-01 1.810239255428314209e-01 1.014762464910745621e-02
1.942716091871261597e-01 -6.763962656259536743e-02 -1.709391325712203979e-01
2.511324286460876465e-01 9.638094902038574219e-02 -4.628985002636909485e-02
-8.566672354936599731e-02 -7.631824165582656860e-02 -7.314593344926834106e-02
7.724051475524902344e-01 3.261428326368331909e-02 -9.002690762281417847e-02
2.278953976929187775e-02 -2.837416715919971466e-02 1.055859476327896118e-01
4.124012589454650879e-01 -5.369561910629272461e-02 9.521394222974777222e-02
-1.499419938772916794e-02 1.061179414391517639e-01 -1.414192095398902893e-02
1.992459297180175781e-01 -5.885516852140426636e-02 -2.453688532114028931e-01
-2.576309069991111755e-02 1.054731011390686035e-02 -5.149087309837341309e-01
8.448654785752296448e-03 -4.693186841905117035e-03 -3.572118878364562988e-01
5.431097149848937988e-01 3.843531012535095215e-02 -9.513352811336517334e-02
-2.364841550588607788e-01 3.822363168001174927e-02 8.731408119201660156e-01
5.438182502985000610e-02 -7.957272976636886597e-02 2.570384144783020020e-01
-5.329065322875976562e-01 9.878874570131301880e-02 -2.546645887196063995e-02
-5.780724287033081055e-01 7.434044033288955688e-02 6.830494850873947144e-02
9.684883058071136475e-02 -1.293689310550689697e-01 -1.639009863138198853e-01
1.772318929433822632e-01 -1.103447750210762024e-01 -3.008273541927337646e-01
8.068020939826965332e-01 -5.919913202524185181e-02 -7.417784631252288818e-02
-1.260699331760406494e-01 -3.899407107383012772e-03 5.888103246688842773e-01
6.262180209159851074e-01 -7.055012881755828857e-02 8.611197769641876221e-02
2.365004867315292358e-01 2.221582271158695221e-02 -1.008487194776535034e-01
-4.539787769317626953e-01 5.446958541870117188e-02 -8.563467860221862793e-02
7.584023475646972656e-02 -3.744966536760330200e-02 -9.603314101696014404e-02
-7.771249413490295410e-01 6.156064942479133606e-02 2.181169390678405762e-01
7.078446745872497559e-01 -8.676962554454803467e-02 6.428314745426177979e-02
-7.744525671005249023e-01 2.619626224040985107e-01 -3.664077725261449814e-03
5.860529541969299316e-01 -2.977650612592697144e-02 -1.008487194776535034e-01
6.427756696939468384e-02 -2.879751659929752350e-02 -2.544972598552703857e-01
8.668850362300872803e-02 -4.300611466169357300e-02 -3.417068123817443848e-01
1.817299574613571167e-01 -1.906053721904754639e-02 -1.699336767196655273e-01
-7.569100856781005859e-01 7.479024678468704224e-02 -1.667850464582443237e-01
7.511055469512939453e-01 -4.991195723414421082e-02 -8.724869787693023682e-02
-7.617256641387939453e-01 1.174160167574882507e-01 4.020997221232391894e-05
2.746811211109161377e-01 -7.081472873687744141e-02 8.679992705583572388e-02
2.837301492691040039e-01 -1.428101956844329834e-01 -2.611385285854339600e-01
4.292499274015426636e-02 -2.162707597017288208e-02 -1.987212896347045898e-01
-5.335680246353149414e-01 1.580838114023208618e-01 -2.446954604238271713e-03
7.546980679035186768e-02 -3.977808356285095215e-02 -3.634562790393829346e-01
2.582764029502868652e-01 -3.300453722476959229e-02 -1.177032291889190674e-01
-6.415745019912719727e-01 7.473733276128768921e-02 -5.467741191387176514e-02
4.073475599288940430e-01 -1.116148009896278381e-01 -2.076526172459125519e-03
9.586984664201736450e-02 9.592656715540215373e-05 -1.008487194776535034e-01
3.536089062690734863e-01 -1.110062450170516968e-01 -4.722445737570524216e-03
1.996163725852966309e-01 -8.608167618513107300e-02 -6.351478397846221924e-02
-2.018019743263721466e-02 1.098751425743103027e-01 7.810674724169075489e-04
-4.103740155696868896e-01 1.085521876811981201e-01 3.744498128071427345e-03
-5.330917835235595703e-01 9.900041669607162476e-02 3.691579448059201241e-03
2.096385322511196136e-02 -5.512442439794540405e-02 -2.637844681739807129e-01
-7.385209798812866211e-01 4.134581983089447021e-02 8.336023241281509399e-02
1.271710842847824097e-01 -3.885201737284660339e-02 -3.256460726261138916e-01
6.829936057329177856e-02 -1.012957170605659485e-01 2.269807755947113037e-01
9.547296166419982910e-02 -1.230451837182044983e-01 -1.244238689541816711e-01
1.575462371110916138e-01 -5.070572718977928162e-02 -2.599743306636810303e-01
2.384055554866790771e-01 -7.020616531372070312e-02 -2.147291004657745361e-01
6.186771988868713379e-01 -7.914937287569046021e-02 -7.102920114994049072e-02
2.808196544647216797e-01 -6.647542119026184082e-02 -2.352879047393798828e-01
7.891273498535156250e-01 -1.146576255559921265e-01 2.247761003673076630e-02
-2.027222216129302979e-01 3.518082201480865479e-02 7.865928411483764648e-01
-3.967210650444030762e-01 7.754200696945190430e-02 7.507850229740142822e-02
1.749769784510135651e-02 -2.138894423842430115e-02 -2.279587090015411377e-01
-1.818459033966064453e-01 2.724306657910346985e-02 7.135654091835021973e-01
-6.958422660827636719e-01 6.984238326549530029e-02 1.098194196820259094e-01
-3.066010475158691406e-01 1.065148264169692993e-01 1.845581270754337311e-02
8.152896165847778320e-02 -5.989683791995048523e-03 3.361249268054962158e-01
7.784907817840576172e-01 4.092247039079666138e-02 -8.478798717260360718e-02
-5.745533704757690430e-01 4.155749455094337463e-02 -8.111014962196350098e-02
-7.059761881828308105e-01 4.055204242467880249e-02 -9.201133996248245239e-02
-2.542647421360015869e-01 2.740182168781757355e-02 -1.004782915115356445e-01
5.670436192303895950e-03 -8.291635662317276001e-03 3.412050902843475342e-01
-6.348274350166320801e-01 3.377849236130714417e-02 8.804350346326828003e-02
4.671188592910766602e-01 -1.112277060747146606e-02 -1.008487194776535034e-01
2.132428586483001709e-01 -1.014280170202255249e-01 7.409951090812683105e-02
1.694528907537460327e-01 -1.281253546476364136e-01 -2.922016382217407227e-01
-4.870263338088989258e-01 -4.303256794810295105e-02 8.076722919940948486e-02
-4.327908158302307129e-02 -4.613809753209352493e-03 -5.890738964080810547e-01
-2.516717314720153809e-01 1.069117188453674316e-01 -1.094035804271697998e-02
3.568369448184967041e-01 1.026517823338508606e-01 3.308774903416633606e-02
8.180472850799560547e-01 -1.075665503740310669e-01 1.824413985013961792e-02
-7.521474361419677734e-01 4.380652680993080139e-02 4.425353184342384338e-02
-1.253555268049240112e-01 -1.085984557867050171e-01 -1.530612539499998093e-02
-6.740663647651672363e-01 1.132883802056312561e-01 1.440755557268857956e-02
-1.274516899138689041e-02 -3.371891751885414124e-02 -2.667743563652038574e-01
2.919854223728179932e-01 -1.114825233817100525e-01 3.321150783449411392e-03
-1.159889623522758484e-01 2.483528293669223785e-02 6.815762519836425781e-01
-7.179886698722839355e-01 3.706570267677307129e-01 4.220763687044382095e-03
1.978965103626251221e-01 -1.035976782441139221e-01 -3.721434623003005981e-02
2.720352113246917725e-01 -7.015325129032135010e-02 -2.185921519994735718e-01
-5.776225924491882324e-01 7.092720270156860352e-02 -6.579027324914932251e-02
2.599433362483978271e-01 1.909363642334938049e-02 1.065914034843444824e-01
-1.984622925519943237e-01 -8.145131915807723999e-02 7.298821955919265747e-02
-7.274080514907836914e-01 3.578772246837615967e-01 -1.714636891847476363e-04
-7.994300127029418945e-01 8.095523715019226074e-02 -3.404103219509124756e-01
-6.849469989538192749e-02 -2.710412628948688507e-02 -4.289692640304565430e-01
7.131571322679519653e-02 -1.676842221058905125e-03 4.050776064395904541e-01
-6.327371597290039062e-01 1.941476911306381226e-01 1.252895221114158630e-02
2.324786931276321411e-01 -2.334692329168319702e-02 1.181011497974395752e-01
-7.744525671005249023e-01 2.619626224040985107e-01 -3.664077725261449814e-03
-7.027481198310852051e-01 8.767587691545486450e-02 3.205583989620208740e-02
9.720927476882934570e-01 -3.826991096138954163e-02 -2.763611264526844025e-02
8.286839127540588379e-01 -9.981400519609451294e-02 6.549173034727573395e-03
5.438182502985000610e-02 -3.637166446424089372e-05 -4.120618402957916260e-01
6.994306445121765137e-01 -9.785602241754531860e-02 5.195315927267074585e-02
-1.047967225313186646e-01 -1.260448712855577469e-02 -4.715685546398162842e-01
7.110403478145599365e-02 -1.061906740069389343e-01 -2.321127951145172119e-01
-6.354682147502899170e-02 9.156537801027297974e-02 5.809169635176658630e-02
8.152896165847778320e-02 -5.989683791995048523e-03 3.361249268054962158e-01
1.210002508014440536e-02 -3.959287330508232117e-02 3.534292578697204590e-01
-6.394372135400772095e-02 -1.021424159407615662e-01 4.912202805280685425e-02
2.039292305707931519e-01 -6.634312123060226440e-02 1.816826164722442627e-01
-6.031880527734756470e-02 5.192770040594041348e-04 -4.420136213302612305e-01
1.880801618099212646e-01 -1.107681244611740112e-01 1.154996175318956375e-02
-1.100356429815292358e-01 7.759492099285125732e-02 7.558123022317886353e-02
5.427598580718040466e-02 -1.226747632026672363e-01 2.433590143918991089e-01
1.720458865165710449e-01 1.054300069808959961e-01 2.258344739675521851e-02
-2.975519895553588867e-01 1.069381758570671082e-01 -8.714464902877807617e-01
-2.337324023246765137e-01 2.607885934412479401e-02 -1.008487194776535034e-01
-6.775854229927062988e-01 6.836066395044326782e-02 -8.579343557357788086e-02
-7.678113579750061035e-01 5.176092032343149185e-03 -1.821663603186607361e-02
-5.339649319648742676e-01 8.721629157662391663e-03 9.397036582231521606e-02
-3.300174474716186523e-01 2.356524206697940826e-02 1.054007411003112793e-01
1.322247833013534546e-01 -1.210176013410091400e-02 -2.770934402942657471e-01
5.196933150291442871e-01 -6.999450176954269409e-02 8.735556155443191528e-02
6.221433281898498535e-01 1.011171489953994751e-01 -2.932950295507907867e-02
-5.839312914758920670e-03 5.572986789047718048e-03 -5.342503786087036133e-01
5.939378142356872559e-01 5.809449404478073120e-02 9.135090559720993042e-02
2.511324286460876465e-01 9.638094902038574219e-02 -4.628985002636909485e-02
5.794116854667663574e-01 -6.967697292566299438e-02 8.748786151409149170e-02
6.818617582321166992e-01 7.195911556482315063e-02 -7.298717647790908813e-02
6.610324978828430176e-02 -7.099993526935577393e-02 1.313572078943252563e-01
-4.798882082104682922e-02 -2.191812731325626373e-02 3.271288573741912842e-01
7.462899684906005859e-01 2.025783434510231018e-02 1.024108529090881348e-01
2.860585749149322510e-01 6.772564351558685303e-02 8.677345514297485352e-02
-7.665412425994873047e-01 8.201360702514648438e-02 2.495240122079849243e-01
2.301238179206848145e-01 -9.743267297744750977e-02 -8.103077113628387451e-02
2.675842307507991791e-02 -6.496724486351013184e-02 2.084593176841735840e-01
6.994306445121765137e-01 -9.785602241754531860e-02 5.195315927267074585e-02
2.575090825557708740e-01 -5.253142863512039185e-02 2.510057389736175537e-01
-2.262180000543594360e-01 3.994348272681236267e-02 8.372357487678527832e-01
-1.221539527177810669e-01 5.769760534167289734e-02 -8.587281405925750732e-02
2.599433362483978271e-01 1.909363642334938049e-02 1.065914034843444824e-01
-4.308798909187316895e-01 5.158552899956703186e-02 9.315013140439987183e-02
-6.942812204360961914e-01 4.700808972120285034e-02 1.553027927875518799e-01
1.111103519797325134e-01 -4.636641964316368103e-02 3.231599628925323486e-01
2.245938479900360107e-01 -5.507151037454605103e-02 -2.435431778430938721e-01
2.238529920578002930e-01 -4.350883141160011292e-02 -1.978745907545089722e-01
5.893280729651451111e-02 -3.207844868302345276e-02 4.195772707462310791e-01
-2.026693075895309448e-01 -1.596480607986450195e-02 -1.008487194776535034e-01
-8.829201571643352509e-03 -2.226209081709384918e-02 4.903820753097534180e-01
-5.794218182563781738e-01 -2.429945580661296844e-02 7.150650769472122192e-02
6.001293063163757324e-01 -8.917740732431411743e-02 -5.925485491752624512e-02
-9.804963320493698120e-02 -1.429787930101156235e-02 4.521749913692474365e-01
-2.854072153568267822e-01 1.038689091801643372e-01 -2.308513037860393524e-02
2.187992781400680542e-01 -2.226209081709384918e-02 1.314895153045654297e-01
8.021717071533203125e-01 4.805663134902715683e-03 9.415557980537414551e-02
2.598375082015991211e-01 -1.069579869508743286e-01 3.581304848194122314e-02
5.143749713897705078e-01 -1.063229739665985107e-01 3.102393075823783875e-02
4.230378270149230957e-01 -1.024863794445991516e-01 4.782552644610404968e-02
-4.406698048114776611e-01 3.303763642907142639e-02 -9.650941193103790283e-02
-1.722676753997802734e-01 1.329906750470399857e-02 -7.223488688468933105e-01
-7.797179818153381348e-01 8.291321992874145508e-02 -3.340865671634674072e-01
7.441467046737670898e-01 -1.081751063466072083e-01 7.016899180598556995e-04
1.818622499704360962e-01 -1.426514387130737305e-01 2.417449951171875000e-01
2.572651207447052002e-02 7.044866215437650681e-04 -3.892275691032409668e-01
-8.110456466674804688e-01 7.344082742929458618e-02 2.644205391407012939e-01
-8.292230963706970215e-01 8.002917468547821045e-02 3.190058469772338867e-01
-8.104900121688842773e-01 8.368053287267684937e-02 3.581125438213348389e-01
7.724051475524902344e-01 3.261428326368331909e-02 -9.002690762281417847e-02
1.651400327682495117e-01 -7.486297935247421265e-02 -1.355896443128585815e-01
-2.426756173372268677e-01 -8.953116834163665771e-03 -1.008487194776535034e-01
-2.815706133842468262e-01 6.611163169145584106e-02 8.797821402549743652e-01
1.846669316291809082e-01 -4.443489760160446167e-02 9.923574328422546387e-02
-6.202747821807861328e-01 6.309528648853302002e-02 -6.920351833105087280e-02
2.529316544532775879e-01 -8.847284130752086639e-03 1.065914034843444824e-01
1.946949660778045654e-01 -6.134233996272087097e-02 2.910384833812713623e-01
7.168614119291305542e-02 -7.404275238513946533e-02 -1.084425151348114014e-01
-5.593393445014953613e-01 1.878239512443542480e-01 7.395867723971605301e-03
7.957156896591186523e-01 -1.019042804837226868e-01 1.204414642415940762e-03
9.899203479290008545e-02 -2.525199018418788910e-02 3.880378901958465576e-01
7.835385948419570923e-02 -5.782325938344001770e-02 -2.280645370483398438e-01
-2.080669850111007690e-01 -1.010046675801277161e-01 5.044498667120933533e-02
1.293407380580902100e-01 -2.181228436529636383e-02 1.150318831205368042e-01
-2.293401658535003662e-01 3.018003515899181366e-02 8.475019335746765137e-01
-7.096539735794067383e-01 3.213370442390441895e-01 -2.102985046803951263e-03
5.763630568981170654e-02 -4.851940553635358810e-03 3.271288573741912842e-01
1.483384370803833008e-01 -3.953994438052177429e-02 -2.987635135650634766e-01
4.862753152847290039e-01 -1.117471009492874146e-01 7.290030829608440399e-03
6.274293363094329834e-02 -7.327543944120407104e-02 8.341315388679504395e-02
-8.412355780601501465e-01 3.607083559036254883e-01 3.268232336267828941e-03
4.737336635589599609e-01 -5.012362450361251831e-02 -9.119110554456710815e-02
7.702354788780212402e-01 -3.079171990975737572e-03 9.989722073078155518e-02
2.615573704242706299e-01 -9.547469764947891235e-02 -7.880820333957672119e-02
-7.936354875564575195e-01 7.592799514532089233e-02 3.162276446819305420e-01
-7.253443002700805664e-01 2.328045964241027832e-01 1.263478863984346390e-02
-4.648648668080568314e-03 7.770075649023056030e-02 7.544893026351928711e-02
2.718764543533325195e-01 -6.396178901195526123e-02 2.484921067953109741e-01
2.595728933811187744e-01 -9.407236427068710327e-02 8.870498090982437134e-02
-5.051508545875549316e-01 6.836066395044326782e-02 -7.528913021087646484e-02
6.914929151535034180e-01 -7.203184813261032104e-02 8.251353353261947632e-02
2.034794241189956665e-01 -1.047883480787277222e-01 -5.647664144635200500e-02
1.438933014869689941e-01 -6.023104488849639893e-02 -8.574051409959793091e-02
-5.631759166717529297e-01 1.781134307384490967e-01 -3.055516397580504417e-03
-7.918891906738281250e-01 6.963070482015609741e-02 1.769199669361114502e-01
-7.110034227371215820e-01 1.492199748754501343e-01 1.356086134910583496e-02
-5.794218182563781738e-01 -2.429945580661296844e-02 7.150650769472122192e-02
-2.631285488605499268e-01 9.312647581100463867e-02 -5.036456510424613953e-02
-6.047755852341651917e-02 -2.583408355712890625e-02 4.162169396877288818e-01
-5.745533704757690430e-01 4.155749455094337463e-02 -8.111014962196350098e-02
1.445489283651113510e-02 -4.051894322037696838e-02 -3.401192724704742432e-01
-8.226082921028137207e-01 3.145370483398437500e-01 1.389629091136157513e-03
1.273504551500082016e-02 -9.508765302598476410e-03 -5.131095051765441895e-01
6.221433281898498535e-01 1.011171489953994751e-01 -2.932950295507907867e-02
7.760035991668701172e-01 6.738167256116867065e-02 -6.891246140003204346e-02
-3.377170562744140625e-01 7.201202958822250366e-02 -7.655917108058929443e-02
2.527670562267303467e-02 -1.073284298181533813e-01 2.660524472594261169e-02
2.382468134164810181e-01 -9.267001599073410034e-02 -2.063679993152618408e-01
3.603824973106384277e-01 -1.023540869355201721e-01 4.835470765829086304e-02
5.808611214160919189e-02 -4.229171201586723328e-02 -3.502267003059387207e-01
7.337367627769708633e-03 -5.390892038121819496e-04 5.267634987831115723e-01
2.163915038108825684e-01 -6.721627712249755859e-02 -8.261833339929580688e-02
1.935572028160095215e-01 -6.996802240610122681e-02 1.626849025487899780e-01
-5.571490153670310974e-02 -8.761632442474365234e-02 6.602945923805236816e-02
-7.070344686508178711e-01 7.672177255153656006e-02 -1.785064488649368286e-01
-7.384680509567260742e-01 5.611005425453186035e-02 -4.472875595092773438e-02
-1.478193700313568115e-01 3.350412007421255112e-03 -6.387642621994018555e-01
9.058918356895446777e-01 4.121352359652519226e-02 -3.697621077299118042e-02
2.302767522633075714e-02 8.558560162782669067e-02 6.555318832397460938e-02
-5.839312914758920670e-03 5.572986789047718048e-03 -5.342503786087036133e-01
-6.441410183906555176e-01 1.303016543388366699e-01 -8.664866909384727478e-03
6.208468079566955566e-01 2.308896929025650024e-02 -1.000549420714378357e-01
5.877405405044555664e-02 -9.663890302181243896e-02 2.929170727729797363e-01
-6.503059864044189453e-01 -3.075549565255641937e-02 -3.152561560273170471e-02
-5.947211384773254395e-02 -7.327543944120407104e-02 8.251353353261947632e-02
2.780678868293762207e-01 -7.922874391078948975e-02 -2.962763607501983643e-01
1.242870241403579712e-01 -1.061642169952392578e-01 3.176479041576385498e-02
-7.275933027267456055e-01 2.140185683965682983e-01 1.300521753728389740e-02
-5.190948843955993652e-01 -6.496724486351013184e-02 -3.115518763661384583e-02
9.481147676706314087e-02 -3.731738775968551636e-02 3.732472062110900879e-01
4.684095457196235657e-02 7.828286290168762207e-02 -6.899183988571166992e-02
9.996632337570190430e-01 -2.022473514080047607e-02 -1.625865697860717773e-02
1.486824154853820801e-01 -3.374539315700531006e-02 3.136081993579864502e-01
-2.018019743263721466e-02 1.098751425743103027e-01 7.810674724169075489e-04
5.753046646714210510e-02 -2.535782195627689362e-02 -1.243974044919013977e-01
1.335212886333465576e-01 7.795551791787147522e-03 1.065914034843444824e-01
-6.893069148063659668e-01 3.058584332466125488e-01 7.422326598316431046e-03
-2.063206732273101807e-01 -6.811589002609252930e-02 8.695867657661437988e-02
7.622183561325073242e-01 -7.709531579166650772e-03 1.013524830341339111e-01
2.281393855810165405e-01 -5.433065444231033325e-02 -8.886270225048065186e-02
6.941065192222595215e-02 -3.795240446925163269e-02 3.814759850502014160e-01
1.165080219507217407e-01 -8.224510401487350464e-02 1.047392562031745911e-01
-4.818138480186462402e-01 -5.491273850202560425e-02 6.766992807388305664e-02
-1.864233613014221191e-01 1.086481753736734390e-02 6.387652754783630371e-01
4.124012589454650879e-01 -5.369561910629272461e-02 9.521394222974777222e-02
2.843651771545410156e-01 -9.875563532114028931e-02 -4.763926565647125244e-02
5.975362658500671387e-01 -3.661276306957006454e-03 1.064326465129852295e-01
-1.047967225313186646e-01 -1.260448712855577469e-02 -4.715685546398162842e-01
3.539793491363525391e-01 2.499403618276119232e-02 1.065914034843444824e-01
7.372349500656127930e-02 1.052183285355567932e-01 2.345660142600536346e-02
8.286839127540588379e-01 -9.981400519609451294e-02 6.549173034727573395e-03
-8.566672354936599731e-02 -7.631824165582656860e-02 -7.314593344926834106e-02
-3.440937399864196777e-01 -8.106426335871219635e-03 1.050832346081733704e-01
3.502221405506134033e-01 -1.041003987193107605e-01 -3.499177098274230957e-02
-7.873646616935729980e-01 3.665294051170349121e-01 1.006824616342782974e-02
-7.717331498861312866e-02 8.360116183757781982e-02 6.804035604000091553e-02
-2.044479362666606903e-02 -3.755550831556320190e-02 2.450524121522903442e-01
8.668850362300872803e-02 -4.300611466169357300e-02 -3.417068123817443848e-01
-1.779299527406692505e-01 3.295825794339179993e-02 7.614300847053527832e-01
-7.947202920913696289e-01 8.950155973434448242e-02 3.394852876663208008e-01
-1.005897149443626404e-01 -2.999794902279973030e-03 -6.172794103622436523e-01
-1.250115483999252319e-01 2.965085208415985107e-02 1.051096841692924500e-01
7.046431303024291992e-01 6.283069401979446411e-02 8.574154973030090332e-02
-4.991446137428283691e-01 -6.782483309507369995e-02 -3.933107852935791016e-02
-8.196977972984313965e-01 7.828286290168762207e-02 -3.067277371883392334e-01
2.837301492691040039e-01 -1.428101956844329834e-01 -2.611385285854339600e-01
-1.061725988984107971e-01 1.050331071019172668e-01 2.419745735824108124e-02
3.377598524093627930e-01 -6.386578548699617386e-03 1.065914034843444824e-01
2.163650393486022949e-01 6.128625478595495224e-03 -1.008487194776535034e-01
1.164021790027618408e-01 -1.442390084266662598e-01 1.084170863032341003e-01
1.423321962356567383e-01 -2.136247791349887848e-02 -1.032035872340202332e-01
-7.185971736907958984e-01 4.116060212254524231e-02 9.439370781183242798e-02
6.443426012992858887e-01 -1.091109588742256165e-02 -9.941992908716201782e-02
1.112426519393920898e-01 -1.331261545419692993e-01 -2.796599864959716797e-01
1.312458068132400513e-01 -6.070730462670326233e-02 2.866198122501373291e-01
-1.479516774415969849e-01 -7.097347825765609741e-02 -7.933738827705383301e-02
1.044690907001495361e-01 -9.138336405158042908e-03 -2.990545630455017090e-01
2.678810954093933105e-01 1.023607254028320312e-01 3.480759635567665100e-02
3.614672720432281494e-01 8.701439946889877319e-02 -5.801127478480339050e-02
2.001190930604934692e-01 -5.975478142499923706e-02 -8.613740652799606323e-02
-3.573821112513542175e-02 -7.832913100719451904e-02 -7.110857963562011719e-02
2.789939641952514648e-01 -1.344490945339202881e-01 2.547893822193145752e-01
6.994306445121765137e-01 -9.785602241754531860e-02 5.195315927267074585e-02
2.294623553752899170e-01 -1.421487331390380859e-01 2.831007242202758789e-01
-3.139890357851982117e-02 6.515752174891531467e-04 4.274356365203857422e-01
-4.991446137428283691e-01 -6.782483309507369995e-02 -3.933107852935791016e-02
-4.154012799263000488e-01 7.584861665964126587e-02 -7.137316465377807617e-02
2.694421708583831787e-01 -7.274624705314636230e-02 2.214508056640625000e-01
-1.722676753997802734e-01 1.329906750470399857e-02 -7.223488688468933105e-01
-2.560639679431915283e-01 2.159747527912259102e-03 -1.008487194776535034e-01
1.694528907537460327e-01 -1.281253546476364136e-01 -2.922016382217407227e-01
1.947478652000427246e-01 -1.953679881989955902e-02 2.120048552751541138e-01
-1.650237105786800385e-02 9.118514135479927063e-03 5.044583678245544434e-01
-3.723256886005401611e-01 -9.407236427068710327e-02 2.102235518395900726e-02
7.602868676185607910e-01 -8.150424808263778687e-02 -6.311789900064468384e-02
-6.430032849311828613e-01 2.233321964740753174e-01 -5.066415760666131973e-03
-7.660385370254516602e-01 7.973811775445938110e-02 -3.115433156490325928e-01
4.615359604358673096e-01 1.705627143383026123e-02 -1.008487194776535034e-01
1.081998422741889954e-01 -6.570810079574584961e-02 -1.854387819766998291e-01
-4.725002348423004150e-01 4.817228764295578003e-02 -8.862456679344177246e-02
3.700136244297027588e-01 -7.253458350896835327e-02 8.613844215869903564e-02
-1.056434214115142822e-01 8.218902163207530975e-03 1.065914034843444824e-01
9.741830229759216309e-01 -6.730542052537202835e-03 -3.067892044782638550e-02
9.893176555633544922e-01 -1.487998291850090027e-02 2.888073585927486420e-02
4.520900547504425049e-01 -2.596638165414333344e-02 1.065914034843444824e-01
-7.451886534690856934e-01 7.807118445634841919e-02 -1.993298530578613281e-01
1.833175122737884521e-01 -1.124085932970046997e-01 2.149418294429779053e-01
-1.531170681118965149e-02 -2.408778108656406403e-02 -2.713782489299774170e-01
-1.897307485342025757e-01 -4.840378835797309875e-02 -9.015920758247375488e-02
8.174063265323638916e-02 -2.414070256054401398e-02 1.255626529455184937e-01
-2.442631572484970093e-01 2.742827683687210083e-02 -7.870680689811706543e-01
-1.820575892925262451e-01 2.242748811841011047e-02 -7.878089547157287598e-01
-6.668694615364074707e-01 7.140346616506576538e-02 1.212762594223022461e-01
-6.317639350891113281e-02 1.470140740275382996e-02 5.531697869300842285e-01
1.935572028160095215e-01 -6.996802240610122681e-02 1.626849025487899780e-01
1.514606177806854248e-01 -1.095774546265602112e-01 1.673596538603305817e-02
4.385105893015861511e-02 -6.552289426326751709e-02 -2.068971693515777588e-01
-1.100356429815292358e-01 7.759492099285125732e-02 7.558123022317886353e-02
-1.836980581283569336e-01 1.385471597313880920e-02 7.211856842041015625e-01
-2.492904067039489746e-01 3.277304023504257202e-02 -8.538775444030761719e-01
-2.308483570814132690e-01 -8.782798796892166138e-02 6.563256680965423584e-02
1.520956456661224365e-01 -1.102389320731163025e-01 -2.089609950780868530e-01
-4.002930521965026855e-01 1.047685220837593079e-01 7.792755030095577240e-03
-6.826921105384826660e-01 3.425475582480430603e-02 6.597653776407241821e-02
9.978581219911575317e-02 -1.121175438165664673e-01 1.674211025238037109e-01
-2.420670539140701294e-01 2.676680497825145721e-02 -7.630431056022644043e-01
-9.940489195287227631e-03 -5.401312559843063354e-02 1.392949670553207397e-01
-7.717331498861312866e-02 8.360116183757781982e-02 6.804035604000091553e-02
6.991337239742279053e-02 -9.297090582549571991e-03 -2.816444039344787598e-01
2.843651771545410156e-01 -9.875563532114028931e-02 -4.763926565647125244e-02
2.812694609165191650e-01 -3.173448517918586731e-02 1.055594906210899353e-01
1.214294359087944031e-01 -1.388942450284957886e-01 -2.733362317085266113e-01
-8.177927136421203613e-01 8.418326079845428467e-02 -3.518671393394470215e-01
-4.615196585655212402e-01 -3.464500606060028076e-02 -8.335919678211212158e-02
1.164021790027618408e-01 -1.442390084266662598e-01 1.084170863032341003e-01
-4.309386387467384338e-02 -2.234147861599922180e-02 -4.763576686382293701e-01
6.443426012992858887e-01 -1.091109588742256165e-02 -9.941992908716201782e-02
-1.005897149443626404e-01 -2.999794902279973030e-03 -6.172794103622436523e-01
2.593083381652832031e-01 -8.965367078781127930e-02 -2.194917649030685425e-01
4.289117753505706787e-01 1.287571713328361511e-02 1.065914034843444824e-01
8.399554491043090820e-01 6.611163169145584106e-02 -4.853887856006622314e-02
-9.492744505405426025e-02 -2.549988916143774986e-03 6.253240108489990234e-01
7.968798875808715820e-01 2.203060314059257507e-02 9.510810673236846924e-02
-4.497717618942260742e-01 -5.560068413615226746e-02 7.301468402147293091e-02
-9.402783215045928955e-02 -1.567375287413597107e-02 -4.455591738224029541e-01
1.538419574499130249e-01 7.767429947853088379e-02 7.547538727521896362e-02
2.613721191883087158e-01 -7.705909758806228638e-02 -2.246777713298797607e-01
-1.722147613763809204e-01 -9.690350294113159180e-02 5.515472218394279480e-02
-5.240750312805175781e-02 -4.597122315317392349e-04 4.355321526527404785e-01
-2.577308714389801025e-01 9.012681432068347931e-03 1.065914034843444824e-01
-3.986261188983917236e-01 -5.022946745157241821e-02 -7.994595170021057129e-02
-6.740663647651672363e-01 1.132883802056312561e-01 1.440755557268857956e-02
-2.711250819265842438e-02 6.915444135665893555e-02 8.611197769641876221e-02
-1.939642131328582764e-01 1.782359369099140167e-02 -7.468236684799194336e-01
1.995369791984558105e-01 -7.682096213102340698e-02 -1.138401851058006287e-01
-4.308798909187316895e-01 5.158552899956703186e-02 9.315013140439987183e-02
3.377598524093627930e-01 -6.386578548699617386e-03 1.065914034843444824e-01
-3.092998564243316650e-01 7.193265855312347412e-02 8.253999054431915283e-02
2.513176500797271729e-01 -1.215105578303337097e-01 -2.120567262172698975e-01
-6.327106356620788574e-01 -4.284735769033432007e-02 1.580989360809326172e-02
4.834912717342376709e-02 -1.099478751420974731e-01 2.749248445034027100e-01
9.124801158905029297e-01 -7.740306109189987183e-02 3.070642054080963135e-02
-3.146710991859436035e-01 -1.050529181957244873e-01 1.080910488963127136e-02
7.546980679035186768e-02 -2.271189726889133453e-02 -4.151046276092529297e-01
-7.752463817596435547e-01 3.674025535583496094e-01 1.004178635776042938e-02
5.402785539627075195e-01 8.074356615543365479e-02 -6.589611619710922241e-02
-1.148247569799423218e-01 2.356524206697940826e-02 -7.055208086967468262e-01
1.215352788567543030e-01 -9.932106360793113708e-03 -3.233176767826080322e-01
-7.432571053504943848e-01 8.251633495092391968e-02 3.200292214751243591e-02
-7.453209757804870605e-01 5.928516015410423279e-02 4.634381085634231567e-02
2.786970511078834534e-02 -9.388715773820877075e-02 5.941465124487876892e-02
5.648062229156494141e-01 -1.067463234066963196e-01 2.914532832801342010e-02
2.524818480014801025e-01 -9.610973298549652100e-02 -2.498140037059783936e-01
-2.806504257023334503e-02 3.608043491840362549e-02 1.020139679312705994e-01
1.904350221157073975e-01 -6.745442003011703491e-02 -8.240665495395660400e-02
2.048759162425994873e-02 -2.112434804439544678e-02 2.349449843168258667e-01
8.068020939826965332e-01 -3.850805386900901794e-02 -8.492027968168258667e-02
2.421627640724182129e-01 -1.477580815553665161e-01 2.593668401241302490e-01
-2.560639679431915283e-01 2.159747527912259102e-03 -1.008487194776535034e-01
-7.241065800189971924e-02 1.321969088166952133e-02 -1.008487194776535034e-01
-1.696746796369552612e-01 -1.061642169952392578e-01 3.168541193008422852e-02
-6.149036288261413574e-01 1.237299945205450058e-02 8.201081305742263794e-02
-7.589739561080932617e-01 8.209298551082611084e-02 -2.862483263015747070e-01
-1.047967225313186646e-01 -1.260448712855577469e-02 -4.715685546398162842e-01
-1.507357601076364517e-02 2.715386217460036278e-03 -5.570582747459411621e-01
