3.457728326320648193e-01 8.658029884099960327e-02 -9.270373731851577759e-03
-7.562139630317687988e-01 1.598064452409744263e-01 6.893172394484281540e-03
-1.846076548099517822e-01 8.444359898567199707e-02 -7.801433205604553223e-01
-1.762116551399230957e-01 -5.044534057378768921e-02 6.850568950176239014e-02
4.742516279220581055e-01 2.200154028832912445e-02 -8.304953575134277344e-02
-5.531013011932373047e-01 6.931070238351821899e-02 4.321715980768203735e-02
-2.066534310579299927e-01 1.000038459897041321e-01 -7.826570868492126465e-01
-1.277461498975753784e-01 5.968295782804489136e-02 -6.434708833694458008e-02
-8.915977925062179565e-02 -7.666397094726562500e-02 4.547955468297004700e-02
-8.447992205619812012e-01 3.839342296123504639e-01 3.248204709962010384e-03
-3.619038760662078857e-01 8.477038890123367310e-02 2.192552201449871063e-02
-5.869287252426147461e-02 7.079382985830307007e-02 4.847094044089317322e-02
5.927838757634162903e-02 -6.202968303114175797e-03 -3.623294532299041748e-01
4.310902059078216553e-01 8.278451114892959595e-02 -2.845044247806072235e-02
2.141517847776412964e-01 -5.728279426693916321e-02 1.258699297904968262e-01
-7.175521850585937500e-01 6.425802409648895264e-02 5.950639396905899048e-02
1.366019695997238159e-01 -7.963020354509353638e-02 -2.154498398303985596e-01
3.107057213783264160e-01 -9.810642898082733154e-02 2.412017434835433960e-01
-5.856546759605407715e-01 2.891440503299236298e-02 6.159282103180885315e-02
-3.689424395561218262e-01 -6.618154793977737427e-02 4.837038740515708923e-02
5.816147923469543457e-01 -7.691533118486404419e-02 4.299092292785644531e-02
-2.167084962129592896e-01 1.134525090456008911e-01 -7.844418883323669434e-01
8.459629416465759277e-01 -5.587508156895637512e-02 1.812972687184810638e-02
5.737466812133789062e-01 8.740984648466110229e-02 -2.256952924653887749e-03
6.732919812202453613e-01 -2.885204739868640900e-02 -7.935430854558944702e-02
2.940394282341003418e-01 -1.147727221250534058e-01 -1.863655149936676025e-01
4.681431949138641357e-01 -9.046456962823867798e-02 -4.418795462697744370e-03
-7.822566628456115723e-01 7.964229583740234375e-02 -2.174357175827026367e-01
5.432625859975814819e-02 -8.244562894105911255e-02 1.071926206350326538e-01
-7.289567589759826660e-02 3.475044388324022293e-03 5.193756222724914551e-01
9.556001983582973480e-03 6.491573527455329895e-03 5.176159739494323730e-01
-1.430047452449798584e-01 -8.895629644393920898e-02 1.149337273091077805e-02
1.519108265638351440e-01 -2.711754105985164642e-02 6.792752444744110107e-02
3.122470341622829437e-02 -9.272696077823638916e-02 2.177469432353973389e-02
7.704995274543762207e-01 -8.762400597333908081e-02 -1.656030863523483276e-02
-6.523197889328002930e-01 4.253904148936271667e-02 -1.251444569788873196e-03
-4.403335452079772949e-01 4.380004014819860458e-03 -8.257193118333816528e-02
3.761140406131744385e-01 -1.251253299415111542e-02 -8.390422910451889038e-02
8.841298520565032959e-02 -1.588098891079425812e-02 2.584210634231567383e-01
-4.351803362369537354e-01 -5.590021610260009766e-02 5.025571957230567932e-02
6.184243410825729370e-02 -4.607137665152549744e-02 1.611381471157073975e-01
-3.892669454216957092e-03 -4.823321476578712463e-02 -1.029586046934127808e-01
2.435880601406097412e-01 -7.040466368198394775e-02 -2.628344297409057617e-01
5.280212163925170898e-01 6.538921594619750977e-02 5.550950020551681519e-02
4.364273324608802795e-02 -1.120075806975364685e-01 -1.261104345321655273e-01
-9.212602674961090088e-02 1.151911541819572449e-02 5.942859649658203125e-01
2.794595658779144287e-01 -1.187193468213081360e-01 -2.393558174371719360e-01
1.464056819677352905e-01 -1.789200305938720703e-02 -2.358867973089218140e-01
3.801612257957458496e-01 4.095536842942237854e-02 7.423708587884902954e-02
6.018334254622459412e-02 -1.442299876362085342e-02 -3.954609632492065430e-01
-7.176527380943298340e-01 2.337615787982940674e-01 -1.125625241547822952e-02
-1.168535929173231125e-02 8.713333308696746826e-02 -4.494208842515945435e-03
-2.550937831401824951e-01 5.573634058237075806e-02 6.463448703289031982e-02
9.146391153335571289e-01 2.061896212399005890e-02 -4.081819579005241394e-02
3.165204450488090515e-02 -4.858515411615371704e-02 -1.414193063974380493e-01
5.469499230384826660e-01 -8.234509080648422241e-02 3.218170627951622009e-02
1.582958102226257324e-01 -9.679927676916122437e-02 1.835596747696399689e-02
5.289341136813163757e-02 -9.760367125272750854e-02 -1.831227540969848633e-01
1.282311230897903442e-01 -8.513536304235458374e-02 -7.533226907253265381e-02
-2.761843204498291016e-01 5.183999612927436829e-02 6.729908287525177002e-02
1.099308654665946960e-01 -1.716301217675209045e-02 2.376070469617843628e-01
-2.528486028313636780e-02 -2.485514618456363678e-02 2.843883037567138672e-01
2.018925175070762634e-02 -6.570392102003097534e-02 8.162757009267807007e-02
-2.508375793695449829e-02 -4.458824172616004944e-02 -1.774416267871856689e-01
-1.178590580821037292e-02 -1.618264056742191315e-02 3.251868188381195068e-01
2.009544968605041504e-01 -7.475349307060241699e-02 -1.873458921909332275e-01
-2.363159209489822388e-01 7.272943109273910522e-02 -4.835950583219528198e-02
4.931049346923828125e-01 -2.927938848733901978e-02 7.790719717741012573e-02
-7.822566628456115723e-01 7.964229583740234375e-02 -2.174357175827026367e-01
-7.201161980628967285e-01 5.842607468366622925e-02 1.486182585358619690e-02
3.239784538745880127e-01 -1.123846322298049927e-01 -1.974512487649917603e-01
9.841448664665222168e-01 -2.105519874021410942e-03 1.450989767909049988e-02
3.660417348146438599e-02 -1.478790938854217529e-01 -1.413438916206359863e-01
4.567888751626014709e-02 -6.879585981369018555e-02 -1.164072826504707336e-01
4.391593933105468750e-01 -8.651794493198394775e-02 -2.553446963429450989e-02
1.938908100128173828e-01 -6.273766607046127319e-02 -8.480917662382125854e-02
-2.962190806865692139e-01 -4.920945968478918076e-03 8.253253251314163208e-02
-8.111650347709655762e-01 6.850629299879074097e-02 -1.258842051029205322e-01
1.030179932713508606e-01 -2.168780192732810974e-02 3.118135333061218262e-01
1.822017729282379150e-01 -2.661478705704212189e-02 7.810830324888229370e-02
-7.710955142974853516e-01 3.241818845272064209e-01 6.616657599806785583e-03
5.202285051345825195e-01 2.984450012445449829e-02 7.800774276256561279e-02
-5.924418568611145020e-01 1.274793446063995361e-01 7.722717244178056717e-03
-8.556509017944335938e-02 -6.957102566957473755e-03 -4.531520009040832520e-01
4.199542105197906494e-01 2.071433118544518948e-04 8.288446068763732910e-02
2.918021678924560547e-01 -1.201019212603569031e-01 -2.106736749410629272e-01
2.812694907188415527e-01 -6.298904865980148315e-02 -7.865045219659805298e-02
3.077646195888519287e-01 -1.071057245135307312e-01 -1.808854937553405762e-01
-7.936691641807556152e-01 7.994395494461059570e-02 1.837369352579116821e-01
-8.108633160591125488e-01 3.894394040107727051e-01 -7.385045289993286133e-03
-8.294903635978698730e-01 8.125112205743789673e-02 -2.170083820819854736e-01
6.284794211387634277e-02 -6.110372766852378845e-02 -1.398356258869171143e-01
1.342641711235046387e-01 -1.535309292376041412e-02 2.814974784851074219e-01
-2.359270583838224411e-03 -3.307517617940902710e-02 1.937920153141021729e-01
2.940394282341003418e-01 -1.147727221250534058e-01 -1.863655149936676025e-01
6.697727441787719727e-01 6.398150324821472168e-02 -5.796210840344429016e-02
-4.281417727470397949e-01 4.301666095852851868e-02 -7.560878247022628784e-02
-4.050904512405395508e-01 4.286583513021469116e-02 -7.663942873477935791e-02
1.111374795436859131e-01 -3.264783695340156555e-02 2.725987434387207031e-01
1.571143418550491333e-01 -6.653346866369247437e-02 1.013858094811439514e-01
-4.330859333276748657e-02 -1.261308882385492325e-02 -4.236152172088623047e-01
-7.522925138473510742e-01 7.504209876060485840e-02 5.937939044088125229e-03
6.294267177581787109e-01 -5.310992151498794556e-02 -6.907297670841217041e-02
2.576903104782104492e-01 -3.448288887739181519e-02 -2.185920625925064087e-01
1.013589054346084595e-01 -2.895259484648704529e-02 1.341151148080825806e-01
-7.666712403297424316e-01 1.813997328281402588e-01 6.340143270790576935e-03
7.867385149002075195e-01 7.079382985830307007e-02 -3.302550315856933594e-02
-4.223600625991821289e-01 5.314715579152107239e-02 -6.937462836503982544e-02
8.741422891616821289e-01 -4.373355954885482788e-02 4.960213601589202881e-02
1.671694219112396240e-01 -2.161238901317119598e-02 4.789277166128158569e-02
-1.806358844041824341e-01 -2.762029320001602173e-02 7.848536223173141479e-02
2.300388216972351074e-01 -3.219535946846008301e-02 -8.410532027482986450e-02
7.141910791397094727e-01 5.289578065276145935e-02 -6.477443128824234009e-02
9.618054330348968506e-02 -8.993259631097316742e-03 -3.374682962894439697e-01
1.822017729282379150e-01 -2.661478705704212189e-02 7.810830324888229370e-02
-1.812391877174377441e-01 4.942677542567253113e-02 6.893303245306015015e-02
2.945924401283264160e-01 -7.015330344438552856e-02 2.146563082933425903e-01
2.673431634902954102e-01 -3.473427146673202515e-02 2.235550731420516968e-01
7.788029313087463379e-02 -3.184343129396438599e-02 -1.347075253725051880e-01
-2.434801757335662842e-01 -8.093737810850143433e-02 -3.765084221959114075e-02
6.058223843574523926e-01 -8.209370821714401245e-02 -3.511193394660949707e-02
2.727477848529815674e-01 -7.080687582492828369e-02 -5.084814131259918213e-02
-2.729164063930511475e-01 8.532342314720153809e-02 1.724990829825401306e-02
2.873779535293579102e-01 3.944711014628410339e-02 7.473984360694885254e-02
-7.697631716728210449e-01 6.476077437400817871e-02 -8.556331694126129150e-02
-1.003460586071014404e-01 -4.715694230981171131e-04 5.106025338172912598e-01
9.328970313072204590e-02 -5.969601124525070190e-02 1.112146601080894470e-01
5.585965886712074280e-02 -3.558895364403724670e-02 -2.322669774293899536e-01
-5.257766246795654297e-01 -2.909932751208543777e-03 -7.304473966360092163e-02
4.742516279220581055e-01 2.200154028832912445e-02 -8.304953575134277344e-02
5.419474840164184570e-01 -3.996291756629943848e-02 7.406112551689147949e-02
-7.704921960830688477e-01 3.673182427883148193e-01 2.316799655091017485e-04
-1.502867322415113449e-02 -2.329660765826702118e-02 -2.773137390613555908e-01
1.804672777652740479e-01 -4.727797955274581909e-02 -1.706041842699050903e-01
1.637626090086996555e-03 -3.631794452667236328e-02 2.714675366878509521e-01
1.778780966997146606e-01 -2.148669771850109100e-02 -5.574999377131462097e-02
3.363461792469024658e-01 -6.145564466714859009e-02 -6.572966277599334717e-02
1.326804906129837036e-01 -1.693677529692649841e-02 3.033924102783203125e-01
2.096270173788070679e-01 -9.388329088687896729e-02 -2.614267170429229736e-01
1.071233861148357391e-02 -8.473315834999084473e-02 6.357870250940322876e-02
-5.486519336700439453e-01 1.742647401988506317e-02 6.697229295969009399e-02
-3.380654007196426392e-02 -1.786686852574348450e-02 -3.323653340339660645e-01
-6.540040969848632812e-01 1.799166202545166016e-01 7.823267020285129547e-03
2.338173985481262207e-02 -7.937475107610225677e-03 3.613599538803100586e-01
2.977095246315002441e-01 -4.893707111477851868e-02 2.472096532583236694e-01
5.206386372447013855e-02 -3.825355321168899536e-02 -1.110529452562332153e-01
5.696571990847587585e-02 -7.638745754957199097e-02 1.589247211813926697e-02
4.779045283794403076e-02 -4.554348066449165344e-02 -1.033105328679084778e-01
-4.288125410676002502e-02 -1.412134896963834763e-02 4.032142460346221924e-01
-7.284619212150573730e-01 7.006483525037765503e-02 -1.544657647609710693e-01
1.384621560573577881e-01 -2.500597015023231506e-02 4.628396034240722656e-02
8.745776116847991943e-02 -3.664472699165344238e-02 -7.495520263910293579e-02
5.542398095130920410e-01 6.951180100440979004e-02 -5.255750566720962524e-02
2.850149869918823242e-01 -1.064521521329879761e-01 1.757431477308273315e-01
6.620051860809326172e-01 8.612782508134841919e-02 6.113903131335973740e-03
6.620051860809326172e-01 8.612782508134841919e-02 6.113903131335973740e-03
8.932217955589294434e-01 -6.364263594150543213e-02 -2.043151482939720154e-02
-7.412318587303161621e-01 7.456447929143905640e-02 1.313751041889190674e-01
-5.183358788490295410e-01 6.873252987861633301e-02 -5.087327584624290466e-02
4.095299914479255676e-02 -9.106786549091339111e-02 -1.837022230029106140e-02
2.113363891839981079e-01 -7.558304071426391602e-02 -8.262220025062561035e-02
6.112136878073215485e-03 -4.705175012350082397e-02 -1.705287545919418335e-01
2.849395573139190674e-01 -1.048181951045989990e-01 -1.992108821868896484e-01
-7.469632625579833984e-01 6.619362533092498779e-02 -1.445615142583847046e-01
5.692973136901855469e-01 6.740023940801620483e-02 5.292031541466712952e-02
-7.378634214401245117e-01 3.132762387394905090e-02 -2.847558073699474335e-02
-7.116699218750000000e-01 1.385902166366577148e-01 -1.241258624941110611e-02
-6.712737083435058594e-01 5.432862788438796997e-02 -4.094388335943222046e-02
-6.804488897323608398e-01 1.851452440023422241e-01 -1.198524516075849533e-02
6.940557956695556641e-01 -4.632275924086570740e-02 6.951120495796203613e-02
-1.108205877244472504e-02 -1.520226802676916122e-02 4.184979796409606934e-01
1.962537467479705811e-01 -1.892265304923057556e-02 4.972782731056213379e-02
-2.074578255414962769e-01 4.545501992106437683e-02 -7.405024021863937378e-02
1.515086442232131958e-01 -5.444223433732986450e-02 -1.491868495941162109e-01
4.908676743507385254e-01 -2.098394371569156647e-02 8.027014136314392090e-02
-3.325681984424591064e-01 -3.777592629194259644e-02 -7.621208578348159790e-02
5.419474840164184570e-01 -3.996291756629943848e-02 7.406112551689147949e-02
-5.656449794769287109e-01 8.326213061809539795e-02 -8.742481470108032227e-03
-7.639060616493225098e-01 5.819983407855033875e-02 -9.549270570278167725e-02
-2.337439358234405518e-02 -7.409577723592519760e-03 3.993933498859405518e-01
-3.538598418235778809e-01 6.634445488452911377e-02 5.538380891084671021e-02
4.454768821597099304e-02 -4.144603386521339417e-02 -1.846058666706085205e-01
2.082695811986923218e-01 -4.896220564842224121e-02 1.884376853704452515e-01
2.347395718097686768e-01 2.755697071552276611e-02 -8.118934929370880127e-02
2.102805823087692261e-01 -9.891082346439361572e-02 1.899962276220321655e-01
-7.329364418983459473e-01 2.184527069330215454e-01 9.582907892763614655e-03
-7.907782793045043945e-01 6.772702187299728394e-02 1.137535572052001953e-01
-8.294903635978698730e-01 8.125112205743789673e-02 -2.170083820819854736e-01
2.636982202529907227e-01 9.684061631560325623e-03 8.205491304397583008e-02
-1.014521196484565735e-01 1.813033036887645721e-02 -7.224523425102233887e-01
-7.268531322479248047e-01 7.639953494071960449e-02 -1.643197387456893921e-01
-7.199653983116149902e-01 1.142317801713943481e-01 -1.080377306789159775e-02
6.149050593376159668e-02 -2.940507791936397552e-02 3.058810532093048096e-01
1.593013256788253784e-01 7.044604979455471039e-03 8.228114992380142212e-02
7.762811779975891113e-01 -8.066086471080780029e-02 -3.357853740453720093e-02
-3.199663013219833374e-02 -2.568469382822513580e-02 -2.750513553619384766e-01
2.032923102378845215e-01 -1.096194982528686523e-01 2.502764463424682617e-01
-5.122022628784179688e-01 6.154315173625946045e-02 -6.002340093255043030e-02
5.816147923469543457e-01 -7.691533118486404419e-02 4.299092292785644531e-02
-8.151115775108337402e-01 3.240310847759246826e-01 5.259221885353326797e-03
-4.652621597051620483e-02 -1.904426142573356628e-03 -4.609949588775634766e-01
-3.102207779884338379e-01 -3.496049717068672180e-02 7.534314692020416260e-02
-1.004214659333229065e-01 1.571711152791976929e-02 7.013725638389587402e-01
-9.523521177470684052e-03 -4.840917512774467468e-02 -1.185942590236663818e-01
-8.287534117698669434e-02 -8.071113377809524536e-02 3.841586038470268250e-02
1.701356768608093262e-01 -2.734377793967723846e-02 -9.250131994485855103e-02
-7.123738527297973633e-01 6.511270254850387573e-02 1.288361847400665283e-01
2.534923255443572998e-01 -5.532204732298851013e-02 8.172813057899475098e-02
8.507139682769775391e-01 -6.705721374601125717e-03 -6.369350850582122803e-02
-7.209457755088806152e-01 4.246362671256065369e-02 8.527122437953948975e-03
2.813276648521423340e-02 -1.131639108061790466e-01 -1.421231627464294434e-01
6.003251671791076660e-02 -2.480487711727619171e-02 3.466795682907104492e-01
4.366456568241119385e-01 -9.076621383428573608e-02 1.814046117942780256e-04
-7.907782793045043945e-01 6.772702187299728394e-02 1.137535572052001953e-01
2.135736197233200073e-01 -7.553277164697647095e-02 1.847675889730453491e-01
4.310902059078216553e-01 8.278451114892959595e-02 -2.845044247806072235e-02
-7.259230613708496094e-01 4.839612916111946106e-02 4.495166242122650146e-02
-6.731338500976562500e-01 2.318762540817260742e-01 4.203437827527523041e-03
7.963993400335311890e-02 -3.392985835671424866e-02 4.600744694471359253e-02
-3.994596302509307861e-01 -7.897663116455078125e-02 1.179502531886100769e-02
-7.294172048568725586e-01 6.418260931968688965e-02 6.425742059946060181e-02
-2.010649256408214569e-02 -4.478935524821281433e-02 -8.209431171417236328e-02
2.805735543370246887e-02 -4.571944102644920349e-02 -8.983672410249710083e-02
3.053262531757354736e-01 -5.600077286362648010e-02 7.634865492582321167e-02
1.737303584814071655e-01 -1.038629561662673950e-01 2.001518607139587402e-01
4.371735155582427979e-01 8.497149497270584106e-02 -2.261849492788314819e-02
-3.088266123086214066e-03 -8.478344231843948364e-02 5.915446579456329346e-02
-7.765252590179443359e-01 2.881847321987152100e-01 -1.027588080614805222e-02
2.499055676162242889e-02 -7.608578354120254517e-02 4.874745383858680725e-02
9.576246142387390137e-01 -5.703141167759895325e-02 -1.379515975713729858e-02
6.604043394327163696e-02 -8.802621066570281982e-02 -6.583021581172943115e-02
1.572400331497192383e-01 -2.467918582260608673e-02 -1.350594609975814819e-01
5.439836382865905762e-01 7.315676659345626831e-02 4.540413990616798401e-02
-1.011253222823143005e-01 1.928666234016418457e-02 -6.637557744979858398e-01
-3.015482425689697266e-01 -6.801659613847732544e-02 5.284490436315536499e-02
7.588105201721191406e-01 7.913954555988311768e-02 1.996478065848350525e-02
6.044649481773376465e-01 3.617920726537704468e-02 -7.827337831258773804e-02
-4.680273309350013733e-02 -9.152033925056457520e-02 -1.731443963944911957e-02
-6.022958159446716309e-01 1.597058922052383423e-01 -5.223202053457498550e-03
2.559306621551513672e-01 -1.097200512886047363e-01 2.267978340387344360e-01
-7.626994848251342773e-01 7.189988344907760620e-02 9.055014699697494507e-03
9.438742995262145996e-01 -6.429620832204818726e-02 -6.681189872324466705e-03
9.763853251934051514e-02 -1.809310540556907654e-02 3.220194876194000244e-01
9.315316677093505859e-01 1.921124942600727081e-02 -2.616291120648384094e-02
6.184243410825729370e-02 -4.607137665152549744e-02 1.611381471157073975e-01
1.260190010070800781e-01 2.240373753011226654e-02 8.052151650190353394e-02
1.829810440540313721e-01 9.392051398754119873e-02 -2.106126630678772926e-03
-4.610973000526428223e-01 6.953693926334381104e-02 4.995406419038772583e-02
-7.923871278762817383e-01 5.885341763496398926e-02 8.441786468029022217e-02
-1.223666891455650330e-01 -2.482591895386576653e-03 8.293473720550537109e-02
-7.826588153839111328e-01 1.192844659090042114e-01 -2.960808575153350830e-03
5.237226486206054688e-01 4.608345776796340942e-02 7.119542360305786133e-02
-6.270564198493957520e-01 1.343670785427093506e-01 9.683458134531974792e-03
7.945060729980468750e-01 -6.482410430908203125e-02 -5.290943384170532227e-02
1.628205925226211548e-01 -2.940507791936397552e-02 2.483659833669662476e-01
4.584651887416839600e-01 -7.105825096368789673e-02 5.023058131337165833e-02
6.093668341636657715e-01 6.039089057594537735e-03 8.238171041011810303e-02
9.050365090370178223e-01 -3.744914010167121887e-02 -1.296561490744352341e-02
8.146916031837463379e-01 -5.180276557803153992e-02 7.823267020285129547e-03
1.575919687747955322e-01 -7.115881145000457764e-02 -7.852475345134735107e-02
2.465040236711502075e-01 -7.078173756599426270e-02 1.857982426881790161e-01
3.849122226238250732e-01 -6.919806450605392456e-02 -5.494558438658714294e-02
-1.492388993501663208e-01 1.890959963202476501e-02 7.127096652984619141e-01
6.169160827994346619e-02 -1.221380680799484253e-01 -1.162313148379325867e-01
6.812103986740112305e-01 -6.479483563452959061e-03 -8.307468146085739136e-02
2.400185018777847290e-01 -1.200767904520034790e-01 2.296635210514068604e-01
1.569383740425109863e-01 -3.697153180837631226e-02 2.222479134798049927e-01
-4.808052182197570801e-01 2.061896212399005890e-02 7.697709649801254272e-02
6.487827897071838379e-01 4.424840956926345825e-02 -7.480437308549880981e-02
-7.850720882415771484e-01 6.317710131406784058e-02 -1.188204959034919739e-01
3.259392082691192627e-01 7.999423146247863770e-02 -3.460917994379997253e-02
-5.924418568611145020e-01 1.274793446063995361e-01 7.722717244178056717e-03
1.042748838663101196e-01 6.745050847530364990e-02 -5.524723976850509644e-02
-1.977546811103820801e-01 -8.917846716940402985e-03 8.200464397668838501e-02
1.460868306457996368e-02 -6.598043441772460938e-02 -8.382880687713623047e-02
-3.493853211402893066e-01 -7.095769792795181274e-02 -4.665014147758483887e-02
2.151070237159729004e-01 -5.768499895930290222e-02 1.944958716630935669e-01
-5.379102006554603577e-02 8.177899569272994995e-02 -3.066256083548069000e-02
-5.254749655723571777e-01 -5.610132589936256409e-02 1.476127468049526215e-02
-3.533994406461715698e-02 1.410829462110996246e-02 -6.164214015007019043e-01
-1.660057455301284790e-01 6.207104027271270752e-02 -6.223552301526069641e-02
-6.857026815414428711e-01 -1.502219703979790211e-03 2.783288247883319855e-02
-3.619038760662078857e-01 8.477038890123367310e-02 2.192552201449871063e-02
1.826291084289550781e-01 -6.047527119517326355e-02 2.182258665561676025e-01
-6.444940716028213501e-02 2.358521334826946259e-02 8.011931180953979492e-02
-6.373880505561828613e-01 7.675146311521530151e-02 1.222236640751361847e-02
-7.118631154298782349e-02 -6.781133823096752167e-03 4.676170647144317627e-01
2.110598683357238770e-01 -1.181914433836936951e-01 2.382857650518417358e-01
-2.103486657142639160e-01 -6.763952970504760742e-02 5.447885394096374512e-02
6.963432431221008301e-01 3.507314622402191162e-02 7.340754568576812744e-02
-3.750178217887878418e-02 -7.173697650432586670e-02 7.205010950565338135e-02
-1.387234125286340714e-02 -2.859654603525996208e-03 4.264917671680450439e-01
-1.970428600907325745e-02 -2.900287136435508728e-02 -2.384508401155471802e-01
-3.038860857486724854e-01 -5.926867201924324036e-02 6.174365058541297913e-02
-2.169096022844314575e-01 8.534855395555496216e-02 -1.955169625580310822e-02
-6.799713373184204102e-01 6.154315173625946045e-02 -1.477553136646747589e-02
-4.288125410676002502e-02 -1.412134896963834763e-02 4.032142460346221924e-01
-8.497765064239501953e-01 3.506770730018615723e-01 -1.980438362807035446e-03
-6.523197889328002930e-01 4.253904148936271667e-02 -1.251444569788873196e-03
5.060759782791137695e-01 7.577109336853027344e-02 4.158321022987365723e-02
1.062859073281288147e-01 -5.811234191060066223e-02 -1.253814399242401123e-01
-6.356167141348123550e-03 2.570084761828184128e-03 -5.637075901031494141e-01
9.766366332769393921e-02 -3.579004481434822083e-02 -7.970623672008514404e-02
2.111934684216976166e-02 -3.299976512789726257e-02 8.127564191818237305e-02
-1.245788112282752991e-01 -7.100798189640045166e-02 -5.270833149552345276e-02
4.553229212760925293e-01 5.219192430377006531e-02 6.704770028591156006e-02
-7.850217819213867188e-01 7.267915457487106323e-02 -6.278985645622014999e-03
-6.569451689720153809e-01 5.000494047999382019e-02 -4.041599109768867493e-02
-6.419803202152252197e-02 -8.619115501642227173e-02 -1.754198805429041386e-03
-1.472702249884605408e-02 -3.692124411463737488e-02 -1.784722805023193359e-01
-8.174996972084045410e-01 8.117569983005523682e-02 2.351184189319610596e-01
-1.153029873967170715e-01 7.559512555599212646e-02 4.193513840436935425e-02
1.312979161739349365e-01 -2.012926340103149414e-02 -2.605468928813934326e-01
-7.087539434432983398e-01 7.710339128971099854e-02 8.728224784135818481e-03
3.260727971792221069e-02 -3.465884923934936523e-02 1.797149032354354858e-01
1.734789907932281494e-01 -4.916331917047500610e-02 2.249627858400344849e-01
-7.321069240570068359e-01 5.646533146500587463e-02 -9.179746359586715698e-02
1.045262515544891357e-01 -2.882690355181694031e-02 -2.204522490501403809e-01
2.765687108039855957e-01 -7.988158613443374634e-02 -2.498633712530136108e-01
-4.994322955608367920e-01 7.629898190498352051e-02 3.881806135177612305e-02
4.364273324608802795e-02 -1.120075806975364685e-01 -1.261104345321655273e-01
-2.647969424724578857e-01 6.335306912660598755e-02 5.819923430681228638e-02
-2.478289902210235596e-01 2.911550924181938171e-02 7.823397964239120483e-02
-6.757984757423400879e-01 8.833993971347808838e-02 -1.268910057842731476e-02
4.908676743507385254e-01 -2.098394371569156647e-02 8.027014136314392090e-02
-2.804577350616455078e-01 4.983313381671905518e-03 8.245711773633956909e-02
7.141989469528198242e-02 -2.269330807030200958e-02 -2.135393768548965454e-01
5.597198605537414551e-01 -7.417532801628112793e-02 -4.878684505820274353e-02
2.319492995738983154e-01 -2.860066480934619904e-02 1.248895674943923950e-01
-7.850720882415771484e-01 6.317710131406784058e-02 -1.188204959034919739e-01
2.112860977649688721e-01 -6.110372766852378845e-02 -1.799051165580749512e-01
5.764615535736083984e-01 -5.725765973329544067e-02 6.383007764816284180e-02
1.736549586057662964e-01 -9.765395522117614746e-02 -1.218634750694036484e-02
-3.538598418235778809e-01 6.634445488452911377e-02 5.538380891084671021e-02
6.581418961286544800e-02 -6.080207601189613342e-02 8.811310678720474243e-02
4.152031838893890381e-01 -6.665915250778198242e-02 -5.808779969811439514e-02
1.253151446580886841e-01 -3.086305968463420868e-02 2.265967428684234619e-01
-1.137193143367767334e-01 9.759474545717239380e-03 -6.337413191795349121e-01
2.530398070812225342e-01 -6.557822972536087036e-02 -8.868038654327392578e-02
-3.418360278010368347e-02 -3.752456232905387878e-02 -2.762076854705810547e-01
-1.037899181246757507e-01 2.021675556898117065e-02 6.708553433418273926e-01
3.072195127606391907e-02 -4.162199050188064575e-02 1.079467460513114929e-01
2.330804914236068726e-01 -5.265744775533676147e-02 1.808209717273712158e-01
-5.191653966903686523e-01 8.371460437774658203e-02 1.870789378881454468e-02
2.760156691074371338e-01 -4.401007667183876038e-02 -9.697583317756652832e-02
9.731966070830821991e-03 -5.901318043470382690e-03 5.042175650596618652e-01
1.908240020275115967e-01 2.159933373332023621e-02 -8.320037275552749634e-02
-2.218114435672760010e-01 -5.881619825959205627e-02 -6.512635946273803711e-02
1.226505413651466370e-01 -4.076730832457542419e-02 -8.428128808736801147e-02
-8.719108067452907562e-03 -4.838404059410095215e-02 5.292031541466712952e-02
2.722198963165283203e-01 -7.804653048515319824e-02 -2.655241489410400391e-01
2.280529439449310303e-01 -4.996771365404129028e-02 -2.129863500595092773e-01
7.402085661888122559e-01 8.225662261247634888e-02 1.141795981675386429e-02
-7.363802790641784668e-01 1.500027328729629517e-01 8.627674542367458344e-03
9.258003234863281250e-01 -6.904724240303039551e-02 1.109116990119218826e-02
-5.924418568611145020e-01 1.274793446063995361e-01 7.722717244178056717e-03
2.241314649581909180e-01 -1.097451895475387573e-01 2.037716954946517944e-01
-1.264892667531967163e-01 -3.739887103438377380e-02 -7.739355415105819702e-02
-6.030168756842613220e-02 7.396533153951168060e-03 5.390332937240600586e-01
-8.151115775108337402e-01 3.240310847759246826e-01 5.259221885353326797e-03
1.443271897733211517e-02 -7.646285742521286011e-02 7.700223475694656372e-02
-5.489032864570617676e-01 -2.063201554119586945e-02 5.744509771466255188e-02
1.238068714737892151e-01 6.139232218265533447e-02 6.076327711343765259e-02
-3.515606746077537537e-03 -3.842951357364654541e-02 -1.800810992717742920e-01
3.239784538745880127e-01 -1.123846322298049927e-01 -1.974512487649917603e-01
5.696571990847587585e-02 -9.671972133219242096e-03 3.284295797348022461e-01
1.587734371423721313e-01 -3.209480270743370056e-02 -8.405505120754241943e-02
4.618164524435997009e-02 -1.311584189534187317e-02 -4.399044215679168701e-01
4.377265274524688721e-01 -7.910232245922088623e-02 3.924540057778358459e-02
-8.033642917871475220e-02 5.143779516220092773e-02 -6.997793167829513550e-02
-7.199653983116149902e-01 1.142317801713943481e-01 -1.080377306789159775e-02
-1.386559158563613892e-01 1.895987801253795624e-02 -7.240108251571655273e-01
2.891124486923217773e-01 -1.186439394950866699e-01 -2.378475368022918701e-01
-1.427454780787229538e-02 -1.314097642898559570e-02 -3.520481288433074951e-01
-7.294172048568725586e-01 6.418260931968688965e-02 6.425742059946060181e-02
3.131943643093109131e-01 -1.379455439746379852e-02 4.512762650847434998e-02
6.383506655693054199e-01 4.555556923151016235e-02 7.157249003648757935e-02
-7.708441615104675293e-01 3.523864150047302246e-01 -5.901920609176158905e-03
-2.363159209489822388e-01 7.272943109273910522e-02 -4.835950583219528198e-02
-6.343966126441955566e-01 1.286356896162033081e-01 -1.314157899469137192e-02
2.043480873107910156e-01 -6.635750830173492432e-02 9.834414720535278320e-02
-7.233338356018066406e-01 2.898186445236206055e-01 4.429677035659551620e-03
-2.817145884037017822e-01 5.827524513006210327e-02 -6.532745808362960815e-02
2.156851887702941895e-01 -5.562369897961616516e-02 -1.994371265172958374e-01
9.050365090370178223e-01 -3.744914010167121887e-02 -1.296561490744352341e-02
1.519108265638351440e-01 -2.711754105985164642e-02 6.792752444744110107e-02
1.082215011119842529e-01 -2.284413203597068787e-02 -3.043116331100463867e-01
3.326085954904556274e-02 -7.188779860734939575e-02 6.023538485169410706e-02
3.465521037578582764e-01 -4.139576479792594910e-02 5.679152160882949829e-02
-4.682787507772445679e-02 5.173944309353828430e-02 -6.975169479846954346e-02
1.954493522644042969e-01 -3.988749533891677856e-02 -2.233682274818420410e-01
-1.982825547456741333e-01 -1.751494035124778748e-02 8.077289164066314697e-02
2.254386246204376221e-01 -6.434649229049682617e-02 8.225601911544799805e-02
2.842357158660888672e-01 -8.556270599365234375e-02 4.884800687432289124e-02
6.681969761848449707e-02 -5.886646732687950134e-02 2.396167628467082977e-02
2.289327830076217651e-01 -1.962650939822196960e-02 -6.479956954717636108e-02
5.965717434883117676e-01 -8.890602737665176392e-02 -1.417222619056701660e-02
5.037964135408401489e-02 8.454415202140808105e-02 2.217689901590347290e-02
2.636982202529907227e-01 9.684061631560325623e-03 8.205491304397583008e-02
-1.137193143367767334e-01 9.759474545717239380e-03 -6.337413191795349121e-01
-7.878120541572570801e-01 8.738471567630767822e-02 -2.490589618682861328e-01
-2.752211131155490875e-02 -4.888680204749107361e-02 1.868037432432174683e-01
7.855570316314697266e-01 -2.256761677563190460e-02 7.079322636127471924e-02
-5.486519336700439453e-01 1.742647401988506317e-02 6.697229295969009399e-02
1.995216459035873413e-01 -9.247557818889617920e-02 -4.385985434055328369e-02
8.217883110046386719e-02 1.699913293123245239e-02 -8.382880687713623047e-02
-4.797629080712795258e-03 -5.077212676405906677e-02 7.313103228807449341e-02
3.292573690414428711e-01 -6.080207601189613342e-02 2.459527701139450073e-01
-3.713305294513702393e-01 5.877800285816192627e-02 -6.572966277599334717e-02
-4.876347631216049194e-02 -8.038021624088287354e-03 4.147022068500518799e-01
-7.639060616493225098e-01 5.819983407855033875e-02 -9.549270570278167725e-02
-2.332491129636764526e-01 1.406263709068298340e-01 7.883741855621337891e-01
1.296388357877731323e-01 7.843568921089172363e-02 3.567584976553916931e-02
-6.876382827758789062e-01 6.729968637228012085e-02 9.512652456760406494e-02
6.865395903587341309e-01 -8.850382268428802490e-02 -1.661058329045772552e-02
6.837823241949081421e-02 -1.027528196573257446e-02 4.265168905258178711e-01
1.821514964103698730e-01 -1.023798361420631409e-01 -2.389284670352935791e-01
-1.181938350200653076e-01 6.227214261889457703e-02 -6.200927868485450745e-02
-1.167107000946998596e-01 -5.989710614085197449e-02 6.199502572417259216e-02
2.846127748489379883e-01 -1.035361737012863159e-01 2.365764081478118896e-01
-3.647193014621734619e-01 -7.538192719221115112e-02 -3.581579029560089111e-02
2.521097362041473389e-01 -9.750313311815261841e-02 -2.446849942207336426e-01
6.572541594505310059e-01 -8.845355361700057983e-02 1.466072443872690201e-02
1.591756343841552734e-01 -1.965164393186569214e-02 -2.321161329746246338e-01
-2.636577934026718140e-02 8.298561722040176392e-02 -2.802310138940811157e-02
5.574826002120971680e-01 -4.866055771708488464e-02 6.973744183778762817e-02
-6.808642297983169556e-03 -7.269221544265747070e-02 7.720334082841873169e-02
-7.631440460681915283e-02 -3.516161069273948669e-02 -4.002873897552490234e-01
-2.591912150382995605e-01 -1.291473861783742905e-02 8.142647147178649902e-02
-1.387234125286340714e-02 -2.859654603525996208e-03 4.264917671680450439e-01
-6.496803760528564453e-01 1.328839659690856934e-01 1.104089338332414627e-02
-1.180681437253952026e-01 5.586202815175056458e-02 6.455907225608825684e-02
-7.134798169136047363e-01 6.272462010383605957e-02 -4.391013458371162415e-02
6.040376424789428711e-01 5.847634747624397278e-02 6.277429312467575073e-02
-1.589169204235076904e-01 2.036759071052074432e-02 -8.355230093002319336e-02
2.039961665868759155e-01 -3.933446109294891357e-02 -2.193461805582046509e-01
-2.084130644798278809e-01 8.557479828596115112e-02 1.526402868330478668e-02
3.259894847869873047e-01 4.103077948093414307e-02 7.421194761991500854e-02
4.211356639862060547e-01 -8.030892908573150635e-02 3.658080473542213440e-02
-1.407674849033355713e-01 -7.515570521354675293e-02 -4.758023470640182495e-02
3.504735827445983887e-01 -7.510134018957614899e-03 -8.460807800292968750e-02
-1.517526656389236450e-01 -7.234027981758117676e-02 -5.107437819242477417e-02
1.860478371381759644e-01 -7.555790990591049194e-02 1.759442389011383057e-01
9.616717696189880371e-01 6.344840512610971928e-04 -2.983301691710948944e-02
2.943159639835357666e-01 -8.930823206901550293e-02 2.005289345979690552e-01
2.996954023838043213e-01 -7.344634085893630981e-02 2.232282757759094238e-01
2.165650129318237305e-01 -4.521669447422027588e-02 -1.936554461717605591e-01
5.322020128369331360e-02 -4.554348066449165344e-02 7.984279841184616089e-02
1.933377832174301147e-01 8.534855395555496216e-02 -1.957683265209197998e-02
1.075176447629928589e-01 -9.609542042016983032e-02 2.210148610174655914e-02
2.813951671123504639e-01 -7.045495510101318359e-02 -1.881251484155654907e-01
-7.146613597869873047e-01 7.137199491262435913e-02 1.455024927854537964e-01
6.323175430297851562e-01 -7.057649549096822739e-03 8.228114992380142212e-02
-9.805852919816970825e-02 3.097981680184602737e-03 5.642212629318237305e-01
-6.075496077537536621e-01 -2.362340129911899567e-02 -3.843011334538459778e-02
6.149050593376159668e-02 -2.940507791936397552e-02 3.058810532093048096e-01
-1.330753564834594727e-01 1.584280095994472504e-02 6.576581001281738281e-01
-5.308716371655464172e-02 -3.159205242991447449e-02 -2.854332327842712402e-01
1.561088263988494873e-01 -6.751383841037750244e-02 1.950740367174148560e-01
7.835208773612976074e-01 5.706863477826118469e-02 4.980323836207389832e-02
1.690547466278076172e-01 -7.141017168760299683e-02 7.117029279470443726e-02
-1.812391877174377441e-01 4.942677542567253113e-02 6.893303245306015015e-02
-3.241721987724304199e-01 5.254385247826576233e-02 6.712311506271362305e-02
1.378588527441024780e-01 -3.835409134626388550e-02 -2.238458395004272461e-01
6.357693672180175781e-02 -4.260236397385597229e-02 -1.869185566902160645e-01
9.106673598289489746e-01 3.439442440867424011e-02 -3.536331281065940857e-02
-3.027297556400299072e-01 -8.785023540258407593e-02 -1.321699284017086029e-02
-6.755470633506774902e-01 6.071360409259796143e-02 -8.810222148895263672e-02
2.742309272289276123e-01 -9.468770772218704224e-02 4.982707090675830841e-03
4.778714776039123535e-01 -8.234976558014750481e-04 8.295987546443939209e-02
4.321962594985961914e-01 6.435856968164443970e-02 5.686693266034126282e-02
-5.924418568611145020e-01 1.274793446063995361e-01 7.722717244178056717e-03
4.355395734310150146e-01 -2.565955929458141327e-02 -8.159155398607254028e-02
3.465521037578582764e-01 -3.292435035109519958e-02 7.660003751516342163e-02
-7.838654518127441406e-01 6.853143125772476196e-02 1.610375940799713135e-01
-2.564009428024291992e-01 -3.272324800491333008e-02 -7.907778769731521606e-02
-4.445700906217098236e-03 -1.585584692656993866e-02 -4.188139140605926514e-01
7.867385149002075195e-01 7.079382985830307007e-02 -3.302550315856933594e-02
-4.637115895748138428e-01 -4.240126907825469971e-02 5.940584465861320496e-02
1.007807403802871704e-01 -2.100907824933528900e-02 -3.533301651477813721e-01
-1.228945851325988770e-01 9.256721474230289459e-03 6.181164979934692383e-01
-7.233338356018066406e-01 2.898186445236206055e-01 4.429677035659551620e-03
7.298015952110290527e-01 1.214755978435277939e-02 7.730389386415481567e-02
-7.635793089866638184e-01 6.574114412069320679e-02 1.471615731716156006e-01
-7.626240849494934082e-01 4.060344025492668152e-02 -2.264363318681716919e-02
5.692973136901855469e-01 6.740023940801620483e-02 5.292031541466712952e-02
9.359135478734970093e-02 -1.025013811886310577e-02 -3.146432638168334961e-01
1.013589054346084595e-01 -2.895259484648704529e-02 1.341151148080825806e-01
2.147551029920578003e-01 -1.069046258926391602e-01 1.981911212205886841e-01
-1.392261963337659836e-02 -1.160757243633270264e-02 -3.631087243556976318e-01
1.412524431943893433e-01 -9.348108619451522827e-02 -3.843011334538459778e-02
2.674185931682586670e-01 -6.379345804452896118e-02 -2.060232013463973999e-01
1.099811494350433350e-01 -2.857553213834762573e-02 -1.321183443069458008e-01
-7.469632625579833984e-01 6.619362533092498779e-02 -1.445615142583847046e-01
-4.797629080712795258e-03 -5.077212676405906677e-02 7.313103228807449341e-02
2.499055676162242889e-02 -7.608578354120254517e-02 4.874745383858680725e-02
5.164830088615417480e-01 -1.510172057896852493e-02 8.112481981515884399e-02
-1.386559158563613892e-01 1.895987801253795624e-02 -7.240108251571655273e-01
6.764924526214599609e-02 -5.416571721434593201e-02 1.269005835056304932e-01
5.249120295047760010e-02 -1.124097853899002075e-01 -1.166083812713623047e-01
-1.197020858526229858e-01 -3.651903569698333740e-02 7.529287040233612061e-02
2.813276648521423340e-02 -1.131639108061790466e-01 -1.421231627464294434e-01
1.002779901027679443e-01 -2.264302968978881836e-02 -1.939068287611007690e-01
2.308432310819625854e-01 -5.152625218033790588e-02 -1.345315724611282349e-01
7.555928230285644531e-01 7.117088884115219116e-02 3.751089796423912048e-02
-1.955928355455398560e-01 8.650489151477813721e-02 -9.898816235363483429e-03
9.050365090370178223e-01 -3.744914010167121887e-02 -1.296561490744352341e-02
5.389891564846038818e-02 -2.304523624479770660e-02 2.222730517387390137e-01
2.015326619148254395e-01 -1.092172935605049133e-01 1.813237220048904419e-01
-1.318938732147216797e-01 3.723498433828353882e-02 -7.658651471138000488e-01
-5.471687912940979004e-01 1.076708436012268066e-01 9.507494047284126282e-03
2.792835831642150879e-01 -3.543812781572341919e-02 -2.277924567461013794e-01
1.793360710144042969e-01 -1.093681156635284424e-01 -2.236447483301162720e-01
2.465040236711502075e-01 -7.078173756599426270e-02 1.857982426881790161e-01
1.489194482564926147e-01 -6.140537559986114502e-02 -2.210555374622344971e-01
-3.341267108917236328e-01 -2.945534698665142059e-02 7.675085961818695068e-02
-1.427454780787229538e-02 -1.314097642898559570e-02 -3.520481288433074951e-01
-1.012682169675827026e-02 -9.556752443313598633e-02 1.667174138128757477e-02
1.412524431943893433e-01 -9.348108619451522827e-02 -3.843011334538459778e-02
1.628205925226211548e-01 -2.940507791936397552e-02 2.483659833669662476e-01
-8.123213648796081543e-01 3.593244254589080811e-01 6.315005477517843246e-03
2.165650129318237305e-01 -4.521669447422027588e-02 -1.936554461717605591e-01
-7.146865129470825195e-01 6.237269565463066101e-02 -1.171362698078155518e-01
2.834313213825225830e-01 -6.952484697103500366e-02 7.506663352251052856e-02
-7.258727550506591797e-01 6.750078499317169189e-02 5.535736214369535446e-03
1.942427307367324829e-01 8.695737272500991821e-02 3.725821385160088539e-03
7.279916405677795410e-01 4.482657462358474731e-02 6.669577211141586304e-02
9.497392922639846802e-02 -2.736892178654670715e-02 -3.195451200008392334e-01
4.062620550394058228e-02 -4.375869408249855042e-02 7.247744500637054443e-02
4.627134501934051514e-01 -2.198945172131061554e-02 8.011931180953979492e-02
1.128468438982963562e-01 -4.096842184662818909e-02 2.117403447628021240e-01
2.060825973749160767e-01 -9.707576781511306763e-02 1.687284186482429504e-02
2.741554975509643555e-01 -6.701107323169708252e-02 7.207524776458740234e-02
-2.636577934026718140e-02 8.298561722040176392e-02 -2.802310138940811157e-02
8.932217955589294434e-01 -6.364263594150543213e-02 -2.043151482939720154e-02
8.498341441154479980e-01 -3.988749533891677856e-02 5.598711222410202026e-02
1.754145920276641846e-01 8.549938350915908813e-02 1.576678268611431122e-02
2.112860977649688721e-01 -6.110372766852378845e-02 -1.799051165580749512e-01
-8.586752414703369141e-01 3.959248960018157959e-01 -2.634018659591674805e-03
-7.385923862457275391e-01 4.417299106717109680e-02 -1.364433392882347107e-02
3.428065776824951172e-01 8.575076609849929810e-02 1.370549108833074570e-02
-1.731699854135513306e-01 1.732592657208442688e-02 -8.380367606878280640e-02
-4.905335605144500732e-01 7.056758552789688110e-02 1.028676237910985947e-02
-1.264892667531967163e-01 -3.739887103438377380e-02 -7.739355415105819702e-02
6.264684349298477173e-02 -6.442189216613769531e-02 6.722366809844970703e-02
-2.478289902210235596e-01 2.911550924181938171e-02 7.823397964239120483e-02
-7.707435488700866699e-01 8.072321861982345581e-02 2.204631268978118896e-01
2.037950605154037476e-01 -9.516531229019165039e-02 -2.948109060525894165e-02
-6.260760426521301270e-01 1.531449556350708008e-01 -9.773126803338527679e-03
4.242024719715118408e-01 -8.973557502031326294e-02 -8.968721143901348114e-03
8.089099526405334473e-01 7.157309353351593018e-02 2.338350750505924225e-02
9.239903688430786133e-01 -5.590021610260009766e-02 -3.119045309722423553e-02
-6.878393888473510742e-01 2.586730420589447021e-01 -5.172926932573318481e-03
1.256419271230697632e-01 6.199562549591064453e-02 -6.236120685935020447e-02
6.611584126949310303e-02 -5.886646732687950134e-02 -3.423211723566055298e-02
-3.136897683143615723e-01 8.539883792400360107e-02 -1.927517913281917572e-02
-8.107125163078308105e-01 3.620644211769104004e-01 -8.767618797719478607e-03
-4.897794127464294434e-01 9.397079795598983765e-02 8.703088387846946716e-03
8.899539113044738770e-01 -2.998324483633041382e-02 -5.210502445697784424e-02
6.003251671791076660e-02 -7.484990172088146210e-03 -3.498360216617584229e-01
-1.183195263147354126e-01 -8.762400597333908081e-02 1.973854005336761475e-02
5.249120295047760010e-02 -1.124097853899002075e-01 -1.166083812713623047e-01
2.330804914236068726e-01 -5.265744775533676147e-02 1.808209717273712158e-01
-6.480133533477783203e-02 -3.584033250808715820e-02 3.978850543498992920e-01
6.815993227064609528e-03 4.254313185811042786e-03 -4.807280600070953369e-01
7.838304340839385986e-02 -9.031374007463455200e-02 -5.489531159400939941e-02
5.522790551185607910e-01 -1.160757243633270264e-02 -8.402991294860839844e-02
-3.274652361869812012e-01 7.363438606262207031e-02 -4.760537669062614441e-02
8.134929835796356201e-02 -4.416090250015258789e-02 -1.852845847606658936e-01
2.812694907188415527e-01 -6.298904865980148315e-02 -7.865045219659805298e-02
-3.815616071224212646e-01 8.653002977371215820e-02 -1.004964206367731094e-02
1.808191984891891479e-01 -2.309551462531089783e-02 1.619928330183029175e-01
6.558715701103210449e-01 7.109548151493072510e-02 -4.986777156591415405e-02
-3.748246729373931885e-01 5.940644443035125732e-02 6.292512267827987671e-02
-9.021555632352828979e-02 -2.809376455843448639e-03 -5.021202564239501953e-01
7.355078458786010742e-01 3.482176363468170166e-02 7.114515453577041626e-02
-2.962190806865692139e-01 -4.920945968478918076e-03 8.253253251314163208e-02
3.240538537502288818e-01 -8.229480683803558350e-02 2.489944249391555786e-01
1.002779901027679443e-01 -2.264302968978881836e-02 -1.939068287611007690e-01
-6.841441392898559570e-01 2.240332812070846558e-01 6.918310187757015228e-03
1.938908100128173828e-01 -6.273766607046127319e-02 -8.480917662382125854e-02
5.684929490089416504e-01 -8.264674246311187744e-02 -3.393046557903289795e-02
1.671694219112396240e-01 -2.161238901317119598e-02 4.789277166128158569e-02
-6.823342442512512207e-01 -2.251733839511871338e-02 9.004740044474601746e-03
-7.954539060592651367e-01 1.720736473798751831e-01 -3.413287689909338951e-03
7.985029220581054688e-01 6.845602393150329590e-02 3.248335793614387512e-02
-7.876612544059753418e-01 1.800463907420635223e-02 1.111499848775565624e-03
-3.479776084423065186e-01 -8.493427187204360962e-02 3.549857297912240028e-03
1.212004665285348892e-02 -1.250838395208120346e-03 -4.270842075347900391e-01
8.195259422063827515e-02 7.760614901781082153e-02 -3.988810256123542786e-02
1.526649743318557739e-01 -5.071770865470170975e-03 8.255766332149505615e-02
2.717925608158111572e-01 -1.198505386710166931e-01 1.998753398656845093e-01
1.039732322096824646e-01 -4.079246148467063904e-02 -2.142683863639831543e-01
8.057002723217010498e-02 -5.504553392529487610e-02 1.275793015956878662e-01
1.674208045005798340e-01 -8.058544248342514038e-02 7.795747369527816772e-02
1.312979161739349365e-01 -2.012926340103149414e-02 -2.605468928813934326e-01
-1.883028894662857056e-01 -6.784062087535858154e-02 5.422747507691383362e-02
2.035939693450927734e-01 -2.384964004158973694e-02 -8.387908339500427246e-02
3.924363479018211365e-02 -2.482591895386576653e-03 -4.047870337963104248e-01
6.208547353744506836e-01 6.511270254850387573e-02 -5.831403657793998718e-02
-2.039385437965393066e-01 8.509718626737594604e-02 -2.166326157748699188e-02
-3.460671305656433105e-01 3.567644581198692322e-02 7.662516832351684570e-02
1.412524431943893433e-01 -9.348108619451522827e-02 -3.843011334538459778e-02
-8.294903635978698730e-01 8.125112205743789673e-02 -2.170083820819854736e-01
-1.725918203592300415e-01 -7.945424318313598633e-02 3.846613317728042603e-02
-2.654174901545047760e-02 -1.150291529484093189e-03 4.485878050327301025e-01
1.316498368978500366e-01 -9.782991558313369751e-02 -8.164314553141593933e-03
2.102805823087692261e-01 -9.891082346439361572e-02 1.899962276220321655e-01
8.263131976127624512e-02 -3.518674522638320923e-02 2.547006905078887939e-01
7.607037574052810669e-02 -2.314578182995319366e-02 3.546984791755676270e-01
3.083679378032684326e-01 -8.201828598976135254e-02 2.239321321249008179e-01
6.056040897965431213e-02 -2.432313747704029083e-03 -4.191658198833465576e-01
1.591756343841552734e-01 -1.965164393186569214e-02 -2.321161329746246338e-01
-1.866437941789627075e-01 6.378040462732315063e-02 -6.004853919148445129e-02
2.534923255443572998e-01 -5.532204732298851013e-02 8.172813057899475098e-02
-4.959632754325866699e-01 2.227804623544216156e-02 7.599672675132751465e-02
6.710798740386962891e-01 7.516779005527496338e-02 -4.277893528342247009e-02
-1.866437941789627075e-01 6.378040462732315063e-02 -6.004853919148445129e-02
-3.627334237098693848e-01 4.472602158784866333e-02 -7.565905153751373291e-02
4.908676743507385254e-01 -2.098394371569156647e-02 8.027014136314392090e-02
2.246342152357101440e-01 -8.513536304235458374e-02 2.471342235803604126e-01
9.514988958835601807e-02 -3.096360713243484497e-02 -1.261607110500335693e-01
8.089099526405334473e-01 7.157309353351593018e-02 2.338350750505924225e-02
3.292573690414428711e-01 -6.080207601189613342e-02 2.459527701139450073e-01
7.011445760726928711e-01 -9.059025347232818604e-02 -3.664664458483457565e-03
1.536281313747167587e-02 -3.739887103438377380e-02 1.943450570106506348e-01
3.243555128574371338e-01 5.774735659360885620e-02 6.327705085277557373e-02
