7.533341646194458008e-01 -9.290781617164611816e-02 -5.764759145677089691e-03
2.098949849605560303e-01 -8.557089418172836304e-02 6.682259589433670044e-02
-7.336947321891784668e-01 2.212694287300109863e-01 7.077856361865997314e-02
-6.950090527534484863e-01 1.992586106061935425e-01 1.183008495718240738e-02
-6.547363996505737305e-01 9.725450724363327026e-02 -3.138077154289931059e-04
-1.383219361305236816e-01 3.379806131124496460e-02 6.422362476587295532e-02
5.736033990979194641e-02 -1.010497510433197021e-01 4.191381856799125671e-02
-5.526966974139213562e-02 -7.476097345352172852e-02 -6.655322760343551636e-02
7.749080061912536621e-01 -6.321507692337036133e-02 6.019865721464157104e-02
-1.270060390233993530e-01 -5.180718749761581421e-02 -6.229413151741027832e-01
1.423675864934921265e-01 -5.196818336844444275e-02 -6.747321784496307373e-02
-1.816535592079162598e-01 -9.573679417371749878e-02 4.223581403493881226e-02
2.627715170383453369e-01 5.233589932322502136e-02 4.476579278707504272e-02
-8.498540520668029785e-02 -6.201909482479095459e-02 4.413052797317504883e-01
-3.013904988765716553e-01 -8.935560472309589386e-03 8.276146650314331055e-02
9.501101076602935791e-02 -1.016017422080039978e-01 -1.831794157624244690e-03
5.000040307641029358e-02 -7.308200746774673462e-02 -1.119778156280517578e-01
-6.537933945655822754e-01 1.194263026118278503e-01 -2.521788002923130989e-03
-4.244394004344940186e-01 9.460952877998352051e-02 -5.925757810473442078e-03
-7.048299908638000488e-01 2.155884653329849243e-01 -1.106438338756561279e-01
2.199919074773788452e-01 -7.880895584821701050e-02 -9.238199144601821899e-02
-7.426749169826507568e-02 -5.341716855764389038e-02 5.750951766967773438e-01
2.548826038837432861e-01 -4.527524113655090332e-02 -1.024789065122604370e-01
-2.130482792854309082e-01 -7.292099297046661377e-02 6.314263492822647095e-02
9.915097057819366455e-02 -6.592905521392822266e-02 3.386802077293395996e-01
8.978189229965209961e-01 1.378823630511760712e-02 4.018883407115936279e-02
1.039475388824939728e-02 -6.820603460073471069e-02 -1.712942868471145630e-01
-1.941654384136199951e-01 -3.184336051344871521e-02 -7.016419619321823120e-02
-3.955286741256713867e-01 3.510905057191848755e-02 -3.522749990224838257e-02
7.436282634735107422e-01 -7.105801254510879517e-02 5.299971997737884521e-02
2.763643860816955566e-01 -7.738296687602996826e-02 -1.079298555850982666e-01
-4.051885902881622314e-01 -1.829648017883300781e-02 -9.895993769168853760e-02
4.424459636211395264e-01 6.735476851463317871e-02 3.251160960644483566e-03
1.947967335581779480e-02 -6.475606560707092285e-02 -2.076569795608520508e-01
-5.820110440254211426e-01 -1.054554805159568787e-02 -2.062262967228889465e-02
2.058366313576698303e-02 -6.402007490396499634e-02 2.224392443895339966e-01
3.897994160652160645e-01 -9.559879451990127563e-02 2.836694009602069855e-02
-1.086521893739700317e-01 -5.097919330000877380e-02 5.675511956214904785e-01
4.445745795965194702e-02 -6.811404228210449219e-02 2.363771051168441772e-01
-4.076035320758819580e-01 -2.380618825554847717e-03 -7.931811362504959106e-02
2.826559729874134064e-02 -7.285200059413909912e-02 -1.228797212243080139e-01
-1.698546409606933594e-01 -5.141619220376014709e-02 6.437955498695373535e-01
-4.469102025032043457e-01 -4.884021356701850891e-02 3.476088494062423706e-02
2.973172068595886230e-01 -5.005920305848121643e-02 9.934432059526443481e-02
8.439771831035614014e-03 3.867401927709579468e-02 -5.505332723259925842e-02
-7.832362651824951172e-01 2.176584452390670776e-01 2.636595815420150757e-02
3.897994160652160645e-01 -9.559879451990127563e-02 2.836694009602069855e-02
-2.681097984313964844e-01 -2.202244289219379425e-02 -1.209017410874366760e-01
-6.207427382469177246e-01 1.899206936359405518e-01 1.488905772566795349e-02
-7.216888070106506348e-01 1.962456405162811279e-01 -3.165782429277896881e-03
-8.498540520668029785e-02 -6.201909482479095459e-02 4.413052797317504883e-01
-2.518489360809326172e-01 6.740076094865798950e-02 1.944301836192607880e-02
-5.556992888450622559e-01 1.224392876029014587e-01 1.403806637972593307e-02
-2.245711684226989746e-01 1.200933009386062622e-01 -1.751765608787536621e-02
4.414808005094528198e-03 -4.936920478940010071e-02 -4.927854835987091064e-01
-6.439034938812255859e-01 1.225312724709510803e-01 -3.625778481364250183e-03
4.597187936305999756e-01 3.586804494261741638e-02 -5.756030604243278503e-02
-7.783833742141723633e-01 2.181874513626098633e-01 3.924584388732910156e-02
-2.611408531665802002e-01 1.082024127244949341e-01 -2.264660969376564026e-02
4.332690238952636719e-01 -5.293417349457740784e-02 -6.328725069761276245e-02
-2.408194355666637421e-02 -6.139809638261795044e-02 -3.710475265979766846e-01
6.800568103790283203e-01 -7.998193800449371338e-02 4.356980323791503906e-02
-1.295360028743743896e-01 -5.139318481087684631e-02 -5.742507576942443848e-01
-7.866862416267395020e-01 2.162784636020660400e-01 -1.411185711622238159e-01
-2.802076637744903564e-01 1.003927178680896759e-02 1.005633026361465454e-01
5.639435350894927979e-02 -1.109754294157028198e-02 -7.117618620395660400e-02
8.737507462501525879e-02 -6.268608570098876953e-02 -8.679304271936416626e-02
-3.052774667739868164e-01 -3.646631911396980286e-02 6.765059381723403931e-02
7.323123812675476074e-01 6.254781037569046021e-02 1.139308977872133255e-02
1.947967335581779480e-02 -6.475606560707092285e-02 -2.076569795608520508e-01
-5.038806796073913574e-01 -2.045846171677112579e-02 -3.382451087236404419e-02
7.457442879676818848e-01 4.634318407624959946e-03 -6.788721680641174316e-02
-3.433985263109207153e-02 -3.230335563421249390e-02 7.551652938127517700e-02
2.327463962137699127e-02 -2.855438739061355591e-02 7.620652019977569580e-02
4.599717855453491211e-01 2.082617767155170441e-02 -6.632322818040847778e-02
-6.520684361457824707e-01 2.244203835725784302e-01 3.524388000369071960e-02
-6.585313677787780762e-01 2.158874571323394775e-01 -1.664366386830806732e-02
1.652293801307678223e-01 -4.966820776462554932e-02 -1.376225948333740234e-01
-2.053997106850147247e-02 -5.065719410777091980e-02 -5.547699332237243652e-01
5.193802714347839355e-01 -8.856086432933807373e-02 2.873493731021881104e-02
8.394684195518493652e-01 -9.339081496000289917e-02 -1.995563320815563202e-02
1.262677311897277832e-01 -9.090684354305267334e-02 1.195611357688903809e-01
-3.451821208000183105e-01 1.169525738805532455e-02 7.924249768257141113e-02
-4.684840142726898193e-01 8.977957069873809814e-02 2.162799984216690063e-02
-1.081922054290771484e-01 -5.081818997859954834e-02 -5.679718255996704102e-01
2.058366313576698303e-02 -6.402007490396499634e-02 2.224392443895339966e-01
3.626952692866325378e-02 -4.978320002555847168e-02 -3.861814141273498535e-01
1.471745520830154419e-01 2.917510084807872772e-02 6.691459566354751587e-02
8.845606446266174316e-02 -4.932320490479469299e-02 7.300954312086105347e-02
2.480516433715820312e-01 6.323780119419097900e-02 -1.420568581670522690e-02
-2.911785840988159180e-01 1.185625605285167694e-02 -7.655812799930572510e-02
3.770813113078474998e-03 5.939683318138122559e-02 3.108091652393341064e-02
6.877847313880920410e-01 1.958418637514114380e-02 -6.705921888351440430e-02
2.356087565422058105e-01 -7.508298009634017944e-02 -1.527104675769805908e-01
-7.882732748985290527e-01 2.192454338073730469e-01 2.029584050178527832e-01
4.450345411896705627e-02 5.164590105414390564e-02 -4.054045677185058594e-02
8.760151267051696777e-01 -5.419915914535522461e-02 5.212572962045669556e-02
-4.586400985717773438e-01 1.477160453796386719e-01 -5.695760250091552734e-03
-4.727849662303924561e-01 2.181516587734222412e-02 -2.991454489529132843e-02
8.854680657386779785e-01 2.027417905628681183e-02 4.117782786488533020e-02
-1.081922054290771484e-01 -5.081818997859954834e-02 -5.679718255996704102e-01
8.975889086723327637e-01 -1.348952297121286392e-02 -4.587640613317489624e-02
2.098949849605560303e-01 -8.557089418172836304e-02 6.682259589433670044e-02
4.011049494147300720e-02 -6.017911434173583984e-02 -2.385226935148239136e-01
1.401136219501495361e-01 -7.018402218818664551e-02 2.474400103092193604e-01
-6.211095489561557770e-03 -5.109419301152229309e-02 -4.252350628376007080e-01
-7.489895820617675781e-01 2.158874571323394775e-01 -1.351386159658432007e-01
-3.078764379024505615e-01 1.145963519811630249e-01 -1.694266311824321747e-02
1.436325907707214355e-01 -5.074919015169143677e-02 -1.647163629531860352e-01
1.717153340578079224e-01 5.870684236288070679e-02 3.310489654541015625e-02
-7.206538319587707520e-01 2.211544215679168701e-01 -1.351846158504486084e-01
-2.250081747770309448e-01 -9.539179503917694092e-02 -1.496467832475900650e-02
-3.345332145690917969e-01 -6.100710108876228333e-02 4.904375597834587097e-02
-7.846392989158630371e-01 2.168764621019363403e-01 8.025448024272918701e-02
5.210362672805786133e-01 6.388179957866668701e-02 1.576304994523525238e-02
-4.148484766483306885e-01 1.092350343242287636e-03 8.830441534519195557e-02
-4.813639223575592041e-01 -2.464442513883113861e-02 4.281081259250640869e-02
8.581902384757995605e-01 -5.877612158656120300e-02 5.352871492505073547e-02
3.015261888504028320e-01 3.345306590199470520e-02 -5.898629501461982727e-02
8.333504796028137207e-01 -8.695086836814880371e-02 -2.156561985611915588e-02
2.125399708747863770e-01 -7.618696242570877075e-02 1.460109055042266846e-01
5.760517716407775879e-01 -2.459842339158058167e-02 -7.117618620395660400e-02
3.456754237413406372e-02 -6.155909970402717590e-02 2.329961359500885010e-01
-7.216888070106506348e-01 1.962456405162811279e-01 -3.165782429277896881e-03
-1.858498901128768921e-02 -8.964184671640396118e-02 -6.091827526688575745e-02
-1.706826388835906982e-01 -1.443251408636569977e-02 7.662051916122436523e-02
8.303144574165344238e-01 -9.483980387449264526e-02 1.434176927432417870e-03
-2.279521375894546509e-01 5.255312193185091019e-03 -7.025619596242904663e-02
-4.056255817413330078e-01 -6.544606387615203857e-02 2.673395536839962006e-02
-8.071790337562561035e-01 2.175894379615783691e-01 -1.374616026878356934e-01
-2.816796600818634033e-01 1.576622016727924347e-02 1.315900385379791260e-01
5.000040307641029358e-02 -7.308200746774673462e-02 -1.119778156280517578e-01
6.347829103469848633e-02 -5.962711572647094727e-02 -1.917871087789535522e-01
-3.025634586811065674e-01 -1.644628122448921204e-03 8.846541494131088257e-02
-2.530093304812908173e-02 1.859519630670547485e-02 7.307854294776916504e-02
6.332063078880310059e-01 -1.155753806233406067e-02 7.662051916122436523e-02
4.650443419814109802e-02 6.441079080104827881e-02 1.102509256452322006e-02
-7.514735460281372070e-01 2.157954573631286621e-01 -1.480185091495513916e-01
-4.001516401767730713e-01 -3.782330825924873352e-02 5.500070378184318542e-02
-6.232727169990539551e-01 3.047331934794783592e-03 1.424506399780511856e-02
-7.603514790534973145e-01 2.158874571323394775e-01 -1.507094800472259521e-01
-3.800267875194549561e-01 -1.000633230432868004e-03 8.138147741556167603e-02
5.193802714347839355e-01 -8.856086432933807373e-02 2.873493731021881104e-02
2.892673015594482422e-01 -4.128603730350732803e-03 7.643651962280273438e-02
-3.308992385864257812e-01 2.112517319619655609e-02 -8.527506142854690552e-02
1.220357641577720642e-01 -7.140301167964935303e-02 1.277950704097747803e-01
-6.855791211128234863e-01 2.156114578247070312e-01 -8.789703249931335449e-02
-7.514735460281372070e-01 2.157954573631286621e-01 -1.480185091495513916e-01
3.339454904198646545e-02 -8.074093610048294067e-02 1.306240409612655640e-01
1.341796666383743286e-01 -6.696404516696929932e-02 -2.984602153301239014e-01
8.079713582992553711e-02 -6.464106589555740356e-02 -3.565807044506072998e-01
-2.530093304812908173e-02 1.859519630670547485e-02 7.307854294776916504e-02
8.581902384757995605e-01 -5.877612158656120300e-02 5.352871492505073547e-02
-2.984004914760589600e-01 -2.866938896477222443e-02 1.195151358842849731e-01
4.438845813274383545e-02 -6.264009326696395874e-02 -3.869404196739196777e-01
-1.728446334600448608e-01 -9.957774728536605835e-02 6.011136807501316071e-03
-5.263285040855407715e-01 1.553749889135360718e-01 1.523405499756336212e-02
-7.804993391036987305e-01 2.344022989273071289e-01 3.780156373977661133e-03
-6.939740777015686035e-01 2.159334570169448853e-01 6.493661552667617798e-02
-6.299886703491210938e-01 1.759138107299804688e-01 1.357807032763957977e-02
-5.935100372880697250e-03 -6.020211055874824524e-02 -4.188871383666992188e-01
-6.698242425918579102e-01 2.403822541236877441e-01 -4.131774418056011200e-03
-2.196722030639648438e-01 -5.689014121890068054e-02 7.156055420637130737e-02
-6.028718948364257812e-01 -1.670949347317218781e-02 1.661404222249984741e-02
-2.219032049179077148e-01 -9.182683378458023071e-02 -2.885655499994754791e-02
-2.278135856613516808e-03 -5.668314546346664429e-02 -3.353058695793151855e-01
1.126288548111915588e-01 -5.746513605117797852e-02 1.193311437964439392e-01
-3.976676464080810547e-01 -1.647949591279029846e-02 -8.403306454420089722e-02
-9.657730162143707275e-02 -5.670614168047904968e-02 4.857869148254394531e-01
-7.908032536506652832e-01 2.168764621019363403e-01 8.724642544984817505e-02
-9.482932090759277344e-02 6.300780177116394043e-02 2.031701244413852692e-02
-3.953216671943664551e-01 -2.301144041121006012e-02 1.073942482471466064e-01
2.816773653030395508e-01 -8.981562219560146332e-03 7.662051916122436523e-02
3.057819325476884842e-03 -6.698705255985260010e-02 -2.323357611894607544e-01
2.758353948593139648e-01 -9.253981709480285645e-02 6.148664653301239014e-02
1.409645974636077881e-01 -7.052902132272720337e-02 -2.335777431726455688e-01
-5.459013581275939941e-01 6.468679010868072510e-02 -1.013472210615873337e-02
-1.069605536758899689e-02 -5.042719468474388123e-02 5.425043702125549316e-01
1.050159186124801636e-01 -5.091019347310066223e-02 -2.578195333480834961e-01
-5.579866468906402588e-02 -5.422216653823852539e-02 4.418802559375762939e-01
3.456754237413406372e-02 -6.155909970402717590e-02 2.329961359500885010e-01
-4.007956087589263916e-01 1.043384373188018799e-01 1.548705250024795532e-02
1.790062636137008667e-01 -8.968786150217056274e-02 6.445361673831939697e-02
5.148033499717712402e-01 5.044991523027420044e-02 4.782477021217346191e-02
1.915411651134490967e-01 -4.780521988868713379e-02 -1.238687112927436829e-01
1.908051818609237671e-01 -7.443898171186447144e-02 1.744616627693176270e-01
-3.431121408939361572e-01 9.161955118179321289e-02 2.130600251257419586e-02
-3.696182370185852051e-02 -5.001319944858551025e-02 5.016567707061767578e-01
-4.128244817256927490e-01 -1.414626254700124264e-03 5.621968954801559448e-02
8.882406353950500488e-02 -7.147201150655746460e-02 1.798896193504333496e-01
-3.911356925964355469e-01 -1.086754538118839264e-02 8.476244658231735229e-02
7.750459909439086914e-01 -6.981602311134338379e-02 -4.822238907217979431e-02
5.326511263847351074e-01 -2.179244905710220337e-02 7.662051916122436523e-02
5.303512215614318848e-01 -8.545588701963424683e-02 -3.012154437601566315e-02
1.189768016338348389e-01 -1.249005421996116638e-01 1.416409462690353394e-01
-4.558801054954528809e-01 1.194033026695251465e-01 1.587804965674877167e-02
-6.358075737953186035e-01 2.178654372692108154e-01 5.408070981502532959e-02
3.626952692866325378e-02 -4.978320002555847168e-02 -3.861814141273498535e-01
1.952441334724426270e-01 -7.485298067331314087e-02 -1.618183702230453491e-01
6.436941623687744141e-01 -8.623788505792617798e-02 -2.841955795884132385e-02
7.708830237388610840e-01 -4.083627834916114807e-02 7.075556367635726929e-02
8.398134112358093262e-01 4.900092631578445435e-02 -1.742565631866455078e-02
8.829150199890136719e-01 -8.655986934900283813e-02 -6.293755490332841873e-03
-7.566715478897094727e-01 2.193144261837005615e-01 2.098400518298149109e-02
-7.390077114105224609e-01 2.159334570169448853e-01 1.223671138286590576e-01
7.323123812675476074e-01 6.254781037569046021e-02 1.139308977872133255e-02
-6.876950860023498535e-01 1.606419384479522705e-01 -2.682786667719483376e-03
4.009083211421966553e-01 -6.544606387615203857e-02 -5.555932223796844482e-02
7.014926671981811523e-01 2.190716564655303955e-02 -6.554123759269714355e-02
7.079095840454101562e-01 -1.199453696608543396e-02 -7.073918730020523071e-02
8.079713582992553711e-02 -6.464106589555740356e-02 -3.565807044506072998e-01
-1.087211966514587402e-01 -7.648596912622451782e-02 7.192856073379516602e-02
1.467271614819765091e-02 -6.229509040713310242e-02 3.799418210983276367e-01
7.237794399261474609e-01 2.924410253763198853e-02 6.523561477661132812e-02
6.436941623687744141e-01 -8.623788505792617798e-02 -2.841955795884132385e-02
-2.211901992559432983e-01 9.303277358412742615e-03 8.931640535593032837e-02
-1.490398347377777100e-01 -5.134718492627143860e-02 6.065128445625305176e-01
7.673410773277282715e-01 5.514187365770339966e-02 3.167891129851341248e-02
2.156449556350708008e-01 -7.952193915843963623e-02 -7.766212522983551025e-02
8.491973280906677246e-01 -7.287500053644180298e-02 4.320180788636207581e-02
-1.179441139101982117e-01 -5.456715822219848633e-02 -5.322301387786865234e-01
9.969020485877990723e-01 -2.687540277838706970e-02 -1.164800021797418594e-03
2.664744853973388672e-01 -8.016593009233474731e-02 -9.143900871276855469e-02
9.038805216550827026e-02 -5.831612646579742432e-02 1.571657955646514893e-01
-4.487501978874206543e-01 5.511886999011039734e-02 1.955801807343959808e-02
7.527718693017959595e-02 -7.524397224187850952e-02 8.922441303730010986e-02
-6.491245031356811523e-01 1.620909273624420166e-01 -5.764759145677089691e-03
7.920198440551757812e-01 -5.240518227219581604e-02 6.548861414194107056e-02
-5.162546038627624512e-01 1.905519142746925354e-02 2.710195071995258331e-02
3.304955735802650452e-02 -6.735504418611526489e-02 -2.433756589889526367e-01
2.713860943913459778e-02 -4.036603961139917374e-03 7.643651962280273438e-02
-4.987747669219970703e-01 1.358711570501327515e-01 1.537205372005701065e-02
-4.931272193789482117e-02 -4.916220903396606445e-02 5.748420953750610352e-01
-6.223067045211791992e-01 7.601294200867414474e-03 -8.915731683373451233e-03
-4.737279713153839111e-01 5.284189060330390930e-02 -1.788565330207347870e-02
-8.926337212324142456e-02 -1.010037362575531006e-01 4.876776039600372314e-02
-4.710829854011535645e-01 -5.672913789749145508e-02 2.768165199086070061e-03
3.321619033813476562e-01 -1.943624578416347504e-03 -7.083118706941604614e-02
-2.723417580127716064e-01 1.161373332142829895e-01 2.560696378350257874e-02
-5.917399525642395020e-01 1.334561705589294434e-01 1.277307700365781784e-02
-8.459441363811492920e-02 2.406914532184600830e-02 6.988157331943511963e-02
-6.939740777015686035e-01 2.159334570169448853e-01 6.493661552667617798e-02
-4.970037639141082764e-01 -3.550032526254653931e-02 3.425488620996475220e-02
1.785922795534133911e-01 -5.054219439625740051e-02 7.997848838567733765e-02
-2.102883011102676392e-01 -2.259743958711624146e-02 7.662051916122436523e-02
5.651499032974243164e-01 5.203690379858016968e-02 -3.982746228575706482e-02
1.509005129337310791e-01 -5.362417176365852356e-02 -2.902952432632446289e-01
2.742484211921691895e-01 -8.113193511962890625e-02 -7.853611558675765991e-02
-3.089574277400970459e-01 2.153916843235492706e-02 -8.534406125545501709e-02
-3.616499602794647217e-01 1.184373199939727783e-01 -8.524735458195209503e-03
-9.385067969560623169e-03 -4.916220903396606445e-02 -5.039864182472229004e-01
-1.672556698322296143e-01 -9.960076212882995605e-02 2.689495496451854706e-02
3.484353795647621155e-02 -7.066701352596282959e-02 -1.587594151496887207e-01
4.979904592037200928e-01 3.846701979637145996e-02 6.070465594530105591e-02
-4.402172565460205078e-01 6.769976019859313965e-02 -1.735665835440158844e-02
-7.288877367973327637e-01 2.210164219141006470e-01 2.075400762259960175e-02
5.000040307641029358e-02 -7.308200746774673462e-02 -1.119778156280517578e-01
2.083666250109672546e-02 -7.041401416063308716e-02 -1.558384299278259277e-01
1.509005129337310791e-01 -5.362417176365852356e-02 -2.902952432632446289e-01
1.338576674461364746e-01 -2.561041712760925293e-02 -7.117618620395660400e-02
1.606064140796661377e-01 -6.848204135894775391e-02 2.668518424034118652e-01
-7.016093470156192780e-03 -7.726796716451644897e-02 -1.935121119022369385e-01
-3.889047205448150635e-01 -2.326443977653980255e-02 -9.304898232221603394e-02
1.104438751935958862e-01 -5.155418813228607178e-02 -2.365447133779525757e-01
-5.469133257865905762e-01 1.377111375331878662e-01 -9.697725996375083923e-03
2.060540318489074707e-01 2.975009754300117493e-02 6.656960397958755493e-02
-3.827867805957794189e-01 3.632804006338119507e-02 4.136182367801666260e-02
-2.282511293888092041e-01 -9.532280266284942627e-02 -4.476771224290132523e-03
-1.015452668070793152e-01 -5.065719410777091980e-02 7.296355068683624268e-02
7.031946182250976562e-01 4.706894233822822571e-02 5.106773972511291504e-02
1.090178862214088440e-01 -5.171518400311470032e-02 2.406320720911026001e-01
-1.266610324382781982e-01 5.311789363622665405e-02 -3.796447440981864929e-02
7.405818998813629150e-02 -5.562514811754226685e-02 2.442890405654907227e-01
6.636350154876708984e-01 5.544086918234825134e-02 3.940683975815773010e-02
2.221078723669052124e-01 -7.639396935701370239e-02 -1.415785551071166992e-01
1.740153133869171143e-01 -6.648105382919311523e-02 -2.522535920143127441e-01
1.740153133869171143e-01 -6.648105382919311523e-02 -2.522535920143127441e-01
-2.738367319107055664e-01 -4.956598393619060516e-03 -1.295266747474670410e-01
-2.270195633172988892e-02 -6.349108368158340454e-02 -2.919282615184783936e-01
5.593435093760490417e-02 -6.802204251289367676e-02 2.467960119247436523e-01
-5.188996195793151855e-01 -1.185653451830148697e-02 3.745185956358909607e-02
-7.611104846000671387e-01 2.157724648714065552e-01 1.676997244358062744e-01
-7.516805529594421387e-01 2.157034724950790405e-01 -1.765842437744140625e-01
6.439241170883178711e-01 -5.035819485783576965e-02 -6.475923955440521240e-02
-6.380615830421447754e-01 1.437370926141738892e-01 -4.959766753017902374e-03
-4.389982819557189941e-01 -5.827012658119201660e-02 -1.995563320815563202e-02
1.854462176561355591e-01 -8.563987910747528076e-02 -6.160826608538627625e-02
4.216311573982238770e-01 -2.837038785219192505e-02 7.622952014207839966e-02
-9.395532310009002686e-02 -9.794477373361587524e-02 6.049765273928642273e-02
4.412499666213989258e-01 6.275480985641479492e-02 2.105300500988960266e-02
1.307986974716186523e-01 -6.300808489322662354e-02 -3.209079802036285400e-01
-1.988573968410491943e-01 -3.162611275911331177e-03 7.636751979589462280e-02
-6.069887876510620117e-01 -2.521942183375358582e-02 3.964154981076717377e-03
-4.760739505290985107e-01 -3.037137165665626526e-02 -3.651548922061920166e-02
-6.566914319992065430e-01 1.390451490879058838e-01 -3.257781732827425003e-03
-3.728508353233337402e-01 2.126317098736763000e-02 1.172151565551757812e-01
-4.016695916652679443e-01 3.622328164055943489e-03 -5.236234888434410095e-02
-3.599584102630615234e-02 -5.615415051579475403e-02 -5.121513009071350098e-01
-8.063050508499145508e-01 2.163934558629989624e-01 1.608687788248062134e-01
3.505847454071044922e-01 1.930818893015384674e-02 -6.722021847963333130e-02
8.450803756713867188e-01 1.066026650369167328e-02 -5.555932223796844482e-02
4.011049494147300720e-02 -6.017911434173583984e-02 -2.385226935148239136e-01
7.708830237388610840e-01 -4.083627834916114807e-02 7.075556367635726929e-02
-7.534849643707275391e-02 3.513204678893089294e-02 -5.799730122089385986e-02
-1.657137530855834484e-03 -9.582880139350891113e-02 6.150965020060539246e-02
-4.852278530597686768e-01 -4.953020066022872925e-02 2.093800529837608337e-02
1.373536437749862671e-01 -5.146218463778495789e-02 -2.993341982364654541e-01
-7.922981977462768555e-01 2.159794718027114868e-01 -1.819431930780410767e-01
-6.841531991958618164e-01 2.158184647560119629e-01 -5.705430731177330017e-02
4.661943390965461731e-02 -6.434207409620285034e-02 7.241155207157135010e-02
-8.031644672155380249e-02 -1.015787422657012939e-01 -3.697548806667327881e-02
5.723717808723449707e-01 -8.527188003063201904e-02 3.595687448978424072e-02
7.985413819551467896e-02 -6.546906381845474243e-02 -3.319249153137207031e-01
-1.931534558534622192e-01 -5.137018859386444092e-02 7.296355068683624268e-02
-1.042132377624511719e-01 -4.934620857238769531e-02 -6.173983812332153320e-01
2.994332015514373779e-01 -1.002447605133056641e-01 -2.234761230647563934e-02
1.028769388794898987e-01 -6.694105267524719238e-02 3.123454153537750244e-01
-3.285762667655944824e-01 2.050417847931385040e-02 -5.588132143020629883e-02
2.506506145000457764e-01 9.073279798030853271e-03 7.540152221918106079e-02
9.270286560058593750e-01 1.075226627290248871e-02 -1.576967164874076843e-02
1.062475144863128662e-02 -5.539515241980552673e-02 3.360121846199035645e-01
4.751286804676055908e-01 -5.327916890382766724e-02 -6.310325860977172852e-02
-2.269171476364135742e-01 1.200013086199760437e-01 2.303098700940608978e-02
-3.144083619117736816e-01 2.068817615509033203e-02 -1.200967431068420410e-01
7.921014726161956787e-02 -6.797604262828826904e-02 2.652878463268280029e-01
8.337414264678955078e-01 -7.455398887395858765e-02 -3.865447267889976501e-02
8.631352186203002930e-01 4.621795192360877991e-02 -4.016774706542491913e-03
4.691843688488006592e-02 -6.206509470939636230e-02 -4.046962559223175049e-01
-4.562941193580627441e-01 3.384406119585037231e-02 2.459497377276420593e-02
-5.589421987533569336e-01 1.555589884519577026e-01 1.560205128043889999e-02
-7.756233215332031250e-01 2.186014354228973389e-01 -5.636431649327278137e-02
3.969649225473403931e-02 -5.258918181061744690e-02 3.247193098068237305e-01
9.328602999448776245e-02 -5.601614341139793396e-02 -1.850251704454421997e-01
9.641399979591369629e-02 -9.824376553297042847e-02 -5.089036375284194946e-02
6.085274815559387207e-01 -9.293083101511001587e-02 1.505005639046430588e-02
5.780526995658874512e-01 -8.002793788909912109e-02 4.352380335330963135e-02
-4.153314828872680664e-01 6.286980956792831421e-02 -2.126662246882915497e-02
4.691843688488006592e-02 -6.206509470939636230e-02 -4.046962559223175049e-01
1.491065323352813721e-01 -3.674231469631195068e-02 -6.926720589399337769e-02
-1.380919367074966431e-01 -2.731239981949329376e-02 7.643651962280273438e-02
9.222803264856338501e-02 -7.331199198961257935e-02 -1.309756487607955933e-01
4.702757000923156738e-01 6.399679183959960938e-02 1.465906016528606415e-02
-2.417979985475540161e-01 -6.052410975098609924e-02 6.562660634517669678e-02
2.423477023839950562e-01 -7.862494140863418579e-02 -1.066418662667274475e-01
4.190447926521301270e-02 -6.797604262828826904e-02 -2.330717444419860840e-01
-3.268742561340332031e-01 3.784602507948875427e-02 -4.307043179869651794e-02
-5.006377696990966797e-01 1.312942057847976685e-01 -1.022672094404697418e-02
1.315346807241439819e-01 -8.674387633800506592e-02 1.402149647474288940e-01
7.533341646194458008e-01 -9.290781617164611816e-02 -5.764759145677089691e-03
4.556248486042022705e-01 -6.898803263902664185e-02 -5.130436271429061890e-02
9.196917414665222168e-01 -2.802539430558681488e-02 -3.927546739578247070e-02
-1.559167951345443726e-01 -3.039436973631381989e-02 7.588452845811843872e-02
-2.067003250122070312e-01 -6.563006341457366943e-02 6.882358342409133911e-02
6.394622325897216797e-01 -9.293083101511001587e-02 -4.338772501796483994e-03
-6.720656156539916992e-02 -4.939220100641250610e-02 5.719211697578430176e-01
3.008362054824829102e-01 -7.873994112014770508e-02 8.897141367197036743e-02
-1.012922674417495728e-01 -1.021767407655715942e-01 -2.446359395980834961e-02
-3.161563575267791748e-01 8.797280490398406982e-03 1.008163020014762878e-01
3.429028391838073730e-01 4.647095128893852234e-02 -4.665840044617652893e-02
-5.216135382652282715e-01 -4.470024630427360535e-02 -7.397745270282030106e-03
2.641744911670684814e-01 -9.437979757785797119e-02 6.010665744543075562e-02
-2.152792513370513916e-01 -5.907512456178665161e-02 -6.563323736190795898e-02
-3.948156535625457764e-01 1.641021482646465302e-02 -1.126678138971328735e-01
-3.711718916893005371e-01 -1.443251408636569977e-02 6.226864084601402283e-02
3.269639611244201660e-01 -1.002447605133056641e-01 8.886110968887805939e-03
-4.736129939556121826e-01 -5.569414421916007996e-02 1.155408751219511032e-02
-2.251795679330825806e-02 -5.668314546346664429e-02 -5.072063207626342773e-01
-4.797079265117645264e-01 7.798067480325698853e-02 2.247899211943149567e-02
5.587559342384338379e-01 -5.900612473487854004e-02 -5.981428548693656921e-02
1.947381347417831421e-01 -9.555278718471527100e-02 -5.385733395814895630e-02
1.071675121784210205e-02 2.032017894089221954e-02 -6.662222743034362793e-02
-7.113618850708007812e-01 2.218674123287200928e-01 -1.158647835254669189e-01
8.337414264678955078e-01 -7.455398887395858765e-02 -3.865447267889976501e-02
5.210362672805786133e-01 6.388179957866668701e-02 1.576304994523525238e-02
1.719913184642791748e-01 5.645286291837692261e-02 -3.219152614474296570e-02
1.423675864934921265e-01 -5.196818336844444275e-02 -6.747321784496307373e-02
5.659318566322326660e-01 -2.554141916334629059e-02 7.662051916122436523e-02
2.037080526351928711e-01 -5.093318969011306763e-02 2.077193558216094971e-01
-3.104754090309143066e-01 -1.772148348391056061e-02 6.919157505035400391e-02
-2.375660538673400879e-01 1.905519142746925354e-02 -9.051900357007980347e-02
-2.010298147797584534e-02 -5.875312536954879761e-02 -4.352400004863739014e-01
-3.268742561340332031e-01 3.784602507948875427e-02 -4.307043179869651794e-02
-4.244394004344940186e-01 9.460952877998352051e-02 -5.925757810473442078e-03
-7.979101538658142090e-01 2.055145502090454102e-01 -1.348798396065831184e-03
3.597053140401840210e-02 -6.521606445312500000e-02 3.119774460792541504e-01
-4.762111231684684753e-03 -6.070810928940773010e-02 4.109685420989990234e-01
5.744417905807495117e-01 3.655803576111793518e-02 6.261363625526428223e-02
9.513624310493469238e-01 -4.219326749444007874e-02 3.112691640853881836e-02
1.510845124721527100e-01 -7.862494140863418579e-02 -1.269046813249588013e-01
-4.567771255970001221e-01 4.338897764682769775e-02 -1.889764331281185150e-02
9.652899950742721558e-02 -6.758504360914230347e-02 -2.843613028526306152e-01
-1.283503603190183640e-02 -1.560550369322299957e-02 7.662051916122436523e-02
5.377570986747741699e-01 -6.336584221571683884e-03 -7.117618620395660400e-02
-4.358577355742454529e-02 -4.918520525097846985e-02 -5.624978542327880859e-01
8.882406353950500488e-02 -7.147201150655746460e-02 1.798896193504333496e-01
6.966523081064224243e-02 -9.511579573154449463e-02 -5.595031753182411194e-02
4.166401624679565430e-01 1.390323787927627563e-02 7.441253215074539185e-02
6.134954094886779785e-01 -4.460825026035308838e-02 7.328554987907409668e-02
1.054989174008369446e-01 -7.618696242570877075e-02 8.667142689228057861e-02
-3.203653097152709961e-01 1.848019659519195557e-02 8.828141540288925171e-02
-1.862304955720901489e-01 6.454879045486450195e-02 9.783103130757808685e-03
2.199919074773788452e-01 -7.880895584821701050e-02 -9.238199144601821899e-02
1.882751882076263428e-01 -1.009117513895034790e-01 -1.374568976461887360e-02
-5.654971599578857422e-01 -2.243644557893276215e-02 2.631995826959609985e-02
3.306899368762969971e-01 3.927201405167579651e-02 5.985365808010101318e-02
7.088422030210494995e-02 -6.615906208753585815e-02 3.113104104995727539e-01
1.328456848859786987e-01 -1.325364708900451660e-01 -1.398535817861557007e-01
1.226337701082229614e-01 -7.489898800849914551e-02 -1.148297935724258423e-01
-1.672556698322296143e-01 -9.960076212882995605e-02 2.689495496451854706e-02
-1.018672585487365723e-01 -8.028092980384826660e-02 -6.634622812271118164e-02
-2.911785840988159180e-01 1.185625605285167694e-02 -7.655812799930572510e-02
-3.956206440925598145e-01 -4.795599728822708130e-03 -1.039278879761695862e-01
-6.503894329071044922e-01 -2.156245149672031403e-02 -6.960749160498380661e-03
-6.547363996505737305e-01 9.725450724363327026e-02 -3.138077154289931059e-04
4.291646927595138550e-02 -7.218500971794128418e-02 -1.894181370735168457e-01
7.525291442871093750e-01 -3.665031865239143372e-02 7.231955975294113159e-02
-7.664924263954162598e-01 2.168764621019363403e-01 5.624269321560859680e-02
-2.530093304812908173e-02 1.859519630670547485e-02 7.307854294776916504e-02
8.875380158424377441e-01 1.713344245217740536e-03 -4.677340015769004822e-02
-2.216732054948806763e-01 5.274989828467369080e-02 -3.858547285199165344e-02
-8.479576706886291504e-01 2.149904668331146240e-01 3.343160031363368034e-03
8.394684195518493652e-01 -9.339081496000289917e-02 -1.995563320815563202e-02
8.829150199890136719e-01 -8.655986934900283813e-02 -6.293755490332841873e-03
3.582896888256072998e-01 -9.855555370450019836e-03 7.662051916122436523e-02
2.521226108074188232e-01 -7.963693886995315552e-02 9.925232082605361938e-02
-2.738130977377295494e-03 -4.918520525097846985e-02 -4.977764487266540527e-01
-5.216135382652282715e-01 -4.470024630427360535e-02 -7.397745270282030106e-03
-1.900944709777832031e-01 -5.130119249224662781e-02 -6.751921772956848145e-02
-6.467659026384353638e-02 1.943341805599629879e-03 -7.053218781948089600e-02
1.005999594926834106e-01 -7.009202241897583008e-02 -2.178918868303298950e-01
-3.696182370185852051e-02 -5.001319944858551025e-02 5.016567707061767578e-01
1.391706168651580811e-01 -7.466898858547210693e-02 -1.286296695470809937e-01
4.172611832618713379e-01 -7.390999048948287964e-02 -4.541641101241111755e-02
4.840295910835266113e-01 5.286489427089691162e-02 4.382280260324478149e-02
6.122764348983764648e-01 -5.301592871546745300e-03 -7.108418643474578857e-02
-2.599678337574005127e-01 -8.975684642791748047e-02 2.231799252331256866e-02
-1.528348177671432495e-01 -1.247753296047449112e-02 -7.117618620395660400e-02
-1.150691434741020203e-01 -9.923276305198669434e-02 -5.066036432981491089e-02
-1.998464018106460571e-01 -9.569080173969268799e-02 -2.745356783270835876e-02
8.123056292533874512e-01 -6.221587304025888443e-03 7.001957297325134277e-02
-2.914316058158874512e-01 1.190123111009597778e-01 -1.386068854480981827e-02
-2.284811288118362427e-01 1.050284281373023987e-01 2.491697110235691071e-02
-5.704191327095031738e-01 2.085275202989578247e-01 1.281907595694065094e-02
-2.728247344493865967e-01 1.126643642783164978e-01 -1.774765364825725555e-02
-4.769939482212066650e-01 1.552829891443252563e-01 1.192208472639322281e-02
3.966763615608215332e-01 -9.502379596233367920e-02 9.047109633684158325e-03
6.828524172306060791e-02 -6.247908994555473328e-02 -3.971983194351196289e-01
7.281954288482666016e-01 4.759794101119041443e-02 4.837676510214805603e-02
6.119084954261779785e-01 -6.944803148508071899e-02 -5.075236409902572632e-02
1.341796666383743286e-01 -6.696404516696929932e-02 -2.984602153301239014e-01
5.053963661193847656e-01 -1.884847506880760193e-02 -7.117618620395660400e-02
-1.920598745346069336e-02 -6.236409023404121399e-02 3.529170751571655273e-01
-1.490398347377777100e-01 -5.134718492627143860e-02 6.065128445625305176e-01
-7.714246958494186401e-02 -5.127818509936332703e-02 -5.103343129158020020e-01
-6.611763834953308105e-01 1.872527003288269043e-01 1.254307851195335388e-02
2.825973331928253174e-01 -4.637923464179039001e-02 9.633134305477142334e-02
-3.424681127071380615e-01 4.835693165659904480e-02 -2.568258345127105713e-02
8.173656463623046875e-01 4.851793125271797180e-02 -2.977654710412025452e-02
-7.688153982162475586e-01 2.193144261837005615e-01 -8.256108313798904419e-02
-1.474402472376823425e-02 -5.024319514632225037e-02 -5.405790805816650391e-01
-4.820873215794563293e-02 -5.939712002873420715e-02 4.241014420986175537e-01
3.466747701168060303e-01 5.318688973784446716e-02 -3.787247836589813232e-02
7.431912422180175781e-01 -7.701496779918670654e-02 4.596178233623504639e-02
4.436649382114410400e-01 -7.256578654050827026e-03 -7.117618620395660400e-02
-1.910136197693645954e-03 -6.648105382919311523e-02 3.563670516014099121e-01
1.020719483494758606e-01 -5.038120225071907043e-02 -2.722634077072143555e-01
-7.015640139579772949e-01 2.203724235296249390e-01 1.298420578241348267e-01
9.175757169723510742e-01 1.436323300004005432e-02 2.988492697477340698e-02
-7.378346920013427734e-01 2.212924212217330933e-01 1.393179744482040405e-01
5.423800945281982422e-01 -9.053884446620941162e-02 -1.786265335977077484e-02
-3.122923970222473145e-01 4.249198362231254578e-02 -4.037945717573165894e-02
7.051726579666137695e-01 -7.250700145959854126e-02 -4.691139608621597290e-02
-1.086521893739700317e-01 -5.097919330000877380e-02 5.675511956214904785e-01
-6.449614763259887695e-01 2.247193753719329834e-01 2.512396872043609619e-02
-6.762642264366149902e-01 2.159104645252227783e-01 -3.890747204422950745e-02
-7.890092134475708008e-01 2.190844416618347168e-01 -1.707652956247329712e-01
4.795342683792114258e-02 -1.018547415733337402e-01 1.557905226945877075e-02
7.393273115158081055e-01 6.244305521249771118e-03 7.353854179382324219e-02
-1.677386760711669922e-01 -5.967311561107635498e-02 -6.717421859502792358e-02
6.758018732070922852e-01 -2.013646438717842102e-02 7.662051916122436523e-02
-3.313132226467132568e-01 1.953567843884229660e-04 1.000573039054870605e-01
-8.556039631366729736e-02 -5.808612704277038574e-02 4.516781866550445557e-01
-7.351896762847900391e-01 2.208784222602844238e-01 -3.722848370671272278e-02
6.254793144762516022e-03 -1.014867424964904785e-01 -2.618858031928539276e-02
-1.800999231636524200e-02 -1.002677530050277710e-01 5.099873617291450500e-02
-4.861248731613159180e-01 -5.217517912387847900e-02 -8.616734296083450317e-03
2.591835558414459229e-01 -1.006357595324516296e-01 9.553105570375919342e-03
6.807824969291687012e-02 -3.159036487340927124e-02 -7.021018862724304199e-02
6.639339923858642578e-01 -3.826030716300010681e-02 -6.899120658636093140e-02
-6.302186250686645508e-01 -2.124045416712760925e-02 1.277307700365781784e-02
2.199919074773788452e-01 -7.880895584821701050e-02 -9.238199144601821899e-02
-7.311187386512756348e-01 2.156574577093124390e-01 1.418479382991790771e-01
4.171001911163330078e-01 -1.282252743840217590e-02 7.662051916122436523e-02
-7.290717959403991699e-01 2.161404639482498169e-01 -8.191708475351333618e-02
7.079095840454101562e-01 -1.199453696608543396e-02 -7.073918730020523071e-02
2.023866958916187286e-02 -6.422707438468933105e-02 -3.232079744338989258e-01
8.157786130905151367e-01 -7.018402218818664551e-02 -4.642840102314949036e-02
3.188680410385131836e-01 -6.254808604717254639e-02 -9.178400039672851562e-02
3.103120923042297363e-01 -8.821585774421691895e-02 6.387862563133239746e-02
-3.733798563480377197e-01 -2.492042072117328644e-02 1.148001849651336670e-01
1.316956877708435059e-01 -5.226718261837959290e-02 -3.148590624332427979e-01
5.530979633331298828e-01 -8.038571104407310486e-03 7.662051916122436523e-02
8.160086274147033691e-01 -4.890920966863632202e-02 -6.068827584385871887e-02
-2.155196480453014374e-02 -5.732714012265205383e-02 -4.896575212478637695e-01
-3.313132226467132568e-01 1.953567843884229660e-04 1.000573039054870605e-01
1.290277093648910522e-01 -4.473602399230003357e-03 7.648251950740814209e-02
4.265991151332855225e-01 -6.701005250215530396e-02 5.914066359400749207e-02
-7.623064517974853516e-01 2.164854556322097778e-01 9.244437515735626221e-02
2.327797859907150269e-01 -4.835721105337142944e-02 1.607307791709899902e-01
3.506997525691986084e-01 -7.795795053243637085e-02 5.996866151690483093e-02
-4.127325117588043213e-01 1.296024583280086517e-02 -8.679304271936416626e-02
-3.129133880138397217e-01 1.388023700565099716e-02 9.467536211013793945e-02
-2.067003250122070312e-01 -6.563006341457366943e-02 6.882358342409133911e-02
-4.873898625373840332e-01 -4.736822098493576050e-02 -1.813864894211292267e-02
6.296412944793701172e-01 6.464079022407531738e-02 -3.602778539061546326e-03
-9.753067977726459503e-03 6.112182140350341797e-02 -2.050762809813022614e-02
6.377728283405303955e-02 -5.836213007569313049e-02 2.199322581291198730e-01
3.384868800640106201e-01 5.629186332225799561e-02 -3.246752545237541199e-02
-2.116096951067447662e-02 -6.043211370706558228e-02 -4.008322954177856445e-01
-3.732418715953826904e-01 -7.595697790384292603e-02 1.089180004782974720e-03
1.882292032241821289e-01 9.602273814380168915e-03 7.537852972745895386e-02
-2.472259551286697388e-01 1.151125784963369370e-02 9.876932203769683838e-02
-3.360386192798614502e-02 -5.401516705751419067e-02 -4.073412120342254639e-01
8.439771831035614014e-03 3.867401927709579468e-02 -5.505332723259925842e-02
4.661943390965461731e-02 -6.434207409620285034e-02 7.241155207157135010e-02
1.333872880786657333e-02 -8.308691531419754028e-02 -6.521923840045928955e-02
2.499962784349918365e-02 -5.219818279147148132e-02 3.497891128063201904e-01
1.799032688140869141e-01 -5.005920305848121643e-02 -8.010010421276092529e-02
9.261903166770935059e-02 -6.137510016560554504e-02 9.955132007598876953e-02
4.891355633735656738e-01 5.071316845715045929e-03 7.572352141141891479e-02
8.167446255683898926e-01 -1.399424076080322266e-01 1.868402585387229919e-02
1.012439504265785217e-01 -6.489406526088714600e-02 -3.462077975273132324e-01
-4.783739149570465088e-01 7.177072763442993164e-02 -1.742565631866455078e-02
-2.341160923242568970e-01 8.310963213443756104e-02 3.991860721725970507e-04
-1.549278050661087036e-01 4.269898310303688049e-02 -5.072936415672302246e-02
6.966523081064224243e-02 -9.511579573154449463e-02 -5.595031753182411194e-02
1.330756694078445435e-01 -1.018547415733337402e-01 1.153291761875152588e-01
-1.087211966514587402e-01 -7.648596912622451782e-02 7.192856073379516602e-02
-9.482932090759277344e-02 6.300780177116394043e-02 2.031701244413852692e-02
8.735311031341552734e-01 -5.148519203066825867e-02 -4.879738017916679382e-02
-7.124888896942138672e-01 1.810197681188583374e-01 7.828121073544025421e-03
5.326511263847351074e-01 -2.179244905710220337e-02 7.662051916122436523e-02
-3.159493505954742432e-01 8.356962352991104126e-02 2.790694497525691986e-02
3.163840770721435547e-01 -7.786595076322555542e-02 -7.384415715932846069e-02
1.445525735616683960e-01 -7.013802230358123779e-02 -2.467566281557083130e-01
-3.360386192798614502e-02 -5.401516705751419067e-02 -4.073412120342254639e-01
5.053963661193847656e-01 -1.884847506880760193e-02 -7.117618620395660400e-02
3.429028391838073730e-01 4.647095128893852234e-02 -4.665840044617652893e-02
7.457442879676818848e-01 4.634318407624959946e-03 -6.788721680641174316e-02
-4.128244817256927490e-01 -1.414626254700124264e-03 5.621968954801559448e-02
2.432677000761032104e-01 -7.397898286581039429e-02 1.603857725858688354e-01
-5.820110440254211426e-01 -1.054554805159568787e-02 -2.062262967228889465e-02
3.745505511760711670e-01 6.454879045486450195e-02 9.806103073060512543e-03
-3.487700819969177246e-01 -3.967605065554380417e-03 -5.923928692936897278e-02
1.513271126896142960e-02 -6.767704337835311890e-02 -2.228138446807861328e-01
-6.932840943336486816e-01 2.232244014739990234e-01 -3.899946808815002441e-02
5.900356173515319824e-01 -3.943329304456710815e-02 7.422853261232376099e-02
-1.805035471916198730e-01 4.699994251132011414e-02 5.155073106288909912e-02
5.047523975372314453e-01 4.366497322916984558e-02 -4.967137426137924194e-02
6.027775406837463379e-01 1.483346684835851192e-03 -7.055519521236419678e-02
2.504206299781799316e-01 -6.825204193592071533e-02 1.663427203893661499e-01
-3.360386192798614502e-02 -5.401516705751419067e-02 -4.073412120342254639e-01
6.332063078880310059e-01 -4.704622551798820496e-02 -6.666821986436843872e-02
5.153553485870361328e-01 -9.161982685327529907e-02 1.953501626849174500e-02
-4.213344156742095947e-01 7.632468640804290771e-02 2.542296610772609711e-02
-2.121282815933227539e-01 2.312615513801574707e-02 -6.498923897743225098e-02
5.558935925364494324e-02 -5.771813541650772095e-02 -4.385749697685241699e-01
6.481227278709411621e-02 -6.963202357292175293e-02 -2.053799927234649658e-01
-4.735669791698455811e-01 1.037404462695121765e-01 -1.363069098442792892e-02
6.504227221012115479e-02 3.464905545115470886e-02 6.374062597751617432e-02
3.057819325476884842e-03 -6.698705255985260010e-02 -2.323357611894607544e-01
1.445525735616683960e-01 -7.013802230358123779e-02 -2.467566281557083130e-01
1.543274819850921631e-01 6.098382547497749329e-02 -2.089862711727619171e-02
-1.549278050661087036e-01 4.269898310303688049e-02 -5.072936415672302246e-02
8.155613392591476440e-02 -6.997703015804290771e-02 -2.081859856843948364e-01
1.467271614819765091e-02 -6.229509040713310242e-02 3.799418210983276367e-01
5.816533416509628296e-02 -6.726305186748504639e-02 -2.650874555110931396e-01
1.144228428602218628e-01 -7.578575983643531799e-03 7.662051916122436523e-02
-2.251795679330825806e-02 -5.668314546346664429e-02 -5.072063207626342773e-01
-1.816535592079162598e-01 -9.573679417371749878e-02 4.223581403493881226e-02
2.858863174915313721e-01 -2.733539789915084839e-02 -7.099218666553497314e-02
-7.354657053947448730e-01 2.214074134826660156e-01 9.166238456964492798e-02
3.171556815505027771e-02 -6.077710539102554321e-02 -4.306860268115997314e-01
5.575599074363708496e-01 6.431879103183746338e-02 -6.431754212826490402e-03
-1.862304955720901489e-01 6.454879045486450195e-02 9.783103130757808685e-03
7.220544219017028809e-01 5.999483168125152588e-02 -1.979463361203670502e-02
1.269117295742034912e-01 -7.167901098728179932e-02 -1.950990855693817139e-01
2.231428623199462891e-01 -4.391825571656227112e-02 -6.795620918273925781e-02
-4.487501978874206543e-01 5.511886999011039734e-02 1.955801807343959808e-02
5.436220765113830566e-01 -4.435525089502334595e-02 7.333154231309890747e-02
-3.714478611946105957e-01 1.263579470105469227e-04 -6.535723805427551270e-02
-4.631710350513458252e-01 5.817784741520881653e-02 2.372098155319690704e-02
-3.203653097152709961e-01 1.848019659519195557e-02 8.828141540288925171e-02
5.210362672805786133e-01 6.388179957866668701e-02 1.576304994523525238e-02
3.227550089359283447e-01 5.364688485860824585e-02 -3.704448416829109192e-02
7.647316902875900269e-02 -5.932812392711639404e-02 -1.668553352355957031e-01
-3.431121408939361572e-01 9.161955118179321289e-02 2.130600251257419586e-02
-2.164396084845066071e-02 -6.091510504484176636e-02 -3.866644203662872314e-01
8.574208617210388184e-02 1.463923044502735138e-02 -6.878420710563659668e-02
-2.432470023632049561e-01 1.058564335107803345e-01 -2.294560708105564117e-02
-3.877880796790122986e-02 6.344480067491531372e-02 1.902902126312255859e-02
5.218538641929626465e-02 -5.452115833759307861e-02 -2.813943326473236084e-01
-6.184427142143249512e-01 2.227414101362228394e-01 2.914893440902233124e-02
1.414372213184833527e-02 -9.005583822727203369e-02 6.574160605669021606e-02
-3.955286741256713867e-01 3.510905057191848755e-02 -3.522749990224838257e-02
8.751410841941833496e-01 -8.107569999992847443e-03 5.734668299555778503e-02
2.767324149608612061e-01 2.542613446712493896e-02 -6.365524977445602417e-02
-6.984130144119262695e-01 2.156574577093124390e-01 9.899932146072387695e-02
-6.930540800094604492e-01 1.484520435333251953e-01 6.494132336229085922e-03
9.498444199562072754e-01 -6.744705140590667725e-02 1.155408751219511032e-02
4.103048518300056458e-02 -5.261217802762985229e-02 -3.171590268611907959e-01
-3.910667300224304199e-01 4.801193624734878540e-02 2.790694497525691986e-02
-5.793764442205429077e-02 -5.091019347310066223e-02 -4.996164143085479736e-01
-4.269464015960693359e-01 2.413588663330301642e-04 8.800541609525680542e-02
1.604914367198944092e-01 -5.065719410777091980e-02 1.226661130785942078e-01
-6.614063382148742676e-01 1.061554253101348877e-01 5.758139304816722870e-03
-9.591031074523925781e-02 -5.557915195822715759e-02 -4.785026311874389648e-01
8.654581904411315918e-01 2.480514161288738251e-02 -3.978145867586135864e-02
-4.051885902881622314e-01 -1.829648017883300781e-02 -9.895993769168853760e-02
5.678178668022155762e-01 6.434179097414016724e-02 -6.178755313158035278e-03
-1.393902674317359924e-02 -1.022227406501770020e-01 7.552123162895441055e-03
8.975889086723327637e-01 -1.348952297121286392e-02 -4.587640613317489624e-02
2.412563562393188477e-02 -6.719405204057693481e-02 2.468190044164657593e-01
-1.036842390894889832e-01 -5.304917693138122559e-02 5.791661143302917480e-01
-5.577462315559387207e-01 5.268089473247528076e-02 -7.857741788029670715e-03
2.049730271100997925e-01 -1.006817519664764404e-01 2.268598973751068115e-02
