3.829070329666137695e-01 -6.361351814121007919e-03 -8.267916738986968994e-02
3.368680477142333984e-01 7.415799051523208618e-02 3.320024907588958740e-02
-1.147244796156883240e-01 -5.767868086695671082e-02 -6.432843804359436035e-01
3.243563771247863770e-01 -1.107798889279365540e-01 -5.507682450115680695e-03
-3.240992128849029541e-01 6.176851689815521240e-02 3.178291395306587219e-02
-6.350089311599731445e-01 2.483192533254623413e-01 1.721856370568275452e-02
4.677848517894744873e-02 2.814344689249992371e-02 -7.754743844270706177e-02
1.561577022075653076e-01 -8.148014545440673828e-02 -1.793023794889450073e-01
1.080747880041599274e-02 -6.491198390722274780e-02 -2.142959237098693848e-01
9.413705021142959595e-02 -1.280567348003387451e-01 -1.273496896028518677e-01
-5.541631579399108887e-02 -6.588946282863616943e-02 3.278594911098480225e-01
8.321379870176315308e-02 -7.478446513414382935e-02 3.067216277122497559e-01
4.092743396759033203e-01 7.249628752470016479e-02 3.818536177277565002e-02
-1.328321844339370728e-01 -5.679896101355552673e-02 -5.275515913963317871e-01
-9.991577267646789551e-02 -6.420331448316574097e-02 -4.708825945854187012e-01
1.059644669294357300e-01 -1.421812176704406738e-01 -1.641759872436523438e-01
2.800279855728149414e-01 -1.111708804965019226e-01 1.127869036281481385e-04
-6.350089311599731445e-01 2.483192533254623413e-01 1.721856370568275452e-02
6.301587820053100586e-01 5.844511091709136963e-02 5.968976765871047974e-02
-6.492224335670471191e-02 -6.305477768182754517e-02 5.317847728729248047e-01
9.120462834835052490e-02 -7.986731082201004028e-02 1.814095973968505859e-01
1.830626726150512695e-01 -5.034763365983963013e-02 2.084856033325195312e-01
-1.329543590545654297e-01 -7.463783770799636841e-02 -5.014286041259765625e-01
9.261376261711120605e-01 -5.528387799859046936e-02 -3.461194038391113281e-02
4.861770272254943848e-01 3.496132045984268188e-02 -7.358867675065994263e-02
1.769866421818733215e-02 -7.346487045288085938e-02 -2.774519287049770355e-02
2.925396263599395752e-01 6.922174990177154541e-02 4.434343799948692322e-02
6.340442895889282227e-01 4.793727397918701172e-02 7.100401818752288818e-02
-1.380860954523086548e-01 1.496677845716476440e-01 1.044956408441066742e-02
6.868766546249389648e-01 -5.232702195644378662e-02 -7.454171031713485718e-02
8.154631853103637695e-01 -8.807809650897979736e-02 -3.664019703865051270e-02
5.846803542226552963e-03 -8.091810345649719238e-02 1.097608283162117004e-01
6.543267965316772461e-01 4.422287642955780029e-02 7.339882105588912964e-02
-1.549963802099227905e-01 8.041381835937500000e-02 1.548354979604482651e-02
-3.561374265700578690e-03 -7.253627479076385498e-02 3.070393204689025879e-01
-2.470987588167190552e-01 -1.818876899778842926e-02 -9.501976519823074341e-02
2.087545022368431091e-02 -8.013612031936645508e-02 -7.571467757225036621e-02
-1.331166364252567291e-02 -6.102652847766876221e-02 3.199663758277893066e-01
6.669117808341979980e-01 4.004418104887008667e-02 7.506053149700164795e-02
7.414441108703613281e-01 -7.676384598016738892e-02 6.012962758541107178e-02
-7.804482430219650269e-02 -5.342667922377586365e-02 6.389647126197814941e-01
7.852348685264587402e-01 -1.363408267498016357e-01 -5.470075411722064018e-04
-2.343183159828186035e-01 9.622444212436676025e-02 3.109868243336677551e-02
2.836201786994934082e-01 -4.582681879401206970e-02 -9.417575784027576447e-03
6.708216667175292969e-01 5.675897002220153809e-02 6.012962758541107178e-02
8.335464596748352051e-01 5.981357395648956299e-02 -1.344965212047100067e-02
-3.223641812801361084e-01 9.302655234932899475e-03 1.491041183471679688e-01
-3.237239271402359009e-02 -8.265312761068344116e-02 1.446566134691238403e-01
8.059905469417572021e-02 -7.351374626159667969e-02 3.414707779884338379e-01
4.380609393119812012e-01 6.430994719266891479e-02 -4.763676971197128296e-02
-3.305662423372268677e-02 -5.897383391857147217e-02 5.726187229156494141e-01
-7.822897434234619141e-01 2.580206692218780518e-01 1.639128327369689941e-01
-7.741033434867858887e-01 2.555769681930541992e-01 2.738428488373756409e-02
-1.796286851167678833e-01 8.393272012472152710e-02 -1.806821115314960480e-02
-6.100833415985107422e-01 2.403772771358489990e-01 1.721856370568275452e-02
3.769444227218627930e-01 -1.070410609245300293e-01 -1.508691906929016113e-02
4.125977754592895508e-01 -3.050493262708187103e-02 -8.175057172775268555e-02
8.623086214065551758e-01 1.968830451369285583e-02 -5.100905522704124451e-02
-4.023703634738922119e-01 -5.540605634450912476e-02 3.388448059558868408e-02
-4.150286614894866943e-01 5.517057701945304871e-02 8.690113201737403870e-03
6.373764574527740479e-02 -1.234381720423698425e-01 1.616157740354537964e-01
-2.297730594873428345e-01 1.770892366766929626e-02 8.603266626596450806e-02
-6.924755871295928955e-02 -5.484401062130928040e-02 4.718412458896636963e-01
3.524430468678474426e-02 -7.893873006105422974e-02 -1.613168716430664062e-01
1.062821596860885620e-01 7.085901498794555664e-02 4.150876775383949280e-02
1.669099032878875732e-01 -8.042937517166137695e-02 2.183825075626373291e-01
-1.858600825071334839e-01 3.989756107330322266e-02 -1.292068809270858765e-01
3.051001727581024170e-01 8.009613305330276489e-02 6.748337764292955399e-04
2.601119875907897949e-01 -9.819493442773818970e-02 7.159049808979034424e-02
-1.601281166076660156e-01 1.147231161594390869e-01 2.582032792270183563e-02
-3.918625116348266602e-01 7.735920697450637817e-02 -2.278451807796955109e-02
-3.798640370368957520e-01 1.235692501068115234e-01 2.520940825343132019e-02
8.563216328620910645e-01 -4.210908431559801102e-03 6.621439754962921143e-02
-6.775045990943908691e-01 2.014249712228775024e-01 -4.554646555334329605e-03
3.157790601253509521e-01 -4.308656323701143265e-03 -8.267916738986968994e-02
-1.982251107692718506e-01 3.628090769052505493e-02 -1.053565442562103271e-01
6.600939035415649414e-01 4.809613456018269062e-04 -8.219043165445327759e-02
2.266335189342498779e-01 -1.452324725687503815e-02 8.788986504077911377e-02
7.351237535476684570e-02 -1.004675701260566711e-01 -6.906786561012268066e-02
5.528249964118003845e-02 -8.431483060121536255e-02 -6.498691439628601074e-02
8.712368458509445190e-02 -8.238431811332702637e-02 -1.183569356799125671e-01
-4.107189923524856567e-02 -7.009259611368179321e-02 4.071814119815826416e-01
-6.021658778190612793e-01 -7.897541509009897709e-04 6.075371988117694855e-03
-9.072751551866531372e-02 -6.755116581916809082e-02 3.909064531326293945e-01
4.596630930900573730e-01 5.978913605213165283e-02 -5.303731188178062439e-02
-1.064403951168060303e-01 -5.894939973950386047e-02 -6.133248805999755859e-01
-1.172659173607826233e-01 3.239545598626136780e-02 8.029001206159591675e-02
4.657478332519531250e-01 2.276734635233879089e-02 8.488413691520690918e-02
-3.240992128849029541e-01 6.176851689815521240e-02 3.178291395306587219e-02
-9.216929972171783447e-02 -5.196046084165573120e-02 -7.854934781789779663e-02
8.534854277968406677e-03 -7.717926800251007080e-02 -1.876597702503204346e-01
1.593833863735198975e-01 -8.578102290630340576e-02 -9.330919384956359863e-02
-3.246612548828125000e-01 5.270579364150762558e-03 -7.351537048816680908e-02
2.502971328794956207e-02 -6.432550400495529175e-02 -4.734240472316741943e-01
-1.008932441473007202e-01 -6.080659851431846619e-02 4.454983770847320557e-01
-2.098326086997985840e-01 6.076992489397525787e-03 -1.501736789941787720e-01
-1.317569613456726074e-01 6.514079868793487549e-02 -4.621943458914756775e-02
9.023590013384819031e-03 -7.067907601594924927e-02 -1.223890185356140137e-01
-1.075889393687248230e-01 -7.099675387144088745e-02 4.111646115779876709e-01
7.905865311622619629e-01 7.100563496351242065e-02 5.782130174338817596e-03
3.695488348603248596e-02 -5.428196489810943604e-02 -4.492315649986267090e-01
-1.052918732166290283e-01 -7.309831678867340088e-02 -7.534813135862350464e-02
1.888541877269744873e-01 -1.742791850119829178e-03 -8.263030648231506348e-02
-3.855333924293518066e-01 6.049780175089836121e-02 -2.359093166887760162e-02
1.078461110591888428e-01 -6.056222692131996155e-02 -3.579844534397125244e-01
3.834778070449829102e-02 -7.048358023166656494e-02 1.597228646278381348e-02
-2.925512492656707764e-01 3.498575836420059204e-02 1.231277734041213989e-01
1.228258907794952393e-01 -6.439881026744842529e-02 7.843281328678131104e-02
-1.313415318727493286e-01 -5.222926661372184753e-02 6.403331756591796875e-01
-2.616543881595134735e-02 -7.788793742656707764e-02 1.514744907617568970e-01
-6.279623508453369141e-02 -9.017965942621231079e-02 -7.246458530426025391e-02
2.582792341709136963e-01 -4.778176918625831604e-02 8.358898758888244629e-02
-3.102836199104785919e-02 -5.181384086608886719e-02 -5.204893350601196289e-01
-1.593949943780899048e-01 -1.745567098259925842e-02 1.404534727334976196e-01
-1.655303407460451126e-03 -8.710062503814697266e-02 2.272286564111709595e-01
3.367458581924438477e-01 -5.780086666345596313e-02 4.047115799039602280e-03
1.461630612611770630e-01 -5.459964647889137268e-02 -7.036301493644714355e-02
7.176670432090759277e-01 -5.838735401630401611e-02 -6.994759291410446167e-02
1.480935662984848022e-01 -6.373900920152664185e-02 -2.982852756977081299e-01
2.587435245513916016e-01 7.635730504989624023e-02 2.667561732232570648e-02
1.315253973007202148e-01 -5.088524892926216125e-02 2.488063573837280273e-01
-1.217622831463813782e-01 -6.161301583051681519e-02 5.396534204483032227e-01
-8.518036454916000366e-02 -5.437971651554107666e-02 -5.048009157180786133e-01
-2.309949100017547607e-01 1.167024970054626465e-01 2.665118128061294556e-02
-2.508375942707061768e-01 1.214064890518784523e-03 -1.487563550472259521e-01
5.261888727545738220e-02 -1.831095665693283081e-02 8.788986504077911377e-02
-1.316836327314376831e-01 -5.975581705570220947e-02 -4.946351945400238037e-01
4.392583370208740234e-01 -9.606893360614776611e-02 -3.004225529730319977e-02
-5.453659594058990479e-02 2.315833419561386108e-02 8.478638529777526855e-02
2.058221027255058289e-02 -7.256070524454116821e-02 -3.187633752822875977e-01
1.947923451662063599e-01 -8.013612031936645508e-02 -2.024440616369247437e-01
-2.254477441310882568e-01 6.538517028093338013e-02 3.860078752040863037e-02
-1.645267456769943237e-01 -5.863171815872192383e-02 -6.046497821807861328e-01
-7.786730527877807617e-01 2.578007280826568604e-01 1.261823773384094238e-01
-6.470230966806411743e-02 -3.712731227278709412e-02 8.573942631483078003e-02
-3.471675515174865723e-01 1.451714038848876953e-01 1.990661583840847015e-02
3.436370193958282471e-01 -9.680203348398208618e-02 6.548129767179489136e-02
2.863326966762542725e-01 -4.054846987128257751e-02 8.512850105762481689e-02
4.350395128130912781e-02 -9.071727097034454346e-02 7.963022589683532715e-02
-5.631402134895324707e-01 1.632790863513946533e-01 -9.613069705665111542e-03
1.647839099168777466e-01 -4.954121634364128113e-02 1.673584133386611938e-01
-7.310857623815536499e-02 -6.469205021858215332e-02 -4.737172722816467285e-01
-5.517282485961914062e-01 1.396242529153823853e-01 -9.099896997213363647e-03
3.144838809967041016e-01 -1.107554584741592407e-01 -1.735954359173774719e-02
-5.631402134895324707e-01 1.632790863513946533e-01 -9.613069705665111542e-03
4.906000792980194092e-01 6.887963414192199707e-02 -3.971923887729644775e-02
-1.323835365474224091e-02 -6.623157858848571777e-02 4.799787104129791260e-01
1.571352034807205200e-01 -8.719837665557861328e-02 -1.606439240276813507e-02
-5.249210596084594727e-01 4.600676521658897400e-02 -8.317918516695499420e-03
8.548641949892044067e-02 -5.428196489810943604e-02 -2.336010187864303589e-01
6.351771205663681030e-02 -6.056222692131996155e-02 -1.652267724275588989e-01
-3.723619580268859863e-01 7.107894867658615112e-02 5.268957000225782394e-03
2.215262353420257568e-01 -6.310366094112396240e-02 -2.062317579984664917e-01
2.365793138742446899e-01 -8.707618713378906250e-02 1.141838878393173218e-01
-3.393477797508239746e-01 -6.898959167301654816e-03 -1.322859227657318115e-01
1.808633506298065186e-01 -6.327471882104873657e-02 2.592653334140777588e-01
-6.777489781379699707e-01 2.626881003379821777e-01 6.445495039224624634e-02
6.204818487167358398e-01 2.606966532766819000e-03 -8.226374536752700806e-02
9.795076251029968262e-01 -2.253853343427181244e-02 -1.933892630040645599e-02
-9.556601196527481079e-02 -5.188715085387229919e-02 -6.064092516899108887e-01
-5.517282485961914062e-01 1.396242529153823853e-01 -9.099896997213363647e-03
1.320141255855560303e-01 -8.641639351844787598e-02 7.354544848203659058e-02
-1.858600825071334839e-01 3.989756107330322266e-02 -1.292068809270858765e-01
2.617824263870716095e-02 -3.143353760242462158e-02 8.679020404815673828e-02
6.274707317352294922e-01 -1.259274315088987350e-02 8.788986504077911377e-02
-2.140846103429794312e-01 -7.698378711938858032e-02 5.387380346655845642e-02
1.847243756055831909e-01 -8.798034489154815674e-02 -6.007511541247367859e-02
-2.459746599197387695e-01 1.435341238975524902e-01 -2.073182351887226105e-02
-2.926891483366489410e-02 -6.891962885856628418e-02 -4.033881127834320068e-01
3.158279061317443848e-01 -7.278064638376235962e-02 -9.668147563934326172e-02
-4.430820941925048828e-01 1.918213069438934326e-01 1.269775070250034332e-02
-6.704912781715393066e-01 2.193127274513244629e-01 1.186689920723438263e-02
-7.774268388748168945e-01 2.539885938167572021e-01 2.061152160167694092e-01
1.674475222826004028e-01 -5.191159620881080627e-02 6.770504266023635864e-02
-6.303415298461914062e-01 -2.339381724596023560e-02 -3.870415501296520233e-03
1.060133576393127441e-01 -5.960918962955474854e-02 7.914147526025772095e-02
-5.634491890668869019e-02 -5.269357189536094666e-02 -5.055828690528869629e-01
-7.221995592117309570e-01 2.537930905818939209e-01 -1.509801000356674194e-01
7.852837443351745605e-01 -1.424011588096618652e-01 -1.572227664291858673e-02
8.892379999160766602e-01 -7.058133184909820557e-02 -3.766654431819915771e-02
-2.974141836166381836e-01 -7.289951201528310776e-03 -6.777271628379821777e-02
4.551649559289216995e-03 -7.454009354114532471e-02 2.578235566616058350e-01
-8.438949584960937500e-01 2.437495738267898560e-01 3.069642698392271996e-03
6.510610878467559814e-02 -5.306011810898780823e-02 -3.920494019985198975e-01
-2.381793260574340820e-01 2.662836387753486633e-02 1.016478016972541809e-01
7.304230332374572754e-01 7.513546198606491089e-02 1.208683103322982788e-02
-2.562381625175476074e-01 6.624045968055725098e-02 -2.772075682878494263e-02
3.192089498043060303e-02 -6.212618574500083923e-02 2.175761014223098755e-01
-5.921711921691894531e-01 2.563101053237915039e-01 3.058550879359245300e-02
1.593833863735198975e-01 -8.578102290630340576e-02 -9.330919384956359863e-02
5.334867238998413086e-01 -1.018604636192321777e-01 1.841596886515617371e-02
2.855262756347656250e-01 2.924310415983200073e-02 -7.691208273172378540e-02
-2.343916296958923340e-01 3.635422140359878540e-02 -1.293290704488754272e-01
-2.844626903533935547e-01 1.299261581152677536e-02 -1.127364709973335266e-01
1.041649188846349716e-02 -7.502882927656173706e-02 -2.442065924406051636e-01
5.174561738967895508e-01 7.386474311351776123e-02 3.410441055893898010e-02
-1.321723759174346924e-01 -6.114871427416801453e-02 4.857213497161865234e-01
1.289106607437133789e-01 -8.453474938869476318e-02 1.049956455826759338e-01
-3.368796706199645996e-01 8.478800952434539795e-02 1.456812256947159767e-03
-7.042052596807479858e-02 -6.420331448316574097e-02 4.950317740440368652e-01
6.209705471992492676e-01 -9.988106787204742432e-02 -2.004759386181831360e-02
6.801408529281616211e-02 -5.459964647889137268e-02 4.053730964660644531e-01
6.209705471992492676e-01 -9.988106787204742432e-02 -2.004759386181831360e-02
-2.389613091945648193e-01 -5.467295646667480469e-02 -7.287644147872924805e-01
-1.064403951168060303e-01 -5.894939973950386047e-02 -6.133248805999755859e-01
-4.709156453609466553e-01 -3.583215922117233276e-02 3.547287359833717346e-02
8.433789014816284180e-02 -7.627510279417037964e-02 -2.616056203842163086e-01
9.005610644817352295e-02 -1.326508522033691406e-01 -1.383951306343078613e-01
1.984089910984039307e-01 -8.837133646011352539e-02 5.966532975435256958e-02
7.265376448631286621e-01 -1.457212399691343307e-02 -7.911139726638793945e-02
-2.897567488253116608e-02 -6.931061297655105591e-02 3.801298141479492188e-01
3.723747134208679199e-01 5.020990222692489624e-02 6.853589415550231934e-02
6.500835716724395752e-02 7.430461049079895020e-02 -2.754969894886016846e-02
-2.048474997282028198e-01 -2.026590704917907715e-02 1.471491605043411255e-01
2.828871011734008789e-01 -6.251718103885650635e-02 7.515827566385269165e-02
-6.278489828109741211e-01 1.561435461044311523e-01 -4.456899128854274750e-03
1.596032977104187012e-01 -8.727167546749114990e-02 6.736292690038681030e-02
-2.215779945254325867e-02 -5.679896101355552673e-02 8.317355811595916748e-02
3.243406862020492554e-02 -4.042628407478332520e-02 -7.994224876165390015e-02
9.494347125291824341e-02 7.850774377584457397e-02 1.880695857107639313e-02
2.003639340400695801e-01 -4.937016218900680542e-02 -1.746838241815567017e-01
9.056927263736724854e-02 -7.214528322219848633e-02 -3.521685004234313965e-01
-2.938708662986755371e-01 2.894986234605312347e-02 -9.983382374048233032e-02
-4.451749101281166077e-02 -6.151526421308517456e-02 -5.674569606781005859e-01
-2.340494990348815918e-01 1.746455579996109009e-02 -7.312437891960144043e-02
-1.950972080230712891e-01 1.504986286163330078e-01 3.973804879933595657e-03
-7.930907607078552246e-01 2.566522061824798584e-01 1.025030836462974548e-01
7.210392951965332031e-01 4.959897696971893311e-02 6.337972730398178101e-02
8.215968608856201172e-01 3.938438743352890015e-02 5.641523003578186035e-02
8.066415190696716309e-01 5.766313150525093079e-02 -3.441644832491874695e-02
-4.921268224716186523e-01 8.183114975690841675e-02 2.000436373054981232e-02
-4.397987946867942810e-02 -6.894405931234359741e-02 3.793722987174987793e-01
9.592251181602478027e-01 -3.208998823538422585e-03 -1.806821115314960480e-02
8.318935334682464600e-02 -1.345324963331222534e-01 1.337577849626541138e-01
-1.096416339278221130e-01 -5.838735401630401611e-02 -6.271316409111022949e-01
6.943142414093017578e-02 -6.596276909112930298e-02 4.915749281644821167e-02
1.510015428066253662e-01 -4.675542190670967102e-02 -7.879371941089630127e-02
9.208435565233230591e-02 -7.840111851692199707e-02 -2.129763215780258179e-01
6.643947958946228027e-01 7.894760370254516602e-02 1.025406923145055771e-02
1.735654845833778381e-02 -8.011168241500854492e-02 1.310452967882156372e-01
-2.520594298839569092e-01 1.094691976904869080e-01 2.259466610848903656e-02
2.228213697671890259e-01 -3.990978933870792389e-03 8.788986504077911377e-02
-1.544587761163711548e-01 -5.225371196866035461e-02 -6.695295572280883789e-01
-2.508375942707061768e-01 1.214064890518784523e-03 -1.487563550472259521e-01
-1.536767929792404175e-01 -5.731213092803955078e-02 -6.406940817832946777e-01
-2.348070591688156128e-01 -4.601900465786457062e-03 -1.486097276210784912e-01
-8.857709169387817383e-02 -6.549847126007080078e-02 -3.732574582099914551e-01
8.015586733818054199e-01 -9.949009865522384644e-02 4.340357612818479538e-03
-2.938708662986755371e-01 2.894986234605312347e-02 -9.983382374048233032e-02
-9.798526018857955933e-02 -5.445302650332450867e-02 -5.186077356338500977e-01
-3.110010623931884766e-01 -1.767560094594955444e-02 1.427505314350128174e-01
-3.363909125328063965e-01 -1.958167552947998047e-02 -1.276918053627014160e-01
-2.546986341476440430e-01 -9.118156135082244873e-02 1.277106162160634995e-02
4.576837122440338135e-01 -6.972603499889373779e-02 -6.569558382034301758e-02
5.347085595130920410e-01 -9.885472804307937622e-02 2.877718396484851837e-02
-1.510376185178756714e-01 -6.141752004623413086e-02 -5.344427824020385742e-01
-1.094129495322704315e-02 -7.512658089399337769e-02 -1.010556668043136597e-01
8.823468089103698730e-01 4.595789313316345215e-02 -2.697448013350367546e-03
3.147526979446411133e-01 -5.064087361097335815e-02 4.810670763254165649e-02
9.023590013384819031e-03 -7.067907601594924927e-02 -1.223890185356140137e-01
2.042738348245620728e-01 6.839089840650558472e-02 -4.057452827692031860e-02
-2.136691957712173462e-01 2.164325118064880371e-02 -9.304039180278778076e-02
4.787814244627952576e-02 -8.050267398357391357e-02 1.394027024507522583e-01
-5.259229540824890137e-01 2.496877163648605347e-01 1.052287407219409943e-02
4.660742729902267456e-02 -5.589479953050613403e-02 2.896891832351684570e-01
8.117977380752563477e-01 -1.009318605065345764e-01 1.316205039620399475e-02
1.294727027416229248e-01 7.464672625064849854e-02 3.175847604870796204e-02
-8.076306581497192383e-01 2.564811408519744873e-01 -1.604615896940231323e-01
3.436370193958282471e-01 -9.680203348398208618e-02 6.548129767179489136e-02
2.180317491292953491e-01 -5.733656510710716248e-02 -7.290444523096084595e-02
1.211641803383827209e-01 -5.609028786420822144e-02 3.277128338813781738e-01
4.983308538794517517e-02 -7.754582911729812622e-02 -2.060607075691223145e-01
5.462270975112915039e-02 -5.323118343949317932e-02 -3.223067224025726318e-01
-4.869619011878967285e-02 -6.557177752256393433e-02 -4.670948982238769531e-01
2.820562422275543213e-01 -4.685316607356071472e-02 -7.972232252359390259e-02
8.401688933372497559e-01 -9.279439598321914673e-02 -2.434847317636013031e-02
3.573304042220115662e-02 -7.133886963129043579e-02 -3.649978339672088623e-01
1.039850935339927673e-01 -1.417169272899627686e-01 1.325603872537612915e-01
-1.165816858410835266e-01 -6.127090007066726685e-02 5.495014786720275879e-01
2.940058410167694092e-01 9.327093139290809631e-03 8.696126937866210938e-02
5.108582377433776855e-01 -8.172452449798583984e-02 -5.130229517817497253e-02
-1.556806117296218872e-01 -5.540605634450912476e-02 6.950716376304626465e-01
5.828491449356079102e-01 7.132332026958465576e-02 -3.549166768789291382e-02
-2.687410265207290649e-02 -9.152368456125259399e-02 -7.671658694744110107e-02
-6.363285779953002930e-01 2.636899948120117188e-01 4.566302523016929626e-02
-2.069979459047317505e-01 4.928463138639926910e-03 -8.930155634880065918e-02
1.278842985630035400e-01 -5.056756362318992615e-02 -7.676546275615692139e-02
5.821492150425910950e-02 -6.256604194641113281e-02 4.367011189460754395e-01
-2.263519018888473511e-01 -1.122427918016910553e-02 1.522320210933685303e-01
6.409354209899902344e-01 -9.184136241674423218e-02 4.439231380820274353e-02
-2.124717980623245239e-01 2.069354522973299026e-03 1.126932427287101746e-01
-1.516485214233398438e-01 1.007696911692619324e-01 2.134838886559009552e-02
-4.965009987354278564e-01 1.176799833774566650e-01 1.934456825256347656e-02
1.112672686576843262e-01 -7.649503648281097412e-02 2.788880765438079834e-01
1.062821596860885620e-01 7.085901498794555664e-02 4.150876775383949280e-02
1.636353880167007446e-01 5.512170121073722839e-02 -5.804685875773429871e-02
6.708216667175292969e-01 1.189626753330230713e-03 8.679020404815673828e-02
5.261888727545738220e-02 -1.831095665693283081e-02 8.788986504077911377e-02
-8.089503049850463867e-01 2.572875618934631348e-01 -2.456972301006317139e-01
-1.352269798517227173e-01 -5.816742405295372009e-02 6.270883679389953613e-01
1.078461110591888428e-01 -6.056222692131996155e-02 -3.579844534397125244e-01
8.260287344455718994e-02 -8.507236093282699585e-02 -6.664862483739852905e-02
2.437881678342819214e-01 7.432904839515686035e-02 -2.752526290714740753e-02
-4.639913141727447510e-02 8.009613305330276489e-02 6.015232647769153118e-04
-8.192626237869262695e-01 2.551371157169342041e-01 -1.316016912460327148e-01
-3.019751049578189850e-02 -6.400781869888305664e-02 -5.256699323654174805e-01
3.099386692047119141e-01 8.080811239778995514e-03 8.705901354551315308e-02
-4.547052830457687378e-02 2.899873629212379456e-02 8.226940035820007324e-02
-5.704712867736816406e-01 8.996861428022384644e-02 -6.753961089998483658e-03
7.905865311622619629e-01 7.100563496351242065e-02 5.782130174338817596e-03
8.921215534210205078e-01 -8.397269994020462036e-02 -2.185591869056224823e-02
-5.844491124153137207e-01 1.401896309107542038e-02 -1.344965212047100067e-02
-2.328032255172729492e-01 3.486689878627657890e-03 9.636943787336349487e-02
-6.479604840278625488e-01 2.569209933280944824e-01 -9.719464927911758423e-02
-2.748502604663372040e-02 -8.028274029493331909e-02 -9.929621964693069458e-02
-2.516928911209106445e-01 1.556180766783654690e-03 1.542602777481079102e-01
7.840130329132080078e-01 -1.409349441528320312e-01 1.228232495486736298e-02
-6.539963483810424805e-01 2.539885938167572021e-01 4.642056673765182495e-02
-7.017703652381896973e-01 2.342680841684341431e-01 -6.387409288436174393e-03
8.107469081878662109e-01 -9.912353754043579102e-02 -1.577115058898925781e-02
2.267557084560394287e-01 -4.658436030149459839e-02 4.881537705659866333e-02
-4.461524263024330139e-02 -6.606051325798034668e-02 -4.558295309543609619e-01
7.277594804763793945e-01 6.734011322259902954e-02 3.948051109910011292e-02
-1.124762967228889465e-01 -5.349998921155929565e-02 -5.724909305572509766e-01
8.612177520990371704e-02 -5.376879498362541199e-02 2.554776072502136230e-01
-5.533655285835266113e-01 1.534799188375473022e-01 -9.368701837956905365e-03
7.045777142047882080e-02 -5.660346522927284241e-02 -2.195742726325988770e-01
1.561577022075653076e-01 -8.148014545440673828e-02 -1.793023794889450073e-01
-1.233262494206428528e-01 1.814878731966018677e-02 -8.082196861505508423e-02
1.860282570123672485e-02 -7.334268838167190552e-02 7.119950652122497559e-02
-7.545451074838638306e-02 -6.105096265673637390e-02 5.811716318130493164e-01
8.870630860328674316e-01 4.280554130673408508e-02 1.597228646278381348e-02
8.664873242378234863e-01 2.613962814211845398e-02 -4.492428153753280640e-02
-3.660083711147308350e-01 -1.029567979276180267e-02 1.044091582298278809e-01
2.365793138742446899e-01 -8.707618713378906250e-02 1.141838878393173218e-01
6.038979813456535339e-02 -1.130036562681198120e-01 -1.744412002153694630e-03
-6.677298545837402344e-01 2.631768286228179932e-01 1.902688853442668915e-02
-7.717330455780029297e-01 2.587782144546508789e-01 -2.059873938560485840e-01
1.490710377693176270e-01 -2.143887430429458618e-02 8.788986504077911377e-02
3.281441032886505127e-01 -8.279974758625030518e-02 -6.454705446958541870e-02
-1.324411928653717041e-01 -6.395895034074783325e-02 -4.513575732707977295e-01
-4.246479645371437073e-02 -6.879743933677673340e-02 2.782527506351470947e-01
-3.963589072227478027e-01 1.037998571991920471e-01 9.129975922405719757e-03
8.387358486652374268e-02 -1.011762320995330811e-01 7.361875474452972412e-02
-1.558272391557693481e-01 -1.473985845223069191e-03 1.531117558479309082e-01
-4.630137979984283447e-02 -7.302501052618026733e-02 -2.575979828834533691e-01
-1.024571955204010010e-01 -5.359773337841033936e-02 5.617932081222534180e-01
3.228413164615631104e-01 -8.609871566295623779e-02 4.106890410184860229e-02
-8.821053057909011841e-02 -6.647594273090362549e-02 -4.139936566352844238e-01
2.652035839855670929e-02 -1.123682931065559387e-01 -3.642026335000991821e-02
-5.903384089469909668e-01 -4.232001083437353373e-04 2.335220761597156525e-02
-2.864664793014526367e-01 1.470286101102828979e-01 -5.874235183000564575e-03
-2.370552420616149902e-01 -9.464828297495841980e-03 -9.069445729255676270e-02
-6.302193999290466309e-01 2.639343738555908203e-01 -3.175283223390579224e-02
5.821492150425910950e-02 -6.256604194641113281e-02 4.367011189460754395e-01
-2.049941122531890869e-01 -5.494176223874092102e-02 6.984928250312805176e-01
1.527941878885030746e-02 -6.149083003401756287e-02 2.711171805858612061e-01
-8.628001809120178223e-02 -6.224837154150009155e-02 -5.341495275497436523e-01
7.897557020187377930e-01 -1.391510516405105591e-01 6.441924255341291428e-03
5.559442043304443359e-01 -7.045583333820104599e-03 8.788986504077911377e-02
2.135353833436965942e-01 -7.031252235174179077e-02 -2.119255363941192627e-01
1.613627523183822632e-01 -5.203378200531005859e-02 2.450919598340988159e-01
1.087258309125900269e-01 -7.212084531784057617e-02 3.413974642753601074e-01
-2.048474997282028198e-01 -2.026590704917907715e-02 1.471491605043411255e-01
2.178851366043090820e-01 -4.673098772764205933e-02 1.027230247855186462e-01
8.892379999160766602e-01 -7.058133184909820557e-02 -3.766654431819915771e-02
-1.621965318918228149e-02 -6.562065333127975464e-02 4.945430457592010498e-01
3.801945447921752930e-01 -8.710062503814697266e-02 5.631748586893081665e-02
8.064460754394531250e-01 -1.187951862812042236e-01 2.594078250695019960e-04
1.294727027416229248e-01 7.464672625064849854e-02 3.175847604870796204e-02
1.109495908021926880e-01 -5.381765961647033691e-02 -3.232353031635284424e-01
-6.487669348716735840e-01 2.541107833385467529e-01 -2.075626142323017120e-02
7.683490514755249023e-01 -6.718460470438003540e-02 -6.308084726333618164e-02
9.108645319938659668e-01 6.785662379115819931e-03 -3.866845741868019104e-02
9.975751489400863647e-02 -6.747785210609436035e-02 -7.380861043930053711e-02
-7.545451074838638306e-02 -6.105096265673637390e-02 5.811716318130493164e-01
6.350950598716735840e-01 1.678032428026199341e-02 8.637478202581405640e-02
-5.222818851470947266e-01 -4.049959406256675720e-02 6.564109120517969131e-03
-3.712622821331024170e-01 3.205334022641181946e-02 5.218766257166862488e-02
-2.865799330174922943e-02 -6.442324817180633545e-02 -5.149177312850952148e-01
1.090923920273780823e-01 -1.477039307355880737e-01 -1.450663954019546509e-01
2.336801029741764069e-02 -5.777643248438835144e-02 -2.974788546562194824e-01
-2.496803738176822662e-02 -1.137611940503120422e-01 -1.078603696078062057e-02
-5.541631579399108887e-02 -6.637819856405258179e-02 4.440076947212219238e-01
-6.487669348716735840e-01 2.541107833385467529e-01 -2.075626142323017120e-02
9.208435565233230591e-02 -7.840111851692199707e-02 -2.129763215780258179e-01
-1.475431472063064575e-01 6.795103847980499268e-02 -4.133206978440284729e-02
3.033250197768211365e-02 -5.235145613551139832e-02 3.818648755550384521e-01
3.071039915084838867e-01 -8.881119638681411743e-02 2.200818248093128204e-02
-9.963823482394218445e-03 -1.474317722022533417e-02 -8.267916738986968994e-02
-6.159726977348327637e-01 1.694860458374023438e-01 -6.436281837522983551e-03
4.683381617069244385e-01 7.982733100652694702e-02 -1.817722455598413944e-03
9.931190013885498047e-01 -1.774891093373298645e-02 -5.714442813768982887e-04
-5.603300333023071289e-01 1.871783137321472168e-01 -1.110371574759483337e-02
-2.299685478210449219e-01 -3.145797178149223328e-02 -1.179170757532119751e-01
1.912475214339792728e-03 -1.133702024817466736e-01 2.105514705181121826e-02
2.253628075122833252e-01 -8.512124419212341309e-02 1.429949104785919189e-01
9.457115530967712402e-01 -7.221858948469161987e-02 1.347973011434078217e-02
-5.583174154162406921e-02 -7.043471187353134155e-02 -3.230642378330230713e-01
3.231188654899597168e-02 -6.293260306119918823e-02 -4.666794538497924805e-01
-2.844626903533935547e-01 1.299261581152677536e-02 -1.127364709973335266e-01
5.887471511960029602e-02 -5.689670518040657043e-02 -2.430336177349090576e-01
-1.439509242773056030e-01 -5.252251774072647095e-02 -6.452392935752868652e-01
4.771583713591098785e-03 -8.626977354288101196e-02 1.433370262384414673e-01
-1.039967313408851624e-01 -2.534876018762588501e-02 -8.267916738986968994e-02
8.707480877637863159e-02 1.406783517450094223e-02 8.659471571445465088e-02
2.828871011734008789e-01 -6.251718103885650635e-02 7.515827566385269165e-02
-5.976694822311401367e-01 1.116929501295089722e-01 1.069393195211887360e-02
-2.004733234643936157e-01 2.753586275503039360e-03 -1.009334772825241089e-01
-7.520140614360570908e-03 1.262941164895892143e-03 -8.238592743873596191e-02
9.108645319938659668e-01 6.785662379115819931e-03 -3.866845741868019104e-02
-1.892079412937164307e-01 2.963409386575222015e-02 7.901930063962936401e-02
4.396493434906005859e-01 6.980823725461959839e-02 4.334152862429618835e-02
7.547866106033325195e-01 6.044892966747283936e-02 -4.289602488279342651e-02
1.313787847757339478e-01 -7.713040709495544434e-02 2.765177190303802490e-01
-1.777485013008117676e-03 -6.615825742483139038e-02 -4.843961894512176514e-01
-1.613255292177200317e-01 -2.156105265021324158e-02 -1.170373484492301941e-01
4.768666326999664307e-01 -8.927550166845321655e-02 -4.226066917181015015e-02
-6.197848320007324219e-01 1.949003487825393677e-01 -8.366792462766170502e-03
1.777598708868026733e-01 -8.778485655784606934e-02 -3.006669133901596069e-02
-2.494935691356658936e-01 2.242523059248924255e-02 9.873981773853302002e-02
1.102897971868515015e-01 -1.208723187446594238e-01 1.588055342435836792e-01
-5.798061490058898926e-01 -2.297839149832725525e-02 -1.432937756180763245e-02
-2.970877476036548615e-02 -5.486845225095748901e-02 -4.141647219657897949e-01
-7.845134139060974121e-01 2.573608756065368652e-01 1.179227232933044434e-01
-5.864529609680175781e-01 1.361297816038131714e-01 1.299099437892436981e-02
-1.800441145896911621e-01 -2.251408994197845459e-02 -1.060896515846252441e-01
-2.508375942707061768e-01 1.214064890518784523e-03 -1.487563550472259521e-01
7.266108989715576172e-01 4.498041793704032898e-02 6.785166263580322266e-02
9.103357791900634766e-02 -1.118306815624237061e-01 -3.971923887729644775e-02
-1.181212067604064941e-01 7.972958683967590332e-02 7.981443777680397034e-03
1.593833863735198975e-01 -8.578102290630340576e-02 -9.330919384956359863e-02
-4.700115025043487549e-01 1.739091128110885620e-01 1.677870191633701324e-02
4.579524993896484375e-01 -5.613916367292404175e-02 -7.358867675065994263e-02
1.300103217363357544e-01 -8.155346661806106567e-02 -1.602172106504440308e-01
-7.132801413536071777e-01 2.039908468723297119e-01 -1.622227835468947887e-03
-2.167237848043441772e-01 3.430152684450149536e-02 -1.035482212901115417e-01
-3.846047818660736084e-01 4.195025190711021423e-02 3.901621326804161072e-02
-2.418692708015441895e-01 2.855887264013290405e-02 7.293452322483062744e-02
-2.660373151302337646e-01 -2.979626692831516266e-02 -1.162553727626800537e-01
1.510015428066253662e-01 -4.675542190670967102e-02 -7.879371941089630127e-02
-4.985048174858093262e-01 2.156994119286537170e-02 3.139192610979080200e-02
3.319562375545501709e-01 -9.733964502811431885e-02 6.922012567520141602e-02
3.739474341273307800e-02 -5.200933665037155151e-02 -3.815660178661346436e-01
-1.656264066696166992e-01 -5.860728397965431213e-02 5.597893595695495605e-01
-1.614965796470642090e-01 1.927287876605987549e-02 1.223213523626327515e-01
-1.450261473655700684e-01 -1.032777950167655945e-01 2.924148365855216980e-02
-7.863461971282958984e-01 2.411348223686218262e-01 -3.088437486439943314e-03
1.417399942874908447e-01 -5.276688188314437866e-02 -2.662241756916046143e-01
5.310674905776977539e-01 -6.161301583051681519e-02 -7.046076655387878418e-02
6.324558258056640625e-01 5.055201798677444458e-02 -6.295866519212722778e-02
-2.399055659770965576e-02 -8.201775699853897095e-02 -6.823701411485671997e-02
-5.887500643730163574e-01 -1.594058796763420105e-02 1.912463642656803131e-02
-6.302193999290466309e-01 2.639343738555908203e-01 -3.175283223390579224e-02
-1.450261473655700684e-01 -1.032777950167655945e-01 2.924148365855216980e-02
-2.048230618238449097e-01 1.446826756000518799e-01 1.927125826478004456e-02
1.791859418153762817e-02 -6.728235632181167603e-02 -7.632560282945632935e-02
-1.201494634151458740e-01 -1.476761978119611740e-02 -8.267916738986968994e-02
-2.299685478210449219e-01 -3.145797178149223328e-02 -1.179170757532119751e-01
5.562461540102958679e-02 -5.200933665037155151e-02 3.569392859935760498e-01
5.992549657821655273e-02 -5.902270972728729248e-02 2.056020647287368774e-01
2.093078047037124634e-01 -4.721972346305847168e-02 -1.191389113664627075e-01
-7.915268540382385254e-01 2.563833892345428467e-01 -6.403388082981109619e-02
6.324558258056640625e-01 5.055201798677444458e-02 -6.295866519212722778e-02
-5.541631579399108887e-02 -6.588946282863616943e-02 3.278594911098480225e-01
1.688404232263565063e-01 -4.937016218900680542e-02 -1.915207952260971069e-01
1.640996783971786499e-01 -6.369014829397201538e-02 -7.200028747320175171e-02
1.619492322206497192e-01 -5.943813547492027283e-02 -2.728221118450164795e-01
1.605319082736968994e-01 6.443546619266271591e-03 -8.197050541639328003e-02
-3.813058137893676758e-01 6.764574209228157997e-04 6.074054911732673645e-02
4.186825454235076904e-01 -7.160767912864685059e-02 6.865808367729187012e-02
3.306610882282257080e-01 -1.105355396866798401e-01 -4.186968132853507996e-02
3.245850652456283569e-02 -6.652481853961944580e-02 4.593051671981811523e-01
-1.501578688621520996e-01 -2.434685640037059784e-02 8.788986504077911377e-02
-3.034745156764984131e-01 7.362037897109985352e-02 3.185622394084930420e-02
-3.226085603237152100e-01 2.772802114486694336e-02 -1.022530645132064819e-01
-6.952213048934936523e-01 2.545750737190246582e-01 -3.006669133901596069e-02
-5.543918609619140625e-01 9.407400339841842651e-02 1.409065071493387222e-02
-9.204711765050888062e-02 -5.516169220209121704e-02 4.926614463329315186e-01
3.191513121128082275e-01 7.005592342466115952e-03 8.713231980800628662e-02
7.840130329132080078e-01 -1.409349441528320312e-01 1.228232495486736298e-02
-5.222818851470947266e-01 -4.049959406256675720e-02 6.564109120517969131e-03
2.512746118009090424e-02 -6.434993445873260498e-02 -1.904455870389938354e-01
-9.703222662210464478e-02 -6.821095198392868042e-02 3.728232383728027344e-01
-1.673614084720611572e-01 -5.225371196866035461e-02 -7.277625203132629395e-01
2.000462561845779419e-01 -6.979934871196746826e-02 -2.279805392026901245e-01
2.601119875907897949e-01 -9.819493442773818970e-02 7.159049808979034424e-02
-1.197829097509384155e-01 -6.334803253412246704e-02 -4.400433301925659180e-01
9.574987739324569702e-02 -5.496619641780853271e-02 -3.582288324832916260e-01
3.904091119766235352e-01 4.608007520437240601e-02 -6.711292266845703125e-02
-3.982562199234962463e-02 -9.054621309041976929e-02 8.200059086084365845e-02
-4.076731503009796143e-01 6.215950846672058105e-02 1.846484281122684479e-02
-1.876684129238128662e-01 1.357909943908452988e-02 -1.502469927072525024e-01
-7.960877567529678345e-02 -6.415443867444992065e-02 -4.846160709857940674e-01
-3.024638630449771881e-02 -7.080125808715820312e-02 -3.312017023563385010e-01
7.266108989715576172e-01 4.498041793704032898e-02 6.785166263580322266e-02
9.323289245367050171e-02 -6.251718103885650635e-02 2.141043310984969139e-03
-4.400030672550201416e-01 1.568766385316848755e-01 1.670539192855358124e-02
-1.067092046141624451e-01 6.345798727124929428e-03 -8.197050541639328003e-02
1.904425770044326782e-01 -8.812696486711502075e-02 3.513075783848762512e-02
-1.334675252437591553e-01 -9.587010368704795837e-03 8.788986504077911377e-02
3.197133541107177734e-01 -8.079591393470764160e-02 7.124838232994079590e-02
-7.559956908226013184e-01 2.593158185482025146e-01 1.371056288480758667e-01
-6.000154018402099609e-01 -9.464828297495841980e-03 2.286347188055515289e-02
2.329626679420471191e-01 -7.713040709495544434e-02 1.826558709144592285e-01
-2.195829004049301147e-01 -5.352442339062690735e-02 7.322776317596435547e-02
-6.159726977348327637e-01 1.694860458374023438e-01 -6.436281837522983551e-03
8.697706460952758789e-02 3.435039892792701721e-02 -7.393079251050949097e-02
6.478021740913391113e-01 8.251869119703769684e-03 -8.182388544082641602e-02
-7.359731197357177734e-02 7.230079174041748047e-02 -3.356115892529487610e-02
3.739474341273307800e-02 -5.200933665037155151e-02 -3.815660178661346436e-01
-4.238992035388946533e-01 9.703085571527481079e-02 2.645568549633026123e-02
-7.559956908226013184e-01 2.593158185482025146e-01 1.371056288480758667e-01
-2.329498529434204102e-01 -4.709753766655921936e-02 7.496277987957000732e-02
6.510610878467559814e-02 -5.306011810898780823e-02 -3.920494019985198975e-01
6.682313680648803711e-01 -1.009074226021766663e-01 2.151944488286972046e-02
6.702352166175842285e-01 -1.023003235459327698e-01 -5.971982143819332123e-03
7.314250469207763672e-01 7.125000655651092529e-02 2.858169004321098328e-02
-1.885970085859298706e-01 -5.293794348835945129e-02 6.977596879005432129e-01
9.364831447601318359e-02 -5.349998921155929565e-02 2.416952550411224365e-01
-8.102210164070129395e-01 2.549660503864288330e-01 1.411132812500000000e-01
2.239943444728851318e-01 -4.641330614686012268e-02 -8.986360579729080200e-02
-5.887500643730163574e-01 -1.594058796763420105e-02 1.912463642656803131e-02
8.648989796638488770e-01 -8.780928701162338257e-02 -2.686546556651592255e-02
3.243406862020492554e-02 -4.042628407478332520e-02 -7.994224876165390015e-02
2.744075357913970947e-01 -1.025446951389312744e-01 -6.479142606258392334e-02
-7.845134139060974121e-01 2.573608756065368652e-01 1.179227232933044434e-01
-2.998578846454620361e-01 8.593985810875892639e-03 1.515722274780273438e-01
8.870630860328674316e-01 4.280554130673408508e-02 1.597228646278381348e-02
-3.134691715240478516e-01 1.037787459790706635e-02 1.160166561603546143e-01
7.033558189868927002e-02 -1.485836803913116455e-01 1.133041605353355408e-01
8.515564203262329102e-01 5.343556031584739685e-02 -1.755503751337528229e-02
-6.736924648284912109e-01 1.758640557527542114e-01 -2.721884986385703087e-03
-4.417625069618225098e-01 5.438859760761260986e-02 2.555152401328086853e-02
-1.599971391260623932e-02 -1.111220195889472961e-01 -5.281737819314002991e-02
-5.435663461685180664e-01 -3.311967477202415466e-02 -1.034617424011230469e-02
-2.892522811889648438e-01 3.388941753655672073e-03 -6.831032782793045044e-02
6.671072840690612793e-01 -4.543583467602729797e-02 8.371116966009140015e-02
2.329469472169876099e-02 -8.209107816219329834e-02 9.636943787336349487e-02
-6.338604688644409180e-01 1.484459340572357178e-01 -4.163657315075397491e-03
9.414581581950187683e-03 -6.540071219205856323e-02 2.145703732967376709e-01
1.823784410953521729e-01 -8.790703862905502319e-02 1.729187555611133575e-02
8.117732405662536621e-01 -1.862863823771476746e-02 -7.121830433607101440e-02
-4.249255359172821045e-01 1.298250854015350342e-01 2.046866156160831451e-02
-2.381060272455215454e-01 1.731793209910392761e-02 1.521587222814559937e-01
7.351237535476684570e-02 -1.004675701260566711e-01 -6.906786561012268066e-02
9.834018349647521973e-02 -1.125149130821228027e-01 2.188599854707717896e-02
-3.561358749866485596e-01 1.233004480600357056e-01 -6.582903210073709488e-03
-1.144068092107772827e-01 -7.080125808715820312e-02 5.043421983718872070e-01
7.969156503677368164e-01 -9.176805615425109863e-02 -3.519842401146888733e-02
2.228213697671890259e-01 -3.990978933870792389e-03 8.788986504077911377e-02
1.651015877723693848e-01 -5.086081475019454956e-02 -1.097307428717613220e-01
-2.551140189170837402e-01 -1.884856820106506348e-02 1.467093080282211304e-01
2.512746118009090424e-02 -6.434993445873260498e-02 -1.904455870389938354e-01
-1.975408792495727539e-01 4.864594712853431702e-02 -6.014842540025711060e-02
8.474510312080383301e-01 1.761117577552795410e-02 6.276880949735641479e-02
-7.266470193862915039e-01 2.545750737190246582e-01 -7.014308869838714600e-02
-5.259229540824890137e-01 2.496877163648605347e-01 1.052287407219409943e-02
-2.819945514202117920e-01 3.337292745709419250e-02 -5.983074754476547241e-02
8.157652616500854492e-02 -1.127104014158248901e-01 2.056640945374965668e-02
-1.917004883289337158e-01 1.383779644966125488e-01 -1.950998418033123016e-02
3.212773501873016357e-01 -3.761604800820350647e-02 8.566611260175704956e-02
-6.470230966806411743e-02 -3.712731227278709412e-02 8.573942631483078003e-02
6.751225590705871582e-01 -2.288064919412136078e-02 -8.167726546525955200e-02
-5.467445123940706253e-03 -7.683714479207992554e-02 1.074280589818954468e-02
-1.204095222055912018e-02 -6.312809884548187256e-02 5.291700363159179688e-01
-1.856645941734313965e-01 1.951724663376808167e-02 9.795783460140228271e-02
3.128466308116912842e-01 -8.820027858018875122e-02 4.573633894324302673e-02
4.028230309486389160e-01 -2.696159668266773224e-02 -8.238592743873596191e-02
9.105657227337360382e-04 4.933017119765281677e-02 6.948893517255783081e-02
7.236383855342864990e-02 -1.138345077633857727e-01 1.242762953042984009e-01
1.977247595787048340e-01 -8.834689855575561523e-02 -2.060963958501815796e-02
-8.300550282001495361e-02 -6.127090007066726685e-02 5.695885419845581055e-01
2.404159009456634521e-01 -1.009318605065345764e-01 -6.647756695747375488e-02
1.228258907794952393e-01 -6.439881026744842529e-02 7.843281328678131104e-02
-1.096416339278221130e-01 -5.838735401630401611e-02 -6.271316409111022949e-01
6.310229003429412842e-02 -6.471649557352066040e-02 -9.680365771055221558e-02
-5.159527063369750977e-01 6.804878264665603638e-02 -1.105484273284673691e-02
-7.132801413536071777e-01 2.039908468723297119e-01 -1.622227835468947887e-03
-5.880658030509948730e-01 -1.559847127646207809e-02 -1.524480292573571205e-03
1.265402883291244507e-01 -5.738544091582298279e-02 7.638011872768402100e-02
-8.508262783288955688e-02 -1.096557974815368652e-01 -1.775053143501281738e-02
6.679136753082275391e-01 -6.955498456954956055e-02 7.068634033203125000e-02
-4.047651588916778564e-01 5.556156486272811890e-02 -2.263789623975753784e-02
-2.950452500954270363e-03 -5.499063059687614441e-02 -3.754323422908782959e-01
3.148748874664306641e-01 -4.629112035036087036e-02 -7.886702567338943481e-02
6.478021740913391113e-01 8.251869119703769684e-03 -8.182388544082641602e-02
-7.985646128654479980e-01 2.541596591472625732e-01 2.148391753435134888e-01
-7.986624240875244141e-01 2.549904882907867432e-01 1.240808069705963135e-01
-3.178189396858215332e-01 8.464138954877853394e-02 3.102537058293819427e-02
-1.543365865945816040e-01 -5.516169220209121704e-02 7.064103484153747559e-01
3.647260367870330811e-01 7.968071103096008301e-02 -3.088437486439943314e-03
-1.403098404407501221e-01 4.806276876479387283e-03 -8.209268748760223389e-02
-1.416538655757904053e-01 -1.055015400052070618e-01 2.458722097799181938e-03
-3.000533580780029297e-01 -5.721438676118850708e-02 5.927433818578720093e-02
-3.551583886146545410e-01 1.638933084905147552e-02 -9.646154195070266724e-02
-8.192626237869262695e-01 2.551371157169342041e-01 -1.316016912460327148e-01
7.870431542396545410e-01 6.418776512145996094e-02 -3.014000132679939270e-02
-2.076088488101959229e-01 -2.280399203300476074e-03 8.322243392467498779e-02
-9.776532649993896484e-02 -6.246830150485038757e-02 5.242582559585571289e-01
-7.046294808387756348e-01 2.613196372985839844e-01 -1.233176141977310181e-01
-1.022861376404762268e-01 -6.239499151706695557e-02 -5.181189775466918945e-01
-5.921711921691894531e-01 2.563101053237915039e-01 3.058550879359245300e-02
7.263264805078506470e-02 -1.128570362925529480e-01 -1.393838785588741302e-02
-3.724108040332794189e-01 6.091323122382164001e-02 3.021895699203014374e-02
9.584762901067733765e-02 -7.585968077182769775e-02 7.879935950040817261e-02
1.282019913196563721e-01 -6.728235632181167603e-02 3.277128338813781738e-01
4.375477731227874756e-01 -1.017871424555778503e-01 -1.344965212047100067e-02
-6.952213048934936523e-01 2.545750737190246582e-01 -3.006669133901596069e-02
-3.900541961193084717e-01 -2.657060511410236359e-02 -5.237751826643943787e-02
-5.453659594058990479e-02 2.315833419561386108e-02 8.478638529777526855e-02
7.840619087219238281e-01 -1.022514551877975464e-01 1.519030798226594925e-02
3.104116953909397125e-02 -6.351908296346664429e-02 1.959739476442337036e-01
-1.535301655530929565e-01 3.193115442991256714e-02 -1.333367079496383667e-01
4.039715528488159180e-01 -1.042796969413757324e-01 -6.289660930633544922e-03
-2.337964437901973724e-02 -9.120599180459976196e-02 1.443389356136322021e-01
-7.397954352200031281e-03 -1.104133501648902893e-01 -5.552986636757850647e-02
4.089566767215728760e-01 -9.570237994194030762e-02 -3.517398983240127563e-02
-2.864664793014526367e-01 1.470286101102828979e-01 -5.874235183000564575e-03
-1.316347718238830566e-01 -5.178941041231155396e-02 -6.721442937850952148e-01
7.286881208419799805e-01 -9.528695046901702881e-02 -3.055542893707752228e-02
-3.537166416645050049e-01 2.469785325229167938e-02 1.286504864692687988e-01
-8.207689970731735229e-02 -1.078963652253150940e-01 -4.006135463714599609e-02
-2.418692708015441895e-01 2.855887264013290405e-02 7.293452322483062744e-02
1.340668201446533203e-01 -7.414910197257995605e-02 3.006612956523895264e-01
-1.621965318918228149e-02 -7.840111851692199707e-02 -3.236375376582145691e-02
