-7.057944536209106445e-01 8.618675917387008667e-02 3.091382980346679688e-01
-7.282477021217346191e-01 6.786195933818817139e-02 -1.231190860271453857e-01
1.418604552745819092e-01 -1.678366959095001221e-02 -2.484361678361892700e-01
5.988882780075073242e-01 -8.550164103507995605e-02 -2.880499511957168579e-02
6.491216421127319336e-01 9.937101602554321289e-02 -2.313176728785037994e-02
-6.291925311088562012e-01 1.206522807478904724e-01 -9.654519148170948029e-03
7.065996527671813965e-01 -4.661473631858825684e-02 7.957231253385543823e-02
1.565362662076950073e-01 -6.110410019755363464e-02 1.673075854778289795e-01
3.568837940692901611e-01 -9.391825646162033081e-02 3.869653940200805664e-01
-1.318927854299545288e-01 4.210603982210159302e-02 -9.403836131095886230e-01
-3.230499103665351868e-02 -3.412961261346936226e-03 6.089404225349426270e-01
3.511573076248168945e-01 -9.612896293401718140e-02 -5.309600010514259338e-02
-6.762284040451049805e-02 9.265241213142871857e-03 -7.341497540473937988e-01
-9.950478374958038330e-02 1.064292639493942261e-01 1.162674650549888611e-02
5.207429453730583191e-02 -1.183957085013389587e-01 -1.895198374986648560e-01
6.422119680792093277e-03 -4.712079465389251709e-02 -1.735122650861740112e-01
-7.710485160350799561e-02 -9.527663886547088623e-02 4.835623875260353088e-02
4.205958545207977295e-02 6.015779450535774231e-03 -5.546041131019592285e-01
2.197941094636917114e-01 -1.312869936227798462e-01 3.541778326034545898e-01
2.912821173667907715e-01 -6.504605710506439209e-02 6.942442804574966431e-02
5.207429453730583191e-02 9.211968630552291870e-03 6.299819946289062500e-01
-2.553832018747925758e-03 7.934159785509109497e-02 7.821393758058547974e-02
-5.969110727310180664e-01 2.522552013397216797e-01 5.314281210303306580e-03
1.197002381086349487e-01 -4.931147210299968719e-03 4.426589310169219971e-01
-5.612203478813171387e-01 1.588999778032302856e-01 8.909989148378372192e-03
-5.740849971771240234e-01 2.505239248275756836e-01 -7.390554528683423996e-03
-7.780814766883850098e-01 9.465665370225906372e-02 -3.729275763034820557e-01
-3.792494535446166992e-02 8.349663764238357544e-02 -7.448380440473556519e-02
3.741432130336761475e-01 -1.446843296289443970e-01 -3.079917430877685547e-01
1.289439387619495392e-02 -4.368489235639572144e-02 2.576797306537628174e-01
7.013273984193801880e-02 -4.345177672803401947e-03 5.851022005081176758e-01
-7.020123600959777832e-01 8.147238940000534058e-02 -1.943141072988510132e-01
-6.469159852713346481e-03 -8.475586026906967163e-02 2.366570942103862762e-02
-7.102425098419189453e-01 1.333038508892059326e-01 -2.756086178123950958e-03
-9.082181006669998169e-02 -8.547500520944595337e-02 1.964384503662586212e-02
-3.642820715904235840e-01 -6.001207605004310608e-02 -4.105703532695770264e-02
3.385744523257017136e-03 -6.022514775395393372e-02 -1.143029481172561646e-01
-3.739224746823310852e-02 9.628137201070785522e-02 4.979452490806579590e-02
1.468145400285720825e-01 -1.310805510729551315e-02 -3.028512299060821533e-01
6.102501414716243744e-03 -1.441316027194261551e-02 1.092968359589576721e-01
1.208988130092620850e-01 -5.591029301285743713e-02 -2.004401385784149170e-01
-1.041112188249826431e-02 -2.700443437788635492e-04 6.663119792938232422e-01
-7.550423741340637207e-01 2.701272070407867432e-01 -8.383751846849918365e-04
3.169861808419227600e-02 -3.678645566105842590e-02 3.060220181941986084e-01
-6.703168153762817383e-01 8.155228942632675171e-02 -2.541094124317169189e-01
-5.146625638008117676e-01 7.039228081703186035e-02 6.710719317197799683e-02
1.446304917335510254e-01 -1.004970744252204895e-01 6.228628009557723999e-02
2.229650504887104034e-02 -6.728339195251464844e-02 1.114542633295059204e-01
2.904031574726104736e-01 -2.653203532099723816e-02 1.285005807876586914e-01
-6.685042381286621094e-02 2.042524889111518860e-02 -8.359748721122741699e-01
2.043206430971622467e-02 -2.352229505777359009e-02 3.180343508720397949e-01
-1.822060495615005493e-01 2.798955701291561127e-02 8.650081753730773926e-01
-1.547174714505672455e-02 -8.331759274005889893e-02 3.213559836149215698e-02
8.136985301971435547e-01 6.708294153213500977e-03 4.739738628268241882e-02
2.243753224611282349e-01 9.167354553937911987e-02 6.921134889125823975e-02
1.831711530685424805e-01 -1.014559417963027954e-01 3.932701423764228821e-02
-3.579163253307342529e-01 1.054437756538391113e-01 1.351782213896512985e-02
3.272658288478851318e-01 -8.872447162866592407e-02 -9.808230400085449219e-02
5.209546089172363281e-01 6.509193778038024902e-02 8.950711786746978760e-02
7.319574803113937378e-02 -3.505519032478332520e-02 -3.480772674083709717e-01
2.863280177116394043e-01 -9.455750882625579834e-02 -2.726206481456756592e-01
-2.200275808572769165e-01 -7.881629467010498047e-02 3.578457608819007874e-02
2.644608020782470703e-01 -2.195083722472190857e-02 -1.503132879734039307e-01
-5.970975160598754883e-01 1.496310234069824219e-01 9.309512563049793243e-03
1.797619014978408813e-01 -3.103332966566085815e-02 1.115341708064079285e-01
2.751147449016571045e-01 -5.353980511426925659e-02 -3.238128721714019775e-01
1.130415201187133789e-01 -2.786378189921379089e-02 -4.136256873607635498e-01
-1.107446998357772827e-01 7.320894394069910049e-03 7.051456570625305176e-01
-7.810379862785339355e-01 8.131258189678192139e-02 2.436964213848114014e-01
-6.335873007774353027e-01 9.268566966056823730e-02 2.347926422953605652e-02
-1.217182725667953491e-01 -6.342797540128231049e-03 7.045862674713134766e-01
-1.579949557781219482e-01 -5.564395710825920105e-02 8.548525720834732056e-02
1.785633265972137451e-01 -1.085940822958946228e-01 3.133199810981750488e-01
-1.042457893490791321e-01 3.153199329972267151e-02 -9.303955435752868652e-01
2.950376272201538086e-01 7.183056324720382690e-02 -8.740172535181045532e-02
5.156010389328002930e-01 -3.084688074886798859e-02 -1.034359112381935120e-01
-6.848061680793762207e-01 2.781442999839782715e-01 4.408695269376039505e-03
1.750475168228149414e-01 -4.493672400712966919e-02 -1.143828481435775757e-01
3.658064901828765869e-01 -6.211623176932334900e-02 -7.690758258104324341e-02
8.281093835830688477e-02 -1.015624701976776123e-01 -4.076405614614486694e-02
-3.009429387748241425e-02 1.187545247375965118e-02 -1.134506240487098694e-01
-9.806650131940841675e-02 8.732545189559459686e-03 -7.037593722343444824e-01
-7.386619448661804199e-01 8.927640318870544434e-02 5.527360364794731140e-03
-7.225211858749389648e-01 7.931496202945709229e-02 2.744064331054687500e-01
-2.093203663825988770e-01 3.941591829061508179e-02 9.649155139923095703e-01
3.998346161097288132e-03 2.846231218427419662e-03 5.367865562438964844e-01
4.545006155967712402e-01 -3.040072508156299591e-03 1.082580760121345520e-01
5.805102586746215820e-01 4.389057680964469910e-02 1.034105345606803894e-01
2.967436611652374268e-02 -4.331201314926147461e-02 -2.763495147228240967e-01
2.354820668697357178e-01 -1.022283509373664856e-01 1.724670454859733582e-02
7.540784310549497604e-03 -4.776002466678619385e-02 2.298995554447174072e-01
1.724106669425964355e-01 -2.618577890098094940e-02 3.772702813148498535e-01
6.832156330347061157e-02 -4.733386263251304626e-02 2.405801415443420410e-01
-5.081623047590255737e-02 3.270393237471580505e-02 1.057543978095054626e-01
-1.943781822919845581e-01 -7.207766920328140259e-02 5.538785085082054138e-02
-4.440535008907318115e-01 2.599193714559078217e-02 -9.081098437309265137e-02
-4.986550211906433105e-01 3.150536119937896729e-02 -8.268734812736511230e-02
-2.357421666383743286e-01 1.008892059326171875e-01 3.919384256005287170e-02
6.346056461334228516e-01 9.737341105937957764e-02 -4.345417395234107971e-02
2.144405096769332886e-01 -3.284449875354766846e-02 -3.415517210960388184e-01
-1.398019492626190186e-02 -1.100390031933784485e-02 -5.353736877441406250e-01
2.332979887723922729e-01 -3.430941328406333923e-02 -1.143828481435775757e-01
5.742790177464485168e-02 -5.298046395182609558e-02 -2.377023249864578247e-01
1.446304917335510254e-01 -1.004970744252204895e-01 6.228628009557723999e-02
-1.647602170705795288e-01 2.878860570490360260e-02 -8.557114005088806152e-01
-6.003203392028808594e-01 8.213826268911361694e-02 -4.854143410921096802e-02
-1.019804365932941437e-02 -1.004504226148128510e-02 5.487722754478454590e-01
7.706032991409301758e-01 1.528472173959016800e-02 -7.203339785337448120e-02
2.317545749247074127e-02 -1.738228946924209595e-01 -2.392471432685852051e-01
-7.380212843418121338e-02 -1.087072398513555527e-02 7.019227743148803711e-01
9.788627922534942627e-02 -9.538986720144748688e-03 -5.366521477699279785e-01
-1.430261731147766113e-01 1.084002405405044556e-01 5.732732242904603481e-04
4.319675266742706299e-01 -6.701703369617462158e-02 -6.942317634820938110e-02
1.715583503246307373e-01 -8.672685921192169189e-02 1.354445703327655792e-02
2.948792278766632080e-02 -4.858571663498878479e-02 -1.380346268415451050e-01
-4.298837780952453613e-01 -3.945657983422279358e-03 8.346100896596908569e-02
9.532933682203292847e-02 -2.093870565295219421e-02 -1.143828481435775757e-01
-2.470087110996246338e-01 1.016882583498954773e-01 -3.684872761368751526e-02
-6.335873007774353027e-01 9.268566966056823730e-02 2.347926422953605652e-02
-8.315096795558929443e-02 -8.401008695363998413e-02 -3.122876957058906555e-02
3.272391855716705322e-01 -6.097092479467391968e-02 -1.143828481435775757e-01
1.136008575558662415e-01 -3.055389598011970520e-02 -1.697034835815429688e-01
1.700401604175567627e-01 -1.254872698336839676e-02 -3.704239130020141602e-01
1.554176211357116699e-01 1.068287938833236694e-01 1.050808187574148178e-02
4.400392621755599976e-02 -1.000442877411842346e-01 7.424534112215042114e-02
-1.575421690940856934e-01 -4.345177672803401947e-03 -7.020547389984130859e-01
6.499473452568054199e-01 -8.001486212015151978e-02 -4.441303014755249023e-02
2.432328015565872192e-01 -1.942051947116851807e-02 -1.143828481435775757e-01
5.024434328079223633e-01 9.361789375543594360e-02 -5.807672068476676941e-02
3.175707459449768066e-01 -7.399538159370422363e-02 -5.647863075137138367e-02
-6.577717661857604980e-01 2.932462990283966064e-01 6.113327108323574066e-03
6.525855511426925659e-02 -3.143284842371940613e-02 -2.169537544250488281e-01
3.838397189974784851e-02 -1.022283509373664856e-01 1.961720734834671021e-02
5.296908617019653320e-01 -8.901745080947875977e-02 3.868290805257856846e-04
-6.190180182456970215e-01 6.583771854639053345e-02 1.261833459138870239e-01
5.498801469802856445e-01 9.463001042604446411e-02 -5.639872699975967407e-02
5.460713505744934082e-01 1.046447232365608215e-01 -2.704709209501743317e-02
5.527566671371459961e-01 -1.238891948014497757e-02 -1.091091334819793701e-01
4.251237586140632629e-02 -4.448392987251281738e-02 -2.661217451095581055e-01
-2.508693933486938477e-02 -4.826610162854194641e-02 -2.112006098031997681e-01
-5.037422776222229004e-01 -1.923408173024654388e-02 4.854268208146095276e-02
-6.196039915084838867e-01 9.934438765048980713e-02 6.798127433285117149e-04
-7.282477021217346191e-01 6.786195933818817139e-02 -1.231190860271453857e-01
7.799521088600158691e-01 4.482279717922210693e-02 3.234867751598358154e-02
-7.342404723167419434e-01 8.807783573865890503e-02 -2.811438143253326416e-01
5.340604111552238464e-02 -5.662943795323371887e-02 1.297524124383926392e-01
1.764591783285140991e-01 -9.767377376556396484e-02 8.564506471157073975e-02
1.745947152376174927e-01 -2.823667041957378387e-02 3.615557253360748291e-01
3.035874366760253906e-01 -1.506505459547042847e-01 -2.947542071342468262e-01
-9.058209508657455444e-02 2.473342698067426682e-03 -6.329638957977294922e-01
5.572327598929405212e-02 -3.984947130084037781e-02 3.251725137233734131e-01
1.565362662076950073e-01 -6.110410019755363464e-02 1.673075854778289795e-01
1.073949262499809265e-01 -6.121064722537994385e-02 1.531112045049667358e-01
6.046946644783020020e-01 -1.566966623067855835e-01 -8.136331103742122650e-03
-1.635883003473281860e-01 -7.498086243867874146e-02 5.307061597704887390e-02
1.003366932272911072e-01 -6.962055922485888004e-04 5.013355612754821777e-01
-1.174286566674709320e-02 -2.248353324830532074e-02 4.624220132827758789e-01
-7.028380036354064941e-01 6.783533096313476562e-02 1.388082802295684814e-01
1.087014470249414444e-02 -6.515260040760040283e-02 -2.650030553340911865e-01
-6.088701486587524414e-01 1.415873020887374878e-01 -1.356984488666057587e-02
1.406086087226867676e-01 -6.699040532112121582e-02 -6.915682554244995117e-02
3.094471096992492676e-01 -1.410353630781173706e-01 -3.807848691940307617e-01
-3.821792826056480408e-02 3.059311769902706146e-03 -6.871125698089599609e-01
-1.299484372138977051e-01 -9.144122898578643799e-02 -5.579382646828889847e-03
-4.302033782005310059e-01 7.134445477277040482e-03 8.596467971801757812e-02
-5.398325324058532715e-01 1.040853932499885559e-01 -1.442216150462627411e-02
-7.026515603065490723e-01 8.384289592504501343e-02 -3.009867966175079346e-01
-4.689837694168090820e-01 -4.091486334800720215e-02 -2.033510431647300720e-02
1.003366932272911072e-01 -6.962055922485888004e-04 5.013355612754821777e-01
4.256564378738403320e-02 -7.428836822509765625e-02 -2.079511731863021851e-01
1.375456154346466064e-01 -1.308142393827438354e-02 -3.033040165901184082e-01
-5.972839593887329102e-01 5.414500087499618530e-02 6.042184308171272278e-02
8.100117556750774384e-03 7.613879162818193436e-03 5.707992911338806152e-01
5.034302920103073120e-02 -8.675349503755569458e-02 1.775620132684707642e-01
-4.911159723997116089e-02 1.267450209707021713e-02 -7.757534384727478027e-01
1.815464198589324951e-01 -1.002040952444076538e-01 -7.206003367900848389e-02
2.766862213611602783e-01 7.955467700958251953e-02 -8.188829571008682251e-02
7.041493058204650879e-01 5.347913503646850586e-02 7.568362355232238770e-02
4.554874822497367859e-02 -5.617664381861686707e-02 1.787605881690979004e-01
2.855570055544376373e-02 -1.013227701187133789e-01 4.404138773679733276e-02
1.963021606206893921e-01 -1.470614504069089890e-02 2.836487293243408203e-01
-2.853096723556518555e-01 2.335508540272712708e-02 -1.056466028094291687e-01
6.776224076747894287e-02 -1.289497502148151398e-02 3.621949553489685059e-01
-6.988161206245422363e-01 3.048324584960937500e-01 3.556379582732915878e-03
2.750881016254425049e-01 -6.366104632616043091e-02 -3.275150954723358154e-01
2.779913246631622314e-01 -1.327519118785858154e-01 -2.791461646556854248e-01
2.205931693315505981e-01 -2.844974026083946228e-02 -3.271422386169433594e-01
1.094191744923591614e-01 5.518376454710960388e-02 9.661862999200820923e-02
-7.274752259254455566e-01 6.557136774063110352e-02 8.298157900571823120e-02
3.484938144683837891e-01 -7.873637974262237549e-02 3.624879419803619385e-01
4.775664210319519043e-01 -6.672405451536178589e-02 -6.995587795972824097e-02
2.037332803010940552e-01 -2.240362949669361115e-02 -1.068451702594757080e-01
-4.151926841586828232e-03 7.187718059867620468e-03 -5.783890485763549805e-01
2.282107323408126831e-01 -2.197746746242046356e-02 -1.198429912328720093e-01
3.846387565135955811e-02 -5.734858289361000061e-02 2.347204685211181641e-01
-1.141006872057914734e-01 -1.001774594187736511e-01 -2.569641917943954468e-03
2.631024420261383057e-01 -9.517011046409606934e-02 -9.722997993230819702e-02
6.890206933021545410e-01 9.124738723039627075e-02 -2.140049822628498077e-02
7.370181381702423096e-02 -7.455471903085708618e-02 2.078725099563598633e-01
1.512359380722045898e-01 -1.026811450719833374e-01 3.343300195410847664e-03
2.203015796840190887e-02 -1.723313331604003906e-01 1.834749728441238403e-01
-5.696369409561157227e-01 -1.362078823149204254e-03 4.579929262399673462e-02
-5.039006844162940979e-02 7.027910090982913971e-03 6.048919558525085449e-01
-2.257274389266967773e-01 1.898696646094322205e-02 1.065001785755157471e-01
4.367617964744567871e-01 8.770494908094406128e-02 -6.817133724689483643e-02
6.046946644783020020e-01 -1.487594693899154663e-01 -1.903770258650183678e-03
1.826917231082916260e-01 -6.512597203254699707e-02 1.360915303230285645e-01
4.440345242619514465e-02 -3.798502683639526367e-02 1.919448524713516235e-01
2.756740748882293701e-01 -1.487328410148620605e-01 3.088186979293823242e-01
4.717487376183271408e-03 -6.110410019755363464e-02 1.114542633295059204e-01
1.620230525732040405e-01 -1.119034923613071442e-02 3.535652458667755127e-01
-6.754840016365051270e-01 8.011400699615478516e-02 1.719953268766403198e-01
7.662884593009948730e-01 2.764329873025417328e-02 -6.223176047205924988e-02
3.121905028820037842e-01 9.058151394128799438e-02 6.028866395354270935e-02
5.340604111552238464e-02 -5.662943795323371887e-02 1.297524124383926392e-01
7.570728063583374023e-01 -6.219612434506416321e-02 -5.562631040811538696e-02
6.890206933021545410e-01 9.124738723039627075e-02 -2.140049822628498077e-02
2.871004343032836914e-01 -8.646050840616226196e-02 -1.072180643677711487e-01
-3.700884580612182617e-01 7.907524704933166504e-02 -7.427072525024414062e-02
1.244945228099822998e-01 8.674608916044235229e-02 6.606843322515487671e-02
1.846094429492950439e-01 -6.723012775182723999e-02 -6.793162971735000610e-02
-1.652662903070449829e-01 -8.025456964969635010e-02 -3.764777258038520813e-02
-5.777073502540588379e-01 2.152327299118041992e-01 6.379676051437854767e-03
3.060658648610115051e-02 5.349916405975818634e-03 -5.473594069480895996e-01
-3.693945705890655518e-02 2.138410694897174835e-02 -7.189412117004394531e-01
-7.188441604375839233e-02 -4.251296445727348328e-02 1.083379760384559631e-01
9.263920783996582031e-02 -9.059553034603595734e-03 3.831565976142883301e-01
3.200744092464447021e-01 -9.415797889232635498e-02 -9.083761274814605713e-02
2.226986922323703766e-02 -1.395438015460968018e-01 2.510742843151092529e-01
2.894975841045379639e-01 1.055769473314285278e-01 1.881816238164901733e-02
-7.779736071825027466e-02 3.297027572989463806e-02 8.757419586181640625e-01
-6.185918450355529785e-01 2.109977751970291138e-01 8.324021473526954651e-03
-5.180171877145767212e-02 -5.636308342218399048e-02 2.664425969123840332e-01
-6.754840016365051270e-01 8.011400699615478516e-02 1.719953268766403198e-01
-3.639624714851379395e-01 -1.734967459924519062e-03 9.342245012521743774e-02
8.063206672668457031e-01 5.989148281514644623e-03 5.493505299091339111e-02
2.950376272201538086e-01 7.183056324720382690e-02 -8.740172535181045532e-02
2.539133727550506592e-01 -1.376527398824691772e-01 -3.033839166164398193e-01
1.779521070420742035e-02 7.052545249462127686e-02 8.492591977119445801e-02
-3.579163253307342529e-01 1.054437756538391113e-01 1.351782213896512985e-02
-1.789551973342895508e-02 6.228860002011060715e-03 5.773248672485351562e-01
3.955590352416038513e-02 -4.475028440356254578e-02 1.505009829998016357e-01
5.686044692993164062e-01 1.088530346751213074e-01 9.384539589518681169e-05
-6.724995374679565430e-02 1.475202571600675583e-02 -6.782165169715881348e-01
3.513171374797821045e-01 -1.297688037157058716e-01 2.734742164611816406e-01
-5.212680101394653320e-01 1.374855339527130127e-01 -1.090635824948549271e-02
-7.840743660926818848e-01 6.152286380529403687e-02 -2.433033660054206848e-02
-5.631380081176757812e-01 8.155228942632675171e-02 -1.322359219193458557e-02
6.656366586685180664e-02 -3.268469125032424927e-02 3.609963953495025635e-01
-2.846171557903289795e-01 -2.328258380293846130e-02 -9.818883985280990601e-02
2.658990919589996338e-01 -6.019851565361022949e-02 -3.505809307098388672e-01
3.787790611386299133e-02 -1.451970543712377548e-02 -5.466136336326599121e-01
1.527807563543319702e-01 -2.506711147725582123e-02 -4.027853012084960938e-01
-8.064743280410766602e-01 9.241932630538940430e-02 3.785488009452819824e-01
2.925872206687927246e-01 -3.982283920049667358e-02 1.869907677173614502e-01
-6.762284040451049805e-02 9.265241213142871857e-03 -7.341497540473937988e-01
-7.120803594589233398e-01 2.531874179840087891e-01 2.038191305473446846e-03
6.046428531408309937e-02 -1.642343252897262573e-01 -2.460390329360961914e-01
-4.298837780952453613e-01 -3.945657983422279358e-03 8.346100896596908569e-02
1.237487420439720154e-01 -6.113073229789733887e-02 3.360661268234252930e-01
1.351484656333923340e-01 -1.358748879283666611e-02 -2.926767170429229736e-01
3.255345523357391357e-01 1.028868257999420166e-01 3.400003910064697266e-02
-8.315096795558929443e-02 2.276911586523056030e-02 -7.503704428672790527e-01
1.359475106000900269e-01 -9.032254666090011597e-02 -1.028233096003532410e-01
-3.270997703075408936e-01 -2.799694798886775970e-02 8.695016801357269287e-02
-1.443845480680465698e-01 3.653935343027114868e-02 1.049020737409591675e-01
-4.975082725286483765e-02 -3.705945797264575958e-03 5.862209200859069824e-01
4.445672035217285156e-02 -5.761493742465972900e-02 -2.179658710956573486e-01
3.568837940692901611e-01 -9.391825646162033081e-02 3.869653940200805664e-01
1.706261336803436279e-01 -1.019886285066604614e-01 2.568995952606201172e-02
3.172665135934948921e-03 1.738887652754783630e-02 6.762201786041259766e-01
2.417945265769958496e-01 -4.738714545965194702e-02 1.902934908866882324e-01
5.985167995095252991e-02 -9.104169905185699463e-02 9.917557984590530396e-02
4.195304587483406067e-02 -6.387411803007125854e-02 1.393409818410873413e-01
7.330481410026550293e-01 7.457394897937774658e-02 3.210896626114845276e-02
-4.456782639026641846e-01 -3.244497999548912048e-02 5.243137851357460022e-02
-9.748052805662155151e-02 3.688560053706169128e-02 -9.032279849052429199e-01
5.221531987190246582e-01 8.027381449937820435e-02 7.784104347229003906e-02
-6.011180579662322998e-02 -3.108659200370311737e-02 1.104687750339508057e-01
-7.407128214836120605e-01 7.406789064407348633e-02 1.221082061529159546e-01
-6.064450368285179138e-02 2.026544138789176941e-02 8.278791308403015137e-01
6.441675424575805664e-01 8.789138495922088623e-02 -5.770383030176162720e-02
-6.096159219741821289e-01 9.859861433506011963e-02 1.093423925340175629e-02
4.324469566345214844e-01 -6.485962122678756714e-02 7.017020136117935181e-02
-7.032908201217651367e-01 7.031237334012985229e-02 5.490842089056968689e-02
-8.091363310813903809e-02 2.892177365720272064e-02 -7.993785738945007324e-01
-2.687147259712219238e-02 -6.429329514503479004e-04 -1.115861833095550537e-01
-1.143137738108634949e-01 3.278383612632751465e-02 8.451385498046875000e-01
2.701606452465057373e-01 -1.511832624673843384e-01 3.264243304729461670e-01
-6.172068119049072266e-01 1.940646092407405376e-03 -2.829893305897712708e-02
5.951061248779296875e-01 -1.814404726028442383e-01 -8.376045152544975281e-03
2.713059484958648682e-01 6.626386940479278564e-02 -9.161002933979034424e-02
-5.039006844162940979e-02 7.027910090982913971e-03 6.048919558525085449e-01
1.693742871284484863e-01 -8.744598925113677979e-02 3.293541669845581055e-01
-6.871767044067382812e-01 2.472478598356246948e-01 3.556379582732915878e-03
2.387581318616867065e-01 -3.116650693118572235e-02 3.372380733489990234e-01
3.199412524700164795e-01 -9.429115802049636841e-02 -3.922112584114074707e-01
3.289704620838165283e-01 1.060563698410987854e-01 -1.887018606066703796e-02
-6.620599627494812012e-01 1.600452661514282227e-01 -7.363919168710708618e-03
8.181731700897216797e-01 2.463355846703052521e-02 -9.814327582716941833e-03
7.706032991409301758e-01 1.528472173959016800e-02 -7.203339785337448120e-02
3.222052156925201416e-01 9.766639769077301025e-02 4.824970290064811707e-02
-5.607142448425292969e-01 -9.166098199784755707e-03 -4.033789783716201782e-02
3.467358946800231934e-01 9.524261206388473511e-02 5.237810313701629639e-02
-5.706757307052612305e-01 9.340481460094451904e-02 -1.303714793175458908e-02
-7.779736071825027466e-02 3.297027572989463806e-02 8.757419586181640625e-01
-6.011180579662322998e-02 -3.108659200370311737e-02 1.104687750339508057e-01
1.995516121387481689e-01 -8.113352209329605103e-02 3.348942101001739502e-01
-9.564273059368133545e-02 3.150536119937896729e-02 -8.268924355506896973e-01
-1.475274711847305298e-01 -6.808242946863174438e-02 7.512429356575012207e-02
-1.705666184425354004e-01 2.820263616740703583e-02 8.522233366966247559e-01
3.213528990745544434e-01 -1.620502769947052002e-01 3.239473104476928711e-01
-5.835669636726379395e-01 2.691683769226074219e-01 2.863872330635786057e-03
5.582168102264404297e-01 -8.100034296512603760e-02 -4.566486924886703491e-02
2.996734902262687683e-02 -1.671375483274459839e-01 2.203908860683441162e-01
2.476541996002197266e-01 -3.180573880672454834e-02 -3.383288979530334473e-01
2.352423369884490967e-01 -4.373815283179283142e-02 -2.174598127603530884e-01
7.453268170356750488e-01 -5.916636437177658081e-03 -9.046472609043121338e-02
-6.721546649932861328e-01 7.598560303449630737e-02 -1.213611885905265808e-01
3.955043852329254150e-01 9.399077296257019043e-02 6.745344400405883789e-02
1.785633265972137451e-01 -1.183424517512321472e-01 -3.352658748626708984e-01
-5.125584006309509277e-01 -1.324123144149780273e-02 5.466870591044425964e-02
-2.508693933486938477e-02 -4.826610162854194641e-02 -2.112006098031997681e-01
-9.398995898663997650e-03 9.211968630552291870e-03 -7.269850373268127441e-01
2.960763871669769287e-01 -3.231180459260940552e-02 1.804385781288146973e-01
1.902560293674468994e-01 -5.676261335611343384e-02 3.208842873573303223e-01
1.460421383380889893e-01 -1.048385649919509888e-01 3.098840713500976562e-01
-4.221329987049102783e-01 9.652108699083328247e-02 4.340215027332305908e-02
1.849556863307952881e-01 -9.530328959226608276e-02 -9.632439911365509033e-02
1.418604552745819092e-01 -1.678366959095001221e-02 -2.484361678361892700e-01
3.731996752321720123e-03 -5.117596127092838287e-03 -6.288620829582214355e-01
-5.188162624835968018e-02 2.063832990825176239e-02 -7.133213281631469727e-01
4.397868644446134567e-03 1.544453017413616180e-02 6.524618268013000488e-01
-7.208697795867919922e-01 8.946284651756286621e-02 3.318578600883483887e-01
-1.222229190170764923e-02 -6.667079031467437744e-02 2.702780067920684814e-01
1.947306841611862183e-01 4.647415876388549805e-02 -1.058330535888671875e-01
3.966230750083923340e-01 7.590569555759429932e-02 8.122367411851882935e-02
-6.815412081778049469e-03 -7.761772722005844116e-02 -5.192406103014945984e-02
3.364548385143280029e-01 -8.494231849908828735e-02 2.736606597900390625e-01
-5.542420148849487305e-01 2.247614040970802307e-02 -7.006241381168365479e-02
-9.441751986742019653e-02 4.684043116867542267e-03 -6.239346861839294434e-01
2.515695095062255859e-01 -6.208959966897964478e-02 -7.618843019008636475e-02
-1.368468701839447021e-01 1.730897277593612671e-02 7.773793935775756836e-01
9.381114691495895386e-02 9.878505021333694458e-02 -4.851480200886726379e-02
2.034402936697006226e-01 -8.126670122146606445e-02 -4.430649057030677795e-02
-2.323062568902969360e-01 3.438192605972290039e-02 1.026913896203041077e-01
-6.601422429084777832e-01 7.822293043136596680e-02 -1.545482277870178223e-01
1.733961552381515503e-01 2.183689922094345093e-02 -1.113731116056442261e-01
5.665549263358116150e-02 -5.130247026681900024e-02 -3.404863178730010986e-01
1.872995644807815552e-01 -8.318441361188888550e-02 3.257584571838378906e-01
-5.691308975219726562e-01 2.066562920808792114e-01 9.762304835021495819e-03
4.775664210319519043e-01 -6.672405451536178589e-02 -6.995587795972824097e-02
2.903513051569461823e-02 -1.425801813602447510e-01 -2.460390329360961914e-01
-6.988161206245422363e-01 3.048324584960937500e-01 3.556379582732915878e-03
-1.143137738108634949e-01 3.278383612632751465e-02 8.451385498046875000e-01
-6.168325245380401611e-02 -8.560135611332952976e-04 -6.145591735839843750e-01
6.652890443801879883e-01 -6.677733361721038818e-02 -6.540130823850631714e-02
-3.032082915306091309e-01 1.126285176724195480e-02 1.028511971235275269e-01
7.583512663841247559e-01 -5.018379539251327515e-02 -6.777181476354598999e-02
-3.295768201351165771e-01 -6.733667105436325073e-02 -4.033789783716201782e-02
-7.213492393493652344e-01 2.550252377986907959e-01 1.558763673529028893e-03
-4.302033782005310059e-01 7.134445477277040482e-03 8.596467971801757812e-02
-1.421738564968109131e-01 -8.387693017721176147e-02 -3.208108246326446533e-02
5.898857116699218750e-01 -1.554182022809982300e-01 -1.131358789280056953e-03
-8.165941387414932251e-02 1.068287938833236694e-01 9.469321928918361664e-03
-2.868264354765415192e-02 -5.146228149533271790e-02 3.261579871177673340e-01
-5.009708553552627563e-02 2.463355846703052521e-02 7.507711648941040039e-01
-8.315096795558929443e-02 2.276911586523056030e-02 -7.503704428672790527e-01
9.032337926328182220e-03 7.187718059867620468e-03 1.104155033826828003e-01
4.501605406403541565e-02 -5.279402807354927063e-02 -2.040091902017593384e-01
2.430463582277297974e-01 -4.560260847210884094e-02 -2.010261118412017822e-01
-1.547174714505672455e-02 -8.331759274005889893e-02 3.213559836149215698e-02
-1.283237189054489136e-01 5.369221046566963196e-02 9.776393324136734009e-02
3.444187045097351074e-01 5.222729220986366272e-02 -1.022107154130935669e-01
-7.026515603065490723e-01 8.384289592504501343e-02 -3.009867966175079346e-01
-3.572504520416259766e-01 2.910822257399559021e-02 9.693825244903564453e-02
-5.359172224998474121e-01 9.455011039972305298e-02 -1.359647978097200394e-02
-6.440547704696655273e-01 5.722804926335811615e-03 1.189309544861316681e-02
6.211564689874649048e-02 -9.058890491724014282e-02 -1.025569587945938110e-01
1.020945906639099121e-01 -7.913590967655181885e-02 -3.348397314548492432e-01
3.040135800838470459e-01 -6.957398355007171631e-02 -6.377658247947692871e-02
1.416207402944564819e-01 -8.427643775939941406e-02 -3.303917050361633301e-01
4.201682806015014648e-01 3.698553657159209251e-03 -1.127581223845481873e-01
-8.261826634407043457e-02 -4.608203098177909851e-02 -1.093488559126853943e-01
5.439671874046325684e-01 -7.487434148788452148e-02 5.312388017773628235e-02
8.218487501144409180e-01 -3.169920295476913452e-02 -5.634545162320137024e-02
-1.037663668394088745e-01 1.099650841206312180e-02 -7.263191342353820801e-01
2.874733507633209229e-01 -9.668830037117004395e-02 -9.224926680326461792e-02
3.903372287750244141e-01 -6.920110434293746948e-02 -8.822740614414215088e-02
7.339537143707275391e-01 -8.371712267398834229e-02 -2.010309603065252304e-03
2.780445814132690430e-01 1.025938391685485840e-01 -3.868653252720832825e-02
3.041467666625976562e-01 -4.309892281889915466e-02 1.593437641859054565e-01
-2.886390089988708496e-01 -7.804388552904129028e-02 -4.860241431742906570e-03
-3.041391074657440186e-02 2.330182306468486786e-02 7.365214824676513672e-01
-2.005575001239776611e-01 -4.938475787639617920e-02 8.412688225507736206e-02
-1.019804365932941437e-02 -1.004504226148128510e-02 5.487722754478454590e-01
-5.390587449073791504e-02 3.565377090126276016e-03 -6.766717433929443359e-01
8.531462401151657104e-02 -3.803829848766326904e-02 1.463725715875625610e-01
6.327678561210632324e-01 9.953083097934722900e-02 -3.226752951741218567e-02
2.826411509886384010e-03 -2.203074097633361816e-02 -4.138920605182647705e-01
1.943311691284179688e-01 -7.870975136756896973e-02 -3.284473419189453125e-01
1.895368993282318115e-01 -4.389796406030654907e-02 -1.148622706532478333e-01
-1.024612486362457275e-01 -8.462270349264144897e-02 -2.768632955849170685e-02
-7.612749338150024414e-01 4.075365364551544189e-01 7.064475212246179581e-04
4.264554753899574280e-02 -9.860601276159286499e-02 -1.778537482023239136e-01
7.964923977851867676e-01 4.490916035138070583e-04 -6.484197825193405151e-02
2.345231920480728149e-01 -3.233843669295310974e-02 -2.898001372814178467e-01
2.481336146593093872e-01 -2.083217166364192963e-02 -2.071521133184432983e-01
-2.170711010694503784e-01 7.027910090982913971e-03 -1.107072383165359497e-01
2.862481474876403809e-01 -1.018554568290710449e-01 -3.216098994016647339e-02
6.499221175909042358e-02 -1.812540292739868164e-01 2.380231916904449463e-01
2.877130508422851562e-01 -4.371152445673942566e-02 1.115341708064079285e-01
1.092860028147697449e-01 -1.002840101718902588e-01 -7.096800208091735840e-02
-1.255004256963729858e-01 -8.803195506334304810e-02 4.177742451429367065e-02
5.975032448768615723e-01 -2.368210256099700928e-02 1.031175479292869568e-01
-7.408726215362548828e-01 8.245787769556045532e-02 -2.171135693788528442e-01
-2.218920290470123291e-01 8.770494908094406128e-02 6.284561008214950562e-02
2.318863570690155029e-01 -2.117842808365821838e-02 -3.007736802101135254e-01
-7.431632280349731445e-01 7.345528900623321533e-02 -1.884278059005737305e-01
-7.815707325935363770e-01 9.465665370225906372e-02 3.713307380676269531e-01
-1.909423023462295532e-01 3.510107100009918213e-02 -9.533547759056091309e-01
-6.099887490272521973e-01 2.239689528942108154e-01 8.483830839395523071e-03
2.779646813869476318e-01 -7.367576658725738525e-02 -2.999480366706848145e-01
1.059300154447555542e-01 -2.040600962936878204e-02 4.614897966384887695e-01
2.523419260978698730e-01 -7.916254550218582153e-02 4.537313431501388550e-02
7.403194308280944824e-01 -5.095620453357696533e-02 6.918471306562423706e-02
4.356431365013122559e-01 1.224834099411964417e-02 -1.136370748281478882e-01
2.850229144096374512e-01 -8.179940283298492432e-02 -3.423774242401123047e-01
7.591250538825988770e-02 -1.297487877309322357e-02 5.280769467353820801e-01
2.766862213611602783e-01 7.955467700958251953e-02 -8.188829571008682251e-02
1.692411303520202637e-01 -1.198938954621553421e-02 1.061805486679077148e-01
1.812800914049148560e-01 -1.186886951327323914e-01 -3.072992563247680664e-01
1.982731372117996216e-01 -1.357350200414657593e-01 -3.303117752075195312e-01
7.466052770614624023e-01 -3.476220741868019104e-02 8.002510666847229004e-02
1.867135912179946899e-01 -5.961254611611366272e-02 1.776152998208999634e-01
2.192361652851104736e-02 7.161086425185203552e-03 -5.667762160301208496e-01
-3.398298472166061401e-02 -8.281153440475463867e-02 -3.842018544673919678e-02
-5.593026280403137207e-01 2.236227095127105713e-01 9.922114200890064240e-03
2.197941094636917114e-01 -1.312869936227798462e-01 3.541778326034545898e-01
2.205132544040679932e-01 -5.274074524641036987e-02 3.208842873573303223e-01
-1.909423023462295532e-01 3.510107100009918213e-02 -9.533547759056091309e-01
2.859551608562469482e-01 -1.574158072471618652e-01 -3.085510730743408203e-01
6.765570491552352905e-02 -3.934340551495552063e-02 1.115341708064079285e-01
6.235535815358161926e-02 -1.700673699378967285e-01 -2.232395708560943604e-01
-2.173094265162944794e-02 -1.515893731266260147e-02 4.731824696063995361e-01
1.682822555303573608e-01 -1.014559417963027954e-01 -4.249532148241996765e-02
6.022709012031555176e-01 -1.729173064231872559e-01 1.554207317531108856e-02
5.734799802303314209e-02 -1.441250145435333252e-01 1.718088835477828979e-01
-1.074686124920845032e-01 1.054171398282051086e-01 -2.033510431647300720e-02
-3.257133811712265015e-02 1.251469366252422333e-02 6.353356242179870605e-01
-4.218133985996246338e-01 1.057633906602859497e-01 1.250569708645343781e-02
-6.312700510025024414e-01 8.437558263540267944e-02 3.791536763310432434e-02
-7.737119495868682861e-02 1.017681583762168884e-01 -4.097713157534599304e-02
1.944376975297927856e-01 -8.909735083580017090e-02 -2.889260416850447655e-03
-6.899999976158142090e-01 2.402095869183540344e-02 2.244050614535808563e-02
2.232832759618759155e-01 -1.084875389933586121e-01 -2.952336668968200684e-01
9.809936583042144775e-02 1.070951372385025024e-01 -1.079981867223978043e-02
5.641578137874603271e-02 -1.201802492141723633e-01 2.459071129560470581e-01
-6.527110934257507324e-01 7.928832620382308960e-02 -1.790256798267364502e-01
-1.999967545270919800e-02 -1.006036251783370972e-01 4.952817782759666443e-02
-7.503013610839843750e-01 8.248451352119445801e-02 -3.047423064708709717e-01
1.804543882608413696e-01 1.397960726171731949e-02 1.102290526032447815e-01
5.156822875142097473e-02 -6.022514775395393372e-02 -1.553739160299301147e-01
-7.189787626266479492e-01 2.843236029148101807e-01 2.890507457777857780e-03
4.173996299505233765e-02 -6.608481705188751221e-02 2.374105900526046753e-01
1.197002381086349487e-01 -4.931147210299968719e-03 4.426589310169219971e-01
3.557651340961456299e-01 -1.044923141598701477e-01 -3.802522122859954834e-01
5.836012959480285645e-02 1.015018075704574585e-01 3.964663296937942505e-02
-4.471683502197265625e-02 -5.612338334321975708e-02 1.089505776762962341e-01
5.975032448768615723e-01 -2.368210256099700928e-02 1.031175479292869568e-01
-7.315770387649536133e-01 7.595896720886230469e-02 2.272893190383911133e-01
1.284897476434707642e-01 1.024873033165931702e-01 3.434629365801811218e-02
-5.770414471626281738e-01 1.638806909322738647e-01 9.815574623644351959e-03
7.885285019874572754e-01 -5.532434210181236267e-02 5.083328112959861755e-02
-6.042090058326721191e-01 2.987064421176910400e-01 -5.925636272877454758e-03
6.203559637069702148e-01 7.502674311399459839e-02 -8.199483901262283325e-02
7.575269788503646851e-02 -5.151554197072982788e-02 2.135723680257797241e-01
3.505979776382446289e-01 -9.642194211483001709e-02 -3.400867879390716553e-01
6.944023072719573975e-02 -5.391268059611320496e-02 -1.998008787631988525e-01
4.917109385132789612e-02 -1.270853541791439056e-02 3.824641108512878418e-01
3.883396089076995850e-01 1.037924140691757202e-01 2.893941476941108704e-02
1.113635227084159851e-01 -2.187760081142187119e-03 -5.061286091804504395e-01
-1.136212646961212158e-01 1.424595993012189865e-02 7.551659345626831055e-01
4.603070616722106934e-01 8.749186992645263672e-02 -7.589545100927352905e-02
6.022176742553710938e-01 8.264432102441787720e-02 7.072953879833221436e-02
4.436868727207183838e-01 1.069619581103324890e-01 -1.380955893546342850e-02
4.664078354835510254e-02 -3.596077486872673035e-02 2.034244686365127563e-01
4.852106273174285889e-01 1.080806255340576172e-01 -7.390554528683423996e-03
1.456159800291061401e-01 -2.333584614098072052e-02 4.156245291233062744e-01
-1.969351321458816528e-01 1.005429551005363464e-01 4.196387156844139099e-02
3.279064595699310303e-02 -1.287566721439361572e-01 -2.517655193805694580e-01
-7.139713764190673828e-01 7.942149788141250610e-02 -1.724468618631362915e-01
8.875051885843276978e-02 6.919370591640472412e-02 -8.891990780830383301e-02
-3.081343509256839752e-02 1.475202571600675583e-02 -6.540853381156921387e-01
1.707745715975761414e-03 -4.046206921339035034e-02 -9.579170495271682739e-02
-1.799154579639434814e-01 2.063832990825176239e-02 -1.114530116319656372e-01
-1.072821617126464844e-01 1.584405079483985901e-02 -7.799351215362548828e-01
6.166271567344665527e-01 9.737341105937957764e-02 -4.670363292098045349e-02
-7.703040838241577148e-01 9.476318955421447754e-02 3.661369085311889648e-01
-6.363573074340820312e-01 3.436661064624786377e-01 1.585398451425135136e-03
1.505181938409805298e-02 -3.217862546443939209e-02 2.641520202159881592e-01
8.379642665386199951e-02 -3.199880709871649742e-03 -4.558419585227966309e-01
7.665827870368957520e-02 -2.149804309010505676e-02 1.038899570703506470e-01
2.842504978179931641e-01 -6.970716267824172974e-02 3.587324321269989014e-01
4.014439880847930908e-01 -2.282978966832160950e-02 -1.067386418581008911e-01
3.838397189974784851e-02 1.727565424516797066e-03 5.057036876678466797e-01
4.338053166866302490e-01 5.038948357105255127e-02 1.006405055522918701e-01
-6.434674561023712158e-02 -1.878128759562969208e-02 -4.778423905372619629e-01
2.818281203508377075e-02 -1.942051947116851807e-02 3.376908898353576660e-01
2.749549448490142822e-01 -6.693714112043380737e-02 -3.493823707103729248e-01
1.641019806265830994e-02 -5.098285526037216187e-02 -1.359570920467376709e-01
6.861973404884338379e-01 7.393471151590347290e-02 6.297878921031951904e-02
1.620230525732040405e-01 -1.119034923613071442e-02 3.535652458667755127e-01
7.138457894325256348e-02 -9.330566227436065674e-02 -2.452133595943450928e-01
-1.174286566674709320e-02 -2.248353324830532074e-02 4.624220132827758789e-01
9.964417666196823120e-02 -3.825138136744499207e-02 3.369983434677124023e-01
-5.488617420196533203e-01 1.420134603977203369e-01 -1.247781515121459961e-02
3.382940590381622314e-02 -1.432194262742996216e-01 2.203908860683441162e-01
-6.982035636901855469e-01 6.282796710729598999e-02 7.794758677482604980e-02
-3.032082915306091309e-01 1.126285176724195480e-02 1.028511971235275269e-01
6.795653104782104492e-01 5.877947434782981873e-02 -8.412563055753707886e-02
-4.567569494247436523e-02 5.556368851102888584e-04 5.520483255386352539e-01
5.420228242874145508e-01 -6.103085353970527649e-03 -1.105207875370979309e-01
6.525855511426925659e-02 -3.143284842371940613e-02 -2.169537544250488281e-01
2.335110753774642944e-01 -7.114545255899429321e-02 -3.562275469303131104e-01
2.681630551815032959e-01 -9.519674628973007202e-02 -2.863375842571258545e-01
8.619356900453567505e-02 1.914014690555632114e-03 5.259461402893066406e-01
-1.445962116122245789e-02 -2.096534706652164459e-02 -3.746055960655212402e-01
-1.031271219253540039e-01 -3.755887597799301147e-02 9.520698338747024536e-02
5.961196497082710266e-02 -1.371999531984329224e-01 2.011871635913848877e-01
2.387581318616867065e-01 -3.116650693118572235e-02 3.372380733489990234e-01
-6.509531736373901367e-01 1.059764698147773743e-01 4.515234846621751785e-03
-2.886390089988708496e-01 -7.804388552904129028e-02 -4.860241431742906570e-03
-3.821792826056480408e-02 3.059311769902706146e-03 -6.871125698089599609e-01
-1.705666184425354004e-01 2.820263616740703583e-02 8.522233366966247559e-01
5.889282375574111938e-02 -6.366104632616043091e-02 2.356526851654052734e-01
-6.703168153762817383e-01 8.155228942632675171e-02 -2.541094124317169189e-01
-5.137569904327392578e-01 6.786195933818817139e-02 -7.206003367900848389e-02
1.962488889694213867e-01 -1.322991251945495605e-01 -3.466123640537261963e-01
8.083182573318481445e-01 -5.601683631539344788e-02 -4.566486924886703491e-02
4.162795841693878174e-01 -5.250104144215583801e-02 -8.694892376661300659e-02
2.756740748882293701e-01 -1.487328410148620605e-01 3.088186979293823242e-01
7.816834449768066406e-01 3.009371086955070496e-02 4.601237177848815918e-02
-2.793687209486961365e-02 -5.556404590606689453e-02 -1.560131609439849854e-01
-1.377524584531784058e-01 1.021410450339317322e-01 3.591775149106979370e-02
-1.519488543272018433e-01 1.281366795301437378e-01 -7.584705017507076263e-04
-5.172181501984596252e-02 -4.421759769320487976e-02 9.014636278152465820e-02
-6.952736973762512207e-01 8.605358749628067017e-02 2.665491402149200439e-01
-6.088701486587524414e-01 1.415873020887374878e-01 -1.356984488666057587e-02
1.992600224912166595e-02 -2.906235121190547943e-02 -3.607554733753204346e-01
-7.139447927474975586e-01 1.044316515326499939e-01 -3.855823015328496695e-04
7.886898517608642578e-02 8.983573317527770996e-02 -7.413755357265472412e-02
1.738755702972412109e-01 -4.480356723070144653e-02 -3.404330313205718994e-01
6.022709012031555176e-01 -1.729173064231872559e-01 1.554207317531108856e-02
-7.195913195610046387e-01 3.436927199363708496e-01 2.544254064559936523e-03
3.979547917842864990e-01 3.827061876654624939e-02 -1.077241301536560059e-01
-1.594598889350891113e-01 3.379595652222633362e-02 9.529299139976501465e-01
3.741432130336761475e-01 -1.446843296289443970e-01 -3.079917430877685547e-01
-4.689837694168090820e-01 -4.091486334800720215e-02 -2.033510431647300720e-02
-1.019804365932941437e-02 -1.004504226148128510e-02 5.487722754478454590e-01
2.718653082847595215e-01 -4.874552413821220398e-02 -1.592892408370971680e-01
-3.803148493170738220e-02 4.106727987527847290e-02 -1.068185418844223022e-01
-6.573988795280456543e-01 2.782974764704704285e-02 -4.305464774370193481e-02
-6.754040718078613281e-01 8.128593862056732178e-02 -1.971107572317123413e-01
1.372792571783065796e-01 -6.411384046077728271e-02 1.115075275301933289e-01
7.312902212142944336e-01 5.182776972651481628e-02 6.593525409698486328e-02
2.233631908893585205e-01 2.322190813720226288e-02 1.081781685352325439e-01
7.540784310549497604e-03 -4.776002466678619385e-02 2.298995554447174072e-01
-8.735927194356918335e-02 3.113247267901897430e-02 8.200750350952148438e-01
-6.718084216117858887e-01 3.535476624965667725e-01 -7.550363894551992416e-03
1.729433536529541016e-01 -2.208401262760162354e-02 -1.628583222627639771e-01
-1.065083593130111694e-02 -3.231180459260940552e-02 2.902009189128875732e-01
-7.317634820938110352e-01 8.056680113077163696e-02 1.876832842826843262e-01
4.917109385132789612e-02 -1.876996755599975586e-01 -1.892801076173782349e-01
2.197941094636917114e-01 -1.312869936227798462e-01 3.541778326034545898e-01
3.683634698390960693e-01 -8.137324452400207520e-02 -4.483918845653533936e-02
-5.699299573898315430e-01 1.070951372385025024e-01 -1.311705261468887329e-02
1.765657067298889160e-01 -9.232018142938613892e-02 -3.127593994140625000e-01
4.056803137063980103e-02 1.104977075010538101e-02 -6.353077888488769531e-01
3.733175396919250488e-01 -1.340836584568023682e-01 -3.730075061321258545e-01
1.917475908994674683e-01 -9.983121603727340698e-02 -8.018366992473602295e-02
-2.868264354765415192e-02 -5.146228149533271790e-02 3.261579871177673340e-01
3.728380799293518066e-01 -1.038797199726104736e-01 2.779488563537597656e-01
-5.790923237800598145e-01 1.251535713672637939e-01 9.416051208972930908e-03
1.523279547691345215e-01 -1.630424521863460541e-02 4.519278705120086670e-01
-7.502733170986175537e-02 -6.770955026149749756e-02 1.030909046530723572e-01
-3.902244269847869873e-01 1.037924140691757202e-01 2.425167523324489594e-02
4.397868644446134567e-03 1.544453017413616180e-02 6.524618268013000488e-01
1.571769081056118011e-02 -1.534538716077804565e-02 -3.878164887428283691e-01
2.896041274070739746e-01 -4.379143565893173218e-02 -1.686913520097732544e-01
-1.641742438077926636e-01 3.582020848989486694e-02 9.044544100761413574e-01
-7.029178738594055176e-01 6.245508790016174316e-02 -7.520294189453125000e-02
-1.475260592997074127e-02 -4.786657169461250305e-02 8.734969794750213623e-02
1.917475908994674683e-01 -9.983121603727340698e-02 -8.018366992473602295e-02
2.601193189620971680e-01 -5.588366091251373291e-02 -1.336132287979125977e-01
2.027211636304855347e-01 -1.324855685234069824e-01 3.123877644538879395e-01
2.453902363777160645e-01 -1.265726238489151001e-01 3.770305514335632324e-01
2.810277044773101807e-01 -2.661193907260894775e-02 1.795596480369567871e-01
-7.205768227577209473e-01 7.611877471208572388e-02 -1.338529437780380249e-01
-2.218920290470123291e-01 8.770494908094406128e-02 6.284561008214950562e-02
3.998346161097288132e-03 -1.052447594702243805e-02 4.341357648372650146e-01
5.340604111552238464e-02 -5.662943795323371887e-02 1.297524124383926392e-01
2.850229144096374512e-01 -1.425002813339233398e-01 3.463738262653350830e-01
1.084603220224380493e-01 -5.923966690897941589e-02 1.663487404584884644e-01
-1.485928595066070557e-01 6.921374704688787460e-03 -7.021346688270568848e-01
-2.257274389266967773e-01 1.898696646094322205e-02 1.065001785755157471e-01
-7.349863052368164062e-01 2.135014533996582031e-01 -1.957040047273039818e-03
-2.687147259712219238e-02 -6.429329514503479004e-04 -1.115861833095550537e-01
2.850229144096374512e-01 -7.812377810478210449e-02 2.936367988586425781e-01
1.625024825334548950e-01 -1.268922388553619385e-01 3.190997540950775146e-01
-7.205768227577209473e-01 7.611877471208572388e-02 -1.338529437780380249e-01
-1.203584764152765274e-02 2.063832990825176239e-02 -7.217112779617309570e-01
6.715103052556514740e-03 4.763946868479251862e-03 6.855157613754272461e-01
1.591731309890747070e-01 -9.333231300115585327e-02 3.390226066112518311e-01
1.962488889694213867e-01 -1.322991251945495605e-01 -3.466123640537261963e-01
-1.130086630582809448e-01 8.496154844760894775e-02 -7.198012620210647583e-02
4.367617964744567871e-01 8.770494908094406128e-02 -6.817133724689483643e-02
-7.089906334877014160e-01 8.541434258222579956e-02 2.392217665910720825e-01
-1.557828765362501144e-02 9.504953399300575256e-03 -1.139034181833267212e-01
-5.706757307052612305e-01 9.340481460094451904e-02 -1.303714793175458908e-02
-6.602754592895507812e-01 6.525174528360366821e-02 4.595910385251045227e-02
-6.968451142311096191e-01 7.177729159593582153e-02 7.123559713363647461e-02
2.900302708148956299e-01 -5.319353565573692322e-02 -1.143828481435775757e-01
-1.641742438077926636e-01 3.582020848989486694e-02 9.044544100761413574e-01
-5.457987785339355469e-01 2.044189572334289551e-01 -1.085308752954006195e-02
3.417285680770874023e-01 -9.032921865582466125e-03 -1.078839376568794250e-01
-7.208697795867919922e-01 8.946284651756286621e-02 3.318578600883483887e-01
