-1.658889055252075195e-01 -7.203913480043411255e-02 -2.698967978358268738e-02
2.325419336557388306e-03 -3.137929737567901611e-02 -2.235345542430877686e-01
3.008549213409423828e-01 -1.500279828906059265e-02 -1.103195622563362122e-01
6.338217854499816895e-02 -4.480750113725662231e-02 -1.414375901222229004e-01
-1.253094822168350220e-01 -3.119168430566787720e-02 -7.960356026887893677e-02
-5.523315668106079102e-01 9.598756581544876099e-02 3.642572462558746338e-02
2.639474868774414062e-01 -1.234200894832611084e-01 -2.406347393989562988e-01
-8.295796513557434082e-01 8.786632120609283447e-02 -1.797923892736434937e-01
-2.142185531556606293e-02 -1.821912825107574463e-02 -3.262160420417785645e-01
4.507587477564811707e-02 -1.607490889728069305e-02 2.358921170234680176e-01
-7.146266847848892212e-02 -1.708612078800797462e-03 5.048313140869140625e-01
2.236360907554626465e-01 -1.247602328658103943e-01 -2.999493181705474854e-01
1.128333285450935364e-01 9.955234080553054810e-02 -3.095649369060993195e-02
-1.020446494221687317e-01 6.615605950355529785e-02 -7.507388293743133545e-02
7.429401278495788574e-01 8.229133486747741699e-02 3.980287909507751465e-02
3.263711929321289062e-01 1.006512492895126343e-01 -2.830301783978939056e-02
2.547541260719299316e-01 -6.413231790065765381e-02 3.104306757450103760e-01
-1.193592548370361328e-01 8.237174898386001587e-02 5.759993568062782288e-02
1.189711764454841614e-01 5.803481489419937134e-02 -8.067566901445388794e-02
1.128333285450935364e-01 9.955234080553054810e-02 -3.095649369060993195e-02
6.244408339262008667e-02 -1.899641565978527069e-02 -3.255191743373870850e-01
-6.980583667755126953e-01 1.387648135423660278e-01 -1.037194952368736267e-02
-2.679539322853088379e-01 -4.049225151538848877e-02 -7.266163080930709839e-02
-8.283736109733581543e-01 4.774253815412521362e-02 -1.927047595381736755e-02
3.952811956405639648e-01 -6.091597676277160645e-02 6.419342011213302612e-02
2.722831666469573975e-01 -6.801139097660779953e-03 9.113022685050964355e-02
2.997023761272430420e-01 -4.510233178734779358e-02 -1.042621284723281860e-01
2.273884564638137817e-01 -6.000468507409095764e-02 3.007548749446868896e-01
6.054954528808593750e-01 -1.867477595806121826e-02 -8.496411144733428955e-02
7.672234773635864258e-01 9.118986874818801880e-02 6.439987919293344021e-04
3.665558993816375732e-03 -1.376987341791391373e-02 -3.012626469135284424e-01
7.583249807357788086e-01 -5.630589649081230164e-02 -3.084928169846534729e-02
-5.245948582887649536e-02 2.632711082696914673e-02 -6.462950110435485840e-01
3.479206264019012451e-01 -1.154596582055091858e-01 -2.913188040256500244e-01
-1.709010303020477295e-01 3.584210202097892761e-02 -8.133835792541503906e-01
7.672234773635864258e-01 9.118986874818801880e-02 6.439987919293344021e-04
-2.142185531556606293e-02 -1.821912825107574463e-02 -3.262160420417785645e-01
-1.394077390432357788e-01 3.431434184312820435e-02 7.753251194953918457e-01
-3.359526395797729492e-01 1.852749474346637726e-02 -9.153079986572265625e-02
3.243341743946075439e-01 -1.293971240520477295e-01 -3.073736727237701416e-01
-4.307850822806358337e-02 -2.325805649161338806e-02 -8.303432166576385498e-02
-3.153412938117980957e-01 -7.412976026535034180e-02 -9.809090755879878998e-03
-1.569903790950775146e-01 -3.191536292433738708e-02 7.735359668731689453e-02
-2.395965754985809326e-01 2.962385304272174835e-02 -8.645233511924743652e-01
-4.382899031043052673e-02 -7.362051308155059814e-02 -1.967251859605312347e-02
-2.506703324615955353e-02 -8.141281083226203918e-03 3.704421222209930420e-01
7.429401278495788574e-01 8.229133486747741699e-02 3.980287909507751465e-02
-3.885665237903594971e-01 -2.202513068914413452e-02 -7.995199412107467651e-02
3.166953921318054199e-01 -1.076600551605224609e-01 -2.288415133953094482e-01
1.683687120676040649e-01 -2.615275606513023376e-02 2.633649706840515137e-01
-8.888448029756546021e-02 1.185359712690114975e-02 5.687291622161865234e-01
8.137263655662536621e-01 4.918989166617393494e-02 -4.438468813896179199e-02
3.127243742346763611e-02 -4.531675577163696289e-02 1.285737305879592896e-01
1.213524118065834045e-02 -1.223211809992790222e-01 -1.864930987358093262e-01
2.605703175067901611e-01 -7.088662683963775635e-02 -3.157897591590881348e-01
1.074191704392433167e-01 -1.333371400833129883e-01 -1.864930987358093262e-01
-1.709010303020477295e-01 3.584210202097892761e-02 -8.133835792541503906e-01
-9.896654635667800903e-03 9.633599966764450073e-02 -3.870250284671783447e-02
-8.033933639526367188e-01 7.014967501163482666e-02 -1.078001037240028381e-01
-7.028334587812423706e-02 9.039306081831455231e-03 -6.167851090431213379e-01
-1.874115467071533203e-01 2.796207927167415619e-02 -7.798532843589782715e-01
3.491761162877082825e-02 -1.553690135478973389e-01 1.508468538522720337e-01
-5.160180106759071350e-02 -4.759499430656433105e-02 2.219814658164978027e-01
6.523157656192779541e-02 -1.907682418823242188e-02 2.034875452518463135e-01
-4.195773303508758545e-01 -4.604042693972587585e-02 -5.574907362461090088e-02
1.988167017698287964e-01 -5.518018081784248352e-02 1.200504451990127563e-01
-5.437010526657104492e-01 3.415352478623390198e-02 7.799686491489410400e-02
-9.054583907127380371e-01 9.861423820257186890e-02 -2.382492870092391968e-01
9.391056001186370850e-02 1.050737202167510986e-01 -1.446618931367993355e-03
7.112818956375122070e-02 -8.903212100267410278e-02 -1.979110836982727051e-01
4.386974871158599854e-02 4.911682102829217911e-03 -3.920972943305969238e-01
-2.636654973030090332e-01 6.425306200981140137e-02 9.044609665870666504e-01
3.952811956405639648e-01 -7.713167369365692139e-02 -2.213837392628192902e-02
3.042588531970977783e-01 -1.385636627674102783e-01 2.580312192440032959e-01
1.694408506155014038e-01 -3.564094752073287964e-02 2.165405005216598511e-01
7.672234773635864258e-01 9.118986874818801880e-02 6.439987919293344021e-04
-8.151330351829528809e-01 9.657722711563110352e-02 2.254188060760498047e-02
-8.946300745010375977e-01 8.730345964431762695e-02 -2.451376169919967651e-01
-6.489556431770324707e-01 -1.111638732254505157e-02 3.157442063093185425e-02
3.374675214290618896e-01 -6.094278767704963684e-02 2.603630721569061279e-01
4.684485867619514465e-02 1.534526818431913853e-03 -5.115841627120971680e-01
-5.813053846359252930e-01 -1.100918091833591461e-02 -5.942105501890182495e-02
3.389684855937957764e-01 -1.076868548989295959e-01 -2.397502511739730835e-01
1.862151548266410828e-02 1.017769724130630493e-01 2.259548567235469818e-02
-4.029102250933647156e-02 -3.338951244950294495e-02 3.235640525817871094e-01
1.160496696829795837e-01 1.105678849853575230e-03 4.065722823143005371e-01
4.355121850967407227e-01 3.935326263308525085e-02 8.542124181985855103e-02
6.965981125831604004e-01 -5.992427468299865723e-02 -4.454550892114639282e-02
-1.729648560285568237e-01 -7.327206432819366455e-02 -2.165592461824417114e-02
-1.088525652885437012e-01 9.636279940605163574e-02 -3.864889591932296753e-02
3.574088215827941895e-01 -6.021910905838012695e-02 -7.091945409774780273e-02
2.425856292247772217e-01 -5.772644653916358948e-02 -5.478417128324508667e-02
7.372805476188659668e-02 -1.433613747358322144e-01 -1.480310857295989990e-01
2.189991772174835205e-01 -7.418335229158401489e-02 -1.533046551048755646e-02
-1.358965784311294556e-01 2.238710038363933563e-02 -6.848374605178833008e-01
-8.787091970443725586e-01 1.919415593147277832e-01 -1.687843934632837772e-03
1.564640738070011139e-02 -8.608379960060119629e-02 -8.600942790508270264e-02
-3.857564181089401245e-02 6.326135993003845215e-02 7.429807633161544800e-02
-7.279166579246520996e-01 7.840493321418762207e-02 3.948124498128890991e-02
4.482970833778381348e-01 2.284274809062480927e-02 8.796750009059906006e-02
9.760934859514236450e-02 -5.000724643468856812e-02 1.276356279850006104e-01
-1.683547645807266235e-01 -3.561414033174514771e-02 6.338933855295181274e-02
8.474400639533996582e-02 -1.454519927501678467e-01 1.575207412242889404e-01
-9.346776455640792847e-02 1.906355470418930054e-02 -7.291156053543090820e-01
6.346033215522766113e-01 -2.711765840649604797e-02 -8.147975802421569824e-02
6.957940459251403809e-01 7.827091962099075317e-02 -5.842935293912887573e-02
8.277441263198852539e-01 6.974762678146362305e-02 1.522471755743026733e-02
6.721078418195247650e-03 -1.130401249974966049e-02 4.361089766025543213e-01
9.257041662931442261e-02 7.384846359491348267e-02 6.615002453327178955e-02
-8.765113353729248047e-01 7.971826940774917603e-02 -1.076124757528305054e-01
3.320223838090896606e-02 4.429225344210863113e-03 -5.381188988685607910e-01
-4.133632779121398926e-02 1.582041569054126740e-02 -6.598303914070129395e-01
6.599587202072143555e-01 -6.528483331203460693e-02 -4.001583531498908997e-02
-2.352545410394668579e-01 8.148725330829620361e-02 5.907408893108367920e-02
-4.742014408111572266e-01 -6.901007145643234253e-04 -8.156016469001770020e-02
3.498504161834716797e-01 -6.678578257560729980e-02 -2.357030212879180908e-01
-8.434099555015563965e-01 2.816773056983947754e-01 4.959248472005128860e-03
-4.439184814691543579e-02 1.239695120602846146e-03 -5.464010238647460938e-01
5.455912351608276367e-01 -2.923507802188396454e-02 7.756801694631576538e-02
-6.495988965034484863e-01 8.523964136838912964e-02 4.548507183790206909e-02
-2.518186867237091064e-01 1.943844399647787213e-04 8.719021826982498169e-02
-7.754112482070922852e-01 1.641470640897750854e-01 -9.514260105788707733e-03
3.240929543972015381e-01 -5.032887682318687439e-02 7.984625548124313354e-02
-1.283918023109436035e-01 1.378340274095535278e-02 -6.740894317626953125e-01
-1.485206931829452515e-01 2.120777405798435211e-02 -7.633159756660461426e-01
-2.740308409556746483e-03 -5.526058748364448547e-02 -9.876755625009536743e-02
-6.416384577751159668e-01 1.017501726746559143e-01 1.841424964368343353e-02
1.615072041749954224e-01 -2.462499774992465973e-02 2.793126404285430908e-01
3.427476882934570312e-01 -1.111980155110359192e-01 3.191683888435363770e-01
5.176091194152832031e-01 9.965954720973968506e-02 -3.068846650421619415e-02
-6.469185948371887207e-01 9.874825179576873779e-02 2.573141269385814667e-02
3.009311482310295105e-02 -1.275136135518550873e-02 -4.318458735942840576e-01
-4.699172079563140869e-02 -1.125040370970964432e-02 -4.056863188743591309e-01
-5.156759289093315601e-04 -8.830843865871429443e-02 -4.977205395698547363e-02
7.289717346429824829e-02 -1.251622885465621948e-01 1.437441110610961914e-01
-1.564275324344635010e-01 2.948983572423458099e-02 8.423857092857360840e-01
-4.050544276833534241e-02 1.507727545686066151e-03 -4.472306668758392334e-01
-5.787323117256164551e-01 3.940687328577041626e-02 -7.695008069276809692e-02
-6.098277866840362549e-02 7.457940373569726944e-03 -5.086090564727783203e-01
-5.066370218992233276e-02 -8.391278237104415894e-02 4.856739565730094910e-02
-5.554602015763521194e-03 1.004368290305137634e-01 2.583862282335758209e-02
3.280597627162933350e-01 -1.401450484991073608e-01 -2.874324023723602295e-01
7.403402328491210938e-01 6.253768503665924072e-02 -6.314664334058761597e-02
8.508213758468627930e-01 6.680662278085947037e-03 -4.518877714872360229e-02
2.690131962299346924e-01 1.488232146948575974e-02 8.901280909776687622e-02
2.295326739549636841e-01 -4.810424894094467163e-02 -1.545441746711730957e-01
-5.813589692115783691e-01 3.104440309107303619e-02 -7.692328095436096191e-02
6.121115013957023621e-02 -2.441057376563549042e-02 9.574031084775924683e-02
2.298543155193328857e-01 -1.291558891534805298e-01 -2.548402249813079834e-01
-7.264961600303649902e-01 1.328414082527160645e-01 7.639527320861816406e-03
7.844040393829345703e-01 6.427986174821853638e-02 4.709324240684509277e-02
2.566303312778472900e-01 -5.979026108980178833e-02 -2.432614117860794067e-01
1.340343505144119263e-01 -7.605226244777441025e-03 2.111531198024749756e-01
-2.112702466547489166e-02 5.233312956988811493e-03 -4.515459239482879639e-01
1.007720753550529480e-01 -4.654968157410621643e-02 -1.493712216615676880e-01
3.789046704769134521e-01 -1.320237964391708374e-01 -2.740578353404998779e-01
5.682128071784973145e-01 -5.467093363404273987e-02 5.575054138898849487e-02
-6.819272786378860474e-02 -8.192937821149826050e-02 -5.499859526753425598e-02
-5.118057131767272949e-01 1.036799699068069458e-01 1.206198893487453461e-02
-6.085370182991027832e-01 5.447736941277980804e-03 -6.421875953674316406e-02
2.630897760391235352e-01 -9.642966836690902710e-02 2.295666486024856567e-01
-3.625678122043609619e-01 1.276489160954952240e-02 -9.096794575452804565e-02
-4.385579377412796021e-02 1.094230264425277710e-02 5.139175057411193848e-01
-2.419016361236572266e-01 4.935070872306823730e-02 -8.432085067033767700e-02
1.165053173899650574e-01 -5.353789776563644409e-03 2.458091527223587036e-01
2.273884564638137817e-01 -6.000468507409095764e-02 3.007548749446868896e-01
3.491761162877082825e-02 -1.553690135478973389e-01 1.508468538522720337e-01
-3.706622123718261719e-01 3.839561948552727699e-03 -8.925256133079528809e-02
2.501440346240997314e-01 -3.623061254620552063e-02 -2.808925211429595947e-01
3.943699002265930176e-01 9.022496640682220459e-02 -5.036171153187751770e-02
-4.487429931759834290e-02 -8.503849059343338013e-02 -3.264506906270980835e-02
1.101530566811561584e-01 -1.441118568181991577e-01 1.868698149919509888e-01
1.621504575014114380e-01 4.188002087175846100e-03 -2.947495877742767334e-01
1.984682679176330566e-01 -2.244666917249560356e-03 -2.527495920658111572e-01
-1.947019249200820923e-01 6.004502251744270325e-02 7.684434205293655396e-02
-2.151256203651428223e-01 2.654152922332286835e-02 -8.273210525512695312e-01
-6.838260889053344727e-01 -1.001747883856296539e-02 -5.386629607528448105e-03
-9.663049876689910889e-02 -6.413231790065765381e-02 4.318002983927726746e-02
4.188634082674980164e-02 1.375660300254821777e-02 -4.638216197490692139e-01
-7.089671492576599121e-01 5.500609800219535828e-02 4.393050819635391235e-02
1.001020073890686035e-01 -7.426377385854721069e-02 -1.474080421030521393e-02
-1.119616851210594177e-01 5.876574665307998657e-03 5.586513280868530273e-01
5.229696631431579590e-01 4.396334290504455566e-02 -8.651868253946304321e-02
4.943710863590240479e-01 -7.488023489713668823e-02 -1.018432900309562683e-02
6.043387204408645630e-02 -3.684697439894080162e-04 -3.352217674255371094e-01
1.713170409202575684e-01 -1.090537980198860168e-01 2.487574517726898193e-01
1.338735222816467285e-01 6.064199376851320267e-03 3.535831868648529053e-01
-4.195773303508758545e-01 -4.604042693972587585e-02 -5.574907362461090088e-02
-3.879500627517700195e-01 8.762510120868682861e-02 5.047038942575454712e-02
-4.397062361240386963e-01 2.142219804227352142e-02 -8.756399154663085938e-02
-2.105959504842758179e-01 3.112480975687503815e-02 -8.774958848953247070e-01
3.495019972324371338e-01 -1.188368201255798340e-01 2.743541002273559570e-01
-8.166071772575378418e-01 1.486014574766159058e-01 -5.145404487848281860e-03
9.749793447554111481e-03 -1.130401249974966049e-02 8.499239385128021240e-02
-3.035140223801136017e-03 -3.584809368476271629e-03 -4.850762188434600830e-01
-8.688725829124450684e-01 3.472905457019805908e-01 2.841827692463994026e-03
-3.954280018806457520e-01 1.025006473064422607e-01 -2.294245921075344086e-02
-3.718189522624015808e-02 9.334137663245201111e-03 4.960936307907104492e-01
-8.545867204666137695e-01 3.339427709579467773e-01 3.056250279769301414e-03
6.463965773582458496e-01 8.754468709230422974e-02 -5.336362496018409729e-02
5.105289444327354431e-02 -1.345432549715042114e-01 -1.617273241281509399e-01
-6.702638268470764160e-01 4.758172109723091125e-02 -5.904581770300865173e-02
4.636240750551223755e-02 5.195058137178421021e-02 8.019468933343887329e-02
-1.255507022142410278e-01 1.850069500505924225e-02 -6.490824818611145020e-01
-4.382899031043052673e-02 -7.362051308155059814e-02 -1.967251859605312347e-02
2.232876569032669067e-01 -8.846925199031829834e-02 2.441741824150085449e-01
7.819992490112781525e-03 -4.126952961087226868e-02 -2.284662574529647827e-01
-9.963241219520568848e-02 5.688960198312997818e-03 5.811388492584228516e-01
3.300967812538146973e-01 9.392374753952026367e-02 4.154505953192710876e-02
-3.405091166496276855e-01 3.651947248727083206e-03 -9.064631164073944092e-02
3.140644729137420654e-02 -1.482126712799072266e-01 -1.571440398693084717e-01
5.497188568115234375e-01 7.626071572303771973e-02 6.430063396692276001e-02
-5.339758843183517456e-02 -2.146226726472377777e-02 -9.525639563798904419e-02
5.384038761258125305e-02 -9.856662712991237640e-03 4.205901324748992920e-01
-8.379957675933837891e-01 7.036409527063369751e-02 -1.098371073603630066e-01
-8.884385824203491211e-01 2.866894602775573730e-01 -4.609348252415657043e-03
-9.150269627571105957e-01 7.987908273935317993e-02 -1.506845653057098389e-01
-6.978707313537597656e-01 1.504508405923843384e-01 6.755035370588302612e-03
7.839174568653106689e-02 -4.520953819155693054e-02 -6.877523660659790039e-02
3.542729020118713379e-01 -1.250550597906112671e-01 -2.418140619993209839e-01
5.118197202682495117e-01 -9.401015937328338623e-03 8.576966822147369385e-02
1.352136582136154175e-01 -1.417191233485937119e-02 9.482901543378829956e-02
2.631391957402229309e-02 -4.279729723930358887e-02 -2.164586186408996582e-01
4.105855524539947510e-01 -4.319933801889419556e-02 -7.032979279756546021e-02
1.600598692893981934e-01 -1.535122841596603394e-02 1.216318085789680481e-01
2.282461524009704590e-01 -8.603020012378692627e-02 -9.943104349076747894e-03
5.794431567192077637e-01 1.012677177786827087e-01 2.372120320796966553e-02
-3.196029365062713623e-01 -6.354265660047531128e-02 -4.789585620164871216e-02
1.968064755201339722e-01 -9.688533842563629150e-02 2.448978573083877563e-01
8.370179533958435059e-01 -4.638886824250221252e-02 -7.852486334741115570e-03
-1.569903790950775146e-01 -3.191536292433738708e-02 7.735359668731689453e-02
1.029431074857711792e-01 -3.604298830032348633e-02 2.145570963621139526e-01
-8.744134567677974701e-03 -5.889844615012407303e-03 4.615984261035919189e-01
7.413009554147720337e-02 -3.609659522771835327e-02 -2.248478829860687256e-01
2.902410030364990234e-01 -4.976602271199226379e-02 -2.505785822868347168e-01
3.357747569680213928e-02 -8.838151581585407257e-03 4.347956180572509766e-01
1.065614745020866394e-01 -1.306568533182144165e-01 1.789897829294204712e-01
-4.230123013257980347e-02 6.493047345429658890e-03 5.895817279815673828e-01
1.913119107484817505e-01 -4.394981637597084045e-02 -1.751287132501602173e-01
-8.564628958702087402e-01 9.145790338516235352e-02 1.651327461004257202e-01
1.543508619070053101e-01 -2.660840190947055817e-02 -8.164057135581970215e-02
1.315684765577316284e-01 -7.260200381278991699e-02 8.839634805917739868e-02
-4.025843441486358643e-01 1.456068083643913269e-02 8.560885488986968994e-02
6.281974315643310547e-01 8.837557584047317505e-02 4.969311133027076721e-02
-1.653260439634323120e-01 1.493592001497745514e-02 -6.740358471870422363e-01
2.270132303237915039e-01 -7.155668735504150391e-02 -2.820718586444854736e-01
-5.487173795700073242e-02 -8.420761674642562866e-02 -2.540831454098224640e-02
-4.815989732742309570e-01 -2.341887168586254120e-02 -6.797114759683609009e-02
-2.638799250125885010e-01 5.457725003361701965e-02 -8.978124260902404785e-01
3.830590844154357910e-01 1.978722959756851196e-02 8.836954832077026367e-02
-1.907082945108413696e-01 -2.792174555361270905e-02 -8.113131672143936157e-02
-4.483903050422668457e-01 7.146301120519638062e-02 -6.982053816318511963e-02
3.424260616302490234e-01 -5.402766168117523193e-02 -5.958187207579612732e-02
3.084132969379425049e-01 -1.341144144535064697e-01 2.489450573921203613e-01
9.203436225652694702e-02 5.846365541219711304e-02 7.751441001892089844e-02
-8.344351500272750854e-02 1.078879577107727528e-03 5.335371494293212891e-01
1.553919538855552673e-02 1.863470673561096191e-02 5.482250452041625977e-01
-8.722497820854187012e-01 3.108923733234405518e-01 3.940742462873458862e-03
-8.735672384500503540e-02 -6.211485713720321655e-03 -4.552178978919982910e-01
2.418083697557449341e-01 -3.343586111441254616e-03 1.471748650074005127e-01
2.456679940223693848e-01 -7.734608650207519531e-02 -2.340680509805679321e-01
-8.528712987899780273e-01 8.963529765605926514e-02 -1.484599262475967407e-01
7.712780497968196869e-03 -2.060458064079284668e-02 3.094389736652374268e-01
-8.278911113739013672e-01 8.604373037815093994e-02 2.645508758723735809e-02
5.607348084449768066e-01 -6.662496924400329590e-02 -4.020345583558082581e-02
-1.188768073916435242e-01 6.647769361734390259e-02 -7.483266294002532959e-02
2.384312301874160767e-01 2.391485869884490967e-02 -9.080713242292404175e-02
3.497164249420166016e-01 1.035727560520172119e-01 1.007858105003833771e-02
2.877751588821411133e-01 -1.374647617340087891e-01 -2.569576501846313477e-01
2.086533010005950928e-01 -5.925420671701431274e-02 8.601089566946029663e-02
5.118691176176071167e-02 -1.463900804519653320e-01 1.464243829250335693e-01
2.580508887767791748e-01 -2.695684321224689484e-02 2.776776552200317383e-01
4.333679378032684326e-01 -6.035312265157699585e-02 -5.135341733694076538e-02
-9.299293160438537598e-01 3.220154941082000732e-01 -4.013100988231599331e-04
1.354012787342071533e-01 -5.541414488106966019e-03 2.266451567411422729e-01
4.772934690117835999e-02 1.555238291621208191e-02 4.855333268642425537e-01
-2.870911359786987305e-01 7.339281588792800903e-02 6.679329276084899902e-02
-1.848116815090179443e-01 9.368252754211425781e-02 -4.532278701663017273e-02
-7.803161740303039551e-01 4.216755926609039307e-02 -3.460167348384857178e-02
8.370179533958435059e-01 -4.638886824250221252e-02 -7.852486334741115570e-03
1.764899641275405884e-01 1.936565502546727657e-03 2.477657496929168701e-01
2.664401233196258545e-01 -5.121337249875068665e-02 2.966808378696441650e-01
9.080144017934799194e-02 -1.203109622001647949e-01 1.643286496400833130e-01
9.642581455409526825e-03 4.701886326074600220e-02 -8.525894582271575928e-02
-4.510973989963531494e-01 6.773742288351058960e-02 6.960758566856384277e-02
-1.643343418836593628e-01 1.965321227908134460e-02 -7.017499804496765137e-01
3.850425183773040771e-01 -3.113807551562786102e-02 7.662991434335708618e-02
2.664401233196258545e-01 -5.121337249875068665e-02 2.966808378696441650e-01
-8.310002684593200684e-01 7.138260453939437866e-02 -1.184944137930870056e-01
-5.624630451202392578e-01 -3.606979548931121826e-02 2.691073529422283173e-02
1.455863416194915771e-01 1.614934531971812248e-03 -2.727176845073699951e-01
6.831388920545578003e-02 -1.792429573833942413e-02 3.371798396110534668e-01
-4.483903050422668457e-01 7.146301120519638062e-02 -6.982053816318511963e-02
1.998845860362052917e-02 -8.704145438969135284e-03 -4.319262504577636719e-01
2.326418310403823853e-01 -7.712433580309152603e-03 1.095437481999397278e-01
1.853616833686828613e-01 -1.242777854204177856e-01 2.875679135322570801e-01
-2.463777065277099609e-01 1.182679738849401474e-02 8.869117498397827148e-02
-2.986473403871059418e-02 -1.760266534984111786e-02 -3.404215276241302490e-01
7.712707519531250000e-01 -2.837739326059818268e-02 -6.009112671017646790e-02
7.855255901813507080e-02 -2.347248047590255737e-02 1.571187078952789307e-01
-5.984055995941162109e-01 1.480918261222541332e-03 -6.462080031633377075e-02
-5.243268609046936035e-02 -2.164259320124983788e-03 5.000872015953063965e-01
1.414544973522424698e-02 1.616885513067245483e-02 -5.641176104545593262e-01
-1.119616851210594177e-01 5.876574665307998657e-03 5.586513280868530273e-01
-2.209150195121765137e-01 8.387270569801330566e-02 5.593816190958023071e-02
2.299347519874572754e-01 -7.589874416589736938e-02 -2.223899820819497108e-03
-4.439184814691543579e-02 1.239695120602846146e-03 -5.464010238647460938e-01
-1.390593200922012329e-01 1.043768376111984253e-01 -6.941191852092742920e-03
4.689084291458129883e-01 6.540558487176895142e-02 7.266309857368469238e-02
-8.111394047737121582e-01 7.210627943277359009e-02 -1.231580972671508789e-01
-5.773385763168334961e-01 -2.824337594211101532e-02 -4.004264250397682190e-02
-1.428385078907012939e-01 2.289635129272937775e-02 7.838215827941894531e-01
-4.338899850845336914e-01 8.698182553052902222e-02 5.097964778542518616e-02
-5.156759289093315601e-04 -8.830843865871429443e-02 -4.977205395698547363e-02
3.055722117424011230e-01 -1.942525431513786316e-02 -9.461311995983123779e-02
2.331242561340332031e-01 -3.534611687064170837e-02 9.281880408525466919e-02
7.085789442062377930e-01 9.877505153417587280e-02 -8.924598805606365204e-03
1.968064755201339722e-01 -9.688533842563629150e-02 2.448978573083877563e-01
-8.613945841789245605e-01 8.540046215057373047e-02 2.109452895820140839e-02
1.159960627555847168e-01 -4.978550132364034653e-03 -8.949378877878189087e-02
1.001782063394784927e-02 -2.298275474458932877e-03 4.985058605670928955e-01
1.050337180495262146e-01 -7.340607792139053345e-02 1.836064457893371582e-02
2.646443247795104980e-01 -8.811352774500846863e-03 -9.490795433521270752e-02
1.342177484184503555e-02 -6.431993097066879272e-02 -4.572483152151107788e-02
-8.457953333854675293e-01 9.215477108955383301e-02 -1.789347082376480103e-01
-8.014903664588928223e-01 6.213564053177833557e-02 -4.274972155690193176e-02
-1.487083137035369873e-01 3.554727137088775635e-02 7.929881215095520020e-01
2.544057071208953857e-01 -8.477045595645904541e-02 -3.385119512677192688e-02
4.740009605884552002e-01 1.909766229800879955e-03 8.740464597940444946e-02
-3.999308645725250244e-01 -6.005829200148582458e-02 -3.854168206453323364e-02
1.686635464429855347e-01 -8.755795657634735107e-02 1.519791409373283386e-02
-6.642332077026367188e-01 1.387916356325149536e-01 -8.468950167298316956e-03
-7.285641133785247803e-02 5.394128151237964630e-03 5.100578665733337402e-01
-2.713506575673818588e-03 -2.100661955773830414e-02 -2.628810405731201172e-01
2.087295241653919220e-02 5.688960198312997818e-03 -4.168362915515899658e-01
-2.414995580911636353e-01 -7.410296052694320679e-02 9.569329209625720978e-03
3.188664019107818604e-01 -4.748778417706489563e-02 -8.474969863891601562e-02
1.713170409202575684e-01 -3.116488456726074219e-02 -7.960356026887893677e-02
1.553919538855552673e-02 1.863470673561096191e-02 5.482250452041625977e-01
7.440536865033209324e-04 8.644555928185582161e-04 -5.310698151588439941e-01
-1.722679734230041504e-01 3.905843570828437805e-02 -8.461365699768066406e-01
7.408763170242309570e-01 -3.673985600471496582e-02 -6.057357788085937500e-02
-1.646559685468673706e-01 -5.351840704679489136e-02 7.638869434595108032e-02
-7.607233524322509766e-01 1.664253026247024536e-01 6.701429840177297592e-03
-8.361195921897888184e-01 2.158496379852294922e-01 -6.485544610768556595e-03
3.317853808403015137e-01 -4.644247516989707947e-02 -8.528575301170349121e-02
2.646443247795104980e-01 -8.811352774500846863e-03 -9.490795433521270752e-02
2.735922671854496002e-02 1.509673614054918289e-02 5.415243506431579590e-01
-8.201987147331237793e-01 7.261552661657333374e-02 1.258666515350341797e-01
2.928902581334114075e-02 -2.601874992251396179e-02 -1.892805844545364380e-01
4.216819107532501221e-01 -2.071178890764713287e-02 8.110598474740982056e-02
-6.898835301399230957e-01 -2.914738142862915993e-03 -2.591756731271743774e-02
-8.472158908843994141e-01 9.159190952777862549e-02 -2.052818536758422852e-01
7.093830704689025879e-01 -6.986811757087707520e-02 -2.384716644883155823e-03
-7.934495210647583008e-01 6.929198652505874634e-02 9.887623041868209839e-02
3.773190826177597046e-02 -4.231484234333038330e-02 2.272348105907440186e-01
2.639474868774414062e-01 -1.234200894832611084e-01 -2.406347393989562988e-01
1.998845860362052917e-02 -8.704145438969135284e-03 -4.319262504577636719e-01
-3.361712768673896790e-02 3.705555805936455727e-03 5.606883764266967773e-01
6.433142423629760742e-01 -1.677177846431732178e-02 -8.571459352970123291e-02
-1.533720046281814575e-01 1.287210825830698013e-02 6.634770631790161133e-01
-5.243268609046936035e-02 -2.164259320124983788e-03 5.000872015953063965e-01
2.923316359519958496e-01 -9.522356092929840088e-02 2.265379279851913452e-01
1.809660494327545166e-01 -1.714701764285564423e-02 2.799827158451080322e-01
1.319169253110885620e-01 -5.828937282785773277e-04 2.686719298362731934e-01
1.479718089103698730e-01 9.950600564479827881e-03 -9.145039319992065430e-02
1.700841039419174194e-01 -8.072324842214584351e-02 -7.678926736116409302e-02
7.471554446965456009e-03 -2.604554779827594757e-02 -3.222224414348602295e-01
-1.564275324344635010e-01 2.948983572423458099e-02 8.423857092857360840e-01
2.696564793586730957e-01 -3.068242780864238739e-02 1.602546274662017822e-01
-6.554151177406311035e-01 -6.452708970755338669e-03 -3.813964128494262695e-02
-8.208151459693908691e-01 1.274272352457046509e-01 -4.180503543466329575e-03
-4.242141842842102051e-01 2.335199899971485138e-02 -8.780521154403686523e-02
-8.930218815803527832e-01 3.314501047134399414e-01 3.056250279769301414e-03
-5.438886880874633789e-01 8.553447574377059937e-02 -5.505219846963882446e-02
7.791774868965148926e-01 2.571064792573451996e-02 -6.971332430839538574e-02
-1.406674832105636597e-01 -7.471942156553268433e-02 -1.131004747003316879e-02
7.839174568653106689e-02 -4.520953819155693054e-02 -6.877523660659790039e-02
-7.523608207702636719e-01 3.895122557878494263e-02 3.621130436658859253e-02
-8.765113353729248047e-01 7.971826940774917603e-02 -1.076124757528305054e-01
8.066998422145843506e-02 -1.510001569986343384e-01 1.860925257205963135e-01
8.370179533958435059e-01 -4.638886824250221252e-02 -7.852486334741115570e-03
-6.744183301925659180e-01 3.625147975981235504e-03 -4.301774874329566956e-02
-9.663049876689910889e-02 -2.406214363873004913e-02 4.358409643173217773e-01
-8.502487838268280029e-02 6.787869147956371307e-03 5.925568938255310059e-01
-8.976588249206542969e-01 7.607309520244598389e-02 -1.114184707403182983e-01
4.700341522693634033e-01 1.049933061003684998e-01 -8.033519843593239784e-04
-7.511205505579710007e-03 -3.215658664703369141e-02 -2.022263407707214355e-01
-9.102560281753540039e-01 9.606797248125076294e-02 -5.976291373372077942e-03
-5.684668421745300293e-01 5.018159374594688416e-02 7.389603555202484131e-02
7.802764177322387695e-01 -3.636461868882179260e-02 -5.223790928721427917e-02
-3.742312267422676086e-02 -1.695940271019935608e-02 3.474721610546112061e-01
-5.611496567726135254e-01 6.047386676073074341e-02 7.030446082353591919e-02
8.999735116958618164e-02 -3.095046058297157288e-02 -9.871394932270050049e-02
1.001782063394784927e-02 -2.298275474458932877e-03 4.985058605670928955e-01
2.085997015237808228e-01 -9.452668577432632446e-02 -3.135115206241607666e-01
2.830310463905334473e-01 2.319118380546569824e-02 -9.091433882713317871e-02
2.069915533065795898e-01 -4.955159872770309448e-02 -1.474414318799972534e-01
-9.065346419811248779e-02 2.812289446592330933e-02 6.860986351966857910e-01
-3.039501011371612549e-01 -4.563838616013526917e-02 6.574798375368118286e-02
2.115480303764343262e-01 -1.586048491299152374e-02 8.311619609594345093e-02
4.336049780249595642e-02 -6.657136976718902588e-02 -4.031066969037055969e-02
-2.555710375308990479e-01 6.210883334279060364e-02 -9.045935273170471191e-01
1.126189157366752625e-01 -2.280240878462791443e-02 1.145022585988044739e-01
-8.125599026679992676e-01 8.229133486747741699e-02 -1.540885269641876221e-01
6.306096911430358887e-01 7.232069969177246094e-02 6.727574020624160767e-02
1.862729787826538086e-01 -7.310394663363695145e-03 1.611391156911849976e-01
-8.079498410224914551e-01 8.068317174911499023e-02 -5.156783759593963623e-02
-9.150269627571105957e-01 7.987908273935317993e-02 -1.506845653057098389e-01
3.424260616302490234e-01 -5.402766168117523193e-02 -5.958187207579612732e-02
-5.447999835014343262e-01 3.554727137088775635e-02 -8.072927594184875488e-02
-4.860750436782836914e-01 6.843429803848266602e-02 6.880350410938262939e-02
-4.400814771652221680e-01 -3.344311937689781189e-02 -6.571971625089645386e-02
2.614816129207611084e-01 -5.003404244780540466e-02 -6.475481390953063965e-02
8.930048346519470215e-02 -6.608892232179641724e-02 1.951518803834915161e-01
-4.465945661067962646e-01 -5.284833535552024841e-02 3.465674445033073425e-02
2.733242698013782501e-02 -8.879088610410690308e-02 3.184244781732559204e-02
7.549703866243362427e-02 -8.112528175115585327e-02 -8.893093466758728027e-02
1.765971630811691284e-01 7.735962420701980591e-02 6.344294548034667969e-02
2.355323359370231628e-02 6.859511137008666992e-02 -7.319769263267517090e-02
-6.085370182991027832e-01 5.447736941277980804e-03 -6.421875953674316406e-02
-8.018388152122497559e-01 8.397991955280303955e-02 8.617170900106430054e-02
1.048461049795150757e-01 -6.941246986389160156e-02 3.047550842165946960e-02
2.502738684415817261e-02 -3.850884735584259033e-02 -1.225148290395736694e-01
7.404968887567520142e-02 -8.396638184785842896e-02 1.611659228801727295e-01
-7.650653719902038574e-01 1.880283504724502563e-01 6.513810250908136368e-03
-6.642332077026367188e-01 1.387916356325149536e-01 -8.468950167298316956e-03
-8.252108097076416016e-01 8.869720995426177979e-02 1.587000638246536255e-01
4.644055664539337158e-01 9.789057075977325439e-02 -3.495010733604431152e-02
2.328562289476394653e-01 -4.957839846611022949e-02 8.981689810752868652e-02
7.034596204757690430e-01 -1.519041322171688080e-02 -7.901389896869659424e-02
6.142557412385940552e-02 -4.105510562658309937e-02 2.210701704025268555e-01
-8.447232842445373535e-01 6.854150444269180298e-02 -9.463991969823837280e-02
-8.054304122924804688e-01 3.562767803668975830e-02 5.575712304562330246e-03
7.512757778167724609e-01 2.043782500550150871e-03 7.244868576526641846e-02
-5.996426939964294434e-02 3.919969778507947922e-03 -5.625094771385192871e-01
-1.873043328523635864e-01 2.370043471455574036e-02 -7.536401748657226562e-01
3.773190826177597046e-02 -4.231484234333038330e-02 2.272348105907440186e-01
1.665461212396621704e-01 -4.931037500500679016e-02 -2.696085572242736816e-01
8.611136674880981445e-01 3.109800629317760468e-02 2.940339595079421997e-02
-8.927270174026489258e-01 2.656760513782501221e-01 -3.456828417256474495e-03
8.536046743392944336e-02 -1.348648965358734131e-01 1.677594035863876343e-01
1.726839542388916016e-01 -1.288537774235010147e-02 1.290293782949447632e-01
2.906162440776824951e-01 -8.439522981643676758e-02 4.584009293466806412e-03
5.118197202682495117e-01 -9.401015937328338623e-03 8.576966822147369385e-02
7.004576921463012695e-01 3.625147975981235504e-03 -8.399922400712966919e-02
-3.506941795349121094e-01 7.130219787359237671e-02 -7.145550847053527832e-02
-4.830505326390266418e-02 3.753067553043365479e-02 8.603770285844802856e-02
-7.934495210647583008e-01 6.929198652505874634e-02 9.887623041868209839e-02
3.830590844154357910e-01 1.978722959756851196e-02 8.836954832077026367e-02
3.135594427585601807e-01 -8.316230028867721558e-02 -1.913646236062049866e-02
8.215527534484863281e-01 -5.142779648303985596e-02 -2.706350060179829597e-03
1.479718089103698730e-01 9.950600564479827881e-03 -9.145039319992065430e-02
-1.398365944623947144e-01 2.565703913569450378e-02 8.079173564910888672e-01
6.060583591461181641e-01 -3.054841235280036926e-02 -8.003240078687667847e-02
-2.629685997962951660e-01 -9.883462451398372650e-03 8.563565462827682495e-02
5.974278450012207031e-01 -6.102319434285163879e-02 -5.052253231406211853e-02
3.294267058372497559e-01 -7.383492588996887207e-02 5.500006303191184998e-02
6.885840892791748047e-01 -3.558000084012746811e-03 -8.469609171152114868e-02
-7.511205505579710007e-03 -3.215658664703369141e-02 -2.022263407707214355e-01
3.832199275493621826e-01 -5.735120922327041626e-02 -2.730929255485534668e-01
3.558768332004547119e-02 -3.845524042844772339e-02 1.751569807529449463e-01
2.448638826608657837e-01 -8.538692444562911987e-02 1.921833306550979614e-02
1.639688573777675629e-02 -3.606979548931121826e-02 -1.914248019456863403e-01
-6.836384534835815430e-01 1.707941442728042603e-01 2.118152566254138947e-03
9.991019032895565033e-03 -1.241437718272209167e-01 1.558053642511367798e-01
2.134510129690170288e-01 -8.351073414087295532e-02 -2.874324023723602295e-01
6.008544191718101501e-02 -3.679346665740013123e-02 1.900325417518615723e-01
3.338759839534759521e-01 -1.829953677952289581e-02 -8.509813249111175537e-02
3.009311482310295105e-02 -1.275136135518550873e-02 -4.318458735942840576e-01
-4.957240521907806396e-01 9.843393228948116302e-03 7.960502803325653076e-02
-1.947019249200820923e-01 6.004502251744270325e-02 7.684434205293655396e-02
-3.555186688899993896e-01 -5.091853812336921692e-02 -6.320025026798248291e-02
-2.021572925150394440e-02 -6.957328319549560547e-02 3.007346391677856445e-02
3.136934638023376465e-01 -1.240292191505432129e-02 8.453674614429473877e-02
1.330694407224655151e-01 -8.838883787393569946e-02 -2.200436033308506012e-02
4.274402931332588196e-02 1.523075159639120102e-02 -4.745962917804718018e-01
-8.478860259056091309e-01 8.671380579471588135e-02 -1.198077425360679626e-01
-7.065858691930770874e-02 7.457940373569726944e-03 5.992039442062377930e-01
3.819601833820343018e-01 -8.560135215520858765e-02 2.387332171201705933e-01
4.812377393245697021e-01 -5.040928348898887634e-02 6.129872053861618042e-02
5.164255946874618530e-02 -3.054841235280036926e-02 2.162188589572906494e-01
-2.339680194854736328e-01 5.061043798923492432e-02 8.965005874633789062e-01
6.633090972900390625e-01 8.481080830097198486e-02 -5.470376461744308472e-02
-3.517589066177606583e-03 -6.118401139974594116e-02 9.579391777515411377e-02
-9.089469909667968750e-02 1.815225929021835327e-02 6.087725758552551270e-01
1.002092137932777405e-01 -6.825993955135345459e-02 -3.623664379119873047e-02
6.721498072147369385e-02 -7.512146979570388794e-02 -8.281331509351730347e-03
-9.537076205015182495e-02 2.955076750367879868e-03 8.753865957260131836e-02
-8.904488086700439453e-01 8.178208768367767334e-02 1.975373029708862305e-01
5.833832025527954102e-01 -5.192974116653203964e-03 8.646653592586517334e-02
3.830590844154357910e-01 1.978722959756851196e-02 8.836954832077026367e-02
-9.102560281753540039e-01 9.606797248125076294e-02 -5.976291373372077942e-03
2.267452031373977661e-01 -6.951968371868133545e-02 3.018067590892314911e-02
1.844503879547119141e-01 -1.106278970837593079e-02 1.317900717258453369e-01
-2.833697386085987091e-02 -2.240036986768245697e-02 2.913470864295959473e-01
7.223288416862487793e-01 9.778334945440292358e-02 4.831820551771670580e-04
8.836012482643127441e-01 3.147324547171592712e-02 8.497216738760471344e-03
-7.835325002670288086e-01 1.712498217821121216e-01 6.111768539994955063e-03
2.417815774679183960e-01 -8.334992080926895142e-02 -5.963547900319099426e-02
7.204257845878601074e-01 5.288868024945259094e-02 6.960758566856384277e-02
-9.044934511184692383e-01 9.236919134855270386e-02 -2.027355879545211792e-01
1.884439885616302490e-01 -1.958606950938701630e-02 -9.705217182636260986e-02
3.020610511302947998e-01 -1.076795719563961029e-02 8.520681411027908325e-02
3.913411796092987061e-01 4.795696213841438293e-02 8.185646682977676392e-02
2.304975688457489014e-01 -6.166645884513854980e-02 -2.467457652091979980e-01
-1.188768073916435242e-01 6.647769361734390259e-02 -7.483266294002532959e-02
8.508213758468627930e-01 6.680662278085947037e-03 -4.518877714872360229e-02
-9.692532569169998169e-02 -1.108958851546049118e-02 -5.366447567939758301e-01
-2.414995580911636353e-01 -7.410296052694320679e-02 9.569329209625720978e-03
-8.047871589660644531e-01 5.929454416036605835e-02 -3.395840525627136230e-02
1.976984087377786636e-03 -8.919293433427810669e-02 1.803901046514511108e-02
-2.961504757404327393e-01 -1.489558164030313492e-02 8.357184380292892456e-02
-2.463777065277099609e-01 1.182679738849401474e-02 8.869117498397827148e-02
5.020635128021240234e-01 -7.179792225360870361e-02 2.468610368669033051e-02
4.959792792797088623e-01 5.286921281367540359e-03 -9.083393216133117676e-02
-1.336451470851898193e-01 2.134178951382637024e-02 7.652205228805541992e-01
1.294242590665817261e-01 3.820091660600155592e-04 2.779456973075866699e-01
-5.893998146057128906e-01 -3.301427140831947327e-02 1.450104266405105591e-02
-2.740308409556746483e-03 -5.526058748364448547e-02 -9.876755625009536743e-02
3.459640443325042725e-01 -1.211150586605072021e-01 -2.377936393022537231e-01
-8.467334508895874023e-01 7.813690602779388428e-02 -1.715639382600784302e-01
3.494215905666351318e-01 -1.187296062707901001e-01 3.147191107273101807e-01
5.488569661974906921e-02 -4.105510562658309937e-02 -1.612984687089920044e-01
5.623965859413146973e-01 -7.530908286571502686e-02 -6.860783323645591736e-03
2.553170025348663330e-01 -1.300671845674514771e-01 3.018001914024353027e-01
3.175488859415054321e-02 -1.386981108225882053e-03 5.055549740791320801e-01
1.046852916479110718e-01 -1.229571457952260971e-02 3.898741602897644043e-01
-7.841221690177917480e-01 8.261297643184661865e-02 9.281880408525466919e-02
-6.968254446983337402e-01 1.414719074964523315e-01 7.237485609948635101e-03
2.788230180740356445e-01 3.570808842778205872e-02 8.627892285585403442e-02
2.550221681594848633e-01 -1.342484205961227417e-01 -2.565823793411254883e-01
-7.095341384410858154e-02 -2.730528265237808228e-02 -4.353034198284149170e-01
5.563617125153541565e-02 -3.226379305124282837e-02 -1.258383691310882568e-01
-8.704003095626831055e-01 3.252854645252227783e-01 -6.565952673554420471e-03
-8.200647234916687012e-01 8.743747323751449585e-02 -1.280094087123870850e-01
-3.625678122043609619e-01 1.276489160954952240e-02 -9.096794575452804565e-02
-7.719804644584655762e-01 1.435625255107879639e-01 -8.951400406658649445e-03
-3.035140223801136017e-03 -3.584809368476271629e-03 -4.850762188434600830e-01
-8.825956583023071289e-01 7.912860810756683350e-02 1.762290894985198975e-01
5.317341685295104980e-01 -3.279984742403030396e-02 -7.834383100271224976e-02
-7.427696138620376587e-02 2.849813364446163177e-02 6.991247534751892090e-01
4.336049780249595642e-02 -6.657136976718902588e-02 -4.031066969037055969e-02
2.738109230995178223e-01 -1.287002414464950562e-01 3.063298463821411133e-01
1.600598692893981934e-01 -1.535122841596603394e-02 1.216318085789680481e-01
-1.290618777275085449e-01 9.923800826072692871e-03 -6.010250449180603027e-01
-8.429542779922485352e-01 1.581164449453353882e-01 -3.403222654014825821e-03
2.943954467773437500e-01 -1.053550168871879578e-01 -2.277694046497344971e-01
1.519654095172882080e-01 4.192633554339408875e-02 8.437592536211013794e-02
-4.338899850845336914e-01 8.698182553052902222e-02 5.097964778542518616e-02
1.447554528713226318e-01 1.024202331900596619e-01 1.897710748016834259e-02
-9.102560281753540039e-01 9.606797248125076294e-02 -5.976291373372077942e-03
-3.342950716614723206e-02 -1.990771107375621796e-02 -3.167814910411834717e-01
1.483470350503921509e-01 -5.772644653916358948e-02 -2.795791923999786377e-01
4.047693610191345215e-01 -6.665178388357162476e-02 3.712259978055953979e-02
-4.725664258003234863e-01 9.349489957094192505e-02 -4.534959048032760620e-02
-5.243268609046936035e-02 -2.164259320124983788e-03 5.000872015953063965e-01
1.267975866794586182e-01 -2.459090901538729668e-03 2.592909634113311768e-01
8.616455644369125366e-02 -1.894280873239040375e-02 1.786949634552001953e-01
-4.191485047340393066e-01 8.207692205905914307e-02 5.759993568062782288e-02
-5.231969356536865234e-01 1.047788858413696289e-01 3.029447514563798904e-03
2.735922671854496002e-02 1.509673614054918289e-02 5.415243506431579590e-01
-2.895343862473964691e-02 7.934302836656570435e-02 6.151314079761505127e-02
2.614816129207611084e-01 -5.003404244780540466e-02 -6.475481390953063965e-02
1.844503879547119141e-01 -1.106278970837593079e-02 1.317900717258453369e-01
4.073156118392944336e-01 8.389951288700103760e-02 5.558972805738449097e-02
-1.485206931829452515e-01 2.120777405798435211e-02 -7.633159756660461426e-01
3.440836444497108459e-02 -8.795998990535736084e-02 -6.663101166486740112e-02
-9.346776455640792847e-02 1.906355470418930054e-02 -7.291156053543090820e-01
8.463988900184631348e-01 1.654408499598503113e-02 -4.534959048032760620e-02
-1.440982371568679810e-01 -6.801872700452804565e-02 -2.031578496098518372e-02
1.621504575014114380e-01 4.188002087175846100e-03 -2.947495877742767334e-01
2.223227173089981079e-01 -7.823058217763900757e-02 2.376879006624221802e-01
1.694676429033279419e-01 -9.755539894104003906e-02 3.060350120067596436e-01
-1.488197315484285355e-02 1.697293296456336975e-02 -6.179108619689941406e-01
-8.677468299865722656e-01 7.248152047395706177e-02 -1.253023147583007812e-01
-9.896232932806015015e-02 -3.148712567053735256e-04 -5.050978660583496094e-01
-8.164195418357849121e-01 8.188930153846740723e-02 6.271926313638687134e-02
-6.618252396583557129e-02 -3.692016471177339554e-03 5.366998314857482910e-01
-1.704453825950622559e-01 1.726776547729969025e-02 7.163589596748352051e-01
1.055965796113014221e-01 -1.490971744060516357e-01 -1.433674097061157227e-01
3.473845720291137695e-01 -7.501425594091415405e-02 4.923746362328529358e-02
5.178235173225402832e-01 8.181620389223098755e-03 -9.120916575193405151e-02
-7.545628398656845093e-02 2.879296615719795227e-02 -6.989892721176147461e-01
-9.288572072982788086e-01 8.325623720884323120e-02 1.836534589529037476e-01
-8.431418538093566895e-01 2.702057063579559326e-01 -8.013303391635417938e-03
-1.721339523792266846e-01 -5.448330938816070557e-02 -7.158952206373214722e-02
-9.035862982273101807e-02 1.105678849853575230e-03 -5.335356593132019043e-01
-4.315045773983001709e-01 1.015357449650764465e-01 -2.634641341865062714e-02
2.162116914987564087e-01 -1.107959896326065063e-01 -2.999493181705474854e-01
4.277393519878387451e-01 3.115160949528217316e-02 8.689538389444351196e-02
1.616144180297851562e-01 -9.159793145954608917e-03 1.714314073324203491e-01
-7.869942486286163330e-02 1.217523775994777679e-02 -6.547914743423461914e-01
-7.001531869173049927e-02 -8.120569586753845215e-02 6.979520618915557861e-02
-2.538288533687591553e-01 4.013054817914962769e-02 -8.815365284681320190e-02
6.826606392860412598e-01 -5.984386801719665527e-02 -4.668973013758659363e-02
-2.477446347475051880e-01 5.233312956988811493e-03 -9.083393216133117676e-02
2.630897760391235352e-01 -9.642966836690902710e-02 2.295666486024856567e-01
2.347281947731971741e-02 -3.368434309959411621e-02 -2.074796855449676514e-01
8.536046743392944336e-02 -1.348648965358734131e-01 1.677594035863876343e-01
9.712690114974975586e-02 -2.298275474458932877e-03 4.386016428470611572e-01
-1.796923428773880005e-01 3.077637590467929840e-02 8.705018758773803711e-01
-7.196345925331115723e-01 1.210481822490692139e-01 -1.122963801026344299e-02
-1.653260439634323120e-01 1.493592001497745514e-02 -6.740358471870422363e-01
4.646961763501167297e-02 -1.270384639501571655e-01 -1.726896464824676514e-01
5.165101885795593262e-01 -7.402253895998001099e-02 -1.661700010299682617e-02
-4.382899031043052673e-02 -7.362051308155059814e-02 -1.967251859605312347e-02
2.655288279056549072e-01 1.027954742312431335e-01 -1.916326582431793213e-02
-5.984055995941162109e-01 1.480918261222541332e-03 -6.462080031633377075e-02
1.440853923559188843e-01 -1.846036128699779510e-02 1.087664663791656494e-01
2.085997015237808228e-01 -9.452668577432632446e-02 -3.135115206241607666e-01
3.467949032783508301e-01 -6.836716085672378540e-02 2.739520668983459473e-01
-8.502487838268280029e-02 6.787869147956371307e-03 5.925568938255310059e-01
-1.027147248387336731e-01 5.662160925567150116e-03 -5.462669730186462402e-01
2.696564793586730957e-01 -3.068242780864238739e-02 1.602546274662017822e-01
-5.072224736213684082e-01 1.048324853181838989e-01 2.815025160089135170e-03
-7.089671492576599121e-01 5.500609800219535828e-02 4.393050819635391235e-02
2.582116723060607910e-01 -2.207873016595840454e-02 -1.847241073846817017e-01
4.764894023537635803e-02 -4.365498200058937073e-02 6.700771301984786987e-02
-2.751370966434478760e-01 7.934302836656570435e-02 -9.172712564468383789e-01
3.432301580905914307e-01 -2.368690446019172668e-02 9.367650002241134644e-02
3.175798952579498291e-01 -1.352401226758956909e-01 2.502315938472747803e-01
-8.457953333854675293e-01 9.215477108955383301e-02 -1.789347082376480103e-01
-3.713055253028869629e-01 1.036263555288314819e-01 -1.326665095984935760e-02
-4.706902503967285156e-01 1.037335768342018127e-01 1.211559306830167770e-02
1.033945381641387939e-02 -1.410295218229293823e-01 1.843771338462829590e-01
4.047693610191345215e-01 -6.665178388357162476e-02 3.712259978055953979e-02
