2.925811409950256348e-01 4.671764001250267029e-02 -6.471596658229827881e-02
1.882517784833908081e-01 3.822047263383865356e-02 -7.358489185571670532e-02
-6.377529501914978027e-01 4.557583481073379517e-02 -3.529451042413711548e-02
-8.036071062088012695e-01 6.764192879199981689e-02 1.377291530370712280e-01
-1.320384889841079712e-01 -1.581623591482639313e-02 8.849865943193435669e-02
-8.052269816398620605e-01 7.720123976469039917e-02 2.530782520771026611e-01
1.222393885254859924e-01 -5.678853765130043030e-02 2.459353357553482056e-01
4.590991437435150146e-01 3.851255774497985840e-02 7.739923149347305298e-02
-7.911269664764404297e-01 1.743876487016677856e-01 -1.199608435854315758e-03
3.609834015369415283e-01 -9.364502131938934326e-02 8.406420052051544189e-02
4.746595919132232666e-01 -3.520040959119796753e-02 -7.706341892480850220e-02
7.237860560417175293e-01 -8.228004723787307739e-02 -2.708942815661430359e-02
2.045291811227798462e-01 -2.964259590953588486e-03 -6.984082609415054321e-02
-8.398528695106506348e-01 3.406135737895965576e-01 1.239586714655160904e-02
5.414155125617980957e-01 5.871989578008651733e-02 -3.630355000495910645e-02
7.847532629966735840e-01 -9.369812160730361938e-02 3.478060290217399597e-02
4.199590682983398438e-01 -1.051693111658096313e-01 -2.562897652387619019e-02
3.596653789281845093e-02 -5.320379137992858887e-02 1.396941244602203369e-01
-3.921050429344177246e-01 -1.581623591482639313e-02 -5.544873699545860291e-02
1.188936308026313782e-01 -5.684164538979530334e-02 -2.092740982770919800e-01
-6.536586284637451172e-01 3.641481697559356689e-02 6.016590446233749390e-02
-5.600569844245910645e-01 -2.017103508114814758e-02 -4.033970460295677185e-02
5.768115520477294922e-01 -1.116934604942798615e-02 9.654442965984344482e-02
-8.490573614835739136e-02 -4.075012728571891785e-02 -5.777327418327331543e-01
-3.891479223966598511e-02 -6.111678481101989746e-02 -8.168375492095947266e-02
-2.148593664169311523e-01 4.671764001250267029e-02 8.082465827465057373e-02
-7.853913307189941406e-01 7.449277490377426147e-02 -1.955193132162094116e-01
-6.337071210145950317e-02 1.477358862757682800e-02 5.788229033350944519e-02
-2.261066256323829293e-04 -1.314043253660202026e-01 3.557721525430679321e-02
-4.853614866733551025e-01 1.535776071250438690e-02 5.173270590603351593e-03
4.680043086409568787e-02 -5.644333362579345703e-02 -7.703686505556106567e-02
-7.639890909194946289e-01 4.671764001250267029e-02 1.608682610094547272e-02
9.977498650550842285e-02 -7.702242583036422729e-02 1.028376445174217224e-01
-4.241818487644195557e-01 1.549860346131026745e-03 6.208863575011491776e-03
2.473336905241012573e-01 -8.267836272716522217e-02 -3.331735134124755859e-01
-1.393938511610031128e-01 -7.956351153552532196e-03 -5.798569917678833008e-01
-4.162326455116271973e-02 -3.204051777720451355e-02 3.557878136634826660e-01
1.414376795291900635e-01 3.981368988752365112e-02 -1.013732631690800190e-03
-2.128678411245346069e-01 9.241648763418197632e-02 -1.654762402176856995e-02
-8.167512416839599609e-01 5.752498283982276917e-02 -9.981990605592727661e-02
2.225060015916824341e-01 -1.273947209119796753e-01 3.419799208641052246e-01
2.473336905241012573e-01 3.488278947770595551e-03 8.758014999330043793e-03
7.043222188949584961e-01 4.671764001250267029e-02 2.761111594736576080e-02
-3.361564874649047852e-01 4.015888646245002747e-02 2.508851699531078339e-02
-1.474661678075790405e-01 -2.757950872182846069e-02 -4.554796516895294189e-01
-1.392779685556888580e-02 -7.885462045669555664e-02 -5.363621115684509277e-01
5.024613142013549805e-01 5.871989578008651733e-02 4.112692922353744507e-02
6.209533661603927612e-02 -7.218966633081436157e-02 -1.635752469301223755e-01
-4.729343950748443604e-01 9.544361382722854614e-02 -2.713167574256658554e-03
2.192664593458175659e-01 4.671764001250267029e-02 4.672975093126296997e-02
-3.416531085968017578e-01 -2.964259590953588486e-03 -4.835890978574752808e-02
1.821178793907165527e-01 -4.725577309727668762e-02 -2.500074207782745361e-01
-8.237082362174987793e-01 2.335041575133800507e-02 2.338908426463603973e-02
7.288578152656555176e-01 1.145437359809875488e-02 1.906083524227142334e-02
-6.632975935935974121e-01 5.662215873599052429e-02 3.183314949274063110e-02
-8.596787601709365845e-02 -2.930549532175064087e-02 4.708182811737060547e-01
3.065218031406402588e-01 1.102605611085891724e-01 -1.800807565450668335e-02
-1.453418731689453125e-01 4.671764001250267029e-02 3.208299865946173668e-03
1.060947552323341370e-01 4.671764001250267029e-02 5.918342247605323792e-02
-4.410700201988220215e-01 4.148657247424125671e-02 -3.768434002995491028e-02
-2.881209254264831543e-01 1.851765438914299011e-02 -4.575665667653083801e-02
-1.451197732239961624e-02 -1.648007892072200775e-02 4.432024955749511719e-01
1.770727038383483887e-01 1.976567134261131287e-02 -1.173054566606879234e-03
3.235692679882049561e-01 -1.581623591482639313e-02 -1.978716999292373657e-02
3.478127717971801758e-01 -3.344786539673805237e-02 1.283291578292846680e-01
7.862933874130249023e-01 7.335096597671508789e-02 3.666591644287109375e-02
2.219749242067337036e-01 -3.787423251196742058e-03 9.869526326656341553e-02
8.049702644348144531e-02 -1.924166083335876465e-02 -3.237203955650329590e-01
6.461962461471557617e-01 9.897524863481521606e-02 -3.712671250104904175e-02
3.235161304473876953e-01 4.671764001250267029e-02 4.617212340235710144e-02
1.467049866914749146e-02 -4.916763305664062500e-02 -2.745430171489715576e-01
-5.976569056510925293e-01 1.322469860315322876e-01 1.823767274618148804e-02
-2.980688586831092834e-02 -1.431144922971725464e-01 -2.443406172096729279e-02
6.660946458578109741e-02 1.803968288004398346e-02 -7.966567575931549072e-02
6.146772764623165131e-03 -2.964259590953588486e-03 6.385686993598937988e-02
7.158465385437011719e-01 3.514024242758750916e-02 1.340490486472845078e-02
1.265145093202590942e-01 -3.323543444275856018e-02 1.709477901458740234e-01
-4.385377466678619385e-02 -6.517949700355529785e-02 -5.482316017150878906e-01
7.648742198944091797e-02 -2.463204413652420044e-02 2.964935004711151123e-01
7.754860520362854004e-01 -1.754222437739372253e-02 7.333652675151824951e-02
7.396651506423950195e-01 9.706337749958038330e-02 -2.310638129711151123e-02
9.318967908620834351e-02 -1.524613946676254272e-01 -1.123797968029975891e-01
2.943336665630340576e-01 -1.581623591482639313e-02 -6.822105497121810913e-02
6.148895025253295898e-01 1.135266497731208801e-01 3.645348548889160156e-02
9.828798472881317139e-02 -6.480773538351058960e-02 -1.507498323917388916e-01
2.811630666255950928e-01 -1.145161911845207214e-01 -3.379000723361968994e-01
8.270798325538635254e-01 -4.566254839301109314e-02 -3.346230462193489075e-02
-4.461948573589324951e-01 1.788036152720451355e-02 7.129188627004623413e-02
-9.961625328287482262e-04 -7.946535944938659668e-02 -3.688773140311241150e-02
-7.670161724090576172e-01 5.991481244564056396e-02 -4.557077959179878235e-02
-3.008666634559631348e-01 5.267376545816659927e-03 -8.233807086944580078e-01
-2.128678411245346069e-01 9.241648763418197632e-02 -1.654762402176856995e-02
-9.874018281698226929e-02 9.066395461559295654e-02 3.926817327737808228e-02
-7.883122563362121582e-01 4.671764001250267029e-02 -8.809645078144967556e-04
3.177540004253387451e-01 5.871989578008651733e-02 5.389924347400665283e-02
3.128681182861328125e-01 3.302407916635274887e-03 3.456817567348480225e-02
-1.263560056686401367e-01 -1.605521701276302338e-02 -5.875576138496398926e-01
-3.690830171108245850e-01 -8.055406808853149414e-02 6.607168354094028473e-03
-3.275434300303459167e-02 8.954869955778121948e-02 -2.602728269994258881e-02
-3.110898435115814209e-01 -1.581623591482639313e-02 7.952352613210678101e-02
-2.235424071550369263e-01 -2.964259590953588486e-03 -5.900693312287330627e-02
-4.425038695335388184e-01 8.245886862277984619e-02 -3.970241919159889221e-02
-7.762569189071655273e-01 6.753571331501007080e-02 -1.169735714793205261e-01
8.593159914016723633e-01 -1.581623591482639313e-02 3.637382388114929199e-02
-8.835770934820175171e-02 -1.531171426177024841e-02 6.107029914855957031e-01
8.749031461775302887e-03 -2.906651422381401062e-02 -4.472214579582214355e-01
4.019822478294372559e-01 4.671764001250267029e-02 5.905064940452575684e-02
-7.134043574333190918e-01 1.711215525865554810e-01 -3.536331234499812126e-03
-5.061530470848083496e-01 -1.942753233015537262e-02 7.036250829696655273e-02
4.752968847751617432e-01 8.160915225744247437e-02 6.566251814365386963e-02
1.039535924792289734e-02 -1.046647951006889343e-01 5.689606666564941406e-01
-6.748484373092651367e-01 6.071142107248306274e-02 7.928454875946044922e-02
8.264159560203552246e-01 -8.009461686015129089e-03 -1.452954486012458801e-02
-2.543977797031402588e-01 3.860030556097626686e-03 -8.086699843406677246e-01
-2.056718021631240845e-01 4.639899730682373047e-02 7.490319013595581055e-02
6.039590388536453247e-02 -8.257213979959487915e-02 -1.542549133300781250e-01
7.458786964416503906e-01 5.871989578008651733e-02 3.892297670245170593e-02
4.552585631608963013e-02 -5.686819553375244141e-02 8.857832103967666626e-02
-7.061286568641662598e-01 1.137125343084335327e-01 2.261902578175067902e-02
-7.794868201017379761e-02 -2.964259590953588486e-03 7.147776335477828979e-02
1.674868315458297729e-01 5.556001141667366028e-02 -6.442387402057647705e-02
2.129466831684112549e-01 1.069147959351539612e-01 4.376661032438278198e-03
1.039970144629478455e-01 -2.728741616010665894e-02 2.437844723463058472e-01
-2.311536297202110291e-02 4.055719077587127686e-02 -1.075892616063356400e-02
-4.463010728359222412e-01 1.862386614084243774e-02 -1.495440490543842316e-02
-6.528089046478271484e-01 1.550300419330596924e-01 2.017609030008316040e-02
-7.458263635635375977e-01 9.196507930755615234e-02 2.336252853274345398e-02
-6.015771999955177307e-02 -3.589080274105072021e-02 -3.824570775032043457e-01
7.399041652679443359e-01 -4.332582652568817139e-02 -5.462557822465896606e-02
-4.471242427825927734e-01 -5.086706951260566711e-02 -3.980863466858863831e-02
-4.639858007431030273e-01 -1.581623591482639313e-02 -5.125325918197631836e-02
8.007216453552246094e-02 -1.581623591482639313e-02 8.042635023593902588e-02
5.096307992935180664e-01 3.553855046629905701e-02 -6.033461540937423706e-02
-7.053585648536682129e-01 9.414247423410415649e-02 1.582128927111625671e-02
-7.853913307189941406e-01 7.449277490377426147e-02 -1.955193132162094116e-01
2.449704110622406006e-01 5.871989578008651733e-02 3.342636674642562866e-02
-2.626294195652008057e-01 -4.999079555273056030e-02 8.438283950090408325e-02
1.198230087757110596e-01 -8.073994517326354980e-02 -8.452500402927398682e-02
7.334250211715698242e-01 -2.797780930995941162e-02 -6.129054352641105652e-02
5.423545464873313904e-02 -1.571001484990119934e-02 4.426448643207550049e-01
3.145241364836692810e-02 -8.562580496072769165e-02 6.219882965087890625e-01
-1.338972449302673340e-01 -1.188628841191530228e-02 6.485685110092163086e-01
-7.093850523233413696e-02 -2.356990054249763489e-02 5.121092200279235840e-01
-3.795185983180999756e-01 -1.581623591482639313e-02 4.688907414674758911e-02
4.502302408218383789e-01 -1.581623591482639313e-02 2.843427844345569611e-02
1.631054580211639404e-01 -2.253430522978305817e-02 3.294731378555297852e-01
-1.958372630178928375e-02 -1.236426085233688354e-02 -4.731113016605377197e-01
2.306145615875720978e-02 -6.148852780461311340e-02 5.520990490913391113e-01
-6.342744827270507812e-01 5.526792258024215698e-02 6.223709136247634888e-02
-6.801760196685791016e-02 -3.806820511817932129e-02 -7.647924870252609253e-02
2.140619456768035889e-01 -6.685236841440200806e-02 3.386075794696807861e-01
3.491406561806797981e-03 -3.020831942558288574e-02 -3.061949610710144043e-01
-7.762038111686706543e-01 4.647865891456604004e-02 -7.121075876057147980e-03
-7.178918719291687012e-01 4.392950609326362610e-02 -1.386570464819669724e-02
5.442567467689514160e-01 1.039222907274961472e-02 5.344783142209053040e-02
-6.015771999955177307e-02 -3.589080274105072021e-02 -3.824570775032043457e-01
-6.536586284637451172e-01 1.782725192606449127e-02 3.162071853876113892e-02
-2.066011726856231689e-01 -3.073939122259616852e-02 -4.953101575374603271e-01
-4.638796150684356689e-01 2.718225354328751564e-03 2.405292540788650513e-02
8.127673268318176270e-01 -8.639587461948394775e-02 -1.872502639889717102e-02
-7.183166220784187317e-03 -5.694785714149475098e-02 -4.225156828761100769e-02
-8.872511982917785645e-01 2.847181260585784912e-01 1.274106465280056000e-02
4.210042953491210938e-02 -1.581623591482639313e-02 8.940148353576660156e-02
7.258403301239013672e-02 -1.206235364079475403e-01 1.503155976533889771e-01
-2.027412131428718567e-02 4.520408064126968384e-02 -3.508208319544792175e-02
1.234345370903611183e-03 -4.704334214329719543e-02 -2.424661815166473389e-01
4.900076091289520264e-01 3.962781280279159546e-02 1.082920003682374954e-02
-1.016876474022865295e-01 5.904659628868103027e-03 -5.146569013595581055e-02
-1.580343232490122318e-03 7.975848391652107239e-03 9.800487011671066284e-02
2.547421455383300781e-01 4.408882930874824524e-02 3.154105693101882935e-02
1.154416352510452271e-01 -1.581623591482639313e-02 9.646476805210113525e-02
1.585647910833358765e-01 4.448713362216949463e-02 7.819584757089614868e-02
-2.235424071550369263e-01 -2.964259590953588486e-03 -5.900693312287330627e-02
4.490618705749511719e-01 1.155447289347648621e-01 2.840772643685340881e-02
1.450755298137664795e-01 3.760973364114761353e-02 -7.385043054819107056e-02
5.428856238722801208e-02 2.266813535243272781e-03 1.104163005948066711e-02
-7.564212679862976074e-01 2.129966616630554199e-01 1.850320957601070404e-02
2.241788804531097412e-01 -9.709699451923370361e-02 -3.509379029273986816e-01
-7.235743999481201172e-01 2.500921487808227539e-01 1.345801260322332382e-02
2.772596776485443115e-01 3.567939158529043198e-03 9.250827133655548096e-02
4.231286048889160156e-02 -9.237043559551239014e-02 5.637561082839965820e-01
1.731427460908889771e-01 -7.495123893022537231e-02 3.348369896411895752e-01
-2.618593573570251465e-01 -4.504376091063022614e-03 -7.014197111129760742e-01
-4.546389281749725342e-01 9.539050608873367310e-02 1.993710733950138092e-02
-7.134043574333190918e-01 1.711215525865554810e-01 -3.536331234499812126e-03
-4.752445816993713379e-01 -2.964259590953588486e-03 6.452070176601409912e-02
-3.905383646488189697e-01 3.463572636246681213e-02 6.953934580087661743e-02
4.682867228984832764e-01 -1.581623591482639313e-02 2.609755657613277435e-02
2.455545961856842041e-01 -6.820660829544067383e-02 1.486958116292953491e-01
6.150488257408142090e-01 1.179080158472061157e-01 7.111687678843736649e-03
-6.478433609008789062e-01 9.436295367777347565e-03 5.469585210084915161e-02
-5.942580699920654297e-01 5.032894015312194824e-02 5.618285760283470154e-02
5.464872717857360840e-01 -3.674051910638809204e-02 9.311900287866592407e-02
6.146772764623165131e-03 -2.964259590953588486e-03 6.385686993598937988e-02
5.765725374221801758e-01 -9.961959719657897949e-02 1.991055347025394440e-02
-1.541311293840408325e-01 -1.483375206589698792e-02 5.580205321311950684e-01
1.206823997199535370e-02 4.671764001250267029e-02 -1.745044812560081482e-02
2.622302770614624023e-01 -8.806875348091125488e-02 2.971307933330535889e-01
-2.470955103635787964e-01 4.671764001250267029e-02 6.993765383958816528e-02
3.772076666355133057e-01 -7.497778534889221191e-02 -8.123234659433364868e-02
-9.494301676750183105e-02 -7.664259988814592361e-03 -5.653321743011474609e-01
3.622314035892486572e-01 9.414247423410415649e-02 8.412817493081092834e-03
8.434730768203735352e-02 -4.197159036993980408e-02 -3.219678699970245361e-01
-3.690830171108245850e-01 -8.055406808853149414e-02 6.607168354094028473e-03
-2.369954437017440796e-02 -4.271509498357772827e-02 -2.811548709869384766e-01
2.122562974691390991e-01 -2.964259590953588486e-03 -5.544873699545860291e-02
-1.022718325257301331e-01 -3.506764024496078491e-02 4.025753736495971680e-01
-1.180712729692459106e-01 -4.013939201831817627e-02 -3.817135989665985107e-01
4.659765362739562988e-01 -1.002568751573562622e-01 -6.749324034899473190e-03
9.784624911844730377e-03 -3.830718621611595154e-02 -5.805739760398864746e-01
6.071624159812927246e-01 5.396679043769836426e-02 -6.376003473997116089e-02
4.133737683296203613e-01 4.671764001250267029e-02 7.450488209724426270e-02
4.249873757362365723e-02 -5.591226369142532349e-02 1.164331138134002686e-01
-1.942802816629409790e-01 -1.836538687348365784e-02 -5.432926416397094727e-01
2.659743428230285645e-01 -2.415408194065093994e-02 1.866144537925720215e-01
5.605075955390930176e-01 -1.403713785111904144e-02 2.588512748479843140e-02
3.023794293403625488e-01 -1.581623591482639313e-02 -3.396682813763618469e-02
1.670354157686233521e-01 -2.184391207993030548e-02 -8.096680790185928345e-02
5.043828114867210388e-02 -5.734615772962570190e-02 2.294189482927322388e-01
2.848539948463439941e-01 -8.480264991521835327e-02 3.405725657939910889e-01
-2.481310963630676270e-01 4.151312261819839478e-02 -7.838023826479911804e-03
-8.979161828756332397e-02 4.671764001250267029e-02 -6.628263741731643677e-02
-6.504359841346740723e-02 -3.413825854659080505e-02 -3.951763212680816650e-01
3.291286528110504150e-02 -1.815295591950416565e-02 -3.724198043346405029e-01
1.161851435899734497e-01 -7.192412018775939941e-02 -1.595656424760818481e-01
-1.304187178611755371e-01 -1.581623591482639313e-02 -7.913460582494735718e-02
-5.942580699920654297e-01 5.032894015312194824e-02 5.618285760283470154e-02
2.682314217090606689e-01 -2.346368879079818726e-02 1.177342459559440613e-01
2.946788668632507324e-01 2.236793190240859985e-02 7.078737020492553711e-02
-2.332779392600059509e-02 -7.702242583036422729e-02 2.475551068782806396e-01
5.765725374221801758e-01 -9.961959719657897949e-02 1.991055347025394440e-02
-7.789556682109832764e-02 -1.093036495149135590e-02 5.400967597961425781e-01
-8.297359347343444824e-01 4.671764001250267029e-02 6.872705183923244476e-03
5.414155125617980957e-01 5.871989578008651733e-02 -3.630355000495910645e-02
7.630589008331298828e-01 8.901762217283248901e-02 -1.965440250933170319e-02
6.565521955490112305e-01 8.984883315861225128e-03 1.189134735614061356e-02
7.396651506423950195e-01 9.706337749958038330e-02 -2.310638129711151123e-02
-2.270474880933761597e-01 5.453247576951980591e-03 -6.317585706710815430e-02
1.688676178455352783e-01 -8.543993532657623291e-02 -7.985156029462814331e-02
-1.492983698844909668e-01 -1.716234022751450539e-03 -6.866027712821960449e-01
5.485053658485412598e-01 9.462854824960231781e-03 -4.793405532836914062e-02
-4.448937177658081055e-01 4.671764001250267029e-02 1.826422661542892456e-02
-3.647016882896423340e-01 9.029220044612884521e-02 4.054274782538414001e-02
1.648579984903335571e-01 8.551254123449325562e-02 5.474895611405372620e-02
1.706467121839523315e-01 3.463572636246681213e-02 -5.497077479958534241e-02
2.682579457759857178e-01 -5.893938615918159485e-02 3.275878429412841797e-01
7.550493627786636353e-02 -1.220308914780616760e-01 -1.317639648914337158e-01
-1.046882122755050659e-01 -1.812640577554702759e-02 -4.802011549472808838e-01
6.039590388536453247e-02 -8.257213979959487915e-02 -1.542549133300781250e-01
-8.066608309745788574e-01 2.212814241647720337e-01 1.685688272118568420e-02
-1.934305578470230103e-01 4.671764001250267029e-02 -4.573009908199310303e-02
-8.164325356483459473e-01 5.962271988391876221e-02 -1.272232830524444580e-01
4.528686776757240295e-02 -4.746819660067558289e-02 5.955142974853515625e-01
2.790918648242950439e-01 -2.359645999968051910e-02 -6.846003234386444092e-02
1.968551725149154663e-01 -9.133485704660415649e-02 -2.937678396701812744e-01
-2.239672690629959106e-01 -4.151083121541887522e-04 1.284727919846773148e-02
-8.401449322700500488e-01 6.817300617694854736e-02 1.570867747068405151e-01
-6.287778019905090332e-01 1.718915998935699463e-01 2.597565297037363052e-03
-5.600569844245910645e-01 -2.017103508114814758e-02 -4.033970460295677185e-02
6.019578576087951660e-01 -9.430885314941406250e-02 3.493992611765861511e-02
-1.020062863826751709e-01 -2.364956028759479523e-02 5.300595164299011230e-01
7.360273003578186035e-01 5.115210264921188354e-02 6.324613094329833984e-02
-9.018990397453308105e-02 4.366397112607955933e-02 8.788792788982391357e-02
-5.651986971497535706e-02 -3.419136628508567810e-02 -3.997169733047485352e-01
5.781392455101013184e-01 -1.390436757355928421e-02 5.971449241042137146e-02
1.551128178834915161e-01 -9.946027398109436035e-02 -3.268802762031555176e-01
-7.178822904825210571e-02 -2.978345751762390137e-02 4.672069847583770752e-01
2.923686802387237549e-01 -9.457439184188842773e-02 -3.092752099037170410e-01
-3.240214884281158447e-01 -1.581623591482639313e-02 5.514726415276527405e-02
6.040558218955993652e-03 -9.953992813825607300e-02 -4.041936621069908142e-02
2.272325754165649414e-01 -6.594954431056976318e-02 3.240296542644500732e-01
4.364489018917083740e-01 4.254871606826782227e-02 -2.474183915182948112e-03
-6.209710240364074707e-01 1.486306041479110718e-01 -1.385484240017831326e-03
1.987404674291610718e-01 5.957769695669412613e-03 2.176930941641330719e-02
-4.639858007431030273e-01 -1.581623591482639313e-02 -5.125325918197631836e-02
-2.322785556316375732e-01 -8.142222650349140167e-03 6.853187680244445801e-01
1.390744000673294067e-01 8.692791685461997986e-03 -1.694593019783496857e-02
1.383043527603149414e-01 -1.581623591482639313e-02 -5.288872867822647095e-03
4.394231364130973816e-03 -2.359645999968051910e-02 -4.931327700614929199e-01
1.701156347990036011e-01 -3.549249097704887390e-02 -6.429111212491989136e-02
-7.977387905120849609e-01 7.324475049972534180e-02 1.921110451221466064e-01
-1.507853716611862183e-01 -1.424152753315865993e-03 6.997373700141906738e-01
-7.907285690307617188e-01 1.421515047550201416e-01 1.855631731450557709e-02
1.635834425687789917e-01 -1.004427522420883179e-01 3.205245733261108398e-01
4.748189449310302734e-01 1.144560351967811584e-01 -1.638830266892910004e-02
-1.722045056521892548e-02 -3.336820378899574280e-02 4.290228486061096191e-01
4.588601887226104736e-01 7.236848026514053345e-02 7.115912437438964844e-02
-7.219811677932739258e-01 6.267639249563217163e-02 -7.111540436744689941e-02
-8.835770934820175171e-02 -1.531171426177024841e-02 6.107029914855957031e-01
6.401154994964599609e-01 5.871989578008651733e-02 2.662863023579120636e-02
-6.536586284637451172e-01 -6.442794576287269592e-03 2.854049392044544220e-02
5.153928995132446289e-01 5.871989578008651733e-02 5.756365135312080383e-02
-8.300014734268188477e-01 7.096113264560699463e-02 1.713195294141769409e-01
-7.966501116752624512e-01 1.657577008008956909e-01 1.356422808021306992e-02
4.794223606586456299e-02 -1.148798689246177673e-02 -8.178997039794921875e-02
2.906161546707153320e-01 -1.114278566092252731e-02 9.856250137090682983e-02
3.388110697269439697e-01 9.414247423410415649e-02 5.732466280460357666e-02
-4.729343950748443604e-01 9.544361382722854614e-02 -2.713167574256658554e-03
-5.410348996520042419e-02 -5.113260075449943542e-02 -2.303842604160308838e-01
2.248427420854568481e-01 -5.317724123597145081e-02 -3.219678699970245361e-01
6.047725677490234375e-01 -1.581623591482639313e-02 1.072298549115657806e-02
-1.379864960908889771e-01 -2.208289317786693573e-02 5.447171330451965332e-01
8.679024130105972290e-02 3.115719556808471680e-02 9.293313324451446533e-02
-1.344548761844635010e-01 7.077526301145553589e-02 7.012353092432022095e-02
6.094459891319274902e-01 4.671764001250267029e-02 -8.608079515397548676e-03
2.249489426612854004e-01 6.862441450357437134e-02 -5.209211260080337524e-03
1.482885330915451050e-01 -5.503598973155021667e-02 2.371460646390914917e-01
-1.212577074766159058e-01 -1.993205398321151733e-02 5.682170987129211426e-01
2.115128040313720703e-01 -9.449474513530731201e-02 8.265686035156250000e-02
1.055105701088905334e-01 -1.408839821815490723e-01 -1.462888270616531372e-01
-3.811914920806884766e-01 7.630647160112857819e-03 -7.682443410158157349e-02
2.323574274778366089e-01 2.143855765461921692e-02 -7.905494421720504761e-02
4.249873757362365723e-02 -5.591226369142532349e-02 1.164331138134002686e-01
3.379613459110260010e-01 -8.782976120710372925e-02 -7.539054006338119507e-02
7.862933874130249023e-01 7.335096597671508789e-02 3.666591644287109375e-02
1.642738282680511475e-01 -3.392583504319190979e-02 1.125297248363494873e-01
-2.055655866861343384e-01 -1.310776453465223312e-02 -1.293632574379444122e-02
3.318540155887603760e-01 -3.772300109267234802e-02 1.534489244222640991e-01
-1.263560056686401367e-01 -1.605521701276302338e-02 -5.875576138496398926e-01
1.511828750371932983e-01 -1.581623591482639313e-02 8.704907260835170746e-03
-7.053585648536682129e-01 9.414247423410415649e-02 1.582128927111625671e-02
-3.083017170429229736e-01 -3.684673830866813660e-02 8.812691271305084229e-02
6.417617797851562500e-01 -2.657046355307102203e-02 9.046363085508346558e-02
7.847532629966735840e-01 -9.369812160730361938e-02 3.478060290217399597e-02
9.465013444423675537e-02 -3.501452878117561340e-02 3.939454257488250732e-01
2.723038196563720703e-02 -1.576312631368637085e-02 -4.795372784137725830e-01
2.054319977760314941e-01 -4.284786432981491089e-02 3.286765515804290771e-01
9.318967908620834351e-02 -1.524613946676254272e-01 -1.123797968029975891e-01
4.659765362739562988e-01 -1.002568751573562622e-01 -6.749324034899473190e-03
-7.072173953056335449e-01 6.496001034975051880e-02 -1.043605878949165344e-01
1.062009781599044800e-01 -1.921510137617588043e-02 -3.136034607887268066e-01
-3.381649032235145569e-02 -2.574729919433593750e-02 -4.841841757297515869e-01
-7.219811677932739258e-01 6.267639249563217163e-02 -7.111540436744689941e-02
8.730707764625549316e-01 4.671764001250267029e-02 8.917336352169513702e-03
6.030465960502624512e-01 5.871989578008651733e-02 -3.271880373358726501e-02
3.001851402223110199e-02 -2.964259590953588486e-03 -6.537981331348419189e-02
-3.607355058193206787e-02 -2.964259590953588486e-03 -4.578320682048797607e-02
5.922657847404479980e-01 -1.539137400686740875e-02 -7.878940552473068237e-02
2.375619411468505859e-01 -2.362301014363765717e-02 -1.698419153690338135e-01
-5.074541568756103516e-01 -1.581623591482639313e-02 5.591732263565063477e-02
1.719309575855731964e-02 -3.878514841198921204e-02 3.755968511104583740e-01
5.282449126243591309e-01 5.871989578008651733e-02 -4.817303642630577087e-02
-3.042124211788177490e-01 3.561821207404136658e-02 6.367099285125732422e-02
4.148969799280166626e-02 -7.088852673768997192e-02 1.289133429527282715e-01
-7.451624870300292969e-01 1.492944359779357910e-01 2.004332281649112701e-02
2.139291763305664062e-01 -1.141975522041320801e-01 3.153200447559356689e-01
-1.722045056521892548e-02 -3.336820378899574280e-02 4.290228486061096191e-01
-1.083526238799095154e-01 -7.277384400367736816e-02 7.487663626670837402e-02
-6.342744827270507812e-01 5.526792258024215698e-02 6.223709136247634888e-02
5.356268286705017090e-01 -8.169586956501007080e-02 -4.639394208788871765e-02
1.631054580211639404e-01 -2.253430522978305817e-02 3.294731378555297852e-01
3.483969569206237793e-01 -3.424447774887084961e-02 -1.114504188299179077e-01
-3.582756817340850830e-01 1.087020151317119598e-02 -7.897528260946273804e-02
-1.348000615835189819e-01 -2.999588847160339355e-02 -4.285807907581329346e-01
-1.989006102085113525e-01 -2.784503996372222900e-02 5.197035670280456543e-01
4.396353065967559814e-01 -1.581623591482639313e-02 7.936420291662216187e-02
6.401154994964599609e-01 5.871989578008651733e-02 2.662863023579120636e-02
-9.271250665187835693e-02 2.250070311129093170e-02 -7.884251326322555542e-02
-7.195382714271545410e-01 4.671764001250267029e-02 3.671902418136596680e-02
-6.877269744873046875e-01 5.524136498570442200e-02 1.203630641102790833e-01
-5.670574679970741272e-02 -3.299645334482192993e-02 -3.440339565277099609e-01
-4.477880597114562988e-01 -2.768571861088275909e-02 -5.839619413018226624e-02
2.197275683283805847e-02 -8.344841003417968750e-02 -1.501125544309616089e-01
-6.199354529380798340e-01 5.579899251461029053e-02 3.584275022149085999e-02
5.646499991416931152e-01 -1.007614061236381531e-01 1.786592043936252594e-02
-7.282744050025939941e-01 7.266057282686233521e-02 -2.801880612969398499e-02
-8.910121023654937744e-02 8.806169033050537109e-02 -2.929338254034519196e-02
-4.065767824649810791e-01 5.319673195481300354e-02 8.950130343437194824e-01
8.008978962898254395e-01 -3.498797863721847534e-02 6.298059225082397461e-02
4.263150691986083984e-02 -1.079574525356292725e-01 -5.547903776168823242e-01
-3.065491616725921631e-01 8.533471263945102692e-03 6.845064461231231689e-02
6.241567134857177734e-01 4.671764001250267029e-02 -6.187472492456436157e-02
-7.578020691871643066e-01 8.479559421539306641e-02 3.305461630225181580e-02
3.125494718551635742e-01 -2.075521834194660187e-02 9.829696267843246460e-02
1.390744000673294067e-01 8.692791685461997986e-03 -1.694593019783496857e-02
3.702506124973297119e-01 -1.560380496084690094e-02 -1.705214381217956543e-02
5.428856238722801208e-02 -1.252358127385377884e-02 3.613484278321266174e-02
2.269139140844345093e-01 -8.328909426927566528e-02 -2.838367819786071777e-01
-7.653167247772216797e-01 4.831086099147796631e-02 -3.787021711468696594e-02
4.502833485603332520e-01 5.999447405338287354e-02 7.848793268203735352e-02
-5.372473597526550293e-01 -2.964259590953588486e-03 -1.267078984528779984e-02
-6.010461598634719849e-02 -1.504617277532815933e-02 -4.679333567619323730e-01
-4.877779185771942139e-01 7.823684066534042358e-02 -4.488038271665573120e-02
1.911726891994476318e-01 -9.765462577342987061e-02 -3.404757380485534668e-01
-4.471242427825927734e-01 -5.086706951260566711e-02 -3.980863466858863831e-02
2.704353630542755127e-01 8.641536533832550049e-02 -4.331371560692787170e-02
-6.536586284637451172e-01 3.020126186311244965e-02 6.607168354094028473e-03
-2.358102053403854370e-01 2.957206452265381813e-03 5.796195194125175476e-02
-6.488427519798278809e-02 -2.712809666991233826e-02 4.934685826301574707e-01
-6.636959314346313477e-01 1.191029250621795654e-01 -5.793392192572355270e-03
-8.700709939002990723e-01 6.235774978995323181e-02 -1.097775325179100037e-01
-1.022718325257301331e-01 -3.506764024496078491e-02 4.025753736495971680e-01
-8.357901573181152344e-01 5.765775218605995178e-02 1.052009165287017822e-01
-6.948167681694030762e-01 -9.196305181831121445e-04 -2.114140987396240234e-02
-6.836642622947692871e-01 2.143509238958358765e-01 2.332028467208147049e-03
1.450755298137664795e-01 3.760973364114761353e-02 -7.385043054819107056e-02
7.339826226234436035e-01 4.683194216340780258e-03 8.018736541271209717e-02
7.139081358909606934e-01 -3.707762807607650757e-03 6.098907068371772766e-02
5.550375580787658691e-01 -1.581623591482639313e-02 -5.377586185932159424e-02
2.020065784454345703e-01 -1.254297494888305664e-01 3.445025086402893066e-01
-1.046882122755050659e-01 -1.812640577554702759e-02 -4.802011549472808838e-01
2.367918789386749268e-01 5.871989578008651733e-02 -1.206005644053220749e-02
-7.153958678245544434e-01 6.055210158228874207e-02 4.638455435633659363e-02
-9.961625328287482262e-04 -7.946535944938659668e-02 -3.688773140311241150e-02
1.913851052522659302e-01 -1.581623591482639313e-02 2.597565297037363052e-03
-7.035529017448425293e-01 5.744532123208045959e-02 -1.670694723725318909e-02
1.082021743059158325e-02 -3.129701316356658936e-02 -2.919622063636779785e-01
-7.895071506500244141e-01 1.241746768355369568e-01 -1.969664357602596283e-03
4.318550825119018555e-01 8.885830640792846680e-02 4.335743561387062073e-02
-2.358102053403854370e-01 3.649447858333587646e-02 2.216761372983455658e-02
-1.083526238799095154e-01 -7.277384400367736816e-02 7.487663626670837402e-02
8.232922852039337158e-02 -3.238571807742118835e-02 2.285426855087280273e-01
6.007725745439529419e-02 -1.581623591482639313e-02 -4.934139549732208252e-02
5.612776279449462891e-01 3.970747441053390503e-02 1.348456647247076035e-02
2.874828279018402100e-01 4.671764001250267029e-02 3.447282593697309494e-03
1.429777890443801880e-01 -3.278402239084243774e-02 -8.354251831769943237e-02
9.016159772872924805e-01 -1.581623591482639313e-02 1.404219307005405426e-02
2.122562974691390991e-01 -2.964259590953588486e-03 -5.544873699545860291e-02
-2.254277169704437256e-01 1.018787967041134834e-03 -7.038626670837402344e-01
1.115913689136505127e-01 -1.369009315967559814e-01 -1.231605783104896545e-01
1.261427700519561768e-01 9.586847573518753052e-02 1.539643108844757080e-02
-3.936620429158210754e-02 -1.050099879503250122e-01 -5.723688602447509766e-01
-1.568395942449569702e-01 -4.716807045042514801e-03 2.684105932712554932e-02
1.450755298137664795e-01 3.760973364114761353e-02 -7.385043054819107056e-02
8.418701887130737305e-01 -6.495894864201545715e-03 5.862579494714736938e-02
-6.784597635269165039e-01 5.614418908953666687e-02 2.511507086455821991e-02
7.686883211135864258e-01 7.850237935781478882e-02 3.876365348696708679e-02
-2.885723412036895752e-01 1.004703808575868607e-02 -8.466948270797729492e-01
5.519138649106025696e-02 -2.949136681854724884e-02 4.481945931911468506e-01
-8.139100074768066406e-01 2.614836394786834717e-01 1.621959358453750610e-02
2.913331091403961182e-01 5.473684892058372498e-02 -1.450299285352230072e-02
5.615699104964733124e-03 -2.014448493719100952e-02 -3.736412823200225830e-01
1.047139689326286316e-01 -1.250580102205276489e-01 1.360297203063964844e-01
-7.016145586967468262e-01 5.019617080688476562e-02 -7.156681269407272339e-02
1.058123447000980377e-02 -2.285295724868774414e-02 9.755346179008483887e-02
-4.932745099067687988e-01 -2.964259590953588486e-03 -4.359494894742965698e-03
-4.852021932601928711e-01 1.408318523317575455e-02 -1.588378287851810455e-02
-6.966490149497985840e-01 1.413548886775970459e-01 2.160998806357383728e-02
5.153928995132446289e-01 5.871989578008651733e-02 5.756365135312080383e-02
7.355759143829345703e-01 -1.581623591482639313e-02 -1.199608435854315758e-03
4.199590682983398438e-01 -1.051693111658096313e-01 -2.562897652387619019e-02
3.235692679882049561e-01 -1.581623591482639313e-02 -1.978716999292373657e-02
1.375077515840530396e-01 -7.272072881460189819e-02 1.339319795370101929e-01
1.109009683132171631e-01 2.311143465340137482e-02 1.641633454710245132e-03
6.492764949798583984e-01 4.671764001250267029e-02 5.652805417776107788e-02
7.621561288833618164e-01 -5.699291359633207321e-03 -3.733914345502853394e-02
-2.239672690629959106e-01 3.059956803917884827e-02 1.167891733348369598e-02
-1.591497808694839478e-01 -1.017969846725463867e-01 1.388287264853715897e-02
2.054319977760314941e-01 -4.284786432981491089e-02 3.286765515804290771e-01
-3.169316351413726807e-01 4.082272946834564209e-02 -7.241652905941009521e-02
3.609834015369415283e-01 -9.364502131938934326e-02 8.406420052051544189e-02
4.778991639614105225e-01 -7.309249043464660645e-02 -6.012218445539474487e-02
-7.290444970130920410e-01 2.053226828575134277e-01 1.874219067394733429e-02
-3.025130033493041992e-01 3.328958060592412949e-03 7.809916138648986816e-01
2.819596529006958008e-01 -1.581623591482639313e-02 -5.204987153410911560e-02
-9.440227411687374115e-03 -5.583260208368301392e-02 2.352873235940933228e-01
6.035776734352111816e-01 7.866170257329940796e-02 6.637946516275405884e-02
7.359476685523986816e-01 -8.084616065025329590e-02 -2.605383656919002533e-02
7.429312467575073242e-01 4.671764001250267029e-02 1.043089572340250015e-02
2.704353630542755127e-01 8.641536533832550049e-02 -4.331371560692787170e-02
5.428856238722801208e-02 2.736001834273338318e-02 2.516817860305309296e-02
-7.153958678245544434e-01 6.055210158228874207e-02 4.638455435633659363e-02
3.170635998249053955e-01 -1.581623591482639313e-02 7.987959310412406921e-03
-5.996749997138977051e-01 -8.673294447362422943e-03 -3.946343809366226196e-02
5.429823417216539383e-03 -3.618289530277252197e-02 2.839070558547973633e-01
-6.627399921417236328e-01 5.720634013414382935e-02 -2.037135139107704163e-02
-1.752412915229797363e-01 1.679166778922080994e-02 1.839699409902095795e-02
5.843093618750572205e-02 -1.449201405048370361e-01 -1.357204616069793701e-01
7.396651506423950195e-01 9.706337749958038330e-02 -2.310638129711151123e-02
1.958726793527603149e-01 -4.000662267208099365e-02 -2.853237986564636230e-01
4.714466333389282227e-01 4.671764001250267029e-02 5.465360824018716812e-03
-6.865489482879638672e-02 4.671764001250267029e-02 2.624119166284799576e-03
7.621561288833618164e-01 -5.699291359633207321e-03 -3.733914345502853394e-02
-1.083526238799095154e-01 -7.277384400367736816e-02 7.487663626670837402e-02
-6.762822866439819336e-01 3.216623514890670776e-02 -4.105665534734725952e-02
-2.728791236877441406e-01 4.671764001250267029e-02 2.360151335597038269e-02
-4.444157779216766357e-01 -6.151507794857025146e-02 4.290602356195449829e-02
-9.366845339536666870e-02 -2.964259590953588486e-03 -9.351583197712898254e-03
1.769664734601974487e-01 -2.768571861088275909e-02 -3.102045655250549316e-01
-4.058598279953002930e-01 1.203855685889720917e-02 -6.296342611312866211e-02
-3.921050429344177246e-01 -1.581623591482639313e-02 -5.544873699545860291e-02
-1.560067664831876755e-02 -1.327851116657257080e-01 3.549755364656448364e-02
3.203562498092651367e-01 -7.091508060693740845e-02 1.293382048606872559e-01
-5.847784280776977539e-01 1.321142315864562988e-01 1.550264470279216766e-02
2.607698440551757812e-01 -8.472298085689544678e-02 9.898735582828521729e-02
-6.323795020580291748e-02 -2.341057918965816498e-02 -5.099943280220031738e-01
8.392244577407836914e-02 4.391103051602840424e-03 -7.135438174009323120e-02
-7.755930423736572266e-01 6.057865545153617859e-02 -1.497408002614974976e-01
-6.589331477880477905e-02 -3.150140400975942612e-03 -8.194930106401443481e-02
-1.419430077075958252e-01 1.110918261110782623e-02 8.082465827465057373e-02
-6.034191250801086426e-01 4.671764001250267029e-02 3.804670646786689758e-02
-8.439156413078308105e-01 6.095040589570999146e-02 9.787210077047348022e-02
2.677896805107593536e-02 9.061083942651748657e-02 -2.270807325839996338e-02
-6.636959314346313477e-01 1.191029250621795654e-01 -5.793392192572355270e-03
1.448365598917007446e-01 -2.056933753192424774e-02 3.398025035858154297e-01
2.132918983697891235e-01 -2.744673751294612885e-02 -2.637622058391571045e-01
-1.755333840847015381e-01 -9.417609870433807373e-02 4.083484038710594177e-02
-8.592901825904846191e-01 1.272283494472503662e-01 7.297563366591930389e-03
3.125494718551635742e-01 -2.075521834194660187e-02 9.829696267843246460e-02
-1.469785254448652267e-02 -1.057534888386726379e-01 -5.792993903160095215e-01
-6.632975935935974121e-01 5.662215873599052429e-02 3.183314949274063110e-02
-2.456614049151539803e-03 -8.384672552347183228e-02 3.759529441595077515e-02
-9.850121289491653442e-02 3.981368988752365112e-02 1.714897155761718750e-02
-1.849864870309829712e-01 -1.884334906935691833e-02 -5.447530746459960938e-01
-1.084854006767272949e-01 -3.490832075476646423e-02 -3.854841887950897217e-01
-5.901591479778289795e-02 -4.762752726674079895e-02 2.763392627239227295e-01
4.053280055522918701e-01 -1.063376739621162415e-01 -8.315989747643470764e-03
-2.239672690629959106e-01 9.125774959102272987e-04 -2.527291653677821159e-03
-9.374376535415649414e-01 3.404276967048645020e-01 6.686829496175050735e-03
-7.502777874469757080e-02 -8.634275943040847778e-02 5.554557219147682190e-02
1.007840335369110107e-01 -1.581623591482639313e-02 5.312918499112129211e-02
-2.713124454021453857e-01 -6.887046247720718384e-02 7.001731544733047485e-02
5.969126820564270020e-01 -8.976817876100540161e-02 4.540206491947174072e-02
3.945206701755523682e-01 4.671764001250267029e-02 2.469021268188953400e-02
-7.617851495742797852e-01 7.763417903333902359e-03 1.462637446820735931e-02
-6.435416340827941895e-01 5.386057496070861816e-02 -6.758376955986022949e-02
-2.235424071550369263e-01 -2.964259590953588486e-03 -5.900693312287330627e-02
6.007725745439529419e-02 -1.581623591482639313e-02 -4.934139549732208252e-02
-5.027976259589195251e-02 -2.742018736898899078e-02 -4.692079126834869385e-01
-8.744523525238037109e-01 3.552446365356445312e-01 4.403214436024427414e-03
-9.493335150182247162e-03 4.671764001250267029e-02 1.356422808021306992e-02
-3.328541666269302368e-02 -5.994842201471328735e-02 -5.478864312171936035e-01
1.080331727862358093e-01 -1.423975378274917603e-01 1.450579762458801270e-01
4.616748690605163574e-01 3.196187550202012062e-03 -3.293123468756675720e-02
-5.128976106643676758e-01 -1.581623591482639313e-02 1.842354796826839447e-02
5.024613142013549805e-01 5.871989578008651733e-02 4.112692922353744507e-02
-7.207596898078918457e-01 -2.087985631078481674e-03 8.837675675749778748e-03
7.402758598327636719e-01 2.897979691624641418e-02 7.320374995470046997e-02
2.775783240795135498e-01 -1.287489533424377441e-01 3.490697741508483887e-01
4.355726242065429688e-01 -6.985293328762054443e-02 -5.884760618209838867e-02
-7.035529017448425293e-01 5.744532123208045959e-02 -1.670694723725318909e-02
2.375619411468505859e-01 -2.362301014363765717e-02 -1.698419153690338135e-01
3.941851109266281128e-02 -5.657610669732093811e-02 -2.384831309318542480e-01
4.103828594088554382e-02 -3.432413935661315918e-02 -3.931051194667816162e-01
8.392244577407836914e-02 4.391103051602840424e-03 -7.135438174009323120e-02
9.094228968024253845e-03 -1.406715512275695801e-01 -2.116796188056468964e-02
6.007725745439529419e-02 -1.581623591482639313e-02 -4.934139549732208252e-02
-8.592901825904846191e-01 1.272283494472503662e-01 7.297563366591930389e-03
-3.522479832172393799e-01 8.949558436870574951e-02 -2.610694430768489838e-02
2.422619313001632690e-01 -1.042930334806442261e-01 -4.721710830926895142e-02
3.945206701755523682e-01 4.671764001250267029e-02 2.469021268188953400e-02
2.709929943084716797e-01 -1.239692941308021545e-01 -3.384576439857482910e-01
7.020120620727539062e-01 -1.523205358535051346e-02 -5.793392192572355270e-03
3.950251638889312744e-01 -1.026201546192169189e-01 6.462691724300384521e-02
-4.038682878017425537e-01 -2.406636951491236687e-03 6.167946383357048035e-02
3.264732658863067627e-02 -7.070265710353851318e-02 -1.426244229078292847e-01
-8.904810994863510132e-02 -4.364446923136711121e-02 -3.969288468360900879e-01
3.787840157747268677e-02 -7.465914636850357056e-02 -8.694138377904891968e-02
2.050602585077285767e-01 4.671764001250267029e-02 1.667100749909877777e-02
-3.126299679279327393e-01 -1.581623591482639313e-02 3.855122625827789307e-02
-8.868529200553894043e-01 2.350627630949020386e-01 1.133371982723474503e-02
-8.750630617141723633e-01 2.912237942218780518e-01 5.359146278351545334e-03
2.768613696098327637e-01 -1.218715533614158630e-01 -3.012559711933135986e-01
3.144613504409790039e-01 -5.925802886486053467e-02 -1.403939127922058105e-01
6.759364008903503418e-01 5.871989578008651733e-02 4.054274782538414001e-02
7.547211050987243652e-01 1.485324930399656296e-02 -5.836964026093482971e-02
-1.008113771677017212e-01 -4.762752726674079895e-02 5.933368802070617676e-01
-2.235424071550369263e-01 -2.964259590953588486e-03 -5.900693312287330627e-02
-2.270474880933761597e-01 5.453247576951980591e-03 -6.317585706710815430e-02
-3.160553872585296631e-01 6.257017701864242554e-02 -5.937867984175682068e-02
-9.122912883758544922e-01 2.752915620803833008e-01 6.368185393512248993e-03
8.272657394409179688e-01 -7.584599778056144714e-03 3.063823282718658447e-02
-8.212122321128845215e-01 7.167808711528778076e-02 -1.606012284755706787e-01
5.528070330619812012e-01 6.944757699966430664e-02 -5.616569146513938904e-02
-1.105034649372100830e-01 4.536340385675430298e-02 3.292184695601463318e-02
5.282449126243591309e-01 5.871989578008651733e-02 -4.817303642630577087e-02
5.634816288948059082e-01 -9.611450135707855225e-02 -1.723801903426647186e-02
-2.553174830973148346e-02 3.463572636246681213e-02 6.993765383958816528e-02
3.881477713584899902e-01 -7.062298804521560669e-02 7.498285174369812012e-02
4.586743116378784180e-01 -1.419645920395851135e-02 -7.289449125528335571e-02
-4.767750203609466553e-02 -5.392074212431907654e-02 -5.682796239852905273e-01
8.263363242149353027e-01 5.871989578008651733e-02 -4.067403730005025864e-03
-2.282158583402633667e-01 5.187716335058212280e-03 -7.734332680702209473e-01
-2.561140805482864380e-02 -4.507836326956748962e-02 3.268708884716033936e-01
-4.609852433204650879e-01 -3.535973280668258667e-02 -4.968659579753875732e-02
-5.618891716003417969e-01 1.110918261110782623e-02 -5.566116794943809509e-02
-1.312684416770935059e-01 3.674149746075272560e-03 -6.312274932861328125e-02
2.287195771932601929e-01 -5.301791802048683167e-02 3.291279375553131104e-01
-6.488427519798278809e-02 -2.712809666991233826e-02 4.934685826301574707e-01
8.158572018146514893e-02 8.070632815361022949e-02 -4.323405399918556213e-02
-4.382553100585937500e-01 -1.581623591482639313e-02 6.845064461231231689e-02
-1.427299343049526215e-02 -7.598683238029479980e-02 2.495466321706771851e-01
1.968551725149154663e-01 -9.133485704660415649e-02 -2.937678396701812744e-01
2.171687185764312744e-01 -9.056478738784790039e-02 -3.519203662872314453e-01
5.597640872001647949e-01 -1.581623591482639313e-02 5.445687100291252136e-02
-7.717427611351013184e-01 6.323402374982833862e-02 1.873048394918441772e-01
-7.966501116752624512e-01 1.657577008008956909e-01 1.356422808021306992e-02
1.979173272848129272e-01 -1.214732602238655090e-01 3.188516795635223389e-01
3.128681182861328125e-01 3.302407916635274887e-03 3.456817567348480225e-02
2.200896292924880981e-01 -1.058065891265869141e-01 3.611251115798950195e-01
2.465901821851730347e-01 -1.103472635149955750e-01 3.561595678329467773e-01
-7.100055217742919922e-01 4.860295355319976807e-02 -5.775890871882438660e-02
8.010572195053100586e-01 9.305378049612045288e-02 1.351112034171819687e-02
5.906725525856018066e-01 6.591594219207763672e-02 3.451506793498992920e-02
-1.811096668243408203e-01 -9.576930850744247437e-02 -1.984027773141860962e-02
-8.196455240249633789e-01 7.072215527296066284e-02 -2.282068729400634766e-01
9.940322488546371460e-02 -3.719193115830421448e-02 3.764465749263763428e-01
-1.871107965707778931e-01 7.839615643024444580e-02 -4.612840712070465088e-02
-7.718755006790161133e-01 7.191707193851470947e-02 -1.667351275682449341e-01
-8.082274794578552246e-01 3.718487545847892761e-02 -2.289395034313201904e-02
-6.536586284637451172e-01 1.418940629810094833e-02 1.250208169221878052e-02
-1.736480891704559326e-01 -1.648007892072200775e-02 5.975058078765869141e-01
-1.073170304298400879e-01 -2.056933753192424774e-02 5.983024239540100098e-01
-7.718755006790161133e-01 7.191707193851470947e-02 -1.667351275682449341e-01
8.776114583015441895e-01 -1.581623591482639313e-02 -2.931993454694747925e-02
2.491658926010131836e-01 -4.927385225892066956e-02 -2.128853946924209595e-01
2.338009886443614960e-02 9.922378230839967728e-04 4.261393472552299500e-02
1.040766909718513489e-01 -5.421282351016998291e-02 2.379161119461059570e-01
-5.932490229606628418e-01 4.671764001250267029e-02 -1.004197821021080017e-02
1.777727715671062469e-02 9.066395461559295654e-02 -2.254875376820564270e-02
-3.636926114559173584e-01 3.973402827978134155e-02 1.502467971295118332e-02
4.643302559852600098e-01 -1.082414388656616211e-02 1.037778798490762711e-02
8.008978962898254395e-01 -3.498797863721847534e-02 6.298059225082397461e-02
-8.300014734268188477e-01 7.096113264560699463e-02 1.713195294141769409e-01
-1.722045056521892548e-02 -3.336820378899574280e-02 4.290228486061096191e-01
1.935890763998031616e-01 -8.998062461614608765e-02 8.974668383598327637e-02
9.002979844808578491e-02 -2.484447509050369263e-02 -2.625938653945922852e-01
5.704120993614196777e-01 5.871989578008651733e-02 1.000603754073381424e-02
-8.404634892940521240e-03 3.301595523953437805e-02 -7.562952488660812378e-02
1.964303106069564819e-01 4.536340385675430298e-02 -3.486965224146842957e-02
-6.435416340827941895e-01 5.386057496070861816e-02 -6.758376955986022949e-02
-4.385377466678619385e-02 -6.517949700355529785e-02 -5.482316017150878906e-01
1.648579984903335571e-01 8.551254123449325562e-02 5.474895611405372620e-02
-5.327597856521606445e-01 -2.964259590953588486e-03 1.398908626288175583e-02
4.180737435817718506e-01 -1.581623591482639313e-02 8.802069723606109619e-02
-1.665582507848739624e-01 -3.681212663650512695e-03 -7.112977504730224609e-01
6.334770321846008301e-01 7.157187163829803467e-02 -1.588378287851810455e-02
