1.026792079210281372e-01 -4.635151475667953491e-02 -2.870925664901733398e-01
2.583073675632476807e-01 -7.280775159597396851e-02 3.341653347015380859e-01
5.737911462783813477e-01 1.065764427185058594e-01 4.770156741142272949e-02
2.182684093713760376e-01 -1.224472969770431519e-01 2.726613879203796387e-01
-8.510553091764450073e-02 -4.812495317310094833e-03 -3.058028519153594971e-01
5.121508836746215820e-01 7.769277691841125488e-02 -7.495173066854476929e-02
8.000601530075073242e-01 1.066037192940711975e-01 -5.183632019907236099e-03
3.523496985435485840e-01 -5.287010595202445984e-02 -5.345944687724113464e-02
1.282353848218917847e-01 -2.030501142144203186e-03 -2.340437173843383789e-01
3.461856842041015625e-01 -7.804445177316665649e-02 -2.880332432687282562e-02
-3.114836513996124268e-01 1.135041639208793640e-01 -3.529464825987815857e-02
5.880284309387207031e-01 9.280283749103546143e-02 -6.426014006137847900e-02
-8.060243725776672363e-01 5.516406893730163574e-02 -1.814585477113723755e-01
1.378632634878158569e-01 -1.749512553215026855e-02 2.958174347877502441e-01
4.780296608805656433e-02 -2.385063096880912781e-03 2.417866885662078857e-01
1.572008728981018066e-01 -1.189834326505661011e-01 3.008359372615814209e-01
3.425036072731018066e-01 -9.950944781303405762e-02 -5.943255499005317688e-02
8.827562928199768066e-01 -1.484949607402086258e-02 -5.719605088233947754e-02
1.966670453548431396e-01 -3.055959939956665039e-02 2.908807396888732910e-01
-8.001393871381878853e-04 7.624666672199964523e-03 3.575668632984161377e-01
-9.438695907592773438e-01 5.227297171950340271e-02 3.189630806446075439e-03
5.025502443313598633e-01 6.828308850526809692e-02 -8.059754222631454468e-02
6.600602865219116211e-01 -3.424164280295372009e-02 7.808532565832138062e-02
-6.360498666763305664e-01 1.035489812493324280e-01 -1.680255681276321411e-02
5.620631575584411621e-01 1.108585372567176819e-01 -4.083136841654777527e-02
3.221568763256072998e-01 -9.440912306308746338e-02 3.394838571548461914e-01
1.729927957057952881e-01 -1.002458631992340088e-01 9.626406244933605194e-03
3.200021982192993164e-01 -8.093555271625518799e-02 1.889972761273384094e-02
-6.518690586090087891e-01 1.129314005374908447e-01 -1.320232544094324112e-02
6.081289052963256836e-02 -9.770935028791427612e-02 -2.209380641579627991e-02
-2.407336533069610596e-01 9.274828433990478516e-02 6.376623362302780151e-02
2.451065033674240112e-01 -5.085179954767227173e-02 -1.045990735292434692e-01
5.847827792167663574e-01 -7.940817624330520630e-02 2.530922554433345795e-02
2.692171335220336914e-01 -9.170896559953689575e-02 2.783072292804718018e-01
2.386151850223541260e-01 -4.853346943855285645e-02 -3.323954641819000244e-01
1.183620318770408630e-01 -4.490597546100616455e-02 -2.853470146656036377e-01
-2.381698489189147949e-01 6.260940339416265488e-03 -6.147680282592773438e-01
2.376060187816619873e-01 -3.926015645265579224e-02 -2.465899884700775146e-01
-1.702291518449783325e-01 9.015663526952266693e-03 -4.921420514583587646e-01
-5.575811862945556641e-01 1.346964240074157715e-01 -2.156165661290287971e-03
-2.555709779262542725e-01 1.133677884936332703e-01 4.894582671113312244e-04
5.462439656257629395e-01 -8.178104460239410400e-02 -1.369326654821634293e-02
-8.693557381629943848e-01 8.142938464879989624e-02 2.787981629371643066e-01
-7.236554622650146484e-01 2.688049972057342529e-01 4.880648106336593628e-03
-6.601877808570861816e-01 1.024852767586708069e-01 5.889803636819124222e-03
4.914768040180206299e-01 1.138860061764717102e-01 3.379158675670623779e-02
-1.641742289066314697e-01 2.578946389257907867e-02 -9.123457968235015869e-02
-4.532563388347625732e-01 -4.520599544048309326e-02 5.561116337776184082e-02
1.832752823829650879e-01 8.612059056758880615e-02 -6.916954368352890015e-02
2.269962430000305176e-01 -7.436239719390869141e-02 1.418124325573444366e-02
2.233414649963378906e-01 -3.516898676753044128e-02 -7.773372530937194824e-02
2.269962430000305176e-01 -7.436239719390869141e-02 1.418124325573444366e-02
1.141344755887985229e-01 -3.994257654994726181e-03 2.105574160814285278e-01
1.791295558214187622e-01 -5.518843606114387512e-02 -5.482316762208938599e-02
-8.344717025756835938e-01 7.098326086997985840e-02 2.547420859336853027e-01
3.258934915065765381e-01 -7.376235723495483398e-02 1.551769208163022995e-02
-4.722120761871337891e-01 2.947151847183704376e-02 8.204012364149093628e-02
-4.992956221103668213e-01 1.122495383024215698e-01 -2.858512848615646362e-02
-2.785088121891021729e-01 -7.160767167806625366e-02 4.093749821186065674e-02
4.979400709271430969e-02 5.360879935324192047e-03 -3.199582993984222412e-01
3.107288777828216553e-01 -5.491570755839347839e-02 7.663978636264801025e-02
2.735264897346496582e-01 -3.448712453246116638e-02 -3.417778611183166504e-01
2.711536288261413574e-01 1.211410164833068848e-01 -7.283766288310289383e-03
-6.241036057472229004e-01 9.937597811222076416e-02 -2.828511036932468414e-02
-7.160466909408569336e-02 2.360750921070575714e-02 -5.555824637413024902e-01
2.337603121995925903e-01 -4.466049745678901672e-02 -3.476691544055938721e-01
-6.744796037673950195e-01 4.182684794068336487e-02 3.441889956593513489e-02
-6.734984368085861206e-02 -3.702363744378089905e-02 -7.647909969091415405e-02
-6.732257455587387085e-02 -7.239863276481628418e-02 2.143625169992446899e-02
-4.149084389209747314e-01 -5.625214055180549622e-02 -5.035015568137168884e-02
2.445523394271731377e-03 -8.213563263416290283e-02 -1.132038794457912445e-02
3.352213501930236816e-01 -2.275969367474317551e-03 8.894057571887969971e-02
5.216688662767410278e-02 1.035210955888032913e-02 3.917417526245117188e-01
1.186893209815025330e-01 -1.686781458556652069e-02 -7.585179060697555542e-02
-3.955716267228126526e-02 -9.694620966911315918e-03 2.285313010215759277e-01
-1.281173676252365112e-01 -8.115373551845550537e-02 -1.800263300538063049e-02
-7.198651134967803955e-02 -9.593649953603744507e-02 1.737235672771930695e-02
-3.261573016643524170e-01 3.852663561701774597e-02 -8.022527694702148438e-01
5.608903169631958008e-01 9.239372611045837402e-02 -6.472380459308624268e-02
1.611284017562866211e-01 -1.003549695014953613e-01 -6.336008012294769287e-02
-7.254828810691833496e-01 3.454457223415374756e-02 -8.422505110502243042e-02
1.927395015954971313e-01 -8.134465664625167847e-02 -1.677528209984302521e-02
-7.119554281234741211e-02 -1.476767286658287048e-02 -2.854288220405578613e-01
-1.054522842168807983e-01 -6.555274873971939087e-02 7.756711542606353760e-02
2.041402310132980347e-01 -1.193112693727016449e-02 -8.466143906116485596e-02
4.384817183017730713e-02 -7.458115462213754654e-03 -1.969504356384277344e-01
-7.170004844665527344e-01 5.560046061873435974e-02 1.145513057708740234e-01
2.193866819143295288e-01 -2.927769534289836884e-02 8.029456436634063721e-02
1.335811913013458252e-01 -3.926015645265579224e-02 -3.007570803165435791e-01
-1.785478591918945312e-01 1.100948527455329895e-01 4.189210757613182068e-02
3.258934915065765381e-01 -7.376235723495483398e-02 1.551769208163022995e-02
1.360358893871307373e-01 -3.857828304171562195e-02 -1.592298448085784912e-01
-7.909415960311889648e-01 4.902731254696846008e-02 -1.515111625194549561e-01
-7.187741249799728394e-02 -4.032386094331741333e-02 1.045961156487464905e-01
-2.655261456966400146e-01 3.967216610908508301e-02 -7.681869864463806152e-01
8.827562928199768066e-01 -1.484949607402086258e-02 -5.719605088233947754e-02
-6.056933403015136719e-01 1.260776966810226440e-01 1.137197297066450119e-02
8.260519057512283325e-02 -5.295193940401077271e-02 -5.869614705443382263e-02
3.149291574954986572e-01 -3.470531105995178223e-02 -2.799739241600036621e-01
6.763151288032531738e-02 -1.059468183666467667e-02 -3.473964035511016846e-01
4.380188286304473877e-01 -9.209080040454864502e-02 3.365521505475044250e-02
7.515925914049148560e-02 -9.869122505187988281e-02 -4.568622261285781860e-02
-1.860756278038024902e-01 1.864355057477951050e-02 5.432514548301696777e-01
2.731446623802185059e-01 -9.121803194284439087e-02 -3.331591486930847168e-01
8.601458072662353516e-01 -7.040759176015853882e-02 1.434488967061042786e-02
-2.463522106409072876e-01 1.202136799693107605e-01 1.306299027055501938e-02
2.984553873538970947e-01 -2.957771532237529755e-02 -2.933929860591888428e-01
3.960161507129669189e-01 -4.550599679350852966e-02 -8.299770206212997437e-02
-3.666326105594635010e-01 5.292756110429763794e-02 8.932374119758605957e-01
8.573637604713439941e-01 6.566473841667175293e-02 -4.743178933858871460e-02
-8.777835369110107422e-01 6.929224729537963867e-02 2.464233487844467163e-01
3.665597438812255859e-01 -5.439747869968414307e-02 -8.995268493890762329e-02
2.736628651618957520e-01 -6.691647320985794067e-02 1.026050820946693420e-01
-5.323250293731689453e-01 1.011488288640975952e-01 1.374485157430171967e-02
-5.897377729415893555e-01 -4.438775032758712769e-02 -1.816627942025661469e-02
1.393906325101852417e-01 -5.458839610219001770e-02 2.835711836814880371e-01
-1.149710789322853088e-01 3.969882614910602570e-03 4.591097235679626465e-01
-2.303966283798217773e-01 2.998973615467548370e-02 6.587042808532714844e-01
-1.697654873132705688e-01 1.992545463144779205e-02 9.136799722909927368e-02
1.897393316030502319e-01 -5.734311789274215698e-02 -5.007741227746009827e-02
-2.511525154113769531e-01 -3.429619595408439636e-02 7.781258225440979004e-02
-1.839754730463027954e-01 -5.207914859056472778e-02 6.564816832542419434e-02
1.654104739427566528e-01 -1.067650411278009415e-02 1.274794042110443115e-01
9.322322010993957520e-01 -2.166811749339103699e-02 4.221940040588378906e-02
-3.790698051452636719e-01 8.642061054706573486e-02 6.804832071065902710e-02
2.170410603284835815e-01 -1.003549695014953613e-01 -6.308733671903610229e-02
-9.620624035596847534e-02 1.203500553965568542e-01 1.208110898733139038e-02
-1.209169179201126099e-01 -9.094528108835220337e-02 5.075630918145179749e-02
7.617940306663513184e-01 7.455621659755706787e-02 -6.548748910427093506e-02
4.780305027961730957e-01 1.094948127865791321e-01 4.320127889513969421e-02
-3.748430311679840088e-02 -3.988746553659439087e-02 -4.942282661795616150e-02
3.063376843929290771e-01 -1.001913249492645264e-01 4.546505957841873169e-02
3.154746294021606445e-01 -3.263245895504951477e-02 4.887437075376510620e-02
1.495094746351242065e-01 -9.970038384199142456e-02 5.138362199068069458e-02
3.672953322529792786e-02 -3.928742557764053345e-02 -7.492445409297943115e-02
2.533979415893554688e-01 -1.100646778941154480e-01 -2.523721754550933838e-01
1.155519578605890274e-02 -1.997710019350051880e-02 3.022541999816894531e-01
-9.242047071456909180e-01 4.231779277324676514e-02 -5.429102107882499695e-03
-6.652334928512573242e-01 3.991764411330223083e-02 -9.848959743976593018e-02
2.450246661901473999e-01 -7.428056001663208008e-02 1.442671380937099457e-02
3.702690601348876953e-01 -6.776252295821905136e-03 -8.897080272436141968e-02
-5.570365116000175476e-02 -2.267727255821228027e-02 -1.485382467508316040e-01
-4.566664621233940125e-02 1.141581498086452484e-02 -4.107004702091217041e-01
-3.348578512668609619e-01 9.083908051252365112e-02 -6.595115363597869873e-02
-1.585284024477005005e-01 1.648886688053607941e-02 -5.095704197883605957e-01
2.315510958433151245e-01 -9.986402839422225952e-02 1.289934292435646057e-02
-7.717403769493103027e-01 -5.304000806063413620e-04 2.356366068124771118e-02
-1.172621324658393860e-01 3.609921410679817200e-02 -9.003450721502304077e-02
-2.810188382863998413e-02 -5.304000806063413620e-04 2.959537804126739502e-01
6.874976307153701782e-02 -2.371370792388916016e-02 -8.288860321044921875e-02
-7.771414518356323242e-02 3.577192127704620361e-02 8.951333165168762207e-02
2.906540594995021820e-02 -2.633205614984035492e-02 -2.202973961830139160e-01
8.382443785667419434e-01 3.350813686847686768e-02 -6.796946376562118530e-02
-8.044160157442092896e-02 -1.152201276272535324e-02 3.062908351421356201e-01
2.731446623802185059e-01 -9.121803194284439087e-02 -3.331591486930847168e-01
4.234807565808296204e-02 -3.023229911923408508e-02 -1.929410994052886963e-01
1.599283218383789062e-01 -7.539938203990459442e-03 -2.902018427848815918e-01
3.955524861812591553e-01 -4.299675300717353821e-02 7.183947414159774780e-02
3.346758782863616943e-01 -3.042322397232055664e-02 7.985816895961761475e-02
-7.110819220542907715e-01 2.570763975381851196e-02 4.369222000241279602e-02
4.675025641918182373e-01 6.831036508083343506e-02 -8.059754222631454468e-02
-2.861456573009490967e-01 1.203773319721221924e-01 1.208110898733139038e-02
-2.812635302543640137e-01 4.387243837118148804e-02 -8.323092460632324219e-01
-8.687836676836013794e-02 -2.191358618438243866e-02 2.169123888015747070e-01
1.435090899467468262e-01 -8.120829612016677856e-02 -1.770261488854885101e-02
6.424947828054428101e-02 -2.210451290011405945e-02 2.590241432189941406e-01
-5.431265383958816528e-02 -8.963609486818313599e-02 -7.658819854259490967e-02
1.961760967969894409e-01 -1.004095077514648438e-01 -1.262956205755472183e-02
1.356540322303771973e-01 2.251594327390193939e-03 -2.968022823333740234e-01
4.791127983480691910e-03 -7.267198991030454636e-03 -2.195609807968139648e-01
-1.928942352533340454e-01 -6.105246394872665405e-02 -4.500436037778854370e-02
-4.391008913516998291e-01 1.205682530999183655e-01 7.008057087659835815e-03
-1.865120083093643188e-01 -8.243563026189804077e-02 2.449099346995353699e-02
1.292445361614227295e-01 -4.425137490034103394e-02 1.303159445524215698e-01
6.282582879066467285e-01 9.193006157875061035e-02 -6.483289599418640137e-02
-7.227827310562133789e-01 1.794538348913192749e-01 7.744467817246913910e-03
9.973909258842468262e-01 -1.994982920587062836e-02 -5.429102107882499695e-03
2.990553975105285645e-01 -9.378181397914886475e-02 -8.100666105747222900e-02
2.540797889232635498e-01 -1.274936459958553314e-02 3.082545697689056396e-01
4.185713455080986023e-02 -6.140702590346336365e-02 -4.440432041883468628e-02
2.213777154684066772e-01 1.125216949731111526e-02 9.052249044179916382e-02
2.134673297405242920e-02 -3.664180636405944824e-02 -1.535021960735321045e-01
9.207769632339477539e-01 -3.424164280295372009e-02 4.134661331772804260e-02
9.826073795557022095e-02 -2.311366610229015350e-02 2.549057304859161377e-01
6.964982300996780396e-02 4.979036748409271240e-03 -3.142579495906829834e-01
6.528590619564056396e-02 -1.018556766211986542e-02 3.500390648841857910e-01
8.443811535835266113e-01 -6.751651316881179810e-02 2.511830441653728485e-02
2.789541184902191162e-01 -1.059468183666467667e-02 9.319538623094558716e-02
1.855936050415039062e-01 -4.504233226180076599e-02 -4.942282661795616150e-02
-6.770160794258117676e-01 8.770251274108886719e-02 1.115377619862556458e-02
1.421453654766082764e-01 -6.162521243095397949e-02 -2.505720555782318115e-01
1.226986721158027649e-01 -9.735476970672607422e-02 -2.929426543414592743e-02
-4.181813895702362061e-01 8.262946456670761108e-02 6.930294632911682129e-02
-1.352087259292602539e-01 1.605247333645820618e-02 4.918117821216583252e-01
2.333239316940307617e-01 -9.498189389705657959e-02 -2.622455358505249023e-01
1.334175467491149902e-01 -6.094336137175559998e-02 3.181006610393524170e-01
6.952989101409912109e-01 2.835326083004474640e-02 8.894057571887969971e-02
-1.334639545530080795e-02 -1.512224506586790085e-02 2.991176247596740723e-01
2.622894048690795898e-01 -1.177560761570930481e-01 2.606879174709320068e-01
2.409062236547470093e-01 -7.678982615470886230e-02 1.005867719650268555e-01
-2.028221487998962402e-01 -7.954455167055130005e-02 2.198174037039279938e-02
7.784860134124755859e-01 -6.939907558262348175e-03 -7.961566746234893799e-02
5.263055115938186646e-02 -2.717756479978561401e-02 2.179760932922363281e-01
6.282582879066467285e-01 9.193006157875061035e-02 -6.483289599418640137e-02
-2.948189377784729004e-01 -1.438583061099052429e-02 8.553125709295272827e-02
1.480366587638854980e-01 -5.306104198098182678e-02 8.285836130380630493e-02
1.398542970418930054e-01 -9.642743319272994995e-02 -3.148034214973449707e-01
1.292445361614227295e-01 -4.425137490034103394e-02 1.303159445524215698e-01
2.735810577869415283e-01 -1.457675732672214508e-02 -2.782283723354339600e-01
-5.431265383958816528e-02 -8.963609486818313599e-02 -7.658819854259490967e-02
6.952989101409912109e-01 2.835326083004474640e-02 8.894057571887969971e-02
1.973216235637664795e-01 -7.198952883481979370e-02 -2.021186426281929016e-02
-2.050859183073043823e-01 -8.821841329336166382e-03 -4.795685112476348877e-01
-1.239716410636901855e-01 -3.148749005049467087e-03 3.566940724849700928e-01
5.786724761128425598e-02 -1.149474270641803741e-02 3.395929634571075439e-01
-1.025339141488075256e-01 -1.697690784931182861e-02 -2.288343161344528198e-01
-6.652334928512573242e-01 3.991764411330223083e-02 -9.848959743976593018e-02
9.437147974967956543e-01 3.348086401820182800e-02 4.580629058182239532e-03
-7.642399072647094727e-01 6.596475839614868164e-02 1.829011291265487671e-01
-6.868622303009033203e-01 2.761685475707054138e-02 4.516503959894180298e-02
-1.816844195127487183e-01 3.328993916511535645e-02 6.721778512001037598e-01
3.745238482952117920e-01 -6.110700592398643494e-02 5.588390678167343140e-02
-2.555709779262542725e-01 4.207232594490051270e-02 8.029862046241760254e-01
8.189605921506881714e-02 -5.764313787221908569e-02 5.072903260588645935e-02
-3.385126590728759766e-01 -3.285064548254013062e-02 7.696707546710968018e-02
4.984317719936370850e-01 -8.284475654363632202e-02 6.053450051695108414e-03
-3.290211260318756104e-01 -8.058155886828899384e-03 -8.793437480926513672e-02
9.054486751556396484e-01 2.131645195186138153e-02 -4.917735233902931213e-02
3.624958097934722900e-01 -6.364352256059646606e-02 3.220966830849647522e-02
7.545927911996841431e-02 -5.093362927436828613e-02 -6.925136595964431763e-02
-5.938570573925971985e-02 4.624474793672561646e-03 -9.030725061893463135e-02
3.157473802566528320e-01 -9.702747315168380737e-02 -7.377892732620239258e-02
-6.803708076477050781e-01 7.466531544923782349e-02 -1.118401531130075455e-02
-2.810188382863998413e-02 -5.304000806063413620e-04 2.959537804126739502e-01
-4.070268943905830383e-02 -1.705873198807239532e-02 2.751979231834411621e-01
5.900194644927978516e-01 -1.771332323551177979e-02 8.454937487840652466e-02
1.559181790798902512e-02 7.485623657703399658e-02 7.633976638317108154e-02
7.619569450616836548e-02 7.433739956468343735e-03 -3.905446231365203857e-01
-1.871393322944641113e-01 -8.112707175314426422e-03 4.762381017208099365e-01
-5.810380354523658752e-02 6.192813441157341003e-02 -8.294314891099929810e-02
-1.249262616038322449e-01 8.988393470644950867e-03 -4.309653937816619873e-01
9.207769632339477539e-01 -3.424164280295372009e-02 4.134661331772804260e-02
2.507250308990478516e-01 -5.488841608166694641e-02 -6.030534207820892334e-02
-1.837300211191177368e-01 -5.906142666935920715e-02 -3.041251748800277710e-02
-3.732057809829711914e-01 5.134563893079757690e-02 -8.907312154769897461e-01
6.499960422515869141e-01 4.359968751668930054e-02 8.850418031215667725e-02
-1.656478457152843475e-02 -4.316039755940437317e-02 -1.079265549778938293e-01
-3.598420694470405579e-02 -2.712364308536052704e-03 -4.097186028957366943e-01
-7.283201813697814941e-02 -3.511443361639976501e-02 -1.361010968685150146e-01
-1.864301860332489014e-01 1.850717514753341675e-02 6.087101697921752930e-01
-3.292946889996528625e-02 1.948905922472476959e-02 -5.310081839561462402e-01
1.216076910495758057e-01 -8.884514123201370239e-02 2.747069895267486572e-01
-6.586331129074096680e-01 4.962735250592231750e-02 5.198366194963455200e-02
2.906540594995021820e-02 -2.633205614984035492e-02 -2.202973961830139160e-01
2.122134864330291748e-01 -1.004095077514648438e-01 -4.208599030971527100e-02
-4.523025453090667725e-02 -1.294029131531715393e-02 -2.079420685768127441e-01
-6.428684592247009277e-01 7.270094472914934158e-03 -5.247756466269493103e-02
3.140563666820526123e-01 -6.203433871269226074e-02 -5.536865815520286560e-02
-1.759022474288940430e-01 1.406143512576818466e-02 -5.031336545944213867e-01
1.029519513249397278e-01 -5.431566759943962097e-02 -3.020116984844207764e-01
3.407307863235473633e-01 -9.233627468347549438e-02 3.301559984683990479e-01
6.889984607696533203e-01 -3.255062550306320190e-02 -7.893380522727966309e-02
-1.656478457152843475e-02 -4.316039755940437317e-02 -1.079265549778938293e-01
2.984280884265899658e-01 -1.211653873324394226e-01 -2.714643180370330811e-01
-8.083426952362060547e-01 4.256326332688331604e-02 -1.115813404321670532e-01
4.317184090614318848e-01 -7.278048247098922729e-02 6.338439136743545532e-02
8.748194575309753418e-01 8.006566017866134644e-02 1.739963144063949585e-02
8.358169198036193848e-01 -8.658195845782756805e-03 -6.865132600069046021e-02
-3.606602922081947327e-02 1.074765026569366455e-01 4.663786292076110840e-02
3.322756886482238770e-01 -5.726130679249763489e-02 3.294195830821990967e-01
5.902103781700134277e-01 1.049672514200210571e-01 -5.013196170330047607e-02
3.384124636650085449e-01 -4.689699411392211914e-02 -2.674004137516021729e-01
4.031347632408142090e-01 -4.646062105894088745e-02 6.949386745691299438e-02
2.454883307218551636e-01 8.756613731384277344e-02 -6.818766146898269653e-02
-9.229500889778137207e-01 8.650243282318115234e-02 -3.235312700271606445e-01
-6.206398010253906250e-01 9.711220115423202515e-02 3.212784603238105774e-02
8.189605921506881714e-02 -5.764313787221908569e-02 5.072903260588645935e-02
-1.249262616038322449e-01 8.988393470644950867e-03 -4.309653937816619873e-01
1.239260211586952209e-01 -2.442284114658832550e-02 -4.942282661795616150e-02
-8.787654042243957520e-01 6.160084530711174011e-02 -1.860952079296112061e-01
-7.709221839904785156e-01 4.681807756423950195e-02 -1.417741775512695312e-01
-1.054522842168807983e-01 -6.555274873971939087e-02 7.756711542606353760e-02
1.781749278306961060e-01 -1.038188189268112183e-01 -2.561633288860321045e-01
3.788878023624420166e-01 -1.302211452275514603e-02 -7.934292405843734741e-02
-1.140164732933044434e-01 -1.937706023454666138e-02 2.928445041179656982e-01
-1.499096751213073730e-01 -8.276294171810150146e-02 -7.120119407773017883e-03
-8.232618570327758789e-01 3.417096734046936035e-01 -5.429102107882499695e-03
3.437036871910095215e-01 -5.985238403081893921e-02 2.579604387283325195e-01
1.091978028416633606e-01 -5.742495134472846985e-02 6.016599759459495544e-02
1.311810314655303955e-01 -7.662618160247802734e-02 1.009958833456039429e-01
-3.318031132221221924e-01 -2.063169330358505249e-02 -8.316134661436080933e-02
-8.499643206596374512e-02 -2.515924535691738129e-02 -1.570751518011093140e-01
-1.200168579816818237e-01 -1.105834729969501495e-02 -2.928747534751892090e-01
-5.385981798171997070e-01 -4.198760911822319031e-02 4.091022536158561707e-02
3.127471804618835449e-01 -8.489033579826354980e-02 8.894057571887969971e-02
2.170410603284835815e-01 -1.003549695014953613e-01 -6.308733671903610229e-02
-6.571057438850402832e-01 1.653529256582260132e-01 -9.629370644688606262e-03
5.020592808723449707e-01 -1.024010963737964630e-02 8.730410039424896240e-02
9.845165908336639404e-02 3.260748460888862610e-03 2.954083085060119629e-01
2.053403109312057495e-01 -4.976141266524791718e-03 -2.962568104267120361e-01
1.347267031669616699e-01 -3.492350876331329346e-02 1.763279736042022705e-01
-2.193232029676437378e-01 1.061946004629135132e-01 4.813795909285545349e-02
-1.195539813488721848e-02 -1.283118780702352524e-02 3.177461028099060059e-01
3.029829263687133789e-01 -3.045049495995044708e-02 2.575513422489166260e-01
8.405074477195739746e-02 -1.618595235049724579e-02 9.030429273843765259e-02
1.585645973682403564e-01 -3.246880322694778442e-02 1.905106902122497559e-01
2.882819771766662598e-01 -8.238108456134796143e-02 -9.431660175323486328e-02
-1.196077316999435425e-01 1.031398698687553406e-01 5.168364197015762329e-02
1.219895258545875549e-01 -5.867957323789596558e-02 -3.050664365291595459e-01
3.745238482952117920e-01 -6.110700592398643494e-02 5.588390678167343140e-02
1.591911166906356812e-02 1.203227788209915161e-01 1.232657860964536667e-02
2.552525997161865234e-01 -9.078163653612136841e-02 8.733138442039489746e-02
3.125562667846679688e-01 1.384324766695499420e-02 9.082251042127609253e-02
-2.501433491706848145e-01 3.626285865902900696e-02 -7.914521694183349609e-01
6.645333170890808105e-01 5.369124561548233032e-02 -8.528874814510345459e-02
2.170129865407943726e-02 -6.260710954666137695e-02 5.416561663150787354e-02
-3.977800309658050537e-01 -7.545337080955505371e-02 -6.792825646698474884e-03
5.663997530937194824e-01 1.213864907622337341e-01 5.071569234132766724e-03
1.872846186161041260e-01 -3.846919909119606018e-02 1.614088416099548340e-01
6.223669648170471191e-01 1.033035144209861755e-01 -5.187752842903137207e-02
-8.951300382614135742e-01 5.630959570407867432e-02 1.385394949465990067e-02
-1.172621324658393860e-01 3.609921410679817200e-02 -9.003450721502304077e-02
1.579645574092864990e-01 -3.934196755290031433e-02 1.563903391361236572e-01
1.417362540960311890e-01 1.051581799983978271e-01 4.933803528547286987e-02
-8.567830175161361694e-02 -5.494358483701944351e-03 3.553030788898468018e-01
-1.054522842168807983e-01 -6.555274873971939087e-02 7.756711542606353760e-02
-1.121345385909080505e-01 -9.391818940639495850e-02 2.732753753662109375e-02
-6.980454921722412109e-02 -2.725938707590103149e-02 1.820828765630722046e-01
3.807424604892730713e-01 1.109676361083984375e-01 4.003744199872016907e-02
5.145695991814136505e-03 -2.494105882942676544e-02 6.886655837297439575e-02
6.991173028945922852e-01 2.079823426902294159e-02 -9.022542834281921387e-02
-8.504545092582702637e-01 7.431074231863021851e-02 -2.350801527500152588e-01
-2.872920036315917969e-02 -8.115373551845550537e-02 -1.794808357954025269e-02
6.889984607696533203e-01 -3.255062550306320190e-02 -7.893380522727966309e-02
1.391179114580154419e-01 -6.148884072899818420e-02 3.262012004852294922e-01
-2.660170793533325195e-01 -2.477740310132503510e-02 8.193102478981018066e-02
-6.206398010253906250e-01 9.711220115423202515e-02 3.212784603238105774e-02
3.303119540214538574e-01 -1.735875196754932404e-02 4.887437075376510620e-02
2.626712620258331299e-01 -8.900878578424453735e-02 -2.714370489120483398e-01
-7.160466909408569336e-02 2.360750921070575714e-02 -5.555824637413024902e-01
-5.818562582135200500e-02 -1.651324331760406494e-02 1.896651983261108398e-01
-4.182094335556030273e-02 -8.085371553897857666e-02 1.955431327223777771e-02
1.776567250490188599e-01 -7.425329089164733887e-02 -2.441352754831314087e-01
-7.902870178222656250e-01 2.002097070217132568e-01 -4.719965625554323196e-03
-6.875168085098266602e-01 5.000919476151466370e-02 7.868536561727523804e-02
1.599828600883483887e-01 -3.385981172323226929e-02 2.868168652057647705e-01
-1.149710789322853088e-01 3.969882614910602570e-03 4.591097235679626465e-01
-5.791366100311279297e-03 9.691115701571106911e-05 4.439451098442077637e-01
-7.873958945274353027e-01 3.604466095566749573e-02 8.056730777025222778e-02
2.739901542663574219e-01 1.193136274814605713e-01 1.906337402760982513e-02
1.466183662414550781e-01 -4.457923583686351776e-03 -8.302497118711471558e-02
-5.385981798171997070e-01 -4.198760911822319031e-02 4.091022536158561707e-02
1.818024516105651855e-01 -1.749512553215026855e-02 2.552602887153625488e-01
-1.271354854106903076e-01 -8.088098466396331787e-02 1.928156986832618713e-02
1.719836294651031494e-01 -1.062195282429456711e-02 -2.844196856021881104e-01
-1.342813968658447266e-01 2.390751987695693970e-02 5.614435672760009766e-01
1.807387471199035645e-01 -9.023613482713699341e-02 -2.475173175334930420e-01
-7.817501425743103027e-01 3.258904814720153809e-01 4.253334831446409225e-03
2.042493373155593872e-01 -9.912818670272827148e-03 1.415257453918457031e-01
-3.012019768357276917e-02 8.060451946221292019e-04 3.084182143211364746e-01
3.393397927284240723e-01 -1.817698962986469269e-02 5.056538805365562439e-02
5.184239745140075684e-01 1.184408366680145264e-01 2.400005050003528595e-02
-5.621632933616638184e-01 -4.026930034160614014e-02 3.711907193064689636e-02
-8.510553091764450073e-02 -4.812495317310094833e-03 -3.058028519153594971e-01
2.274599224328994751e-01 -4.662426561117172241e-02 -1.244003474712371826e-01
2.115589082241058350e-01 -3.975109010934829712e-02 7.404870539903640747e-02
-8.534001708030700684e-01 5.440038442611694336e-02 1.662636995315551758e-01
2.167956084012985229e-01 -7.373508810997009277e-02 2.386228591203689575e-01
-9.707903116941452026e-02 -2.398644573986530304e-02 -1.956412792205810547e-01
4.872492551803588867e-01 7.518353313207626343e-02 -7.667002081871032715e-02
8.024603128433227539e-01 -7.809899002313613892e-02 -4.105993430130183697e-04
8.849647641181945801e-02 -8.333569020032882690e-02 -9.379838407039642334e-02
-6.389409303665161133e-01 3.484459221363067627e-02 7.516695559024810791e-02
2.325602322816848755e-01 -6.915296614170074463e-02 -2.482125163078308105e-02
-8.742924332618713379e-01 4.248144105076789856e-02 -2.253019623458385468e-02
-5.701282620429992676e-02 4.542652051895856857e-03 -3.548968732357025146e-01
-3.349396586418151855e-01 -4.329677298665046692e-02 -7.050599157810211182e-02
-4.477196335792541504e-01 9.741222113370895386e-02 5.509295314550399780e-02
-8.043878674507141113e-01 2.334845662117004395e-01 4.116963129490613937e-03
6.986801326274871826e-02 -8.044461160898208618e-02 2.225448377430438995e-02
2.589346766471862793e-01 -6.083425506949424744e-02 -5.673238262534141541e-02
-2.878374606370925903e-02 1.130672171711921692e-02 5.264503955841064453e-01
1.233259811997413635e-01 -2.660479582846164703e-02 2.307132631540298462e-01
1.279353648424148560e-01 -3.628724440932273865e-02 3.058817088603973389e-01
1.237896457314491272e-01 -5.030693020671606064e-03 -1.985869109630584717e-01
-1.281173676252365112e-01 -8.115373551845550537e-02 -1.800263300538063049e-02
-1.973126977682113647e-01 2.169829420745372772e-02 5.737443566322326660e-01
1.038239430636167526e-02 1.329775899648666382e-02 -4.244740903377532959e-01
2.120771110057830811e-01 -2.867765538394451141e-02 -8.106120675802230835e-02
2.901639342308044434e-01 -4.209668934345245361e-02 -6.349645555019378662e-02
-4.056351184844970703e-01 -5.728857591748237610e-02 -5.054108053445816040e-02
7.619576454162597656e-01 5.947343632578849792e-02 -7.451533526182174683e-02
2.216231822967529297e-01 -4.782434552907943726e-02 -6.349645555019378662e-02
1.391179114580154419e-01 -6.148884072899818420e-02 3.262012004852294922e-01
4.084533154964447021e-01 -9.034524112939834595e-02 -6.270549446344375610e-02
-5.093598961830139160e-01 8.445684611797332764e-02 6.049329414963722229e-02
1.237896457314491272e-01 -5.030693020671606064e-03 -1.985869109630584717e-01
3.157473802566528320e-01 -9.702747315168380737e-02 -7.377892732620239258e-02
1.039611026644706726e-01 -7.711712270975112915e-02 2.885351479053497314e-01
8.560000658035278320e-01 -3.309612721204757690e-02 -5.645963922142982483e-02
-2.487250715494155884e-01 3.402635455131530762e-02 -7.023191452026367188e-01
-3.385126590728759766e-01 -3.285064548254013062e-02 7.696707546710968018e-02
-6.812981963157653809e-01 4.062677547335624695e-02 1.066417098045349121e-01
-1.865938305854797363e-01 -6.901659816503524780e-02 -4.726814106106758118e-02
1.219895258545875549e-01 -5.867957323789596558e-02 -3.050664365291595459e-01
5.500343069434165955e-02 -2.753212675452232361e-02 -2.161516696214675903e-01
-5.809554457664489746e-01 2.510759979486465454e-02 -3.376727923750877380e-02
3.882966935634613037e-02 1.286136452108621597e-02 4.322170913219451904e-01
-2.389062643051147461e-01 -3.634178638458251953e-02 7.639431208372116089e-02
-1.097343787550926208e-01 -3.122026682831346989e-04 -4.045091569423675537e-01
-3.107480518519878387e-02 -1.294029131531715393e-02 -1.966231465339660645e-01
3.407307863235473633e-01 -9.233627468347549438e-02 3.301559984683990479e-01
7.390198707580566406e-01 -3.203241899609565735e-02 -7.576996833086013794e-02
6.548236012458801270e-01 1.069310158491134644e-01 -4.584987089037895203e-02
6.885886192321777344e-02 7.256518304347991943e-02 -7.844286412000656128e-02
4.173720777034759521e-01 -5.947053059935569763e-02 -3.676747158169746399e-02
4.338185489177703857e-01 -5.207914859056472778e-02 6.564816832542419434e-02
3.733783364295959473e-01 -3.178695216774940491e-02 7.933995127677917480e-02
1.377269029617309570e-01 -1.910432055592536926e-02 3.087728023529052734e-01
-8.419175744056701660e-01 6.441011279821395874e-02 2.249856293201446533e-01
4.612566828727722168e-01 -3.915105015039443970e-02 -7.503355294466018677e-02
-8.394083380699157715e-01 3.461826741695404053e-01 -4.965436179190874100e-03
3.284845650196075439e-01 -1.002731323242187500e-01 -5.956893041729927063e-02
-3.692237138748168945e-01 1.090311482548713684e-01 -4.486798495054244995e-02
5.680354312062263489e-02 -4.095117375254631042e-02 -4.942282661795616150e-02
-1.994946599006652832e-01 8.429320156574249268e-02 -7.042416930198669434e-02
3.686590492725372314e-02 -3.176030004397034645e-03 2.387046813964843750e-01
1.909666806459426880e-01 -4.280583560466766357e-02 1.074053943157196045e-01
4.538380205631256104e-01 7.071051746606826782e-02 -7.969748973846435547e-02
3.233834356069564819e-02 -1.337667647749185562e-02 3.218372762203216553e-01
1.541188508272171021e-01 -5.300648137927055359e-02 -2.795920968055725098e-01
-3.014746867120265961e-02 4.365424066781997681e-02 8.858600258827209473e-02
-8.080700039863586426e-01 1.689531654119491577e-01 -1.910695456899702549e-03
-1.146437823772430420e-01 -9.994640946388244629e-03 3.038088381290435791e-01
6.585329174995422363e-01 6.214633211493492126e-02 8.174010366201400757e-02
1.495094746351242065e-01 -9.970038384199142456e-02 5.138362199068069458e-02
1.961760967969894409e-01 -1.004095077514648438e-01 -1.262956205755472183e-02
2.649350464344024658e-01 -5.243371054530143738e-02 2.890806496143341064e-01
-6.259582638740539551e-01 -2.284091711044311523e-02 3.821004927158355713e-02
3.008282482624053955e-01 -9.476371109485626221e-02 2.622425556182861328e-01
7.372469902038574219e-01 -7.057123631238937378e-02 -3.859486058354377747e-02
1.344539523124694824e-01 -5.289737880229949951e-02 7.947632670402526855e-02
7.674125432968139648e-01 -7.818082720041275024e-02 1.227203104645013809e-02
-2.233598083257675171e-01 2.120734751224517822e-02 -6.254596710205078125e-01
-6.588785648345947266e-01 4.908185824751853943e-02 -7.737915962934494019e-02
-2.545706229284405708e-03 -2.199540846049785614e-02 -1.131632626056671143e-01
8.219607174396514893e-02 -7.400783151388168335e-02 9.862301498651504517e-02
-3.910432755947113037e-01 5.202750489115715027e-02 -8.561603724956512451e-02
2.902184724807739258e-01 -1.337667647749185562e-02 -2.936111688613891602e-01
2.006483078002929688e-02 -1.758381695253774524e-04 -4.417933523654937744e-01
-5.707275271415710449e-01 6.858310848474502563e-02 -6.371464580297470093e-02
8.072325587272644043e-02 9.825773537158966064e-02 5.735673010349273682e-02
3.974616825580596924e-01 -6.942571699619293213e-02 -4.677719995379447937e-02
7.166813313961029053e-02 1.070128381252288818e-01 4.718335345387458801e-02
-5.949480086565017700e-02 -2.125900425016880035e-02 -2.342073768377304077e-01
-3.048286736011505127e-01 1.872537285089492798e-02 9.134072810411453247e-02
-6.773433685302734375e-01 2.565308846533298492e-02 -3.346725925803184509e-02
2.386151850223541260e-01 -4.853346943855285645e-02 -3.323954641819000244e-01
6.408583372831344604e-02 -2.275969367474317551e-03 -2.381348907947540283e-01
3.233834356069564819e-02 -1.337667647749185562e-02 3.218372762203216553e-01
1.347267031669616699e-01 -3.492350876331329346e-02 1.763279736042022705e-01
-5.931198000907897949e-01 1.973452791571617126e-02 -6.706941127777099609e-02
-8.640917539596557617e-01 2.636222168803215027e-02 -2.040278539061546326e-02
8.063604831695556641e-01 -2.548708580434322357e-03 -7.530629634857177734e-02
2.028856128454208374e-01 -5.434293672442436218e-02 -6.420558691024780273e-02
3.224023580551147461e-01 -3.260517865419387817e-02 3.026633262634277344e-01
-1.475640684366226196e-01 6.119172647595405579e-02 8.266744017601013184e-02
8.868474960327148438e-01 1.815199386328458786e-03 5.741127952933311462e-02
2.988917529582977295e-01 8.178395032882690430e-02 -7.214245945215225220e-02
-9.593348950147628784e-02 6.424585822969675064e-03 -3.926447629928588867e-01
2.127862572669982910e-01 -1.190385594964027405e-02 5.452018603682518005e-02
2.495522499084472656e-01 -1.004095077514648438e-01 -3.338543698191642761e-02
2.042493373155593872e-01 -9.912818670272827148e-03 1.415257453918457031e-01
-8.504545092582702637e-01 7.431074231863021851e-02 -2.350801527500152588e-01
1.335811913013458252e-01 -3.926015645265579224e-02 -3.007570803165435791e-01
6.903076767921447754e-01 -6.181612983345985413e-02 -5.468679964542388916e-02
5.339158773422241211e-01 6.375552713871002197e-02 -8.228856325149536133e-02
-2.276964485645294189e-01 2.347113378345966339e-02 6.074283123016357422e-01
2.006483078002929688e-02 -1.758381695253774524e-04 -4.417933523654937744e-01
1.977580189704895020e-01 -2.199540846049785614e-02 4.887437075376510620e-02
-7.769498229026794434e-01 4.417245835065841675e-02 1.273975819349288940e-01
-6.892078518867492676e-01 4.883639514446258545e-02 -1.261458992958068848e-01
1.046702489256858826e-01 -9.869122505187988281e-02 1.036281604319810867e-02
-3.292946889996528625e-02 1.948905922472476959e-02 -5.310081839561462402e-01
6.102025508880615234e-01 1.203227788209915161e-01 -1.276593375951051712e-02
6.870074868202209473e-01 -8.273565024137496948e-02 -3.028948791325092316e-03
3.081105351448059082e-01 -7.324414700269699097e-02 -3.492510616779327393e-01
-7.237918376922607422e-01 6.018257141113281250e-02 -1.545113623142242432e-01
-7.420112490653991699e-01 3.233533352613449097e-02 -7.006960362195968628e-02
3.690962493419647217e-01 2.554399520158767700e-02 9.071341902017593384e-02
-3.342041000723838806e-02 3.457184135913848877e-02 -9.019815176725387573e-02
1.383269280195236206e-01 -2.300456352531909943e-02 2.571694850921630859e-01
-3.012019768357276917e-02 8.060451946221292019e-04 3.084182143211364746e-01
-9.049216508865356445e-01 7.158330082893371582e-02 -2.527540028095245361e-01
-7.159367799758911133e-01 2.019552737474441528e-01 -8.538392372429370880e-03
1.115434020757675171e-01 -4.542418569326400757e-02 1.225700005888938904e-01
4.130899906158447266e-01 -6.249800324440002441e-02 5.427471548318862915e-02
1.391451805830001831e-01 -2.513197436928749084e-02 1.006958708167076111e-01
2.069767862558364868e-01 -1.195840816944837570e-02 -5.755061656236648560e-02
-7.673226296901702881e-02 -3.658724203705787659e-02 -7.677911967039108276e-02
-1.534826308488845825e-01 2.527124620974063873e-02 5.810811519622802734e-01
1.316438987851142883e-02 -1.250389683991670609e-02 -1.704123765230178833e-01
-7.343205064535140991e-02 2.063458785414695740e-02 5.855541825294494629e-01
2.368696033954620361e-01 -1.523133926093578339e-02 -9.786228835582733154e-02
-1.670653074979782104e-01 1.943450793623924255e-02 6.247748136520385742e-01
-2.833091020584106445e-01 -3.476050216704607010e-03 8.874964714050292969e-02
1.288899630308151245e-01 1.148406192660331726e-01 3.169145062565803528e-02
5.053322315216064453e-01 -1.602230593562126160e-02 -8.572514355182647705e-02
7.873502373695373535e-01 1.076128780841827393e-01 1.191746257245540619e-02
-3.394399881362915039e-01 5.088140722364187241e-03 -8.970721811056137085e-02
2.666533291339874268e-01 -6.097063049674034119e-02 1.033142209053039551e-01
8.868474960327148438e-01 1.815199386328458786e-03 5.741127952933311462e-02
-6.961355209350585938e-01 4.381788522005081177e-02 -4.726814106106758118e-02
8.000601530075073242e-01 1.066037192940711975e-01 -5.183632019907236099e-03
9.266947954893112183e-02 -8.829966187477111816e-02 8.891329169273376465e-02
1.237623766064643860e-01 -2.194146625697612762e-03 -8.948902040719985962e-02
-2.272959332913160324e-03 -2.395917475223541260e-02 2.307132631540298462e-01
-8.308441042900085449e-01 3.663930594921112061e-01 -4.638142418116331100e-03
-7.486389279365539551e-01 2.719688415527343750e-01 -7.092844694852828979e-03
5.915468335151672363e-01 1.211955621838569641e-01 -6.929197814315557480e-03
2.723809778690338135e-01 -4.005111008882522583e-02 -2.456081062555313110e-01
-5.426347851753234863e-01 7.651998102664947510e-02 1.469945814460515976e-02
1.815024316310882568e-01 -2.976863272488117218e-02 -2.096330821514129639e-01
-7.225925475358963013e-02 -1.359487324953079224e-02 -2.963386178016662598e-01
-4.634850844740867615e-02 9.042934514582157135e-03 -3.886626660823822021e-01
2.974727004766464233e-02 -4.479687288403511047e-02 1.111692711710929871e-01
2.418248681351542473e-03 -6.830804049968719482e-03 -3.730343878269195557e-01
-2.835000157356262207e-01 -3.587811812758445740e-02 7.636703550815582275e-02
-8.388082981109619141e-01 7.461021188646554947e-03 -4.692691378295421600e-03
1.311810314655303955e-01 -3.876921907067298889e-02 2.889442741870880127e-01
-6.765251755714416504e-01 1.883452981710433960e-01 8.508153259754180908e-03
-3.495315313339233398e-01 4.139046370983123779e-02 8.305061459541320801e-01
4.043886438012123108e-02 -3.203300759196281433e-03 -2.376439571380615234e-01
2.663797885179519653e-02 -1.403189846314489841e-03 4.295441806316375732e-01
-1.216533109545707703e-01 -7.785353809595108032e-02 -6.816038489341735840e-02
1.927395015954971313e-01 -9.203684516251087189e-03 -2.421442419290542603e-01
1.703744530677795410e-01 -4.733338952064514160e-02 4.887437075376510620e-02
3.081105351448059082e-01 -7.324414700269699097e-02 -3.492510616779327393e-01
-2.673808038234710693e-01 -7.468968629837036133e-02 3.482801467180252075e-02
-4.359378293156623840e-02 1.242440077476203442e-03 4.514455795288085938e-01
-8.379900455474853516e-01 6.252817809581756592e-02 1.722367852926254272e-01
3.233834356069564819e-02 -1.337667647749185562e-02 3.218372762203216553e-01
-8.348807692527770996e-01 3.694472089409828186e-02 -6.194180622696876526e-02
2.273773029446601868e-02 -3.399617597460746765e-02 2.991449236869812012e-01
-1.800752431154251099e-01 -5.938871949911117554e-02 5.790222063660621643e-02
3.121198713779449463e-01 -4.220579564571380615e-02 -6.262367218732833862e-02
-2.120144478976726532e-02 7.570114918053150177e-03 -3.647975325584411621e-01
2.198776155710220337e-01 -3.115963004529476166e-02 3.094273805618286133e-01
-7.830320000648498535e-01 4.927277937531471252e-02 9.199530631303787231e-02
-3.846337795257568359e-01 -2.434101887047290802e-02 8.209467679262161255e-02
-6.770160794258117676e-01 8.770251274108886719e-02 1.115377619862556458e-02
3.302028477191925049e-01 -9.252719581127166748e-02 3.276740312576293945e-01
2.647433057427406311e-02 1.198045611381530762e-01 1.581771299242973328e-02
-3.462858498096466064e-01 3.558099642395973206e-02 -8.965266495943069458e-02
1.814206093549728394e-01 -5.401564389467239380e-02 5.004717037081718445e-02
1.552371084690093994e-01 -7.166221737861633301e-02 -4.254965856671333313e-02
-2.752911858260631561e-02 -2.393189445137977600e-02 1.185879185795783997e-01
-7.439204454421997070e-01 3.800842911005020142e-02 -9.952601790428161621e-02
2.548162043094635010e-01 -1.262384355068206787e-01 3.140640556812286377e-01
2.487885653972625732e-01 2.941696718335151672e-02 -9.082546830177307129e-02
-9.242047071456909180e-01 4.231779277324676514e-02 -5.429102107882499695e-03
2.216231822967529297e-01 -4.782434552907943726e-02 -6.349645555019378662e-02
8.247708082199096680e-01 9.042934514582157135e-03 -7.298797369003295898e-02
3.413035273551940918e-01 1.191499829292297363e-01 -2.075735479593276978e-02
1.475184261798858643e-01 -4.733338952064514160e-02 -2.701824009418487549e-01
6.081289052963256836e-02 -9.770935028791427612e-02 -2.209380641579627991e-02
1.300082206726074219e-01 9.711220115423202515e-02 5.869317799806594849e-02
2.901093661785125732e-01 -5.074269324541091919e-02 -1.040263175964355469e-01
-1.928942352533340454e-01 -6.105246394872665405e-02 -4.500436037778854370e-02
-2.119045406579971313e-01 -4.376100841909646988e-03 4.756926000118255615e-01
-2.976554632186889648e-01 1.175953298807144165e-01 2.582744136452674866e-02
1.429090499877929688e-01 -1.027005687355995178e-01 4.074657708406448364e-02
-7.916234731674194336e-01 2.864515781402587891e-01 -6.383708678185939789e-03
-2.660170793533325195e-01 -2.477740310132503510e-02 8.193102478981018066e-02
7.027633953839540482e-03 -4.785161465406417847e-02 6.723009049892425537e-02
3.351395428180694580e-01 -3.680545091629028320e-02 -8.779800683259963989e-02
2.454883307218551636e-01 8.756613731384277344e-02 -6.818766146898269653e-02
-5.357624217867851257e-02 7.725638896226882935e-02 -7.525175064802169800e-02
-7.059270739555358887e-01 4.700900241732597351e-02 6.234795600175857544e-02
1.278808265924453735e-01 -4.076025635004043579e-02 -1.480745822191238403e-01
2.535070180892944336e-01 -1.154928375035524368e-02 2.913717031478881836e-01
-9.478516578674316406e-01 8.331131935119628906e-02 -3.076302409172058105e-01
-1.499096751213073730e-01 -8.276294171810150146e-02 -7.120119407773017883e-03
6.499960422515869141e-01 4.359968751668930054e-02 8.850418031215667725e-02
-1.727392151951789856e-02 -4.286037757992744446e-02 -7.249703258275985718e-02
2.009491324424743652e-01 -1.004095077514648438e-01 3.480074182152748108e-02
8.128245472908020020e-01 -4.430593550205230713e-02 5.727490410208702087e-02
-3.375307619571685791e-01 4.514832689892500639e-04 8.866782486438751221e-02
4.131164401769638062e-02 7.924687117338180542e-03 3.543757498264312744e-01
-5.056778788566589355e-01 2.723501250147819519e-02 -3.652200102806091309e-02
5.609440803527832031e-02 -9.975492954254150391e-02 -5.209572240710258484e-02
-2.938378788530826569e-02 -2.273182384669780731e-02 -2.329254746437072754e-01
-4.389380291104316711e-02 -2.695936709642410278e-02 1.929108500480651855e-01
8.916478157043457031e-01 -5.518843606114387512e-02 3.280970454216003418e-02
1.375087052583694458e-01 -8.990884572267532349e-02 -2.907606959342956543e-02
1.977580189704895020e-01 -2.199540846049785614e-02 4.887437075376510620e-02
-1.857210546731948853e-01 2.164374291896820068e-02 -6.454790830612182617e-01
8.868474960327148438e-01 1.815199386328458786e-03 5.741127952933311462e-02
3.555673360824584961e-02 -2.483195438981056213e-02 -2.336073368787765503e-01
-5.323250293731689453e-01 1.011488288640975952e-01 1.374485157430171967e-02
1.586464345455169678e-01 -5.259737744927406311e-02 -8.932537585496902466e-02
8.875838518142700195e-01 -2.761394903063774109e-02 5.160181969404220581e-02
6.421682238578796387e-01 -7.422602176666259766e-02 3.660085797309875488e-02
3.919795155525207520e-01 -9.686382859945297241e-02 4.058293253183364868e-02
2.376060187816619873e-01 -3.926015645265579224e-02 -2.465899884700775146e-01
1.271171420812606812e-01 -7.542610168457031250e-02 -2.809012532234191895e-01
-2.992374002933502197e-01 -3.920561447739601135e-02 -7.443351298570632935e-02
-3.394399881362915039e-01 5.088140722364187241e-03 -8.970721811056137085e-02
3.000645637512207031e-01 -1.001367792487144470e-01 6.169337034225463867e-02
2.529888153076171875e-01 -5.734311789274215698e-02 4.753791913390159607e-02
-7.504390478134155273e-01 5.120927095413208008e-02 1.604815125465393066e-01
2.159773558378219604e-01 -8.958215825259685516e-03 -1.617390960454940796e-01
-2.878374606370925903e-02 1.130672171711921692e-02 5.264503955841064453e-01
-3.635233342647552490e-01 1.203773319721221924e-01 1.216293219476938248e-02
1.994490325450897217e-01 -1.103646978735923767e-01 2.950537502765655518e-01
-2.263600230216979980e-01 3.487186133861541748e-02 6.991523504257202148e-01
1.259170621633529663e-01 1.015033945441246033e-01 -5.414131283760070801e-02
1.311810314655303955e-01 -3.876921907067298889e-02 2.889442741870880127e-01
5.534989237785339355e-01 1.144314929842948914e-01 -3.316723927855491638e-02
-9.242047071456909180e-01 4.231779277324676514e-02 -5.429102107882499695e-03
2.665714919567108154e-01 -3.696909546852111816e-02 2.975629866123199463e-01
-1.315812319517135620e-01 1.267043780535459518e-02 4.627917706966400146e-01
-7.501397281885147095e-02 -2.750485576689243317e-02 6.330256164073944092e-02
3.111925423145294189e-01 -8.409937471151351929e-02 -2.586998641490936279e-01
-3.445761743932962418e-03 2.633437281474471092e-03 -3.099485933780670166e-01
2.184593528509140015e-01 -9.940099902451038361e-03 1.458624005317687988e-01
-2.532526552677154541e-01 3.702654317021369934e-02 -7.322664856910705566e-01
