4.387964680790901184e-02 -2.449752204120159149e-02 -1.967055797576904297e-01
7.919584512710571289e-01 7.003288716077804565e-02 1.212732400745153427e-02
7.051197439432144165e-02 -2.679296210408210754e-02 -1.448755860328674316e-01
-2.736997604370117188e-01 -1.215952821075916290e-02 8.072969317436218262e-02
1.859882771968841553e-01 -6.748487055301666260e-02 -3.975044488906860352e-01
-5.096377432346343994e-02 7.638644427061080933e-03 -5.750098228454589844e-01
8.611607551574707031e-01 1.804638467729091644e-02 -6.171803176403045654e-02
-6.964781284332275391e-01 4.207025095820426941e-02 -1.358387875370681286e-03
6.875420212745666504e-01 4.506997391581535339e-02 6.098368763923645020e-02
8.373683691024780273e-02 -1.124657224863767624e-02 2.574786245822906494e-01
-6.786656379699707031e-02 1.316856779158115387e-02 -6.506289243698120117e-01
-4.393366575241088867e-01 5.015646293759346008e-02 4.658501595258712769e-02
7.514752149581909180e-01 3.408837690949440002e-02 -6.737837940454483032e-02
8.595401793718338013e-02 -5.590332299470901489e-02 -2.628367801662534475e-04
6.105664968490600586e-01 -1.915018633008003235e-02 8.146005123853683472e-02
1.069781705737113953e-01 -1.114222873002290726e-02 -2.334326356649398804e-01
1.645989418029785156e-01 -8.963064104318618774e-02 6.432250887155532837e-02
5.616546794772148132e-02 -2.108044177293777466e-02 4.188115298748016357e-01
7.692388296127319336e-01 -5.058206617832183838e-02 7.196528464555740356e-02
-6.287366151809692383e-01 5.855568498373031616e-02 1.790684461593627930e-01
2.256628721952438354e-01 -7.032807916402816772e-02 4.140380918979644775e-01
3.887956440448760986e-01 7.506720721721649170e-02 -1.427024044096469879e-02
-5.018613338470458984e-01 6.742443889379501343e-02 3.519422840327024460e-03
-8.177191019058227539e-01 1.206108331680297852e-01 1.077092811465263367e-02
9.213899970054626465e-01 -3.592255339026451111e-02 -5.522298440337181091e-02
2.894396185874938965e-01 -3.628773614764213562e-02 -2.628367801662534475e-04
-6.799144744873046875e-01 3.361885622143745422e-02 1.212732400745153427e-02
1.667345874011516571e-02 -3.062738850712776184e-02 -2.885231971740722656e-01
-5.761533975601196289e-02 -7.725157309323549271e-03 5.493647456169128418e-01
-2.327470034360885620e-01 1.382068265229463577e-02 -7.734268158674240112e-02
-6.458219289779663086e-01 1.551728546619415283e-01 7.745119743049144745e-03
-6.314526498317718506e-02 -5.847064778208732605e-03 4.277585148811340332e-01
5.577420070767402649e-02 -8.793515712022781372e-02 -7.828172296285629272e-02
8.678873628377914429e-02 -5.000820383429527283e-02 1.824072599411010742e-01
-5.367657169699668884e-02 8.473346941173076630e-03 7.032896280288696289e-01
-8.137803673744201660e-01 1.471909880638122559e-01 1.536997151561081409e-03
2.942130565643310547e-01 -4.700848832726478577e-02 1.333943903446197510e-01
-9.199476242065429688e-02 1.221847254782915115e-03 6.515640020370483398e-01
2.068298310041427612e-01 -4.844313487410545349e-02 -2.027050256729125977e-01
5.216181874275207520e-01 -1.309857424348592758e-02 -8.167271316051483154e-02
2.483792230486869812e-02 -5.159936472773551941e-02 -1.305290758609771729e-01
-1.075933203101158142e-01 1.384676340967416763e-02 6.889170408248901367e-01
8.493673056364059448e-02 -3.871360048651695251e-02 -3.669072687625885010e-01
-6.110512614250183105e-01 3.779238462448120117e-02 1.171437278389930725e-01
5.242787599563598633e-01 -8.496150374412536621e-02 -1.956540346145629883e-02
7.609961032867431641e-01 7.344996929168701172e-02 -1.228781417012214661e-02
2.390442490577697754e-01 -4.760843142867088318e-02 4.002915024757385254e-01
9.672726988792419434e-01 -1.174217183142900467e-02 3.059518523514270782e-02
8.830717802047729492e-01 -8.351181633770465851e-03 6.497462093830108643e-02
6.378215551376342773e-02 -4.583468288183212280e-02 -1.442674733698368073e-02
-1.371471136808395386e-01 2.128086984157562256e-02 -8.159267306327819824e-01
6.584283709526062012e-02 -7.064109295606613159e-02 -1.406156364828348160e-02
2.822891809046268463e-02 -4.763451218605041504e-02 1.644871979951858521e-01
7.053805887699127197e-02 2.196099012508057058e-05 -3.864706754684448242e-01
-1.778390258550643921e-01 1.387285441160202026e-02 -7.807648181915283203e-01
1.932137012481689453e-01 -7.264960557222366333e-02 5.866216123104095459e-02
1.140992566943168640e-01 -1.935886591672897339e-02 -1.511358767747879028e-01
2.946565151214599609e-01 -5.415565520524978638e-02 -2.628367801662534475e-04
3.621079027652740479e-02 -5.006037652492523193e-02 -1.525183469057083130e-01
6.353989839553833008e-01 7.337170839309692383e-02 2.159601636230945587e-02
-1.113234236836433411e-01 -9.968423284590244293e-03 -8.151621371507644653e-02
6.157312393188476562e-01 3.442747518420219421e-02 -6.821309030055999756e-02
-2.270866632461547852e-01 -5.467734485864639282e-02 -7.283005118370056152e-02
-4.115921910852193832e-03 -3.868751972913742065e-02 -2.088609784841537476e-01
1.252373605966567993e-01 -1.412694109603762627e-03 -3.977913856506347656e-01
-9.006450325250625610e-02 -6.681777071207761765e-03 5.332444906234741211e-01
2.387312352657318115e-01 -7.502330094575881958e-02 -8.884596079587936401e-02
-2.811701502650976181e-03 -1.763727888464927673e-02 -4.444044530391693115e-01
1.307933628559112549e-01 -8.963064104318618774e-02 -6.001438014209270477e-03
2.984126806259155273e-01 -6.589370965957641602e-02 3.242289721965789795e-01
7.543866988271474838e-03 -4.077427834272384644e-02 1.303685903549194336e-01
1.981697529554367065e-01 -8.024019747972488403e-02 1.035357546061277390e-02
-9.121222794055938721e-02 -5.874653160572052002e-02 7.741695642471313477e-02
-5.079911947250366211e-01 2.360238879919052124e-02 -7.905609905719757080e-03
-5.824103951454162598e-01 9.350898116827011108e-02 -2.634738571941852570e-02
3.404577076435089111e-02 -3.764412924647331238e-02 -2.464749068021774292e-01
-1.659183800220489502e-01 7.977747358381748199e-03 6.881866455078125000e-01
-6.314526498317718506e-02 -5.847064778208732605e-03 4.277585148811340332e-01
2.737627923488616943e-01 -3.592255339026451111e-02 1.731472462415695190e-01
-1.940147019922733307e-02 -2.348022349178791046e-02 2.865889668464660645e-01
3.514132276177406311e-02 -5.306010320782661438e-02 -1.277119517326354980e-01
-4.730378985404968262e-01 3.349731268826872110e-04 6.294002383947372437e-02
-1.378514021635055542e-01 2.028965204954147339e-02 7.915597558021545410e-01
-1.621621996164321899e-01 7.377804256975650787e-03 -6.917904019355773926e-01
-2.967878617346286774e-02 -8.723086863756179810e-02 -1.917413435876369476e-02
-5.597690343856811523e-01 3.239288181066513062e-02 9.163303673267364502e-02
2.513561546802520752e-01 4.746975377202033997e-02 -5.947476252913475037e-02
-5.052001476287841797e-01 6.231186538934707642e-02 -2.068703807890415192e-02
9.655510783195495605e-01 -2.273487159982323647e-03 2.475224807858467102e-02
-4.842542409896850586e-01 1.270797997713088989e-01 3.137772530317306519e-02
7.448757886886596680e-01 -6.290501914918422699e-03 -8.104668557643890381e-02
3.016732633113861084e-01 -6.957162916660308838e-02 -6.148327514529228210e-02
-8.489976823329925537e-02 5.708389915525913239e-03 5.872394442558288574e-01
-6.619714945554733276e-02 1.194259990006685257e-02 -6.346912384033203125e-01
-7.043817639350891113e-01 1.147307176142930984e-02 1.450101844966411591e-02
2.580598890781402588e-01 -7.575366646051406860e-02 4.363746196031570435e-02
-8.158703893423080444e-02 -4.386328626424074173e-03 -5.820526480674743652e-01
-4.748637974262237549e-01 1.034471914172172546e-01 -4.001569002866744995e-02
4.395790025591850281e-02 -3.015787154436111450e-02 -1.543964296579360962e-01
-6.691937446594238281e-01 1.260624974966049194e-01 2.845625393092632294e-02
1.009787321090698242e-01 -2.387148886919021606e-02 -3.739761710166931152e-01
1.930571943521499634e-01 -4.646070674061775208e-02 -2.171297818422317505e-01
9.286154508590698242e-01 -7.218006998300552368e-02 4.927988164126873016e-03
2.410756051540374756e-02 -2.541047893464565277e-02 3.490875363349914551e-01
-1.368340998888015747e-01 4.247653763741254807e-03 -6.298656463623046875e-01
9.447356462478637695e-01 -5.752056464552879333e-02 3.724674880504608154e-02
-6.320493221282958984e-01 5.073032155632972717e-02 -1.766726374626159668e-01
9.703996032476425171e-02 -4.586076363921165466e-02 9.025055170059204102e-02
1.248982623219490051e-01 -8.963064104318618774e-02 9.727546013891696930e-03
-6.522909402847290039e-01 2.630063891410827637e-01 -2.062670653685927391e-03
-5.722406506538391113e-02 1.534859417006373405e-03 5.540599226951599121e-01
-1.113234236836433411e-01 -9.968423284590244293e-03 -8.151621371507644653e-02
1.952483057975769043e-01 -7.935332506895065308e-02 -4.123987257480621338e-01
-2.293271536473184824e-04 -6.038985401391983032e-02 -2.981662936508655548e-02
9.359679371118545532e-02 -8.963064104318618774e-02 2.496092393994331360e-02
3.319574296474456787e-01 -4.716499522328376770e-02 -2.628367801662534475e-04
1.121950820088386536e-01 -4.408701881766319275e-02 -2.309285104274749756e-01
8.986671268939971924e-02 -8.963064104318618774e-02 -6.213539093732833862e-02
5.081063508987426758e-01 -7.760565727949142456e-02 4.405481368303298950e-02
-1.860817372798919678e-01 -1.360522233881056309e-03 8.049493283033370972e-02
-6.343447566032409668e-01 5.448649823665618896e-02 -1.943840533494949341e-01
-1.748914718627929688e-01 1.371634844690561295e-02 7.795869112014770508e-01
-5.437270402908325195e-01 -3.420097753405570984e-02 -3.412058204412460327e-02
-5.611776113510131836e-01 1.551617775112390518e-02 -1.090533286333084106e-02
2.229761630296707153e-01 -1.028143614530563354e-02 1.463584154844284058e-01
2.496606707572937012e-01 -8.931762725114822388e-02 3.189859688282012939e-01
-7.010951638221740723e-01 7.407598942518234253e-02 2.724250555038452148e-01
1.304281800985336304e-01 -8.963064104318618774e-02 3.881182149052619934e-02
6.152616739273071289e-01 -8.647441864013671875e-02 3.631924046203494072e-04
9.797150492668151855e-01 -3.812476294115185738e-03 -9.183753281831741333e-03
-5.964438915252685547e-01 1.265841871500015259e-01 2.955180592834949493e-02
-5.463094115257263184e-01 4.272236675024032593e-02 -1.157130599021911621e-01
-2.771168053150177002e-01 -7.056282460689544678e-02 5.579286068677902222e-02
2.255846261978149414e-01 -3.790497779846191406e-02 -8.988935500383377075e-02
1.166033744812011719e-01 -1.830050023272633553e-03 -3.284064531326293945e-01
9.411098957061767578e-01 -2.316721156239509583e-02 -4.864967614412307739e-02
8.022096753120422363e-01 -8.144008368253707886e-02 1.961359009146690369e-02
2.955694794654846191e-01 -4.400876536965370178e-02 3.943703174591064453e-01
8.613333106040954590e-03 -1.395935751497745514e-02 3.245158791542053223e-01
1.669726371765136719e-01 -2.439317852258682251e-02 -4.293715953826904297e-02
2.402963191270828247e-01 -4.559992626309394836e-02 -1.975142061710357666e-01
-6.691937446594238281e-01 1.260624974966049194e-01 2.845625393092632294e-02
-3.959415946155786514e-03 4.873687867075204849e-03 -6.259268522262573242e-01
1.477483361959457397e-01 -4.855856765061616898e-03 8.067752420902252197e-02
2.212513424456119537e-02 -2.348022349178791046e-02 -2.324153333902359009e-01
3.536336719989776611e-01 -3.388795629143714905e-02 -2.628367801662534475e-04
-6.501519680023193359e-01 2.704555168747901917e-02 6.387907266616821289e-02
9.098834544420242310e-02 2.473905449733138084e-03 4.228025078773498535e-01
2.268888503313064575e-01 -1.221059113740921021e-01 -3.388663828372955322e-01
-6.658842414617538452e-02 1.538575254380702972e-02 -6.872777342796325684e-01
5.577420070767402649e-02 -8.793515712022781372e-02 -7.828172296285629272e-02
5.707842856645584106e-02 6.867649406194686890e-02 -3.148604184389114380e-02
9.093128442764282227e-01 -2.869713492691516876e-02 -5.955301970243453979e-02
8.039573431015014648e-01 7.045024633407592773e-02 4.223705735057592392e-03
-9.606395661830902100e-02 -7.004114985466003418e-02 -6.782181560993194580e-02
5.502068400382995605e-01 -1.265513710677623749e-02 8.112096041440963745e-02
3.548596501350402832e-01 8.029909804463386536e-03 -7.916860282421112061e-02
6.839912384748458862e-02 3.099929774180054665e-03 -4.957910180091857910e-01
2.172897309064865112e-01 -4.784319177269935608e-02 -3.676898181438446045e-01
-7.043817639350891113e-01 1.147307176142930984e-02 1.450101844966411591e-02
1.859882771968841553e-01 -6.748487055301666260e-02 -3.975044488906860352e-01
2.377921938896179199e-01 -3.065346926450729370e-02 2.308462858200073242e-01
2.395104803144931793e-02 -1.492449454963207245e-02 -4.850441813468933105e-01
2.317144870758056641e-01 -6.511116027832031250e-02 1.073359325528144836e-01
-1.447116434574127197e-01 7.438901066780090332e-02 1.684862747788429260e-02
2.269899100065231323e-02 -5.847064778208732605e-03 3.757981359958648682e-01
7.330855727195739746e-01 7.334562391042709351e-02 -2.227819524705410004e-02
1.863795369863510132e-01 -6.748487055301666260e-02 -3.344320058822631836e-01
2.942652404308319092e-01 -4.320014268159866333e-02 -1.383283585309982300e-01
1.408098340034484863e-01 7.681487500667572021e-02 -6.288367789238691330e-03
1.923268288373947144e-01 -4.935609921813011169e-02 -9.093273431062698364e-02
1.310542076826095581e-01 -6.078112870454788208e-02 -3.699330687522888184e-01
-4.466403126716613770e-01 1.524600684642791748e-01 -3.410904319025576115e-04
7.382243275642395020e-01 -8.073581755161285400e-02 3.622945025563240051e-02
-6.042953729629516602e-01 4.663504660129547119e-02 9.258023463189601898e-03
2.760843038558959961e-01 -7.275392860174179077e-02 5.602762475609779358e-02
1.205160617828369141e-01 -4.239151999354362488e-02 2.424278110265731812e-01
9.393589943647384644e-02 -6.980637460947036743e-02 -4.184160754084587097e-02
-7.303881049156188965e-01 2.903951704502105713e-01 -3.471236675977706909e-03
-4.912709891796112061e-01 1.484952121973037720e-01 1.051008235663175583e-02
-8.312309384346008301e-01 1.183936521410942078e-01 9.101516567170619965e-03
3.199063539505004883e-01 -6.286788731813430786e-02 -7.103022187948226929e-02
-4.222545027732849121e-02 -7.229547947645187378e-03 8.080794662237167358e-02
4.507953673601150513e-02 1.577702723443508148e-02 -7.674273848533630371e-02
-8.093492686748504639e-02 -7.559715956449508667e-02 -5.449261516332626343e-02
-5.698637366294860840e-01 1.859415695071220398e-02 2.676075883209705353e-02
2.483792230486869812e-02 -5.159936472773551941e-02 -1.305290758609771729e-01
-4.879321753978729248e-01 5.701670050621032715e-02 8.032049983739852905e-03
-4.908536672592163086e-01 -1.268121786415576935e-02 -6.002253666520118713e-02
-5.000354051589965820e-01 -3.240113705396652222e-02 -5.146680772304534912e-02
-6.692980527877807617e-01 2.059073150157928467e-01 -6.131860427558422089e-03
-1.205834373831748962e-01 5.573855713009834290e-02 5.008034780621528625e-02
1.620687395334243774e-01 -5.749448388814926147e-02 3.572520017623901367e-01
-6.729270517826080322e-02 -2.456074347719550133e-03 6.136891841888427734e-01
-6.799144744873046875e-01 3.361885622143745422e-02 1.212732400745153427e-02
2.062820643186569214e-01 -2.092393487691879272e-02 2.889969013631343842e-02
-4.754376709461212158e-01 6.786787509918212891e-02 1.954349922016263008e-03
-1.378514021635055542e-01 2.028965204954147339e-02 7.915597558021545410e-01
2.186722159385681152e-01 -5.099942162632942200e-02 1.851461529731750488e-01
1.488699465990066528e-01 -2.534327330067753792e-03 -3.493523597717285156e-01
5.980719923973083496e-01 -6.837174296379089355e-02 -6.062248721718788147e-02
-4.383193552494049072e-01 -5.347745865583419800e-02 -4.304149746894836426e-02
2.570947706699371338e-01 -2.817544527351856232e-02 -8.827210962772369385e-02
2.141856700181961060e-01 -6.440688669681549072e-02 -1.130002662539482117e-01
3.439302146434783936e-01 6.729400902986526489e-02 3.359491005539894104e-02
3.081161379814147949e-01 -7.447551935911178589e-02 -3.392576575279235840e-01
-5.367657169699668884e-02 8.473346941173076630e-03 7.032896280288696289e-01
2.340360134840011597e-01 -1.721993274986743927e-02 -3.680728748440742493e-02
1.192379146814346313e-01 -2.820152603089809418e-02 3.432967662811279297e-01
3.409793972969055176e-02 -6.864364258944988251e-03 -5.481166243553161621e-01
-2.270866632461547852e-01 -5.467734485864639282e-02 -7.283005118370056152e-02
1.236950792372226715e-02 6.309439986944198608e-02 4.155069589614868164e-02
5.710450932383537292e-02 -8.664193563163280487e-03 -5.159544348716735840e-01
-1.171924471855163574e-01 1.061228848993778229e-02 -7.559583783149719238e-01
2.387312352657318115e-01 -7.502330094575881958e-02 -8.884596079587936401e-02
2.727976739406585693e-01 -1.037945449352264404e-01 4.146119356155395508e-01
-4.707424342632293701e-01 8.070147037506103516e-02 1.917015202343463898e-02
-6.944696307182312012e-01 1.684238016605377197e-01 -4.697210155427455902e-03
1.881272047758102417e-01 -7.833602279424667358e-02 -8.709830790758132935e-02
6.019325256347656250e-01 7.355429977178573608e-02 2.078739553689956665e-02
2.777798175811767578e-01 -1.531575899571180344e-02 -4.257197678089141846e-02
6.687089204788208008e-01 1.181217469274997711e-02 7.744304090738296509e-02
-4.383193552494049072e-01 -5.347745865583419800e-02 -4.304149746894836426e-02
-7.490939646959304810e-02 -4.192200303077697754e-02 7.752129435539245605e-02
3.882218003273010254e-01 -3.206204250454902649e-02 -8.000329881906509399e-02
2.174984216690063477e-01 -2.861888147890567780e-02 -3.608295619487762451e-01
8.451709151268005371e-01 1.932452432811260223e-02 6.419208645820617676e-02
-1.156012862920761108e-01 4.978022072464227676e-03 6.130371093750000000e-01
8.149389028549194336e-01 3.197553008794784546e-02 6.134887039661407471e-02
8.514050841331481934e-01 4.746975377202033997e-02 3.977695107460021973e-02
8.676264435052871704e-02 6.479852600023150444e-04 3.808063566684722900e-01
-5.481613874435424805e-01 8.208394795656204224e-02 -3.130345046520233154e-02
-9.199476242065429688e-02 1.221847254782915115e-03 6.515640020370483398e-01
-6.314526498317718506e-02 -5.847064778208732605e-03 4.277585148811340332e-01
-4.142012912780046463e-03 -9.290227666497230530e-03 5.447216629981994629e-01
-7.119724154472351074e-01 1.440347582101821899e-01 -1.573097519576549530e-02
1.646250188350677490e-01 -1.492449454963207245e-02 8.122529834508895874e-02
-8.093492686748504639e-02 -7.559715956449508667e-02 -5.449261516332626343e-02
1.863795369863510132e-01 -4.912133142352104187e-02 3.829713761806488037e-01
1.863795369863510132e-01 -6.748487055301666260e-02 -3.344320058822631836e-01
-5.260710045695304871e-02 -8.339644223451614380e-02 6.800042837858200073e-02
5.426130071282386780e-02 3.386860713362693787e-03 -5.234406590461730957e-01
3.225669860839843750e-01 -5.658150836825370789e-02 3.897794187068939209e-01
2.233152538537979126e-01 -7.395381480455398560e-02 3.219596147537231445e-01
-1.977154463529586792e-01 2.858453989028930664e-02 8.372598290443420410e-01
4.599249362945556641e-02 -6.719793379306793213e-02 2.318717539310455322e-02
-5.079911947250366211e-01 2.360238879919052124e-02 -7.905609905719757080e-03
-8.338654637336730957e-01 1.116638258099555969e-01 -1.557446829974651337e-02
9.326845407485961914e-01 -7.412135135382413864e-03 -4.961480200290679932e-02
2.412092685699462891e-01 -8.172701299190521240e-02 5.945285782217979431e-03
7.294337749481201172e-01 7.506720721721649170e-02 -1.434849482029676437e-02
-1.736915856599807739e-01 4.577425867319107056e-02 6.054024770855903625e-02
2.635083161294460297e-02 -8.963064104318618774e-02 2.295241504907608032e-02
4.357739090919494629e-01 -6.730226427316665649e-02 -6.195279583334922791e-02
4.907047003507614136e-02 -2.408016659319400787e-02 -3.832100927829742432e-01
-8.002521470189094543e-03 -1.771554164588451385e-02 -3.141121268272399902e-01
6.714478135108947754e-01 4.694806411862373352e-02 -6.002253666520118713e-02
1.468353718519210815e-01 -1.084636822342872620e-01 -3.729067146778106689e-01
2.848651260137557983e-03 -8.955238014459609985e-02 -6.109200417995452881e-02
-2.096654102206230164e-02 -8.347468078136444092e-02 7.945154607295989990e-02
1.422444730997085571e-01 -3.029936458915472031e-03 2.979618310928344727e-01
4.507953673601150513e-02 1.577702723443508148e-02 -7.674273848533630371e-02
5.877392366528511047e-02 -1.647453173063695431e-03 3.789804577827453613e-01
8.031976222991943359e-02 -3.000136464834213257e-02 3.199510872364044189e-01
-6.982258558273315430e-01 7.650185376405715942e-02 -2.475622855126857758e-02
1.100984052754938602e-03 -5.227756127715110779e-02 -6.411781907081604004e-02
-7.747579216957092285e-01 1.201673969626426697e-01 2.316108904778957367e-02
-1.681910082697868347e-02 -8.861333876848220825e-02 -5.882265046238899231e-02
-6.034867763519287109e-01 -2.689729630947113037e-02 -3.888589097186923027e-03
1.887793242931365967e-01 4.864355921745300293e-02 5.767094716429710388e-02
1.863795369863510132e-01 -6.748487055301666260e-02 -3.344320058822631836e-01
4.189721867442131042e-02 -1.386613002978265285e-03 -8.102060109376907349e-02
-6.343219429254531860e-02 -3.534869104623794556e-02 -7.937727123498916626e-02
1.428705155849456787e-01 -2.747115679085254669e-02 -4.630206525325775146e-02
-9.481190890073776245e-02 -1.882212236523628235e-03 6.085766553878784180e-01
1.174380853772163391e-01 -2.994919195771217346e-02 5.824480950832366943e-02
6.552982330322265625e-02 -5.548596754670143127e-02 1.313858926296234131e-01
8.068527579307556152e-01 6.531158834695816040e-02 -2.379110082983970642e-02
1.465484350919723511e-01 -1.060639098286628723e-01 -3.574385941028594971e-01
6.772092729806900024e-02 4.560666158795356750e-03 -4.731757342815399170e-01
2.099077999591827393e-01 -8.090341463685035706e-03 -2.401885241270065308e-01
5.846091359853744507e-02 -1.184651535004377365e-02 -3.725415170192718506e-01
-7.189891338348388672e-01 2.563287615776062012e-01 -4.149435088038444519e-03
-3.111343085765838623e-02 -2.647994831204414368e-02 2.828066945075988770e-01
-2.109924852848052979e-01 8.390986919403076172e-02 -8.565664291381835938e-01
1.881272047758102417e-01 -7.833602279424667358e-02 -8.709830790758132935e-02
-7.820876836776733398e-01 8.758779615163803101e-02 -2.019143290817737579e-02
-1.328953355550765991e-01 -5.725971609354019165e-02 -7.155191153287887573e-02
-5.281284451484680176e-01 -3.873968124389648438e-02 -3.401624411344528198e-02
8.149389028549194336e-01 3.197553008794784546e-02 6.134887039661407471e-02
9.553781747817993164e-01 6.673517171293497086e-03 2.496092393994331360e-02
4.209057390689849854e-01 -8.517018705606460571e-02 -1.695694774389266968e-02
1.813191473484039307e-01 -1.218450590968132019e-01 -3.700635135173797607e-01
1.061956286430358887e-01 -3.516610339283943176e-02 3.647643327713012695e-01
-1.394980028271675110e-02 -3.171419666614383459e-04 4.626857638359069824e-01
7.816550731658935547e-01 4.139205440878868103e-02 -5.955301970243453979e-02
1.503306925296783447e-01 -3.114907816052436829e-02 -6.836143322288990021e-03
9.695681333541870117e-01 -2.723639830946922302e-02 3.492522239685058594e-02
-7.125201225280761719e-01 1.047775149345397949e-01 -3.933748975396156311e-02
-8.039986491203308105e-01 8.354468643665313721e-02 9.649291634559631348e-03
-8.055115342140197754e-01 8.137966692447662354e-02 2.849387237802147865e-04
2.690414786338806152e-01 -8.955238014459609985e-02 3.810753673315048218e-02
2.623899281024932861e-01 -1.521141547709703445e-02 -4.298932850360870361e-02
-8.636050671339035034e-02 1.418586634099483490e-02 6.766051054000854492e-01
-1.309911608695983887e-01 1.504665985703468323e-02 8.006110787391662598e-01
-5.367657169699668884e-02 8.473346941173076630e-03 7.032896280288696289e-01
6.485455632209777832e-01 3.946179524064064026e-02 -6.505686044692993164e-02
-5.757849812507629395e-01 7.973633706569671631e-02 2.944746613502502441e-02
-1.820908039808273315e-01 4.853921756148338318e-02 -5.832704156637191772e-02
-8.182180672883987427e-02 -1.049011386930942535e-02 -4.693152010440826416e-01
-2.479803711175918579e-01 1.002909615635871887e-01 -8.628007173538208008e-01
-5.797237157821655273e-01 3.622731193900108337e-02 5.996639281511306763e-02
-4.851411283016204834e-01 7.556281238794326782e-02 9.075432084500789642e-03
-6.072266958653926849e-03 -1.302032079547643661e-02 -3.520651757717132568e-01
-2.537482976913452148e-02 -2.113261260092258453e-02 -3.559517562389373779e-01
-3.552171960473060608e-02 -1.242037769407033920e-02 3.908749818801879883e-01
1.385404765605926514e-01 -3.349668905138969421e-02 -3.053883556276559830e-03
3.105419874191284180e-01 -8.775255084037780762e-02 4.146640896797180176e-01
1.883880496025085449e-01 -1.239579021930694580e-01 -3.610382378101348877e-01
-2.893504798412322998e-01 7.595408707857131958e-02 -1.022713445127010345e-02
-9.724107570946216583e-03 9.647151455283164978e-03 -5.669496655464172363e-01
4.907047003507614136e-02 -2.408016659319400787e-02 -3.832100927829742432e-01
-4.089513793587684631e-02 -8.566578477621078491e-02 -6.735230237245559692e-02
7.609961032867431641e-01 7.344996929168701172e-02 -1.228781417012214661e-02
1.385404765605926514e-01 -3.349668905138969421e-02 -3.053883556276559830e-03
-4.681861698627471924e-01 1.231410279870033264e-01 3.218634426593780518e-02
4.368694722652435303e-01 -3.918311744928359985e-02 7.806906849145889282e-02
3.269491791725158691e-01 -8.196178823709487915e-02 -6.135284900665283203e-02
5.460072159767150879e-01 -6.336350739002227783e-02 -6.683060526847839355e-02
-2.220262438058853149e-01 9.217867255210876465e-02 -8.582358360290527344e-01
8.462370932102203369e-02 -8.963064104318618774e-02 -3.224249184131622314e-02
-5.446921586990356445e-01 9.403067082166671753e-02 -2.548659592866897583e-02
-4.784112870693206787e-01 4.180940613150596619e-02 -4.919745028018951416e-02
-2.270866632461547852e-01 -5.467734485864639282e-02 -7.283005118370056152e-02
-6.308754682540893555e-01 3.875751420855522156e-02 9.429366141557693481e-02
1.942831575870513916e-01 -4.113946482539176941e-02 2.429234236478805542e-01
7.583322376012802124e-02 -4.275670647621154785e-02 -9.015019237995147705e-02
9.735068678855895996e-01 -5.266883596777915955e-02 2.879535406827926636e-02
-2.088535577058792114e-01 -5.217322707176208496e-02 -7.402994483709335327e-02
4.716401696205139160e-01 6.265096366405487061e-02 4.241148754954338074e-02
-4.885060489177703857e-01 7.858861982822418213e-02 -1.901762746274471283e-02
8.451709151268005371e-01 1.932452432811260223e-02 6.419208645820617676e-02
1.688767969608306885e-01 -5.303402245044708252e-02 -1.801679730415344238e-01
2.069048397243022919e-02 -2.486270666122436523e-02 -3.689679503440856934e-01
5.641620755195617676e-01 -1.735035702586174011e-02 -8.190747350454330444e-02
-7.921334356069564819e-02 -7.203467190265655518e-03 5.389047861099243164e-01
-7.125201225280761719e-01 1.047775149345397949e-01 -3.933748975396156311e-02
-4.624997377395629883e-01 1.518079489469528198e-01 -2.519966475665569305e-02
6.986018419265747070e-01 -8.716365322470664978e-03 -8.143795281648635864e-02
8.346849083900451660e-01 4.094861820340156555e-02 5.214102566242218018e-02
2.213328480720520020e-01 -5.277317017316818237e-02 1.753644347190856934e-01
1.216116026043891907e-01 -6.701532751321792603e-02 7.673875987529754639e-02
-3.883935213088989258e-01 5.049556121230125427e-02 -5.245802178978919983e-02
1.009787321090698242e-01 -2.387148886919021606e-02 -3.739761710166931152e-01
-2.091665714979171753e-01 2.028965204954147339e-02 8.256521821022033691e-01
-6.112599372863769531e-01 5.936430767178535461e-02 1.891631633043289185e-01
1.252373605966567993e-01 -1.043423265218734741e-01 -3.635423779487609863e-01
7.261732220649719238e-01 -2.932315878570079803e-02 7.999932020902633667e-02
2.536255121231079102e-01 -8.856117725372314453e-02 7.564320415258407593e-02
1.881272047758102417e-01 -7.833602279424667358e-02 -8.709830790758132935e-02
-1.860817372798919678e-01 -1.360522233881056309e-03 8.049493283033370972e-02
8.863584399223327637e-01 -7.588408887386322021e-02 1.637910678982734680e-02
3.429911732673645020e-01 -3.169685974717140198e-02 5.028902366757392883e-02
2.149421125650405884e-01 -1.165238171815872192e-01 -4.030865430831909180e-01
-6.994779109954833984e-01 6.280747056007385254e-02 -2.241986989974975586e-01
6.552982330322265625e-02 -5.548596754670143127e-02 1.313858926296234131e-01
1.992913931608200073e-01 -8.963064104318618774e-02 3.161248564720153809e-02
2.168169617652893066e-02 -6.002468243241310120e-02 8.915500342845916748e-02
8.373683691024780273e-02 -1.124657224863767624e-02 2.574786245822906494e-01
4.989767670631408691e-01 6.408561021089553833e-02 3.964652493596076965e-02
-6.425613760948181152e-01 7.793650776147842407e-02 1.432658988051116467e-03
1.714069992303848267e-01 -3.780064359307289124e-02 -8.994151651859283447e-02
-1.394980028271675110e-02 -3.171419666614383459e-04 4.626857638359069824e-01
-5.700724124908447266e-01 4.632203280925750732e-02 -1.070269048213958740e-01
-6.691937446594238281e-01 1.260624974966049194e-01 2.845625393092632294e-02
-8.435198664665222168e-02 -8.220756426453590393e-03 4.781799912452697754e-01
3.254362940788269043e-01 -8.569186925888061523e-02 1.001447625458240509e-02
2.697686105966567993e-02 6.408561021089553833e-02 -4.022436589002609253e-02
-4.946880936622619629e-01 1.409046053886413574e-01 2.282199077308177948e-02
-1.917942613363265991e-01 -2.705380134284496307e-02 8.044276386499404907e-02
-7.663064599037170410e-01 1.321662813425064087e-01 -1.236606854945421219e-02
-8.054365217685699463e-02 -9.159802459180355072e-03 -5.570636391639709473e-01
1.619122326374053955e-01 -8.963064104318618774e-02 4.170720279216766357e-02
-9.382069110870361328e-02 -7.695355266332626343e-02 4.541121050715446472e-02
-6.781146526336669922e-01 6.778962165117263794e-02 3.310746513307094574e-03
-4.089513793587684631e-02 -8.566578477621078491e-02 -6.735230237245559692e-02
4.541863501071929932e-02 6.554634124040603638e-02 3.690765053033828735e-02
1.847329363226890564e-02 -2.058484219014644623e-02 3.356018066406250000e-01
-6.628029346466064453e-01 1.464606225490570068e-01 2.227421477437019348e-02
-1.681094914674758911e-01 1.238603703677654266e-02 7.268700599670410156e-01
1.718504577875137329e-01 -2.908840030431747437e-02 3.613733649253845215e-01
1.029089838266372681e-01 -1.047510071657598019e-03 4.422615766525268555e-01
5.707842856645584106e-02 6.867649406194686890e-02 -3.148604184389114380e-02
3.490656241774559021e-02 -2.449752204120159149e-02 -8.149012178182601929e-02
-6.420918107032775879e-01 6.450296193361282349e-02 2.428451627492904663e-01
2.229761630296707153e-01 -1.028143614530563354e-02 1.463584154844284058e-01
2.480955868959426880e-01 -1.169000938534736633e-02 1.320901662111282349e-01
1.952483057975769043e-01 -7.935332506895065308e-02 -4.123987257480621338e-01
2.431623265147209167e-02 1.143594272434711456e-03 4.387140572071075439e-01
3.305488526821136475e-01 -5.183412507176399231e-02 -3.921049535274505615e-01
7.153481245040893555e-01 -8.154442906379699707e-02 -3.359889239072799683e-02
-5.931833386421203613e-01 5.156502500176429749e-02 1.376461833715438843e-01
1.011091545224189758e-01 -1.059445738792419434e-02 2.448015064001083374e-01
3.533467352390289307e-01 7.788433879613876343e-02 -1.332303276285529137e-03
7.575497031211853027e-02 -3.701810538768768311e-02 -2.691684663295745850e-01
2.942652404308319092e-01 -4.320014268159866333e-02 -1.383283585309982300e-01
5.580028519034385681e-02 -6.786110810935497284e-03 -3.332059979438781738e-01
5.242787599563598633e-01 -8.496150374412536621e-02 -1.956540346145629883e-02
-6.826794147491455078e-01 6.687665730714797974e-02 -2.325718402862548828e-01
5.846091359853744507e-02 -1.184651535004377365e-02 -3.725415170192718506e-01
-6.098513007164001465e-01 -2.496704086661338806e-02 7.040837313979864120e-03
-4.624997377395629883e-01 1.518079489469528198e-01 -2.519966475665569305e-02
-1.518588066101074219e-01 1.439454406499862671e-02 -7.951634526252746582e-01
1.620948165655136108e-01 -5.592940375208854675e-02 3.757198750972747803e-01
-6.345795392990112305e-01 2.475011348724365234e-02 -3.059916757047176361e-02
6.061581969261169434e-01 -7.327563315629959106e-02 5.315832421183586121e-02
1.823853328824043274e-02 -4.126988723874092102e-02 -1.120090410113334656e-01
9.746024608612060547e-01 -1.393327582627534866e-02 -2.689515985548496246e-02
-1.657618731260299683e-01 9.490645490586757660e-03 -7.014416456222534180e-01
3.414000272750854492e-01 7.780608534812927246e-02 1.093559782020747662e-03
-5.282067060470581055e-01 9.846504777669906616e-02 4.074207693338394165e-02
-3.994272947311401367e-01 -1.466364413499832153e-02 -7.314306497573852539e-02
8.480923771858215332e-01 -7.476244866847991943e-02 -3.406841307878494263e-02
2.964041829109191895e-01 -8.772646635770797729e-02 -3.821585699915885925e-02
3.107246160507202148e-01 -5.016472190618515015e-02 3.365930616855621338e-01
3.247841596603393555e-01 -8.819598704576492310e-02 4.112209379673004150e-01
7.053805887699127197e-02 2.196099012508057058e-05 -3.864706754684448242e-01
-6.904265284538269043e-01 6.426820158958435059e-02 1.615250832401216030e-03
-7.585332989692687988e-01 3.215923011302947998e-01 -2.401769859716296196e-03
-2.240119501948356628e-02 1.002140197670087218e-04 4.745803177356719971e-01
-9.121222794055938721e-02 -5.874653160572052002e-02 7.741695642471313477e-02
-1.890032142400741577e-01 1.520316582173109055e-02 7.708746790885925293e-01
2.042963728308677673e-02 -1.961970515549182892e-02 4.289323389530181885e-01
1.466168090701103210e-03 7.744090259075164795e-02 2.789055462926626205e-03
8.163475394248962402e-01 6.379868090152740479e-02 -2.457363530993461609e-02
2.499215006828308105e-01 -3.884402662515640259e-02 2.035879194736480713e-01
-2.104479447007179260e-02 1.056011673063039780e-02 -5.862000584602355957e-01
4.155812039971351624e-02 -3.391404449939727783e-02 8.615527302026748657e-02
-5.280501842498779297e-01 5.333877727389335632e-02 1.197081618010997772e-02
3.702495396137237549e-01 -6.558069586753845215e-02 -2.628367801662534475e-04
4.160539805889129639e-01 5.623415857553482056e-02 -5.008432641625404358e-02
4.004554152488708496e-01 -5.772923305630683899e-02 -7.123889774084091187e-02
2.891266047954559326e-01 -1.323049664497375488e-01 -3.565517067909240723e-01
2.019259333610534668e-01 -6.315482407808303833e-02 1.193609163165092468e-01
-4.286941289901733398e-01 2.728031016886234283e-02 -6.330919265747070312e-02
-7.337268590927124023e-01 2.270618826150894165e-01 -3.132137237116694450e-03
-2.363205701112747192e-01 7.154579460620880127e-02 -2.603437192738056183e-02
6.571273803710937500e-01 -4.906916990876197815e-02 -7.551676779985427856e-02
-1.757555082440376282e-02 5.890977103263139725e-03 5.263842344284057617e-01
3.887956440448760986e-01 7.506720721721649170e-02 -1.427024044096469879e-02
-6.109208464622497559e-01 3.771413117647171021e-02 -1.154000386595726013e-01
1.373405903577804565e-01 7.710179686546325684e-02 4.354128614068031311e-03
-7.008375227451324463e-02 9.777576662600040436e-03 -7.275262475013732910e-01
1.903183162212371826e-01 -6.186167709529399872e-03 -2.528656125068664551e-01
2.668503820896148682e-01 -7.202356308698654175e-02 3.194815814495086670e-01
1.820495128631591797e-01 -3.620948269963264465e-02 3.616081476211547852e-01
6.127804145216941833e-02 -1.625480502843856812e-02 2.396367639303207397e-01
1.832233220338821411e-01 -6.430254876613616943e-02 1.104660779237747192e-01
-2.253389954566955566e-01 -3.395120380446314812e-03 8.059927076101303101e-02
-1.349299401044845581e-01 6.908276118338108063e-03 -7.080932259559631348e-01
1.863795369863510132e-01 -4.912133142352104187e-02 3.829713761806488037e-01
-5.038176774978637695e-01 9.854330122470855713e-02 -2.757335826754570007e-02
-6.469436287879943848e-01 6.927643716335296631e-02 2.506965994834899902e-01
-5.886707305908203125e-01 3.218420594930648804e-02 3.581209853291511536e-02
-1.657618731260299683e-01 9.490645490586757660e-03 -7.014416456222534180e-01
-1.602319478988647461e-01 -7.241483777761459351e-02 -5.553599447011947632e-02
-1.825342476367950439e-01 -5.201672390103340149e-02 7.355643808841705322e-02
3.081682920455932617e-01 -8.657874166965484619e-02 4.035260081291198730e-01
3.081161379814147949e-01 -5.707712844014167786e-02 -3.650291860103607178e-01
4.961824789643287659e-02 5.837309360504150391e-02 -4.778888821601867676e-02
6.875420212745666504e-01 4.506997391581535339e-02 6.098368763923645020e-02
2.732932567596435547e-01 -1.262272745370864868e-01 -3.972696661949157715e-01
-6.287366151809692383e-01 5.855568498373031616e-02 1.790684461593627930e-01
6.665961146354675293e-01 -7.236267626285552979e-02 -5.561424791812896729e-02
1.692419946193695068e-01 4.392225667834281921e-02 -6.223972886800765991e-02
-6.605597734451293945e-01 7.733656466007232666e-02 2.789055462926626205e-03
-7.340399026870727539e-01 7.877121120691299438e-02 3.099085390567779541e-01
1.100984052754938602e-03 -5.227756127715110779e-02 -6.411781907081604004e-02
2.662769984453916550e-04 -5.273202899843454361e-03 -5.812700986862182617e-01
-6.416484117507934570e-01 1.437217444181442261e-01 -2.532192505896091461e-03
-7.571247220039367676e-01 2.779267430305480957e-01 1.954349922016263008e-03
7.476668953895568848e-01 -8.159659057855606079e-02 -3.198164701461791992e-02
4.066896140575408936e-01 -7.977068424224853516e-02 -4.001569002866744995e-02
3.769760951399803162e-02 2.268943376839160919e-02 -7.455163449048995972e-02
2.442090064287185669e-01 -2.361064776778221130e-02 -8.548106253147125244e-02
-7.026635110378265381e-02 7.391948997974395752e-02 -1.959148794412612915e-02
9.093128442764282227e-01 -2.869713492691516876e-02 -5.955301970243453979e-02
1.392447650432586670e-01 -7.862295955419540405e-02 -3.453092873096466064e-01
-4.012793004512786865e-01 4.509606212377548218e-02 5.566244199872016907e-02
9.641393274068832397e-02 -1.393327582627534866e-02 -4.521515965461730957e-01
1.314194053411483765e-01 -1.022555679082870483e-01 3.809106945991516113e-01
5.825516581535339355e-01 7.561498135328292847e-02 -1.181829161942005157e-02
-6.128771901130676270e-01 5.725146085023880005e-02 -1.692385524511337280e-01
2.971606254577636719e-01 -3.827016428112983704e-02 -3.554822206497192383e-01
-1.294000148773193359e-01 6.099655292928218842e-03 6.356263160705566406e-01
3.956819474697113037e-01 5.067815259099006653e-02 5.547985062003135681e-02
-2.588315308094024658e-01 -1.476797834038734436e-02 -8.177705109119415283e-02
-8.261444568634033203e-01 9.327422082424163818e-02 1.614434458315372467e-02
2.417309433221817017e-01 -1.223778072744607925e-02 1.949278414249420166e-01
1.710939854383468628e-01 6.825913488864898682e-02 3.174290806055068970e-02
2.586337625980377197e-01 -6.469382345676422119e-02 -1.031663864850997925e-01
-5.690029263496398926e-01 1.086119413375854492e-01 -3.265984728932380676e-02
1.252373605966567993e-01 -1.043423265218734741e-01 -3.635423779487609863e-01
5.909770131111145020e-01 -6.464163959026336670e-02 -6.526553630828857422e-02
1.511653959751129150e-01 -4.777603782713413239e-03 -2.640819549560546875e-01
1.863795369863510132e-01 -6.748487055301666260e-02 -3.344320058822631836e-01
-6.786623597145080566e-01 1.150287389755249023e-01 -1.578314416110515594e-02
3.260623216629028320e-01 -7.591017335653305054e-02 2.018744871020317078e-02
-6.731063723564147949e-01 6.914601475000381470e-02 -2.633515894412994385e-01
3.883261084556579590e-01 6.585936248302459717e-02 -3.683337569236755371e-02
7.606048583984375000e-01 -2.567132748663425446e-02 -7.976854592561721802e-02
4.150595143437385559e-02 6.595264188945293427e-03 5.082293748855590820e-01
-5.367657169699668884e-02 8.473346941173076630e-03 7.032896280288696289e-01
6.543363332748413086e-01 -8.459632843732833862e-02 2.115258015692234039e-02
6.602542847394943237e-02 -5.937255546450614929e-02 -1.023577600717544556e-01
3.956819474697113037e-01 5.067815259099006653e-02 5.547985062003135681e-02
3.081161379814147949e-01 -8.655266463756561279e-02 -3.937482535839080811e-01
1.281327456235885620e-01 -3.916810732334852219e-03 -2.908447086811065674e-01
3.161991015076637268e-02 -5.415565520524978638e-02 4.588889423757791519e-03
9.263460040092468262e-01 -6.657189130783081055e-02 -3.083392977714538574e-02
1.150904744863510132e-01 -9.238055907189846039e-03 -2.439446896314620972e-01
1.845275461673736572e-01 -1.015512794256210327e-01 3.416795432567596436e-01
-7.580376863479614258e-01 2.494946122169494629e-01 1.432658988051116467e-03
-7.788009643554687500e-01 3.040113151073455811e-01 -1.723571447655558586e-03
-6.006696224212646484e-01 -2.290636114776134491e-02 2.292632870376110077e-02
1.468353718519210815e-01 -1.084636822342872620e-01 -3.729067146778106689e-01
1.119570806622505188e-02 -1.262904610484838486e-02 -3.343276679515838623e-01
2.599640786647796631e-01 -6.878907978534698486e-02 8.125138282775878906e-02
4.555199146270751953e-01 7.566715031862258911e-02 1.105785742402076721e-02
-6.875311136245727539e-01 4.799144342541694641e-02 -1.638129651546478271e-01
2.984126806259155273e-01 -6.589370965957641602e-02 3.242289721965789795e-01
9.004929661750793457e-02 -2.299568150192499161e-03 3.436358869075775146e-01
-1.560323387384414673e-01 -1.137698814272880554e-02 -8.159446716308593750e-02
2.667199671268463135e-01 -4.322622343897819519e-02 -8.941982686519622803e-02
2.296538054943084717e-01 -7.173663377761840820e-02 -6.873477995395660400e-02
-5.048089027404785156e-01 1.472170650959014893e-01 -3.203381970524787903e-02
-1.231658011674880981e-01 1.002140197670087218e-04 -6.116325259208679199e-01
3.714983165264129639e-02 -6.599803268909454346e-02 -2.628367801662534475e-04
2.477825880050659180e-01 -1.549834664911031723e-02 4.551555216312408447e-02
-5.095301866531372070e-01 4.840879887342453003e-02 -3.978092968463897705e-02
1.466168090701103210e-03 7.744090259075164795e-02 2.789055462926626205e-03
-5.757849812507629395e-01 7.973633706569671631e-02 2.944746613502502441e-02
-5.821528285741806030e-02 -3.968982491642236710e-03 -4.801663756370544434e-01
1.317324191331863403e-01 -1.315073575824499130e-02 3.727201223373413086e-01
3.769760951399803162e-02 2.268943376839160919e-02 -7.455163449048995972e-02
-1.887978054583072662e-02 -8.843075484037399292e-02 3.995954245328903198e-02
-1.493025273084640503e-01 2.141128480434417725e-02 8.128708600997924805e-01
3.579019336029887199e-03 -5.668585374951362610e-02 6.591366231441497803e-02
-9.632480889558792114e-02 1.264687720686197281e-02 7.661272883415222168e-01
5.216181874275207520e-01 -1.309857424348592758e-02 -8.167271316051483154e-02
-1.619535386562347412e-01 8.342931047081947327e-03 7.082717418670654297e-01
3.490656241774559021e-02 -2.449752204120159149e-02 -8.149012178182601929e-02
6.874637603759765625e-01 1.143594272434711456e-03 -8.089017868041992188e-02
6.221741437911987305e-01 6.202493235468864441e-02 4.332444444298744202e-02
-7.579626888036727905e-02 3.699882654473185539e-03 6.822915673255920410e-01
-1.681094914674758911e-01 1.238603703677654266e-02 7.268700599670410156e-01
-1.291391700506210327e-01 4.951940849423408508e-03 -8.015981316566467285e-02
-6.525778174400329590e-01 2.512683570384979248e-01 3.962860442698001862e-03
2.697686105966567993e-02 6.408561021089553833e-02 -4.022436589002609253e-02
-1.086106225848197937e-01 -8.613530546426773071e-02 4.693227354437112808e-03
-3.883935213088989258e-01 5.049556121230125427e-02 -5.245802178978919983e-02
1.179597601294517517e-01 -8.963064104318618774e-02 -2.259120903909206390e-02
-1.692343503236770630e-02 -4.069602489471435547e-02 -1.786811649799346924e-01
4.387964680790901184e-02 -2.449752204120159149e-02 -1.967055797576904297e-01
1.586484163999557495e-02 -7.907744497060775757e-03 -3.666985929012298584e-01
9.108942002058029175e-03 -1.562877185642719269e-02 4.744759798049926758e-01
-4.665983095765113831e-02 1.142091024667024612e-02 7.757346332073211670e-02
1.247939243912696838e-01 -1.304640248417854309e-02 -3.749412894248962402e-01
-2.159581519663333893e-03 -4.377400502562522888e-02 1.242647990584373474e-01
1.992913931608200073e-01 -8.963064104318618774e-02 3.161248564720153809e-02
1.477483361959457397e-01 -4.855856765061616898e-03 8.067752420902252197e-02
6.052159145474433899e-02 -2.721031755208969116e-02 8.041667938232421875e-02
4.223631694912910461e-02 -4.181766137480735779e-02 2.195516675710678101e-01
3.514132276177406311e-02 -5.306010320782661438e-02 -1.277119517326354980e-01
2.144465148448944092e-01 -9.524986147880554199e-03 1.623221635818481445e-01
-5.467006564140319824e-01 7.488461583852767944e-02 2.031787484884262085e-02
-5.112778544425964355e-01 -3.542694449424743652e-02 -4.559778422117233276e-02
5.743089318275451660e-01 9.125461801886558533e-03 -7.882950454950332642e-02
1.212203353643417358e-01 -5.299293901771306992e-03 -2.802022397518157959e-01
-5.973829030990600586e-01 3.450573235750198364e-02 1.015712469816207886e-01
-2.113054990768432617e-01 4.660896584391593933e-02 -8.419591784477233887e-01
1.157686710357666016e-01 -8.038168773055076599e-03 -2.555783987045288086e-01
9.269720315933227539e-01 1.593353413045406342e-02 4.055948555469512939e-02
1.910225898027420044e-01 -2.384540811181068420e-02 -1.956540346145629883e-02
1.505915373563766479e-01 -3.743546083569526672e-02 -2.628367801662534475e-04
-6.013739109039306641e-01 5.260841175913810730e-02 -1.425801366567611694e-01
8.972878456115722656e-01 -4.254802688956260681e-02 -5.970952659845352173e-02
-5.550737977027893066e-01 -2.528005279600620270e-02 4.063773900270462036e-02
5.616546794772148132e-02 -2.108044177293777466e-02 4.188115298748016357e-01
-6.708631515502929688e-01 8.229263126850128174e-02 -3.234683349728584290e-02
1.826755404472351074e-01 -4.390443116426467896e-02 2.327504456043243408e-01
3.127591907978057861e-01 -5.994641780853271484e-02 -8.610709011554718018e-02
6.127804145216941833e-02 -1.625480502843856812e-02 2.396367639303207397e-01
1.439921408891677856e-01 -3.819191083312034607e-02 2.704687118530273438e-01
8.863584399223327637e-01 -7.588408887386322021e-02 1.637910678982734680e-02
3.229582607746124268e-01 -1.208799257874488831e-01 3.477833271026611328e-01
9.493526220321655273e-01 -3.973089903593063354e-02 4.379396885633468628e-02
8.199993371963500977e-01 -3.704418614506721497e-02 -7.283005118370056152e-02
-5.135993957519531250e-01 6.635496765375137329e-02 4.067198373377323151e-03
2.912394404411315918e-01 4.247653763741254807e-03 7.981672883033752441e-02
4.273192584514617920e-02 6.725688930600881577e-03 5.190022587776184082e-01
7.857209444046020508e-02 -1.625480502843856812e-02 -2.201816737651824951e-01
-5.578387379646301270e-01 2.889755368232727051e-02 7.525193691253662109e-02
-2.176179587841033936e-01 7.798867672681808472e-02 2.588542120065540075e-04
-5.577605366706848145e-01 5.146069079637527466e-02 -1.192263141274452209e-02
4.836618900299072266e-02 -2.794068492949008942e-02 1.647741049528121948e-01
5.496557801961898804e-02 -6.085937470197677612e-02 -9.028061479330062866e-02
-1.730655431747436523e-01 1.118614058941602707e-02 -7.448984980583190918e-01
2.541732788085937500e-01 -3.495742380619049072e-02 3.667989373207092285e-01
7.343343645334243774e-02 -2.707989141345024109e-02 3.527132868766784668e-01
8.149389028549194336e-01 3.197553008794784546e-02 6.134887039661407471e-02
-3.871153891086578369e-01 6.562460213899612427e-02 -3.380756452679634094e-02
5.454072952270507812e-01 3.920095041394233704e-02 -6.521335989236831665e-02
-6.037214994430541992e-01 1.445042788982391357e-01 -8.896823041141033173e-03
-1.850122809410095215e-01 6.960448343306779861e-03 -7.953378558158874512e-02
7.153481245040893555e-01 -8.154442906379699707e-02 -3.359889239072799683e-02
8.986671268939971924e-02 -8.963064104318618774e-02 -6.213539093732833862e-02
-1.599711030721664429e-01 -4.426960274577140808e-02 -7.760352641344070435e-02
8.031976222991943359e-02 -3.000136464834213257e-02 3.199510872364044189e-01
5.710450932383537292e-02 -8.664193563163280487e-03 -5.159544348716735840e-01
8.501498401165008545e-02 -4.228718951344490051e-02 -9.444599039852619171e-03
-4.881147444248199463e-01 -3.034045733511447906e-02 5.441038310527801514e-02
-1.260090321302413940e-01 -8.144008368253707886e-02 3.346448764204978943e-02
4.907047003507614136e-02 -2.408016659319400787e-02 -3.832100927829742432e-01
-2.193167805671691895e-02 -6.281572580337524414e-02 -8.688962459564208984e-02
1.693202406167984009e-01 -8.454414457082748413e-02 3.979439139366149902e-01
-7.575681805610656738e-01 1.345399767160415649e-01 1.090135052800178528e-02
