-2.560260239988565445e-03 -1.516860350966453552e-02 -3.191325366497039795e-01
-4.142220318317413330e-01 -8.091391623020172119e-02 1.391068100929260254e-02
-7.034605741500854492e-01 6.896701455116271973e-02 -3.815524047240614891e-03
-5.870176479220390320e-02 8.100233040750026703e-03 5.061321258544921875e-01
-7.009574174880981445e-01 9.770186245441436768e-02 6.273598410189151764e-03
6.314708590507507324e-01 -9.171821922063827515e-02 7.755039259791374207e-03
-8.319883346557617188e-01 3.105440437793731689e-01 2.799875102937221527e-03
-4.718449711799621582e-01 4.473251290619373322e-03 -8.062057197093963623e-02
2.306389361619949341e-01 -2.735217660665512085e-02 -2.620715200901031494e-01
-5.650853272527456284e-03 8.099734038114547729e-02 5.184067040681838989e-02
5.289159715175628662e-02 3.374944208189845085e-03 -3.865636289119720459e-01
1.539360731840133667e-01 -9.574893862009048462e-03 2.233557552099227905e-01
-4.414753913879394531e-01 4.988707974553108215e-02 7.758709043264389038e-02
8.049271106719970703e-01 3.221692983061075211e-03 8.453453332185745239e-02
2.879809141159057617e-01 -8.620113134384155273e-02 5.554427579045295715e-02
1.570011377334594727e-01 -1.184352487325668335e-01 2.680543959140777588e-01
8.341727852821350098e-01 8.957947790622711182e-02 1.420602900907397270e-03
-5.277054905891418457e-01 -4.134924337267875671e-02 -5.252427607774734497e-02
-8.235083222389221191e-01 3.810146152973175049e-01 -5.271422676742076874e-03
4.564820528030395508e-01 5.141960084438323975e-02 -7.722347229719161987e-02
-5.798624157905578613e-01 -4.438874870538711548e-02 -3.068579547107219696e-02
-2.427103556692600250e-02 1.793392933905124664e-02 5.652875900268554688e-01
2.917611598968505859e-01 -4.111935570836067200e-02 -8.534585684537887573e-02
1.960038840770721436e-01 -1.414692215621471405e-02 1.661414802074432373e-01
-8.070592284202575684e-01 5.599163472652435303e-02 2.843757867813110352e-01
5.207714438438415527e-01 -4.088949039578437805e-02 -7.622732967138290405e-02
5.761688202619552612e-02 -5.192365869879722595e-02 -1.530068218708038330e-01
2.281358242034912109e-01 -7.633694913238286972e-03 -8.491163700819015503e-02
-1.259029805660247803e-01 4.268922843039035797e-03 5.812003612518310547e-01
4.995715618133544922e-01 -8.768256753683090210e-02 -2.598605304956436157e-02
-7.613644599914550781e-01 1.917477995157241821e-01 -3.125887829810380936e-03
-1.957129128277301788e-02 -3.866731747984886169e-02 -2.330301702022552490e-01
2.544441819190979004e-01 -9.164160490036010742e-02 8.853348903357982635e-03
-6.487238407135009766e-01 2.735896036028862000e-02 -1.236845180392265320e-01
7.231669425964355469e-01 9.249126911163330078e-02 -2.527087368071079254e-02
-7.221829295158386230e-01 -1.115849334746599197e-02 2.037282660603523254e-02
1.912530511617660522e-01 -7.128456979990005493e-02 -9.875544905662536621e-02
-7.687205672264099121e-01 3.887844085693359375e-02 -1.348208636045455933e-01
7.460237294435501099e-02 -2.592181786894798279e-02 1.617482453584671021e-01
5.408475399017333984e-01 4.130494222044944763e-02 8.213358372449874878e-02
1.506156027317047119e-01 -7.761398330330848694e-03 2.556409537792205811e-01
1.735268533229827881e-01 7.721710950136184692e-02 5.728113651275634766e-02
-6.456588506698608398e-01 2.327222377061843872e-02 1.085440889000892639e-01
-1.589660882018506527e-03 -3.473384305834770203e-02 2.781435251235961914e-01
1.084967106580734253e-01 -8.349367231130599976e-02 -6.838590651750564575e-02
1.976351812481880188e-02 -9.087534993886947632e-02 2.198198065161705017e-02
1.809340566396713257e-01 -9.930422157049179077e-02 3.103776276111602783e-01
3.112753033638000488e-01 -1.282944828271865845e-01 2.915786504745483398e-01
2.167440503835678101e-01 -7.212743908166885376e-02 2.593956291675567627e-01
-7.711981534957885742e-01 2.938139438629150391e-01 7.448534015566110611e-03
-7.451231032609939575e-02 8.740840107202529907e-02 -3.888480365276336670e-02
-8.190385103225708008e-01 3.749356567859649658e-01 6.631187628954648972e-03
-7.213655114173889160e-01 3.813772276043891907e-02 2.081582099199295044e-01
-7.176874876022338867e-01 2.138211205601692200e-02 -6.166834011673927307e-02
1.507944166660308838e-01 -8.139923214912414551e-02 -2.449583262205123901e-01
-1.744329333305358887e-01 -7.892165333032608032e-02 4.507201910018920898e-02
2.446870952844619751e-01 -9.056882560253143311e-02 -2.363617904484272003e-02
-8.111204504966735840e-01 4.605576395988464355e-02 -2.043208777904510498e-01
2.867804467678070068e-01 -4.290731623768806458e-02 2.690505385398864746e-01
1.226725578308105469e-01 -4.418440163135528564e-02 2.852442264556884766e-01
8.236715942621231079e-02 -1.232882514595985413e-01 1.380451917648315430e-01
-2.447502911090850830e-01 8.293853700160980225e-02 -4.708380997180938721e-02
-7.540850043296813965e-01 3.147123381495475769e-02 -1.289461851119995117e-01
2.084428817033767700e-01 -1.089080572128295898e-01 -2.937181591987609863e-01
-7.919893860816955566e-01 4.541721567511558533e-02 2.366120964288711548e-01
-5.737357214093208313e-02 -1.430017314851284027e-02 4.401569366455078125e-01
4.872602522373199463e-01 5.029575154185295105e-02 7.919624447822570801e-02
-5.140148997306823730e-01 8.646334707736968994e-02 2.844412624835968018e-02
-9.576332569122314453e-02 2.462595701217651367e-02 -7.206029295921325684e-01
6.418120115995407104e-02 -6.821950525045394897e-02 -1.038383245468139648e-01
-6.978923678398132324e-01 2.502391636371612549e-01 9.875032119452953339e-03
1.813171803951263428e-01 -5.340509489178657532e-02 2.561773359775543213e-01
-6.572583317756652832e-02 7.673180848360061646e-02 5.791968852281570435e-02
-8.145174980163574219e-01 4.763937368988990784e-02 2.569996519014239311e-03
1.434382796287536621e-01 -7.815537601709365845e-02 2.484380900859832764e-01
5.290215611457824707e-01 6.930276867933571339e-04 -8.547356724739074707e-02
8.599413931369781494e-02 3.190544992685317993e-02 8.489212393760681152e-02
9.776563383638858795e-03 -9.179485589265823364e-02 6.707814056426286697e-03
-7.258865237236022949e-01 -5.028394982218742371e-03 3.490627184510231018e-02
1.203482374548912048e-01 -1.110741589218378067e-02 -2.175772190093994141e-01
-8.121676445007324219e-01 3.174148499965667725e-01 5.149747245013713837e-03
1.639196462929248810e-02 -2.469579875469207764e-02 2.427932620048522949e-01
1.519438028335571289e-01 9.627149999141693115e-02 2.201249153586104512e-04
-8.820285648107528687e-02 3.911333158612251282e-03 5.089928507804870605e-01
-1.382432039827108383e-02 1.663128472864627838e-02 5.758364796638488770e-01
-1.665659695863723755e-01 -5.621473118662834167e-02 6.869844347238540649e-02
8.331221342086791992e-02 -1.120458473451435566e-03 -8.526922762393951416e-02
3.728538751602172852e-02 -1.488047838211059570e-01 1.598325967788696289e-01
8.109006285667419434e-02 -2.592181786894798279e-02 -1.522916555404663086e-01
9.414495229721069336e-01 -5.389040708541870117e-02 -1.487524528056383133e-02
2.087238579988479614e-01 -9.248449653387069702e-02 3.204156756401062012e-01
-7.430507540702819824e-01 2.416570484638214111e-01 7.806123699992895126e-03
-7.515563368797302246e-01 4.061530157923698425e-02 -2.215362340211868286e-01
4.770655557513237000e-02 -6.099109724164009094e-02 1.421063840389251709e-01
2.461429834365844727e-01 -2.998301573097705841e-02 2.799314558506011963e-01
6.368091702461242676e-01 8.069082349538803101e-02 -5.101729184389114380e-02
3.060902655124664307e-01 -5.810484290122985840e-02 -3.051099181175231934e-01
2.132447957992553711e-01 -2.301002480089664459e-02 -2.471804916858673096e-01
-1.115227863192558289e-01 6.973327696323394775e-02 -6.509097665548324585e-02
-7.128089666366577148e-01 -1.723751425743103027e-02 -1.030321326106786728e-02
1.732458919286727905e-01 -2.293339930474758148e-02 -7.201288640499114990e-02
1.017025187611579895e-01 -1.958738081157207489e-02 -1.707841157913208008e-01
5.927711725234985352e-02 -1.332240998744964600e-01 -1.250637918710708618e-01
4.304546713829040527e-01 6.654051691293716431e-02 6.900495290756225586e-02
-5.878570675849914551e-01 9.982185065746307373e-02 -1.186128053814172745e-02
-6.426959633827209473e-01 6.799641996622085571e-02 -4.000865668058395386e-02
-2.302168458700180054e-01 -4.221767559647560120e-02 -7.561431825160980225e-02
6.955559849739074707e-01 1.280494150705635548e-03 8.688440918922424316e-02
-1.018934324383735657e-01 1.279997453093528748e-02 -5.748853683471679688e-01
1.835870370268821716e-02 -1.859124749898910522e-02 2.715281248092651367e-01
-2.856210060417652130e-02 -2.819506824016571045e-02 3.136981129646301270e-01
-7.805465459823608398e-01 1.933314204216003418e-01 -1.669989200308918953e-03
-7.630025595426559448e-02 5.469394382089376450e-03 -6.076814532279968262e-01
2.241989411413669586e-02 3.308039158582687378e-02 8.453453332185745239e-02
8.920001387596130371e-01 3.369339555501937866e-02 6.088256835937500000e-02
-7.742632627487182617e-01 1.323880106210708618e-01 1.701565692201256752e-03
3.060902655124664307e-01 -5.810484290122985840e-02 -3.051099181175231934e-01
3.049119189381599426e-02 -1.279318984597921371e-02 -2.971152663230895996e-01
2.562831938266754150e-01 -9.090088307857513428e-02 2.154776453971862793e-02
2.349266223609447479e-02 1.050118636339902878e-02 5.297074913978576660e-01
-7.086455821990966797e-01 2.465355843305587769e-01 9.670695289969444275e-03
1.016769856214523315e-01 -1.682386267930269241e-03 4.137719869613647461e-01
7.151177525520324707e-02 4.112614318728446960e-02 8.218465745449066162e-02
-2.475632913410663605e-02 1.665683276951313019e-02 -6.077836155891418457e-01
-5.057938024401664734e-02 -2.809290401637554169e-02 -3.833708763122558594e-01
1.467843055725097656e-01 4.738395288586616516e-02 8.034563064575195312e-02
-3.215042650699615479e-01 -3.677720576524734497e-02 7.917070388793945312e-02
2.189406603574752808e-01 -5.695544928312301636e-02 2.388597875833511353e-01
3.466255664825439453e-01 -2.712229825556278229e-02 -8.215309679508209229e-02
2.171271890401840210e-01 -2.071123570203781128e-02 7.099723815917968750e-02
-2.804070413112640381e-01 -4.804126173257827759e-02 7.385794818401336670e-02
1.203482374548912048e-01 -1.110741589218378067e-02 -2.175772190093994141e-01
2.915568053722381592e-01 -1.237990781664848328e-01 -2.789803743362426758e-01
2.084428817033767700e-01 -1.089080572128295898e-01 -2.937181591987609863e-01
-7.572010755538940430e-01 4.158589988946914673e-02 -1.541306823492050171e-01
1.254055649042129517e-01 -6.510338187217712402e-02 -2.794145941734313965e-01
7.120050191879272461e-01 2.932569757103919983e-02 8.565838634967803955e-02
3.143914341926574707e-01 -6.778529286384582520e-02 3.127275109291076660e-01
2.433333694934844971e-01 -8.311054855585098267e-02 6.685941666364669800e-02
2.155691236257553101e-01 -7.979007810354232788e-02 -7.466926425695419312e-02
1.308971196413040161e-01 -7.549900561571121216e-02 -2.886352837085723877e-01
-7.147280126810073853e-02 -3.163831075653433800e-03 4.545371532440185547e-01
-6.550582647323608398e-01 2.963221073150634766e-02 6.318135559558868408e-02
3.193466067314147949e-01 -1.144762188196182251e-01 -2.976771891117095947e-01
-8.074678778648376465e-01 4.628564417362213135e-02 -2.202335894107818604e-01
-7.228469848632812500e-01 2.709538042545318604e-01 -7.927799597382545471e-03
7.046234011650085449e-01 3.928711637854576111e-02 -8.136129379272460938e-02
3.547189757227897644e-02 -5.567834526300430298e-02 -1.980630606412887573e-01
2.364591322839260101e-02 3.119528526440262794e-03 -5.286542177200317383e-01
-7.669836878776550293e-01 4.439552873373031616e-02 -1.793151646852493286e-01
3.048642575740814209e-01 4.368035122752189636e-02 -8.008418232202529907e-02
7.458227872848510742e-01 5.652802065014839172e-02 -7.449046522378921509e-02
1.706661283969879150e-01 -6.175735592842102051e-02 2.675180137157440186e-01
2.185830920934677124e-01 1.124190352857112885e-02 8.765066415071487427e-02
-7.258865237236022949e-01 -5.028394982218742371e-03 3.490627184510231018e-02
-4.019107222557067871e-01 3.417870029807090759e-02 8.384489268064498901e-02
-7.548001408576965332e-01 5.004033073782920837e-02 2.370463162660598755e-01
-8.454745411872863770e-01 2.332331053912639618e-02 -4.096487071365118027e-03
-7.150055766105651855e-01 2.449824474751949310e-02 9.523667395114898682e-02
5.092485994100570679e-02 -3.057048097252845764e-02 -2.819688022136688232e-01
-5.779467821121215820e-01 8.692310005426406860e-02 7.703955285251140594e-03
2.551848888397216797e-01 9.614378958940505981e-02 2.672164933755993843e-03
-2.795130610466003418e-01 -2.702013403177261353e-02 8.249117434024810791e-02
2.084428817033767700e-01 -1.089080572128295898e-01 -2.937181591987609863e-01
6.668432056903839111e-02 -7.097306195646524429e-03 2.942861318588256836e-01
-5.505911707878112793e-01 4.467649385333061218e-02 7.470083981752395630e-02
-9.326019138097763062e-02 -6.433214060962200165e-03 8.606705814599990845e-02
-5.237464904785156250e-01 -1.772281713783740997e-02 -6.968855857849121094e-02
2.032544463872909546e-02 -8.732002228498458862e-03 4.830165803432464600e-01
-7.488999366760253906e-01 4.789479449391365051e-02 2.169957607984542847e-01
7.566270828247070312e-01 8.255539834499359131e-02 4.910766705870628357e-02
4.175525158643722534e-02 -7.835972309112548828e-02 -7.663600146770477295e-02
7.018392682075500488e-01 -7.261275500059127808e-02 -5.242210626602172852e-02
-1.350470483303070068e-01 -9.192256629467010498e-02 -3.968776669353246689e-03
7.656689286231994629e-01 9.570957720279693604e-02 8.470217697322368622e-03
-3.716978803277015686e-02 9.075441211462020874e-02 -3.037929162383079529e-02
5.404388308525085449e-01 -8.926618099212646484e-02 -2.031571045517921448e-02
2.655294239521026611e-01 -4.936944693326950073e-02 1.314808875322341919e-01
-7.630025595426559448e-02 5.469394382089376450e-03 -6.076814532279968262e-01
-7.351327538490295410e-01 2.240379340946674347e-02 5.299006775021553040e-02
4.898400008678436279e-01 -6.571638584136962891e-02 -5.990593880414962769e-02
2.115334719419479370e-01 -1.316915899515151978e-01 2.712216079235076904e-01
7.151177525520324707e-02 4.112614318728446960e-02 8.218465745449066162e-02
1.115362197160720825e-01 -2.298448607325553894e-02 -2.788015902042388916e-01
3.749772608280181885e-01 4.975936561822891235e-02 7.947720587253570557e-02
-1.323395967483520508e-01 1.249347161501646042e-02 6.632159948348999023e-01
1.220595538616180420e-01 -7.258721441030502319e-02 -8.279164880514144897e-02
1.171299368143081665e-01 -4.763258621096611023e-02 -2.215362340211868286e-01
-6.429547071456909180e-02 3.865251201204955578e-04 5.671266317367553711e-01
7.976732254028320312e-01 8.482864499092102051e-02 -4.215418919920921326e-02
-9.400092810392379761e-02 1.857248321175575256e-02 6.950159072875976562e-01
-7.641741037368774414e-01 2.171110957860946655e-01 5.251915194094181061e-03
-3.236787393689155579e-02 -3.325239941477775574e-02 2.626394629478454590e-01
-8.064240962266921997e-02 2.590306289494037628e-02 6.727942824363708496e-01
-7.357968688011169434e-01 6.125330552458763123e-02 -1.781258545815944672e-02
4.478488266468048096e-01 8.835345506668090820e-02 3.789469599723815918e-02
8.767514824867248535e-01 3.859747573733329773e-02 -6.332857906818389893e-02
7.373394072055816650e-02 -5.947912111878395081e-03 -2.947143018245697021e-01
1.017025187611579895e-01 -1.958738081157207489e-02 -1.707841157913208008e-01
-2.594625353813171387e-01 3.857193887233734131e-02 8.292538672685623169e-02
9.835650771856307983e-02 1.566069014370441437e-02 8.747187256813049316e-02
7.904958724975585938e-01 7.596554607152938843e-02 -5.666209384799003601e-02
-4.283212423324584961e-01 -7.557562738656997681e-02 -2.979182265698909760e-02
4.170195162296295166e-01 -8.502620458602905273e-02 3.360362723469734192e-02
1.785586476325988770e-01 -7.496261596679687500e-02 -8.378779143095016479e-02
-4.931726157665252686e-01 8.699972182512283325e-02 2.954243682324886322e-02
1.201439052820205688e-01 9.389609098434448242e-02 -1.916631497442722321e-02
1.222638934850692749e-01 -4.094056785106658936e-02 -2.687380015850067139e-01
2.280592024326324463e-01 -5.136173218488693237e-02 2.444535195827484131e-01
-5.683684945106506348e-01 8.048649877309799194e-02 -4.220527410507202148e-02
2.650441229343414307e-01 -7.455394417047500610e-02 2.265996038913726807e-01
1.232855767011642456e-01 -4.219213500618934631e-02 -8.621428161859512329e-02
2.734219133853912354e-01 -8.185898512601852417e-02 3.210286796092987061e-01
3.712992072105407715e-01 -9.082425385713577271e-02 1.541766431182622910e-02
2.364591322839260101e-02 3.119528526440262794e-03 -5.286542177200317383e-01
1.896439045667648315e-01 -3.212855383753776550e-02 -8.606103062629699707e-02
-2.237802594900131226e-01 3.798447176814079285e-02 8.310417830944061279e-02
-5.683684945106506348e-01 8.048649877309799194e-02 -4.220527410507202148e-02
-9.660962969064712524e-03 -1.779944263398647308e-02 3.754333257675170898e-01
1.623870804905891418e-02 -4.824560880661010742e-02 1.978647559881210327e-01
-7.549023032188415527e-01 3.371333479881286621e-01 5.788299255073070526e-03
2.104096114635467529e-01 -7.125901430845260620e-02 2.524737417697906494e-01
-2.128482460975646973e-01 -5.994387716054916382e-02 6.583773344755172729e-02
9.262009859085083008e-01 4.391023144125938416e-02 -3.357205167412757874e-02
-7.022123783826828003e-02 2.454933151602745056e-02 -6.450749635696411133e-01
1.803465932607650757e-01 -5.445233359932899475e-02 -1.760968714952468872e-01
-5.878570675849914551e-01 9.982185065746307373e-02 -1.186128053814172745e-02
2.734730243682861328e-01 -5.938195064663887024e-02 -2.318552434444427490e-01
7.278410792350769043e-01 7.241519540548324585e-02 6.361557543277740479e-02
-6.489793062210083008e-01 7.581229507923126221e-02 -1.668873429298400879e-02
8.292431831359863281e-01 -8.487295359373092651e-02 -1.423669420182704926e-02
1.612411141395568848e-01 -6.612004246562719345e-03 2.756659388542175293e-01
-1.855948269367218018e-01 -7.692936807870864868e-02 4.831586778163909912e-02
-1.353280246257781982e-01 1.790839247405529022e-02 -6.358798742294311523e-01
-7.086455821990966797e-01 2.465355843305587769e-01 9.670695289969444275e-03
-1.826864480972290039e-02 -1.376379374414682388e-02 4.576532840728759766e-01
-3.797146677970886230e-01 5.397380888462066650e-02 7.722949981689453125e-02
4.887927770614624023e-01 8.421564102172851562e-02 -4.486164823174476624e-02
-2.682523988187313080e-02 -2.438929490745067596e-02 -3.577521741390228271e-01
-7.641741037368774414e-01 2.171110957860946655e-01 5.251915194094181061e-03
5.945252720266580582e-03 -3.171987459063529968e-02 -3.067446351051330566e-01
1.727605909109115601e-01 -1.189922075718641281e-02 -2.966299653053283691e-01
8.910550475120544434e-01 1.867465674877166748e-02 -6.562736630439758301e-02
2.232317477464675903e-01 -6.878143548965454102e-02 -2.354055941104888916e-01
2.637159526348114014e-01 -4.262635111808776855e-02 2.818471193313598633e-01
3.868543207645416260e-01 -1.460667606443166733e-02 -8.386442065238952637e-02
2.883895933628082275e-01 -1.056386604905128479e-01 -2.925943136215209961e-01
2.176891118288040161e-01 -5.360944196581840515e-02 8.762513101100921631e-02
-1.081001609563827515e-01 1.400045491755008698e-02 5.893227458000183105e-01
5.943037196993827820e-02 -1.404269635677337646e-01 1.284669190645217896e-01
1.246903836727142334e-01 -2.671362273395061493e-02 3.313732445240020752e-01
1.547023504972457886e-01 -1.401920989155769348e-02 -8.555019646883010864e-02
-7.630025595426559448e-02 5.469394382089376450e-03 -6.076814532279968262e-01
-5.277054905891418457e-01 -4.134924337267875671e-02 -5.252427607774734497e-02
5.351516604423522949e-01 -1.718642748892307281e-02 -8.330249041318893433e-02
1.254566609859466553e-01 -9.210135787725448608e-02 3.157464321702718735e-03
8.270977139472961426e-01 8.457322418689727783e-02 -3.357205167412757874e-02
4.498155713081359863e-01 -7.276105694472789764e-03 -8.463067561388015747e-02
-7.488999366760253906e-01 4.789479449391365051e-02 2.169957607984542847e-01
-2.031422406435012817e-01 2.940233238041400909e-02 7.717443108558654785e-01
-4.803504645824432373e-01 8.406238257884979248e-02 4.126625135540962219e-02
-5.019624158740043640e-02 -6.880696862936019897e-02 8.300200849771499634e-02
1.713557690382003784e-01 -1.823365874588489532e-02 -1.106580644845962524e-01
-6.239225268363952637e-01 1.146362572908401489e-01 -1.066080201417207718e-02
2.811611890792846680e-01 -3.833527490496635437e-02 -1.416916847229003906e-01
1.171299368143081665e-01 -4.763258621096611023e-02 -2.215362340211868286e-01
6.637049913406372070e-01 9.422813355922698975e-02 1.904463954269886017e-02
5.408475399017333984e-01 4.130494222044944763e-02 8.213358372449874878e-02
2.073190361261367798e-01 -8.732499182224273682e-02 -5.778594315052032471e-02
4.241934418678283691e-02 -4.926729202270507812e-02 2.024878710508346558e-01
5.534397959709167480e-01 -6.441374123096466064e-02 6.231292709708213806e-02
5.024067163467407227e-01 9.397271275520324707e-02 -1.878318376839160919e-02
1.539582107216119766e-02 -1.252805143594741821e-01 -1.473875641822814941e-01
-6.526573300361633301e-01 6.304125487804412842e-02 4.918430000543594360e-02
2.954647541046142578e-01 9.547969698905944824e-02 -1.027767080813646317e-02
9.262520670890808105e-01 2.281247079372406006e-02 -4.749248176813125610e-02
-7.852718234062194824e-01 2.758067846298217773e-01 -4.224197007715702057e-03
-6.987863183021545410e-01 3.652856498956680298e-02 1.932671815156936646e-01
1.896439045667648315e-01 -3.212855383753776550e-02 -8.606103062629699707e-02
-7.355414032936096191e-01 7.788120210170745850e-02 -1.593362889252603054e-03
3.165625035762786865e-01 -7.291925698518753052e-02 -2.276918739080429077e-01
1.085477918386459351e-01 -5.146390572190284729e-02 2.016960680484771729e-01
-1.205391436815261841e-01 2.145873755216598511e-02 -8.588224649429321289e-02
2.805481851100921631e-01 -2.525772526860237122e-02 1.052747070789337158e-01
-6.217769980430603027e-01 -3.680274635553359985e-02 -1.781258545815944672e-02
-7.711981534957885742e-01 2.938139438629150391e-01 7.448534015566110611e-03
3.188868463039398193e-01 4.398685693740844727e-02 -7.998201996088027954e-02
-8.492547869682312012e-01 3.801462352275848389e-01 4.434568807482719421e-03
2.917611598968505859e-01 -4.111935570836067200e-02 -8.534585684537887573e-02
-2.972392737865447998e-01 9.315536916255950928e-02 -2.233353443443775177e-02
5.289159715175628662e-02 3.374944208189845085e-03 -3.865636289119720459e-01
-1.315733343362808228e-01 2.125439979135990143e-02 -6.539891362190246582e-01
-3.214021027088165283e-01 1.566069014370441437e-02 8.747187256813049316e-02
9.470688104629516602e-01 -2.423103898763656616e-03 4.775394126772880554e-02
2.332186847925186157e-01 -1.769726909697055817e-02 1.693086922168731689e-01
1.560560762882232666e-01 -8.443873375654220581e-02 6.795772910118103027e-02
-7.423134148120880127e-02 -2.357195317745208740e-02 8.310417830944061279e-02
9.449487924575805664e-01 1.264672260731458664e-02 -4.366117343306541443e-02
-7.919893860816955566e-01 4.541721567511558533e-02 2.366120964288711548e-01
-1.579072028398513794e-01 3.525146842002868652e-02 7.756778001785278320e-01
8.959557861089706421e-02 -6.078676879405975342e-02 -2.789548337459564209e-01
8.088572323322296143e-02 2.583139576017856598e-03 -3.830133080482482910e-01
7.656689286231994629e-01 9.570957720279693604e-02 8.470217697322368622e-03
2.322225421667098999e-01 -1.211171522736549377e-01 -2.500411868095397949e-01
5.945252720266580582e-03 -3.171987459063529968e-02 -3.067446351051330566e-01
6.411768794059753418e-01 9.052453190088272095e-02 -3.099230118095874786e-02
1.724030077457427979e-01 -2.362303994596004486e-02 2.988581657409667969e-01
-5.302341580390930176e-01 1.165057998150587082e-02 -7.750443369150161743e-02
-7.694221101701259613e-03 2.659765072166919708e-03 -4.216584563255310059e-01
-4.160865843296051025e-01 -7.286817580461502075e-02 -3.896142914891242981e-02
-3.589744865894317627e-01 -1.984280534088611603e-02 -8.240851014852523804e-02
-9.078261256217956543e-02 5.137352738529443741e-03 5.181879997253417969e-01
2.076766192913055420e-01 -9.391485154628753662e-02 2.467267662286758423e-01
-6.606519818305969238e-01 -5.130568519234657288e-03 5.403729155659675598e-02
-2.837019860744476318e-01 6.746500730514526367e-03 -8.613765984773635864e-02
5.141015723347663879e-02 -6.615060567855834961e-02 -9.855110943317413330e-02
2.025937438011169434e-01 6.937568634748458862e-02 6.673170626163482666e-02
-1.597462445497512817e-01 2.196957916021347046e-02 -6.827751398086547852e-01
-2.200511097908020020e-01 2.963221073150634766e-02 7.918969988822937012e-01
5.263617634773254395e-02 -7.335346937179565430e-02 -1.271071583032608032e-01
-6.909449100494384766e-01 3.650302812457084656e-02 1.879033297300338745e-01
7.172155976295471191e-01 -9.031341969966888428e-02 -1.612680777907371521e-02
2.013932764530181885e-01 -8.247198909521102905e-02 -3.147392868995666504e-01
-7.655022740364074707e-01 2.185669839382171631e-01 -3.815524047240614891e-03
-1.402576416730880737e-01 -1.437679957598447800e-02 8.527525514364242554e-02
-5.650853272527456284e-03 -2.673917077481746674e-02 2.586804628372192383e-01
3.605936840176582336e-02 -1.846353523433208466e-02 4.193657040596008301e-01
-7.692058682441711426e-01 5.614488944411277771e-02 1.324658747762441635e-02
3.882080614566802979e-01 1.867465674877166748e-02 -8.598440885543823242e-02
6.078699231147766113e-01 3.272280097007751465e-02 -8.327694237232208252e-02
-3.660240769386291504e-01 -4.528271779417991638e-02 -7.328999042510986328e-02
-3.278386890888214111e-01 9.016694128513336182e-02 -3.191181644797325134e-02
2.940599322319030762e-01 -6.078676879405975342e-02 2.329340279102325439e-01
6.717507243156433105e-01 7.992456853389739990e-02 -5.234548076987266541e-02
2.044072449207305908e-01 -6.489903479814529419e-02 8.701211214065551758e-02
7.018020842224359512e-03 -4.389850888401269913e-03 -3.695781528949737549e-01
8.922044038772583008e-01 -2.993192896246910095e-02 6.366665661334991455e-02
-1.083555668592453003e-01 -7.843633741140365601e-02 4.869899526238441467e-02
2.673940062522888184e-01 -2.262689545750617981e-02 -1.045535057783126831e-01
4.589340686798095703e-01 4.166252538561820984e-02 8.203140646219253540e-02
2.072679549455642700e-01 1.486888527870178223e-02 8.749741315841674805e-02
-7.687717080116271973e-01 3.543025627732276917e-02 -1.528024971485137939e-01
3.628924489021301270e-02 -1.409122794866561890e-01 -1.609504222869873047e-01
-7.297177910804748535e-01 4.482974484562873840e-02 1.928329765796661377e-01
-2.355040609836578369e-01 -9.130956232547760010e-02 -1.137598045170307159e-02
6.160945296287536621e-01 5.011695623397827148e-02 7.929841428995132446e-02
-6.097500398755073547e-02 -3.266493231058120728e-02 -3.806889355182647705e-01
2.038708478212356567e-01 -1.184863224625587463e-01 -2.646768093109130859e-01
-5.090087056159973145e-01 8.232551813125610352e-02 -4.251177981495857239e-02
-4.366735219955444336e-01 -7.659730315208435059e-02 -1.071188598871231079e-02
2.915568053722381592e-01 -1.237990781664848328e-01 -2.789803743362426758e-01
-1.813293099403381348e-01 8.942622691392898560e-02 -3.377638757228851318e-02
-8.430225253105163574e-01 2.893441021442413330e-01 1.945828262250870466e-04
1.625948399305343628e-01 -2.106882631778717041e-02 -9.579256922006607056e-02
-9.078261256217956543e-02 5.137352738529443741e-03 5.181879997253417969e-01
-1.337642170256003737e-04 -4.772979300469160080e-03 -5.134311318397521973e-01
-7.615687847137451172e-01 2.259486466646194458e-01 5.890467204153537750e-03
2.148539423942565918e-01 9.527535736560821533e-02 1.411501783877611160e-02
-1.731558293104171753e-01 -9.217799454927444458e-02 -8.015583734959363937e-04
-6.602944731712341309e-01 1.794365346431732178e-01 1.107550971210002899e-02
-2.603343501687049866e-02 -5.488158203661441803e-03 -3.982874751091003418e-01
4.340560734272003174e-01 -6.295784562826156616e-02 -6.207701191306114197e-02
-6.344202756881713867e-01 1.208479516208171844e-02 6.596545130014419556e-02
2.396808415651321411e-01 -2.947217412292957306e-02 -2.867962419986724854e-01
-8.894357830286026001e-02 -7.735859602689743042e-03 -4.472516179084777832e-01
5.660320520401000977e-01 3.749917075037956238e-02 -8.187213540077209473e-02
-7.150055766105651855e-01 2.449824474751949310e-02 9.523667395114898682e-02
-5.921260640025138855e-02 -1.820811070501804352e-02 -3.891433775424957275e-01
3.142637312412261963e-01 -8.231873810291290283e-02 -6.003364920616149902e-02
2.213160842657089233e-01 -5.764508992433547974e-02 1.451714336872100830e-01
3.975820243358612061e-01 -8.420884609222412109e-02 3.554482385516166687e-02
-7.965614795684814453e-01 1.678659468889236450e-01 3.478353319223970175e-04
2.393232583999633789e-01 -2.014930918812751770e-02 -8.355790376663208008e-02
1.879836767911911011e-01 -7.312358170747756958e-02 8.392152935266494751e-02
1.908699274063110352e-01 -8.367247879505157471e-02 -2.417911142110824585e-01
-7.451231032609939575e-02 8.740840107202529907e-02 -3.888480365276336670e-02
-6.998335719108581543e-01 2.807413972914218903e-02 -3.444048017263412476e-02
9.005533158779144287e-02 -1.346289217472076416e-01 -1.719845980405807495e-01
-1.382398158311843872e-01 1.392382942140102386e-02 -6.736310720443725586e-01
2.871635854244232178e-01 -1.228795722126960754e-01 2.576843202114105225e-01
4.194715917110443115e-01 -4.587018489837646484e-02 -7.387745380401611328e-02
1.755957752466201782e-01 -5.493762716650962830e-02 1.768691688776016235e-01
8.632618188858032227e-02 -7.454895414412021637e-03 4.350229799747467041e-01
1.190455928444862366e-01 -1.605760538950562477e-03 3.433268964290618896e-01
-4.562421515583992004e-02 -1.986834406852722168e-02 -3.376760780811309814e-01
-7.777369618415832520e-01 2.323597222566604614e-01 4.587821196764707565e-03
-5.418081209063529968e-02 1.555851660668849945e-02 -5.441838502883911133e-01
-7.394238114356994629e-01 3.560905903577804565e-02 -1.824313104152679443e-01
2.653217129409313202e-02 6.363372784107923508e-03 4.248061776161193848e-01
7.493730783462524414e-01 -8.137369155883789062e-02 4.111300036311149597e-02
5.943037196993827820e-02 -1.404269635677337646e-01 1.284669190645217896e-01
5.309593677520751953e-02 -8.351920545101165771e-02 1.177392452955245972e-01
2.084428817033767700e-01 -1.089080572128295898e-01 -2.937181591987609863e-01
6.637815833091735840e-01 -8.558812737464904785e-02 3.227543830871582031e-02
1.682396531105041504e-01 -1.141391880810260773e-02 -3.065658509731292725e-01
-1.002842709422111511e-01 -3.889720514416694641e-02 7.886420190334320068e-02
3.743897974491119385e-01 -7.059492915868759155e-02 5.610620230436325073e-02
-2.761704474687576294e-02 9.229046409018337727e-04 4.358403384685516357e-01
1.826709210872650146e-01 -2.926783636212348938e-02 -2.675375342369079590e-01
1.017025187611579895e-01 -1.958738081157207489e-02 -1.707841157913208008e-01
2.347512245178222656e-01 -2.791410312056541443e-02 2.170979380607604980e-01
2.236914932727813721e-01 -5.335401743650436401e-02 3.071337938308715820e-01
9.480138421058654785e-01 -5.483545362949371338e-02 3.847100771963596344e-03
2.659636437892913818e-01 5.997620150446891785e-02 7.401119917631149292e-02
6.933082938194274902e-01 -2.822060696780681610e-02 -8.087599277496337891e-02
8.470204472541809082e-01 -1.415763646364212036e-01 4.281315952539443970e-03
-1.971653997898101807e-01 4.674540460109710693e-02 8.052442222833633423e-02
-3.756790161132812500e-01 5.800946056842803955e-02 -7.369866222143173218e-02
-5.553930997848510742e-01 -1.703317649662494659e-02 6.726809591054916382e-02
2.144929394125938416e-02 -4.535935446619987488e-02 1.271387189626693726e-01
-8.017975687980651855e-01 4.945286363363265991e-02 2.304819971323013306e-01
3.048642575740814209e-01 4.368035122752189636e-02 -8.008418232202529907e-02
8.193073272705078125e-01 8.911972492933273315e-02 -2.322750538587570190e-02
-7.592955827713012695e-01 3.246737644076347351e-02 1.339329183101654053e-01
-4.450035840272903442e-02 -1.698208972811698914e-02 -4.202536642551422119e-01
2.486972063779830933e-01 5.402489751577377319e-02 -7.581865787506103516e-02
3.164092600345611572e-01 -1.087292432785034180e-01 3.100966811180114746e-01
1.383809447288513184e-01 -3.710925579071044922e-02 -2.684570550918579102e-01
-7.359278947114944458e-02 -3.246059268712997437e-02 3.807205259799957275e-01
1.375380605459213257e-01 -2.722447365522384644e-02 -3.204351663589477539e-01
5.025344491004943848e-01 -5.473329871892929077e-02 -6.828374415636062622e-02
-4.710565879940986633e-02 -8.870425075292587280e-02 3.873758390545845032e-02
-5.290336608886718750e-01 4.243374336510896683e-03 7.789359986782073975e-02
5.570122599601745605e-02 -9.187147021293640137e-02 -4.632870666682720184e-03
-2.456953525543212891e-01 8.886429667472839355e-02 3.654096648097038269e-02
-2.838807404041290283e-01 -7.039058208465576172e-02 5.636162310838699341e-02
-5.650853272527456284e-03 -2.673917077481746674e-02 2.586804628372192383e-01
9.835650771856307983e-02 1.566069014370441437e-02 8.747187256813049316e-02
7.989247441291809082e-01 7.910721749067306519e-02 5.362861976027488708e-02
-1.559915542602539062e-01 1.407708134502172470e-02 6.388743519783020020e-01
2.393232583999633789e-01 -2.014930918812751770e-02 -8.355790376663208008e-02
-2.966006994247436523e-01 5.004033073782920837e-02 7.932395488023757935e-02
-1.643693596124649048e-01 -1.094919862225651741e-03 8.662898093461990356e-02
-7.942881584167480469e-01 2.282729744911193848e-01 3.080838127061724663e-03
1.826964616775512695e-01 -6.063351780176162720e-02 -1.481793820858001709e-01
1.297477185726165771e-01 7.491832226514816284e-02 -5.898642539978027344e-02
-3.798713162541389465e-02 4.447712562978267670e-03 5.864875316619873047e-01
3.188868463039398193e-01 4.398685693740844727e-02 -7.998201996088027954e-02
4.880486801266670227e-02 4.830840975046157837e-03 4.037594795227050781e-01
-9.073153138160705566e-02 -3.700210712850093842e-03 -4.698053002357482910e-01
9.623311460018157959e-03 -6.178291141986846924e-02 8.698657155036926270e-02
-1.205391436815261841e-01 2.145873755216598511e-02 -8.588224649429321289e-02
5.863856896758079529e-02 -5.820701643824577332e-02 -2.049849629402160645e-01
-1.656209230422973633e-01 9.075441211462020874e-02 -3.043037280440330505e-02
5.534397959709167480e-01 -6.441374123096466064e-02 6.231292709708213806e-02
-4.108504652976989746e-01 4.459986835718154907e-02 8.037117123603820801e-02
3.868543207645416260e-01 -1.460667606443166733e-02 -8.386442065238952637e-02
2.497410215437412262e-02 -2.303556352853775024e-02 2.402901500463485718e-01
-1.546889096498489380e-01 2.569872513413429260e-02 8.660344779491424561e-02
-4.483240842819213867e-02 1.808718219399452209e-02 -5.617312192916870117e-01
1.666049510240554810e-01 -6.173181533813476562e-02 -2.524676918983459473e-01
-6.474978327751159668e-01 2.950449660420417786e-02 7.138036936521530151e-02
-4.782304763793945312e-01 9.006477892398834229e-02 1.718006655573844910e-02
-1.333101987838745117e-01 -8.170074783265590668e-03 5.404096245765686035e-01
8.050258457660675049e-02 -1.514611542224884033e-01 -1.356637626886367798e-01
-2.031422406435012817e-01 2.940233238041400909e-02 7.717443108558654785e-01
1.735268533229827881e-01 7.721710950136184692e-02 5.728113651275634766e-02
2.100775688886642456e-01 -1.437679957598447800e-02 -2.058789432048797607e-01
2.171271890401840210e-01 -1.818257197737693787e-02 2.140839695930480957e-01
6.779063344001770020e-01 -6.865371763706207275e-02 -5.699414014816284180e-02
1.111275404691696167e-01 -3.034060448408126831e-02 3.193684518337249756e-01
4.996481537818908691e-01 -8.321270346641540527e-02 3.792024031281471252e-02
1.984048485755920410e-01 -5.325184389948844910e-02 -3.011253774166107178e-01
-4.772854447364807129e-01 9.205705672502517700e-02 7.167571689933538437e-03
1.414204537868499756e-01 -1.820811070501804352e-02 -8.593332022428512573e-02
2.256582379341125488e-01 -2.431266941130161285e-02 -2.261082679033279419e-01
8.111560344696044922e-02 -3.455504402518272400e-02 2.843247056007385254e-01
2.428480535745620728e-01 -3.971453756093978882e-02 -8.618874847888946533e-02
-5.088930483907461166e-03 -2.334207482635974884e-02 -3.798460960388183594e-01
-4.721003770828247070e-01 -1.808040589094161987e-02 7.610565423965454102e-02
5.814594626426696777e-01 7.910721749067306519e-02 -5.341824889183044434e-02
-3.675821721553802490e-01 7.044845819473266602e-02 -6.452905386686325073e-02
4.606964886188507080e-01 2.697583287954330444e-02 8.627139776945114136e-02
-4.885750114917755127e-01 5.024467036128044128e-02 -7.415842264890670776e-02
2.561265416443347931e-02 -2.811844274401664734e-02 8.729307353496551514e-02
2.575347423553466797e-01 -4.676415398716926575e-02 2.964827418327331543e-01
2.706122994422912598e-01 -1.243560016155242920e-02 -8.539693802595138550e-02
1.570522189140319824e-01 -1.177150849252939224e-02 -1.938741654157638550e-01
-6.097500398755073547e-02 -3.266493231058120728e-02 -3.806889355182647705e-01
-8.212384581565856934e-02 8.227946236729621887e-03 6.289640069007873535e-01
5.351516604423522949e-01 -1.718642748892307281e-02 -8.330249041318893433e-02
-8.151084184646606445e-02 -8.067910559475421906e-03 4.862348735332489014e-01
2.917611598968505859e-01 -7.999441027641296387e-02 -2.360696792602539062e-01
-7.704318761825561523e-01 2.763992361724376678e-02 6.009076535701751709e-02
4.313486516475677490e-01 9.491776674985885620e-02 1.610730029642581940e-02
1.070918962359428406e-01 -2.901240997016429901e-02 -2.864131331443786621e-01
3.016970157623291016e-01 -8.977703005075454712e-02 1.960656605660915375e-02
5.246794223785400391e-01 4.991262406110763550e-02 7.940058410167694092e-02
1.867321133613586426e-01 -1.565390639007091522e-02 1.380196511745452881e-01
2.904840409755706787e-01 -6.165520101785659790e-02 -2.937947809696197510e-01
7.427032291889190674e-02 -7.036504149436950684e-02 -9.254872053861618042e-02
8.928906172513961792e-02 -3.647070378065109253e-02 2.903526425361633301e-01
-6.025982648134231567e-02 3.770350664854049683e-02 8.318080008029937744e-02
1.667326539754867554e-01 -8.604289963841438293e-03 -2.543322741985321045e-01
-6.033866405487060547e-01 1.318516284227371216e-01 -1.163140125572681427e-02
7.151177525520324707e-02 4.112614318728446960e-02 8.218465745449066162e-02
5.052673816680908203e-01 8.163589239120483398e-02 -4.938260093331336975e-02
8.025516867637634277e-01 5.193044617772102356e-02 -7.484805583953857422e-02
-6.171572208404541016e-02 -6.228875834494829178e-03 5.124155282974243164e-01
-1.356855928897857666e-01 2.922353334724903107e-02 7.772869467735290527e-01
9.470688104629516602e-01 -2.423103898763656616e-03 4.775394126772880554e-02
1.570011377334594727e-01 -1.184352487325668335e-01 2.680543959140777588e-01
-4.194956738501787186e-03 -3.999550268054008484e-02 -2.319829612970352173e-01
-7.548001408576965332e-01 5.004033073782920837e-02 2.370463162660598755e-01
-2.302168458700180054e-01 -4.221767559647560120e-02 -7.561431825160980225e-02
6.992816925048828125e-02 -1.187367271631956100e-02 -4.348892569541931152e-01
3.787285462021827698e-02 -1.307209879159927368e-01 -1.582174152135848999e-01
2.245088517665863037e-01 8.628454804420471191e-02 4.261998087167739868e-02
2.364591322839260101e-02 3.119528526440262794e-03 -5.286542177200317383e-01
-7.387375831604003906e-02 2.864103298634290695e-03 -4.888341426849365234e-01
-1.104363589547574520e-03 7.678289711475372314e-02 -5.648329854011535645e-02
-6.851334124803543091e-03 5.448465049266815186e-02 -7.558877021074295044e-02
2.244543656706809998e-02 -5.963737517595291138e-02 -1.368897855281829834e-01
1.975874900817871094e-01 -4.678971320390701294e-02 -2.855446934700012207e-01
-1.276909410953521729e-01 1.279997453093528748e-02 -5.976945161819458008e-01
-2.302168458700180054e-01 -4.221767559647560120e-02 -7.561431825160980225e-02
-1.030428260564804077e-01 4.498799797147512436e-03 -5.959320664405822754e-01
-7.247881889343261719e-01 8.495636284351348877e-02 -2.640588209033012390e-03
1.976351812481880188e-02 -9.087534993886947632e-02 2.198198065161705017e-02
-2.672528922557830811e-01 -5.317522585391998291e-02 -6.927987933158874512e-02
1.846632063388824463e-01 -5.274100974202156067e-02 -2.903466224670410156e-01
4.043761789798736572e-01 3.829097375273704529e-02 8.300200849771499634e-02
-6.918900012969970703e-01 3.974686935544013977e-02 -1.874120086431503296e-01
1.730415523052215576e-01 -3.708370774984359741e-02 2.526525259017944336e-01
-3.556540012359619141e-01 -8.655873686075210571e-02 -1.985595189034938812e-02
-7.872675359249114990e-02 1.435804460197687149e-02 -5.593047142028808594e-01
-8.145174980163574219e-01 4.763937368988990784e-02 2.569996519014239311e-03
-6.429547071456909180e-02 3.865251201204955578e-04 5.671266317367553711e-01
2.572793364524841309e-01 -4.423549771308898926e-02 -2.571929991245269775e-01
8.088572323322296143e-02 2.583139576017856598e-03 -3.830133080482482910e-01
2.978401780128479004e-01 -3.317577391862869263e-02 1.095657721161842346e-01
1.272956877946853638e-01 -4.410778731107711792e-02 2.390896826982498169e-01
-2.976258285343647003e-02 -3.023843094706535339e-02 2.944649159908294678e-01
-4.702902212738990784e-02 1.435804460197687149e-02 6.374951004981994629e-01
7.547369599342346191e-01 -8.500066399574279785e-02 -3.234603255987167358e-02
-1.597462445497512817e-01 2.196957916021347046e-02 -6.827751398086547852e-01
9.546548128128051758e-01 2.046259492635726929e-02 3.329712152481079102e-02
-1.323395967483520508e-01 1.249347161501646042e-02 6.632159948348999023e-01
-8.968431502580642700e-02 -3.955635707825422287e-03 -5.205829143524169922e-01
2.068303339183330536e-02 -5.125957727432250977e-02 9.255474805831909180e-02
-6.961044669151306152e-01 1.862356998026371002e-02 5.339874327182769775e-02
6.372144073247909546e-02 -4.308610409498214722e-02 2.410564124584197998e-01
2.484639175236225128e-02 -3.495872486382722855e-03 -3.546360433101654053e-01
2.121720314025878906e-01 -4.254971444606781006e-02 -2.765794098377227783e-01
1.737056523561477661e-01 -5.667448788881301880e-02 -2.848806083202362061e-01
2.198346406221389771e-01 -7.805322110652923584e-02 -2.302971780300140381e-01
1.205525845289230347e-01 -3.360998630523681641e-02 2.976576685905456543e-01
-7.055328786373138428e-02 -4.426103830337524414e-02 8.251670747995376587e-02
2.372798919677734375e-01 -1.281156986951828003e-01 2.585016489028930664e-01
6.346601992845535278e-02 -6.372410058975219727e-02 -1.291760802268981934e-01
1.984303891658782959e-01 -4.801572114229202271e-02 -2.652898132801055908e-01
2.168206870555877686e-01 -5.105522647500038147e-02 -2.492749392986297607e-01
8.716907352209091187e-02 -3.080035932362079620e-02 -3.248539865016937256e-01
-4.483240842819213867e-02 1.808718219399452209e-02 -5.617312192916870117e-01
1.568223237991333008e-01 -8.898521214723587036e-02 -4.634308815002441406e-02
8.934015035629272461e-02 1.732092536985874176e-02 8.742079138755798340e-02
4.225621521472930908e-01 -1.808040589094161987e-02 8.445791155099868774e-02
-6.381016969680786133e-02 -2.962542511522769928e-02 3.834279775619506836e-01
-3.183149173855781555e-02 9.318090975284576416e-02 -2.220582403242588043e-02
-1.717510074377059937e-01 -6.632938981056213379e-02 6.075486168265342712e-02
-4.347867518663406372e-02 3.433195129036903381e-02 8.417694270610809326e-02
7.552187889814376831e-02 -3.225625678896903992e-02 -3.200265169143676758e-01
2.176891118288040161e-01 -5.360944196581840515e-02 8.762513101100921631e-02
1.148311495780944824e-01 -6.316217780113220215e-02 -1.396738588809967041e-01
-2.972392737865447998e-01 9.315536916255950928e-02 -2.233353443443775177e-02
6.566298007965087891e-01 5.445911362767219543e-02 7.697407901287078857e-02
2.213160842657089233e-01 -5.764508992433547974e-02 1.451714336872100830e-01
2.065016776323318481e-01 -1.677775196731090546e-02 -8.583115786314010620e-02
-7.016981244087219238e-01 3.259509056806564331e-02 -1.692260503768920898e-01
-6.998335719108581543e-01 2.807413972914218903e-02 -3.444048017263412476e-02
-7.645572423934936523e-01 2.557101286947727203e-02 -2.524533309042453766e-02
5.534397959709167480e-01 -6.441374123096466064e-02 6.231292709708213806e-02
1.226725578308105469e-01 -4.418440163135528564e-02 2.852442264556884766e-01
-1.597462445497512817e-01 2.196957916021347046e-02 -6.827751398086547852e-01
-1.579072028398513794e-01 3.525146842002868652e-02 7.756778001785278320e-01
-1.331313848495483398e-01 1.364286616444587708e-02 6.731773614883422852e-01
-7.334213852882385254e-01 2.335857450962066650e-01 8.214796893298625946e-03
-3.206613659858703613e-01 9.399825334548950195e-02 2.011740580201148987e-02
7.047766447067260742e-01 -1.713534072041511536e-02 8.466224372386932373e-02
-7.351327538490295410e-01 2.240379340946674347e-02 5.299006775021553040e-02
1.831306815147399902e-01 -5.049329996109008789e-02 1.931394785642623901e-01
-8.460482582449913025e-03 -6.765265017747879028e-03 5.065664052963256836e-01
2.978657186031341553e-01 -4.487404227256774902e-02 2.823068797588348389e-01
1.302841007709503174e-01 -5.054439604282379150e-02 2.706852257251739502e-01
7.493730783462524414e-01 -8.137369155883789062e-02 4.111300036311149597e-02
-1.453405022621154785e-01 -7.667393982410430908e-02 -4.739031940698623657e-02
4.564820528030395508e-01 5.141960084438323975e-02 -7.722347229719161987e-02
7.769330143928527832e-01 8.015444874763488770e-02 -5.160476267337799072e-02
1.648680865764617920e-01 -4.786247014999389648e-02 2.870832383632659912e-01
-1.361964493989944458e-01 5.443855654448270798e-03 5.812258720397949219e-01
1.389173269271850586e-01 -8.157801628112792969e-02 2.968147695064544678e-01
1.735268533229827881e-01 7.721710950136184692e-02 5.728113651275634766e-02
-7.207781076431274414e-01 9.588837623596191406e-02 -3.304682439193129539e-03
8.409669995307922363e-01 8.574816584587097168e-02 2.075595967471599579e-02
-1.672556102275848389e-01 3.083268180489540100e-02 -7.447657585144042969e-01
-6.190662970766425133e-04 -6.124652549624443054e-02 1.120688989758491516e-01
6.842118501663208008e-02 -1.225681044161319733e-02 2.575310766696929932e-01
4.427148401737213135e-01 -7.657177001237869263e-02 -4.751802608370780945e-02
-8.251685500144958496e-01 2.301375567913055420e-01 6.543403724208474159e-04
1.467332094907760620e-01 -8.142476528882980347e-02 -2.555072009563446045e-01
-1.487631499767303467e-01 1.226359512656927109e-02 -6.519969105720520020e-01
8.218497037887573242e-03 -6.423494964838027954e-02 9.978315979242324829e-02
8.608898520469665527e-01 1.456238329410552979e-02 7.579915225505828857e-02
1.785586476325988770e-01 -7.496261596679687500e-02 -8.378779143095016479e-02
1.813171803951263428e-01 -5.340509489178657532e-02 2.561773359775543213e-01
-6.764370203018188477e-01 -6.739716511219739914e-03 -4.861633852124214172e-02
-1.795158088207244873e-01 7.811107486486434937e-02 5.610620230436325073e-02
-6.182010769844055176e-01 1.811273023486137390e-02 6.941362470388412476e-02
3.442246019840240479e-01 7.512265443801879883e-02 6.006522476673126221e-02
-6.396053433418273926e-01 2.332536876201629639e-01 5.277457181364297867e-03
1.507944166660308838e-01 -8.139923214912414551e-02 -2.449583262205123901e-01
6.050313636660575867e-02 -4.405670985579490662e-02 -8.623982965946197510e-02
1.017791405320167542e-01 3.098994784522801638e-04 3.854202628135681152e-01
7.738424539566040039e-01 4.523842036724090576e-02 8.062659949064254761e-02
2.309454530477523804e-01 -6.719782203435897827e-02 -3.151479661464691162e-01
5.263617634773254395e-02 -7.335346937179565430e-02 -1.271071583032608032e-01
2.364591322839260101e-02 3.119528526440262794e-03 -5.286542177200317383e-01
2.995514869689941406e-01 -6.165520101785659790e-02 2.947969436645507812e-01
7.345331311225891113e-01 4.730732738971710205e-02 -7.901141047477722168e-02
5.434749647974967957e-02 -6.298338621854782104e-02 9.853159636259078979e-02
7.851830720901489258e-01 8.298961073160171509e-02 -4.644525796175003052e-02
3.442467376589775085e-02 -2.211605571210384369e-02 -2.310123443603515625e-01
5.351516604423522949e-01 -1.718642748892307281e-02 -8.330249041318893433e-02
5.106823444366455078e-01 -5.082536116242408752e-02 7.212108373641967773e-02
6.428336352109909058e-02 -1.161875352263450623e-01 -1.404145956039428711e-01
-7.259664684534072876e-02 8.917576633393764496e-03 6.293471455574035645e-01
2.444316744804382324e-01 -8.867871016263961792e-02 -4.838645830750465393e-02
