1.149277389049530029e-01 1.121794506907463074e-01 2.292270399630069733e-02
-4.024292230606079102e-01 -7.996836304664611816e-02 -9.738302789628505707e-03
2.444729954004287720e-01 -1.206229254603385925e-01 2.935503125190734863e-01
-1.039202362298965454e-01 2.545885369181632996e-02 8.057979941368103027e-01
1.624496430158615112e-01 -1.056796163320541382e-01 3.159377872943878174e-01
-1.217203512787818909e-01 5.900700110942125320e-03 6.672152876853942871e-01
-8.232864141464233398e-01 7.276099920272827148e-02 -3.676908612251281738e-01
-1.498214453458786011e-01 7.347519695758819580e-02 -8.313629031181335449e-02
1.113017871975898743e-01 -4.142891615629196167e-02 -3.179439604282379150e-01
-8.720719218254089355e-01 4.107433259487152100e-01 2.870109165087342262e-03
9.545199573040008545e-02 -7.733130455017089844e-02 -9.703576564788818359e-02
4.485699236392974854e-01 3.078790009021759033e-02 -9.876632690429687500e-02
6.328544020652770996e-02 -8.392392843961715698e-02 -1.228843778371810913e-01
-6.572070121765136719e-01 8.006783574819564819e-02 3.772865980863571167e-02
-1.782796382904052734e-01 1.919584907591342926e-02 -7.717918157577514648e-01
2.587020993232727051e-01 -4.807649180293083191e-02 3.338203132152557373e-01
2.313976138830184937e-01 -5.329564586281776428e-02 3.305239975452423096e-01
-8.441631197929382324e-01 3.929432332515716553e-01 -2.211712999269366264e-03
-7.366207838058471680e-01 4.803862050175666809e-02 1.521658003330230713e-01
9.212821722030639648e-02 -1.530092358589172363e-01 -1.595833748579025269e-01
3.348195552825927734e-01 -1.455375999212265015e-01 -2.840468287467956543e-01
4.567761346697807312e-02 6.147922016680240631e-03 -4.451817870140075684e-01
-9.466308355331420898e-02 -1.865686103701591492e-02 9.827101230621337891e-02
1.725034117698669434e-01 1.055593565106391907e-01 -4.143788293004035950e-02
6.392619013786315918e-01 3.968794643878936768e-02 9.901268780231475830e-02
-4.708204651251435280e-04 -1.010922491550445557e-01 -4.336073622107505798e-02
-7.590631842613220215e-01 1.210795119404792786e-01 2.128437627106904984e-03
-5.029394030570983887e-01 -2.546924911439418793e-02 7.352117449045181274e-02
3.393794298171997070e-01 -7.722142338752746582e-02 -3.320631682872772217e-01
2.609199844300746918e-02 1.026832684874534607e-02 -4.903413355350494385e-01
7.320185750722885132e-02 -8.021557331085205078e-02 -1.285155862569808960e-01
2.535103857517242432e-01 -8.980236202478408813e-02 8.810736984014511108e-02
-7.285997271537780762e-01 2.773880027234554291e-02 -3.380141779780387878e-02
1.011656150221824646e-01 -2.618344873189926147e-02 1.781242787837982178e-01
-2.805000543594360352e-02 -3.392979502677917480e-02 3.280792236328125000e-01
3.344624340534210205e-01 1.438872050493955612e-02 -9.953546524047851562e-02
-7.250012755393981934e-01 4.051202908158302307e-02 1.783165633678436279e-01
-5.950236693024635315e-02 7.218414545059204102e-02 8.651414513587951660e-02
2.119767963886260986e-01 -1.082810852676630020e-02 -3.225313127040863037e-01
7.769970688968896866e-03 -5.623486265540122986e-02 -2.428977936506271362e-01
-8.263904452323913574e-01 6.501465290784835815e-02 3.122569322586059570e-01
6.916183829307556152e-01 -5.208701267838478088e-02 8.648668229579925537e-02
3.822865188121795654e-01 -5.749846994876861572e-02 3.242610096931457520e-01
5.732459574937820435e-02 -1.909636333584785461e-02 -2.682245075702667236e-01
5.589619651436805725e-02 -1.498777419328689575e-01 1.872441023588180542e-01
-2.729389071464538574e-01 7.602984458208084106e-02 -8.113103359937667847e-02
2.063455879688262939e-01 1.050374358892440796e-01 4.544753953814506531e-02
1.570859737694263458e-02 -3.626467287540435791e-02 3.376660346984863281e-01
5.334226489067077637e-01 -8.925297111272811890e-02 -4.874471947550773621e-02
5.710555911064147949e-01 -8.933538943529129028e-02 5.124355852603912354e-02
2.420556843280792236e-01 -9.444467723369598389e-02 7.964682579040527344e-02
1.672496460378170013e-02 -1.178953051567077637e-02 -3.711794614791870117e-01
2.232391983270645142e-01 -6.230559572577476501e-02 1.930126398801803589e-01
-4.079576209187507629e-02 -1.032073944807052612e-01 9.792374446988105774e-03
-1.464976668357849121e-01 -6.790933012962341309e-02 -7.953781634569168091e-02
5.713577866554260254e-01 -1.034820750355720520e-01 -3.585178405046463013e-03
5.383599549531936646e-02 -2.420565485954284668e-02 -4.448796212673187256e-01
6.628854870796203613e-01 -6.584911793470382690e-02 -7.462080568075180054e-02
-3.214293345808982849e-02 -2.654054388403892517e-02 -3.951601386070251465e-01
4.394704475998878479e-02 -5.222434177994728088e-02 2.416333258152008057e-01
8.693651109933853149e-02 -2.873809449374675751e-02 -9.901354461908340454e-02
-7.813957333564758301e-01 4.608830064535140991e-02 3.583327680826187134e-02
2.336775511503219604e-01 -9.004959464073181152e-02 -3.628287911415100098e-01
1.496489495038986206e-01 -5.889940261840820312e-02 2.241628319025039673e-01
4.948832094669342041e-01 -9.911445528268814087e-02 3.069651685655117035e-02
-8.263904452323913574e-01 6.501465290784835815e-02 3.122569322586059570e-01
4.242870807647705078e-01 3.713330253958702087e-02 9.978183358907699585e-02
2.998236715793609619e-01 -8.483041822910308838e-02 9.494722634553909302e-02
4.236003458499908447e-01 1.003676578402519226e-01 5.459481850266456604e-02
2.353256940841674805e-01 -7.211213558912277222e-02 -3.036324381828308105e-01
-7.131416350603103638e-02 9.911221452057361603e-03 -7.005638480186462402e-01
7.520712167024612427e-02 -1.049104705452919006e-01 -1.709007322788238525e-01
2.307658195495605469e-01 -8.656098693609237671e-02 -2.732788324356079102e-01
-1.969587653875350952e-01 2.048690989613533020e-02 -7.669571638107299805e-01
-1.235607936978340149e-01 3.650150820612907410e-02 -8.081886172294616699e-01
-1.240277737379074097e-01 7.356575690209865570e-03 6.800709366798400879e-01
-1.270768493413925171e-01 -4.996420466341078281e-04 5.771709084510803223e-01
-4.101755619049072266e-01 2.990887686610221863e-02 -9.412401169538497925e-02
5.800105333328247070e-01 1.033618003129959106e-01 -4.671198874711990356e-02
-5.921596884727478027e-01 3.507310897111892700e-02 -7.832916080951690674e-02
-7.416476607322692871e-01 4.073178768157958984e-02 9.307931363582611084e-02
6.128088831901550293e-01 9.149506688117980957e-02 6.827452778816223145e-02
7.563360929489135742e-01 -4.837865382432937622e-02 8.689871430397033691e-02
-4.291843175888061523e-01 1.102016568183898926e-01 -1.072719786316156387e-02
2.630697190761566162e-01 6.745941936969757080e-02 8.901385962963104248e-02
-5.780954360961914062e-01 3.227124363183975220e-02 -5.536482110619544983e-02
-1.116116344928741455e-01 3.493576124310493469e-02 -8.290927410125732422e-01
5.792892351746559143e-02 -3.478134423494338989e-02 -3.625540733337402344e-01
2.028883900493383408e-03 -2.340088132768869400e-03 4.380663335323333740e-01
-1.086998954415321350e-01 4.292932897806167603e-02 9.807873517274856567e-02
-7.782368063926696777e-01 6.913504749536514282e-02 3.528015911579132080e-01
-2.022125385701656342e-02 -3.560541570186614990e-02 -3.142355978488922119e-01
-2.386022508144378662e-01 1.145418062806129456e-01 2.870109165087342262e-03
2.382649332284927368e-01 -6.977724283933639526e-02 3.572516441345214844e-01
3.658527135848999023e-02 -1.016416251659393311e-01 4.077775403857231140e-02
-3.513708710670471191e-02 5.598536692559719086e-03 5.181119441986083984e-01
1.426992118358612061e-01 -1.425472873961552978e-04 -3.685149252414703369e-01
3.177886009216308594e-01 -1.491635292768478394e-01 3.365122973918914795e-01
1.616804897785186768e-01 -2.291460335254669189e-02 -1.299714595079421997e-01
3.118826448917388916e-01 5.598536692559719086e-03 -9.868391603231430054e-02
-1.772154867649078369e-02 -3.365509584546089172e-02 3.443410694599151611e-01
-5.740025043487548828e-01 3.990770503878593445e-02 8.308048546314239502e-02
2.510106861591339111e-01 -1.390548348426818848e-01 2.899243831634521484e-01
-6.772596240043640137e-01 5.015375092625617981e-02 -2.277072668075561523e-01
8.455289006233215332e-01 -1.026580035686492920e-01 -2.256647124886512756e-02
4.216154292225837708e-02 1.425137184560298920e-02 5.434660315513610840e-01
-4.291843175888061523e-01 1.102016568183898926e-01 -1.072719786316156387e-02
1.113017871975898743e-01 -4.142891615629196167e-02 -3.179439604282379150e-01
-1.075187101960182190e-01 -4.384620487689971924e-02 -9.074528515338897705e-02
4.928229749202728271e-01 1.066855937242507935e-01 -3.858107700943946838e-02
-7.557902019470930099e-03 -6.804668158292770386e-02 -1.206868365406990051e-01
9.295228868722915649e-02 -1.747567206621170044e-02 -4.668825268745422363e-01
1.205589398741722107e-01 -4.307706281542778015e-02 -3.063793778419494629e-01
-1.893772482872009277e-01 2.334370836615562439e-02 7.711866497993469238e-01
-2.494597434997558594e-02 -2.220039442181587219e-02 -3.532419800758361816e-01
-3.800142407417297363e-01 1.013290733098983765e-01 -4.745365679264068604e-02
1.914847046136856079e-01 -5.623486265540122986e-02 2.297116369009017944e-01
2.415337562561035156e-01 -5.714135244488716125e-02 -2.032595723867416382e-01
2.427698820829391479e-01 -1.332781277596950531e-02 -2.478148043155670166e-01
2.922421097755432129e-01 -4.972463846206665039e-02 2.960774898529052734e-01
7.917165756225585938e-01 8.218297362327575684e-02 -6.942910701036453247e-02
3.145746588706970215e-01 -1.020536720752716064e-01 -2.654952183365821838e-02
-4.291843175888061523e-01 1.102016568183898926e-01 -1.072719786316156387e-02
7.060397863388061523e-01 -1.000758782029151917e-01 -2.424209751188755035e-02
2.165092527866363525e-01 -6.749728322029113770e-02 -3.056376874446868896e-01
2.289253771305084229e-01 -1.920624636113643646e-02 3.223930895328521729e-01
-4.770908057689666748e-01 -6.598646938800811768e-02 4.875368438661098480e-03
2.743870913982391357e-01 -8.444584161043167114e-02 2.727011144161224365e-01
-1.538665406405925751e-02 -8.355869911611080170e-03 -5.650578141212463379e-01
-5.215635895729064941e-01 1.434120535850524902e-01 -1.193584688007831573e-02
-7.470591068267822266e-01 4.394568875432014465e-02 -1.914752423763275146e-01
-5.598558187484741211e-01 -2.566152997314929962e-02 6.283561140298843384e-02
-5.345290899276733398e-01 9.764818102121353149e-02 4.470586776733398438e-02
4.216154292225837708e-02 1.425137184560298920e-02 5.434660315513610840e-01
4.562267288565635681e-02 -5.538332462310791016e-02 -8.698199689388275146e-02
-3.513708710670471191e-02 5.598536692559719086e-03 5.181119441986083984e-01
4.966066405177116394e-02 -7.180996984243392944e-02 1.411506086587905884e-01
-5.277991294860839844e-01 1.779135018587112427e-01 1.009453739970922470e-02
6.307188868522644043e-01 6.951961666345596313e-02 8.791509270668029785e-02
8.773312717676162720e-02 1.003951206803321838e-01 5.453988164663314819e-02
-7.150024175643920898e-01 5.680133029818534851e-02 -2.498200535774230957e-01
-6.730018258094787598e-01 2.848047576844692230e-02 -9.904102236032485962e-02
2.148885428905487061e-01 -7.046397030353546143e-02 -1.570012569427490234e-01
-4.569008648395538330e-01 -3.467145934700965881e-02 7.385080307722091675e-02
5.044974684715270996e-01 -8.672580122947692871e-02 -5.283764377236366272e-02
2.462585121393203735e-01 -1.443014740943908691e-01 -3.017095923423767090e-01
-5.639833584427833557e-02 7.578262686729431152e-02 -8.132331818342208862e-02
1.196249872446060181e-01 -5.471584852784872055e-03 3.088781833648681641e-01
9.256019592285156250e-01 -5.958612635731697083e-02 1.940663158893585205e-02
2.083233743906021118e-01 -2.093680948019027710e-02 1.019244268536567688e-01
5.270263645797967911e-03 -6.252533942461013794e-02 -9.777742624282836914e-02
1.438803821802139282e-01 -9.991106390953063965e-02 5.676489323377609253e-02
8.721192479133605957e-01 7.037116587162017822e-02 4.918336123228073120e-02
9.632623791694641113e-01 -4.645579308271408081e-02 9.572619572281837463e-03
9.564428776502609253e-02 -1.577339470386505127e-01 -1.827400177717208862e-01
8.693651109933853149e-02 8.336415141820907593e-02 -7.528007030487060547e-02
4.248913824558258057e-01 8.479255437850952148e-02 7.681749016046524048e-02
2.631795704364776611e-01 -1.007626205682754517e-01 -2.673454880714416504e-01
1.295139342546463013e-01 1.145143434405326843e-01 2.952517010271549225e-03
1.368757188320159912e-01 -6.216824799776077271e-02 -2.029299437999725342e-01
3.553940653800964355e-01 -3.466334426775574684e-03 -9.769502282142639160e-02
2.754858434200286865e-01 -5.381757766008377075e-02 3.290956020355224609e-01
-6.452304124832153320e-01 2.455236203968524933e-02 -8.239461481571197510e-02
2.842210829257965088e-01 -2.093680948019027710e-02 -8.418012410402297974e-02
1.846997737884521484e-01 -8.630557917058467865e-03 -2.486388683319091797e-01
-1.341914087533950806e-01 -1.000758782029151917e-01 2.687828242778778076e-02
-7.229685783386230469e-01 5.007134377956390381e-02 2.610815763473510742e-01
-3.968529403209686279e-01 1.059164479374885559e-01 -8.776878006756305695e-03
5.553431510925292969e-01 1.113004386425018311e-01 2.674093656241893768e-02
1.722836494445800781e-01 -8.746747672557830811e-02 3.441213071346282959e-01
1.221246868371963501e-01 -2.629332244396209717e-02 -1.517271548509597778e-01
3.118277192115783691e-01 -2.242014929652214050e-02 -1.108802855014801025e-01
-5.914180874824523926e-01 1.115751266479492188e-01 -1.133152283728122711e-02
-7.757716625928878784e-02 2.705206722021102905e-02 6.928442120552062988e-01
-3.392223417758941650e-01 3.683114796876907349e-02 9.906762838363647461e-02
-2.665660083293914795e-01 -1.972816511988639832e-02 -9.519531577825546265e-02
-1.103755161166191101e-01 8.506724238395690918e-02 7.659773528575897217e-02
3.924776315689086914e-01 -7.878717035055160522e-02 -9.165177494287490845e-02
-3.098922222852706909e-02 -3.576207440346479416e-03 -6.007679104804992676e-01
3.202536702156066895e-02 1.106961145997047424e-01 2.935052104294300079e-02
-7.348902225494384766e-01 6.734954565763473511e-02 3.399283438920974731e-02
-7.891694903373718262e-01 2.787258625030517578e-01 -2.101835561916232109e-03
-1.500208862125873566e-02 -2.371121011674404144e-02 4.329845309257507324e-01
1.525332182645797729e-01 -3.623034281190484762e-04 3.773591518402099609e-01
-1.743515580892562866e-01 7.432674616575241089e-02 -8.247703313827514648e-02
-5.356899276375770569e-02 -1.571764424443244934e-02 -4.360894560813903809e-01
1.211358010768890381e-01 -1.206422783434391022e-02 2.550658285617828369e-01
9.698001146316528320e-01 2.153073810040950775e-02 2.154923789203166962e-02
-6.157558560371398926e-01 3.295797482132911682e-02 -7.473068684339523315e-02
-7.732098698616027832e-01 1.915108114480972290e-01 -5.360851064324378967e-04
8.875569701194763184e-01 -5.966038908809423447e-03 7.343875616788864136e-02
-7.037400603294372559e-01 5.103277787566184998e-02 -1.834816932678222656e-01
-1.459482759237289429e-01 3.974289074540138245e-02 -8.823008537292480469e-01
-2.183848470449447632e-01 2.705206722021102905e-02 -9.901354461908340454e-02
3.268463164567947388e-02 -1.386702507734298706e-01 -1.576055735349655151e-01
3.145746588706970215e-01 -5.230676010251045227e-02 -2.841841578483581543e-01
2.975436747074127197e-01 -2.123897150158882141e-02 -1.007166430354118347e-01
1.651965677738189697e-01 -2.634826488792896271e-02 -3.757119178771972656e-01
-7.797476053237915039e-01 4.292932897806167603e-02 1.358215659856796265e-01
7.219445109367370605e-01 -1.703617163002490997e-02 -9.596446156501770020e-02
5.553431510925292969e-01 1.113004386425018311e-01 2.674093656241893768e-02
7.586637884378433228e-02 -1.683371216058731079e-01 1.478805840015411377e-01
-1.524310261011123657e-01 1.007603574544191360e-02 -6.883675456047058105e-01
-5.646354556083679199e-01 2.243722975254058838e-02 7.080170512199401855e-02
4.976850748062133789e-01 -6.543709337711334229e-02 7.761409878730773926e-02
-7.531573176383972168e-01 3.073295950889587402e-02 3.429499641060829163e-02
5.849825143814086914e-01 -9.035176038742065430e-02 4.959540441632270813e-02
-8.785069733858108521e-02 3.593286499381065369e-03 -6.546902060508728027e-01
-9.315226227045059204e-02 -6.268202327191829681e-03 6.029371023178100586e-01
6.410951912403106689e-02 4.639046266674995422e-02 9.703489392995834351e-02
2.332655191421508789e-01 -6.889821588993072510e-02 -2.796792089939117432e-01
5.844606161117553711e-01 -9.620270878076553345e-02 3.778359666466712952e-02
-6.025156378746032715e-01 -2.321676723659038544e-02 5.352351069450378418e-02
1.536045223474502563e-01 -1.036194190382957458e-01 -2.266651485115289688e-03
-7.488171458244323730e-01 5.193926393985748291e-02 -1.844705790281295776e-01
-1.403445303440093994e-01 -5.903673171997070312e-02 9.014009684324264526e-02
-5.963075757026672363e-01 7.303569465875625610e-02 -6.338585913181304932e-02
2.142221480607986450e-02 -7.447449117898941040e-02 1.011278256773948669e-01
5.661660432815551758e-01 1.141297742724418640e-01 -5.343214143067598343e-03
1.693444401025772095e-01 6.230339407920837402e-03 1.014299839735031128e-01
1.113017871975898743e-01 -4.142891615629196167e-02 -3.179439604282379150e-01
-5.014560222625732422e-01 -1.769542880356311798e-02 -7.659859955310821533e-02
2.252444773912429810e-01 -2.324423380196094513e-02 -3.309369087219238281e-01
6.325796991586685181e-02 -1.021635532379150391e-01 -2.616495080292224884e-02
-6.316605806350708008e-01 3.070548363029956818e-02 -1.278013885021209717e-01
4.737867712974548340e-01 5.131558980792760849e-03 -9.862897545099258423e-02
-5.641685128211975098e-01 1.771169006824493408e-01 1.432481128722429276e-02
-5.199154615402221680e-01 4.474230855703353882e-02 -8.613044768571853638e-02
1.870896220207214355e-01 -6.436578929424285889e-02 1.020343154668807983e-01
2.587845027446746826e-01 -1.380659341812133789e-01 -2.855576276779174805e-01
-3.884132020175457001e-04 -3.813260421156883240e-02 -3.065716326236724854e-01
-3.019189834594726562e-01 -7.661709934473037720e-02 6.431895494461059570e-02
4.737867712974548340e-01 5.131558980792760849e-03 -9.862897545099258423e-02
-8.565314114093780518e-02 2.392056956887245178e-02 -7.829992771148681641e-01
7.869368791580200195e-01 2.323383651673793793e-02 -9.332740306854248047e-02
-7.959818840026855469e-01 4.085183441638946533e-01 8.611193858087062836e-03
-8.139540255069732666e-02 -8.245986886322498322e-03 6.049698591232299805e-01
-1.942464709281921387e-02 -4.082459211349487305e-02 -9.695335477590560913e-02
9.116678684949874878e-02 -9.859254956245422363e-02 -6.374295800924301147e-02
-5.966718122363090515e-02 1.977269910275936127e-02 6.215612888336181641e-01
-4.917390272021293640e-02 1.015844382345676422e-02 -6.921308040618896484e-01
1.424245238304138184e-01 -1.014218777418136597e-01 -4.127306863665580750e-02
-1.743515580892562866e-01 3.658391535282135010e-02 8.336793184280395508e-01
7.219445109367370605e-01 -1.703617163002490997e-02 -9.596446156501770020e-02
2.863087356090545654e-01 -5.464164912700653076e-02 -1.755430549383163452e-01
1.528628468513488770e-01 -2.582634426653385162e-02 -1.209340542554855347e-01
5.189462900161743164e-01 9.440680593252182007e-02 6.445629894733428955e-02
-6.411720812320709229e-02 4.170137457549571991e-03 6.086507439613342285e-01
-4.291843175888061523e-01 1.102016568183898926e-01 -1.072719786316156387e-02
-8.285127580165863037e-02 2.817831374704837799e-02 1.016222685575485229e-01
-5.901819467544555664e-01 1.804213784635066986e-02 4.871638491749763489e-02
1.136844791471958160e-02 2.353600040078163147e-02 1.018145531415939331e-01
-7.328849434852600098e-01 5.084048584103584290e-02 1.792779862880706787e-01
2.598283588886260986e-01 5.303803086280822754e-02 -9.242091327905654907e-02
2.932859361171722412e-01 -7.766094058752059937e-02 9.956207126379013062e-02
-7.578819990158081055e-01 2.447738051414489746e-01 6.193894892930984497e-03
-6.545150279998779297e-01 5.715843290090560913e-02 -6.357814371585845947e-02
1.802772283554077148e-01 -8.355869911611080170e-03 2.560821771621704102e-01
2.336775511503219604e-01 -9.004959464073181152e-02 -3.628287911415100098e-01
-5.780954360961914062e-01 3.227124363183975220e-02 -5.536482110619544983e-02
6.628854870796203613e-01 -6.584911793470382690e-02 -7.462080568075180054e-02
3.539931178092956543e-01 -7.966619729995727539e-02 -9.467339515686035156e-02
2.394735813140869141e-01 -7.812791317701339722e-02 3.626905679702758789e-01
-1.789114326238632202e-01 3.760027885437011719e-02 -8.415912985801696777e-01
1.053134799003601074e-01 -1.981057226657867432e-02 -9.901354461908340454e-02
1.349528580904006958e-01 -2.071705274283885956e-02 -1.745816171169281006e-01
3.070480823516845703e-01 3.718824312090873718e-02 -9.709069132804870605e-02
7.097684592008590698e-02 -2.779600443318486214e-03 3.645310103893280029e-01
-6.608878970146179199e-01 1.278644353151321411e-01 -6.991372443735599518e-03
-7.236278057098388672e-01 4.556638002395629883e-02 -1.279936730861663818e-01
5.135348439216613770e-01 3.059560991823673248e-02 1.014849245548248291e-01
2.922421097755432129e-01 -4.972463846206665039e-02 2.960774898529052734e-01
-7.473063468933105469e-01 6.306432932615280151e-02 3.033843040466308594e-01
-1.294941604137420654e-01 3.098832676187157631e-03 -6.285119056701660156e-01
-6.154811382293701172e-01 2.306902222335338593e-02 7.846564054489135742e-02
-3.864145874977111816e-01 -3.615481033921241760e-02 -8.093874901533126831e-02
5.919322371482849121e-01 -1.027403995394706726e-01 -1.281486544758081436e-02
2.630697190761566162e-01 6.745941936969757080e-02 8.901385962963104248e-02
1.087400130927562714e-02 -5.379011109471321106e-02 2.195479869842529297e-01
7.219445109367370605e-01 -1.703617163002490997e-02 -9.596446156501770020e-02
-6.645962595939636230e-01 4.746176674962043762e-02 2.166087776422500610e-01
-7.569480538368225098e-01 5.526304990053176880e-02 2.175152599811553955e-01
8.395406007766723633e-01 -5.260892212390899658e-02 6.909860670566558838e-02
3.482245802879333496e-01 -6.392627954483032227e-02 2.734427750110626221e-01
5.732459574937820435e-02 -1.909636333584785461e-02 -2.682245075702667236e-01
-7.366207838058471680e-01 4.803862050175666809e-02 1.521658003330230713e-01
3.596243560314178467e-01 -1.409502178430557251e-01 3.087683022022247314e-01
-3.771920874714851379e-02 -1.310805696994066238e-02 4.159535467624664307e-01
-2.781855463981628418e-01 -6.812907755374908447e-02 -7.132449001073837280e-02
-7.763139605522155762e-01 1.433021873235702515e-01 1.221950631588697433e-03
3.523449599742889404e-01 -7.793561369180679321e-02 3.507688939571380615e-01
1.509125232696533203e-01 -1.076503191143274307e-03 3.570318818092346191e-01
6.048428416252136230e-01 -2.733716182410717010e-02 9.634815901517868042e-02
3.664367496967315674e-01 -9.375795722007751465e-02 6.434642523527145386e-02
-6.166623234748840332e-01 3.902868926525115967e-02 -1.123086959123611450e-01
1.718166768550872803e-01 -1.104785408824682236e-02 2.254813760519027710e-01
-7.396697998046875000e-01 3.364469856023788452e-02 -8.593815565109252930e-02
1.439078599214553833e-01 -4.942247271537780762e-02 -2.708066105842590332e-01
4.628194123506546021e-02 -2.640320546925067902e-02 2.446000128984451294e-01
-7.776598930358886719e-01 4.015960693359375000e-01 -5.672845989465713501e-03
3.145746588706970215e-01 -5.230676010251045227e-02 -2.841841578483581543e-01
-6.950871348381042480e-01 3.233360052108764648e-01 -7.321004290133714676e-03
-6.952866166830062866e-02 -9.646920487284660339e-03 -5.414342284202575684e-01
-4.334695339202880859e-01 1.263261437416076660e-01 -1.195348566398024559e-03
-1.894871145486831665e-01 4.070432111620903015e-02 8.742240667343139648e-01
-7.514266967773437500e-01 5.075807869434356689e-02 -2.541052699089050293e-01
2.455168068408966064e-01 -8.334706723690032959e-02 -3.026160895824432373e-01
5.224277451634407043e-02 -2.065400592982769012e-03 5.637658834457397461e-01
2.582350969314575195e-01 -2.684270776808261871e-02 -3.090164065361022949e-01
2.336775511503219604e-01 -9.004959464073181152e-02 -3.628287911415100098e-01
2.490329146385192871e-01 -8.606653660535812378e-02 3.329138159751892090e-01
2.446652948856353760e-01 -6.705777347087860107e-02 -3.346177935600280762e-01
2.282315120100975037e-02 -3.316065296530723572e-02 -2.374588698148727417e-01
3.640469014644622803e-01 -1.192219927906990051e-01 3.640090823173522949e-01
-4.079576209187507629e-02 -1.032073944807052612e-01 9.792374446988105774e-03
6.568971872329711914e-01 -3.340787440538406372e-02 -9.233850985765457153e-02
-1.338343024253845215e-01 -9.936168789863586426e-02 -2.709890715777873993e-02
7.586637884378433228e-02 -1.683371216058731079e-01 1.478805840015411377e-01
-6.685518622398376465e-01 3.070741891860961914e-01 -6.579332984983921051e-03
3.979714810848236084e-01 -1.000484153628349304e-01 2.698816172778606415e-02
1.533572971820831299e-01 -1.009549051523208618e-01 4.951299726963043213e-02
-4.497110098600387573e-02 1.466340851038694382e-02 7.116607427597045898e-01
-6.425384283065795898e-01 4.312161728739738464e-02 -1.401900500059127808e-01
2.927843667566776276e-02 -4.071470722556114197e-02 1.926555484533309937e-01
-1.249617263674736023e-01 1.697898842394351959e-03 6.186770200729370117e-01
-5.049446821212768555e-01 -6.680238526314496994e-03 -8.096621930599212646e-02
6.605231165885925293e-01 -9.878482669591903687e-02 3.168541193008422852e-02
1.923087984323501587e-01 -8.749493956565856934e-02 -8.860268443822860718e-02
3.088061213493347168e-01 -3.099057823419570923e-02 -1.932882219552993774e-01
-1.767962872982025146e-01 2.251963689923286438e-02 8.080230355262756348e-01
1.895893216133117676e-01 -8.060015738010406494e-02 1.136263534426689148e-01
-5.513473972678184509e-02 -9.784269146621227264e-03 5.505256652832031250e-01
-1.396303176879882812e-01 1.106493361294269562e-02 7.092983126640319824e-01
2.505986690521240234e-01 -1.094429269433021545e-01 3.476098775863647461e-01
-2.658243477344512939e-01 7.443662732839584351e-02 8.505827933549880981e-02
2.952912151813507080e-01 4.197603091597557068e-03 1.012102290987968445e-01
-5.702117085456848145e-01 1.839292794466018677e-01 -1.141392998397350311e-02
4.757299646735191345e-02 -1.091051567345857620e-02 5.287150740623474121e-01
4.986190199851989746e-01 3.081536665558815002e-02 -9.876632690429687500e-02
-6.828633546829223633e-01 2.452957183122634888e-01 1.177016552537679672e-02
3.545699715614318848e-01 -5.942131206393241882e-02 3.229424655437469482e-01
1.104502379894256592e-01 1.145692840218544006e-01 3.429327043704688549e-04
-2.027619443833827972e-02 -6.876087188720703125e-02 -9.522278606891632080e-02
-3.869639933109283447e-01 -8.131434023380279541e-02 -2.314332686364650726e-02
-7.057727575302124023e-01 2.493693307042121887e-02 -5.498025193810462952e-02
1.403093785047531128e-01 -4.043185152113437653e-03 3.162124752998352051e-01
7.188332825899124146e-02 1.136078536510467529e-01 1.514889020472764969e-02
1.775577515363693237e-01 -2.338158152997493744e-02 3.308811187744140625e-01
-7.774401307106018066e-01 3.933085128664970398e-02 -9.459099173545837402e-02
-3.453276678919792175e-02 -4.241780564188957214e-02 -2.607803344726562500e-01
-8.251268863677978516e-01 2.676008045673370361e-01 1.029665465466678143e-03
2.341720163822174072e-01 -1.426176913082599640e-02 -1.671374440193176270e-01
7.306451350450515747e-02 -1.564428955316543579e-01 1.696637421846389771e-01
7.835856676101684570e-01 -8.359429985284805298e-02 5.349604785442352295e-02
3.564378917217254639e-01 5.408186838030815125e-02 9.478241205215454102e-02
-5.130755901336669922e-01 -3.763814270496368408e-02 6.349487602710723877e-02
-7.200802210718393326e-03 -5.244410783052444458e-02 -2.404255568981170654e-01
8.454464673995971680e-01 1.010351162403821945e-02 -8.297147601842880249e-02
-1.118313968181610107e-01 -9.037922322750091553e-02 -5.890836194157600403e-02
1.559668928384780884e-01 -2.214546315371990204e-02 1.442546397447586060e-01
6.243185400962829590e-01 5.001641437411308289e-02 9.599106758832931519e-02
1.654163151979446411e-01 -2.928747981786727905e-02 -8.569093048572540283e-02
-7.473063468933105469e-01 6.306432932615280151e-02 3.033843040466308594e-01
-6.731117963790893555e-01 1.103746797889471054e-02 6.231369078159332275e-02
2.270849198102951050e-01 -1.115773804485797882e-02 -2.389422208070755005e-01
-5.544717907905578613e-01 -4.400290548801422119e-03 -7.574705034494400024e-02
2.046425044536590576e-01 1.735540293157100677e-02 -9.939812123775482178e-02
6.314330697059631348e-01 5.605965480208396912e-02 9.420555830001831055e-02
3.235021829605102539e-01 6.592114269733428955e-02 8.986540883779525757e-02
3.971677273511886597e-02 -1.442740112543106079e-01 1.449688374996185303e-01
-1.019495539367198944e-02 6.221278384327888489e-02 9.184319525957107544e-02
7.320185750722885132e-02 -8.021557331085205078e-02 -1.285155862569808960e-01
4.571129083633422852e-01 -4.348910972476005554e-02 9.079936891794204712e-02
-4.232234656810760498e-01 9.245649725198745728e-02 -5.989725887775421143e-02
2.646903991699218750e-01 -1.411699801683425903e-01 3.042908012866973877e-01
3.128990530967712402e-01 -6.060250103473663330e-02 -2.689661681652069092e-01
2.415337562561035156e-01 -5.714135244488716125e-02 -2.032595723867416382e-01
2.818861901760101318e-01 -1.025755852460861206e-01 1.880230754613876343e-02
-3.774667531251907349e-02 -2.065400592982769012e-03 -9.783236682415008545e-02
3.820596262812614441e-02 -3.431436419486999512e-02 -3.624442219734191895e-01
2.543344795703887939e-01 9.399478137493133545e-02 -6.234202533960342407e-02
8.979953527450561523e-01 6.550909578800201416e-02 -3.270264342427253723e-02
2.998236715793609619e-01 -8.483041822910308838e-02 9.494722634553909302e-02
2.516424655914306641e-01 -7.914426922798156738e-02 1.103025749325752258e-01
9.902300685644149780e-02 5.296383518725633621e-03 5.017402172088623047e-01
-2.936853282153606415e-02 -5.944877862930297852e-02 -1.647750735282897949e-01
-2.388494908809661865e-01 3.216135874390602112e-02 -8.682090044021606445e-01
3.410001099109649658e-01 -6.700284034013748169e-02 1.040395721793174744e-01
-1.020248606801033020e-01 8.098251186311244965e-03 1.016222685575485229e-01
3.450656235218048096e-01 -8.043533563613891602e-02 2.793212234973907471e-01
-4.651416242122650146e-01 -6.870593875646591187e-02 3.154634032398462296e-04
2.732811495661735535e-02 -8.733012527227401733e-02 -8.882243931293487549e-02
2.524391114711761475e-01 -4.912031069397926331e-02 2.270196527242660522e-01
-7.362361550331115723e-01 2.944657802581787109e-01 9.792374446988105774e-03
1.208885684609413147e-01 4.252544604241847992e-03 -4.344412684440612793e-01
2.354355901479721069e-01 -1.388625502586364746e-01 2.995386421680450439e-01
-7.590631842613220215e-01 1.210795119404792786e-01 2.128437627106904984e-03
-2.558488398790359497e-03 -9.977371245622634888e-02 -5.300246179103851318e-02
-8.155674934387207031e-01 3.361723572015762329e-02 2.690575085580348969e-02
9.575790609233081341e-04 -2.181582339107990265e-02 4.611130952835083008e-01
5.496295094490051270e-01 7.421687245368957520e-02 -8.255943655967712402e-02
7.655311375856399536e-02 -3.493800060823559761e-03 3.549991548061370850e-01
3.128990530967712402e-01 -6.060250103473663330e-02 -2.689661681652069092e-01
-4.444918036460876465e-02 9.526651352643966675e-03 6.888336539268493652e-01
8.449246287345886230e-01 -1.004879251122474670e-01 2.567946678027510643e-03
2.742497324943542480e-01 -4.695023596286773682e-02 -3.302502036094665527e-01
4.293068498373031616e-02 -3.936872631311416626e-02 3.253323137760162354e-01
-5.389862135052680969e-02 -7.766094058752059937e-02 -9.384932368993759155e-02
8.693651109933853149e-02 8.336415141820907593e-02 -7.528007030487060547e-02
-3.190049529075622559e-01 2.955178171396255493e-02 -9.890367835760116577e-02
-7.412356734275817871e-01 3.823208063840866089e-02 1.405188143253326416e-01
2.949890494346618652e-01 1.139100193977355957e-01 1.111090183258056641e-02
6.469532251358032227e-01 1.122618615627288818e-01 -1.995688490569591522e-02
6.373389959335327148e-01 1.113004386425018311e-01 2.674093656241893768e-02
-1.266098767518997192e-01 -1.415189541876316071e-02 -9.659624844789505005e-02
2.612017989158630371e-01 -1.744820736348628998e-02 1.309045553207397461e-01
9.545199573040008545e-02 -7.733130455017089844e-02 -9.703576564788818359e-02
-1.068940386176109314e-02 2.221747301518917084e-02 6.478494405746459961e-01
1.773654818534851074e-01 -6.293738633394241333e-02 1.020892560482025146e-01
-5.914180874824523926e-01 1.115751266479492188e-01 -1.133152283728122711e-02
-8.169959783554077148e-01 3.086124658584594727e-01 3.639249596744775772e-03
-4.554796218872070312e-02 1.716312207281589508e-02 -7.196275591850280762e-01
-4.291843175888061523e-01 1.102016568183898926e-01 -1.072719786316156387e-02
5.661660432815551758e-01 1.141297742724418640e-01 -5.343214143067598343e-03
-7.684577107429504395e-01 4.688490554690361023e-02 -1.980404257774353027e-01
9.580910205841064453e-02 -4.070651251822710037e-03 3.364848494529724121e-01
2.582350969314575195e-01 -2.684270776808261871e-02 -3.090164065361022949e-01
-8.151829838752746582e-01 3.935750424861907959e-01 7.512421812862157822e-03
-8.246599435806274414e-01 4.311805069446563721e-01 -4.986112937331199646e-03
2.485659122467041016e-01 -2.522201836109161377e-02 2.943743765354156494e-01
3.864546865224838257e-02 1.106493361294269562e-02 -4.953407347202301025e-01
2.119767963886260986e-01 -1.082810852676630020e-02 -3.225313127040863037e-01
-5.360948443412780762e-01 4.032788332551717758e-03 -8.217486739158630371e-02
2.350235283374786377e-01 -4.774686321616172791e-02 -2.441339045763015747e-01
3.105916082859039307e-01 9.751084446907043457e-02 5.956675857305526733e-02
3.854729533195495605e-01 -3.848969936370849609e-02 -9.612927585840225220e-02
-5.778481960296630859e-01 1.096248105168342590e-01 -1.221053954213857651e-02
7.141635566949844360e-02 -1.096544694155454636e-02 3.117349743843078613e-01
-1.602597981691360474e-01 2.477211877703666687e-02 8.312621116638183594e-01
-3.271358311176300049e-01 1.107235774397850037e-01 2.808693237602710724e-02
8.566579781472682953e-03 4.328643158078193665e-02 9.796884655952453613e-02
-5.892754793167114258e-01 2.098135277628898621e-02 -6.324850767850875854e-02
1.183339357376098633e-01 -3.912149369716644287e-02 3.355234265327453613e-01
-8.779574930667877197e-02 -7.886957377195358276e-02 -9.118479490280151367e-02
6.602209210395812988e-01 9.619232267141342163e-02 -5.921052396297454834e-02
9.229923486709594727e-01 5.638929083943367004e-02 1.946157030761241913e-02
4.986190199851989746e-01 3.081536665558815002e-02 -9.876632690429687500e-02
-7.164857387542724609e-01 3.792991861701011658e-02 -1.573034226894378662e-01
-7.150847911834716797e-01 6.834656000137329102e-03 -4.629995301365852356e-02
-5.562919378280639648e-02 -1.037018373608589172e-01 -8.657167782075703144e-04
3.751445114612579346e-01 -1.315557062625885010e-01 -3.421443998813629150e-01
2.732811495661735535e-02 -8.733012527227401733e-02 -8.882243931293487549e-02
4.207984805107116699e-01 1.098445653915405273e-01 -3.042269125580787659e-02
-8.217481374740600586e-01 6.603101640939712524e-02 -3.428586125373840332e-01
-7.927954792976379395e-01 4.974171519279479980e-02 1.801020801067352295e-01
-8.155674934387207031e-01 3.361723572015762329e-02 2.690575085580348969e-02
-8.045248985290527344e-01 4.345317780971527100e-01 7.292667403817176819e-03
8.528357744216918945e-01 -2.725475467741489410e-02 7.887768745422363281e-02
4.036576151847839355e-01 9.363767504692077637e-02 -6.278153508901596069e-02
-1.639132052659988403e-01 3.301290795207023621e-02 8.014303445816040039e-01
1.638505756855010986e-01 -1.461073872633278370e-03 3.640090823173522949e-01
2.882041335105895996e-01 9.039629250764846802e-02 6.973040848970413208e-02
6.108789518475532532e-02 -1.035370230674743652e-01 1.702131330966949463e-01
6.684892177581787109e-01 -4.552183672785758972e-02 -8.722921460866928101e-02
5.548415705561637878e-02 -6.909050047397613525e-02 -1.550234705209732056e-01
-3.156607970595359802e-02 -3.137514740228652954e-02 -3.460175693035125732e-01
-7.576420158147811890e-02 -4.070651251822710037e-03 5.030312538146972656e-01
6.345096826553344727e-01 -8.867612481117248535e-02 5.234233289957046509e-02
1.002316549420356750e-01 -1.434224545955657959e-01 -1.844156384468078613e-01
9.262266010046005249e-02 -5.406478792428970337e-02 -2.401233911514282227e-01
9.692821651697158813e-03 6.257805507630109787e-03 -4.734202325344085693e-01
3.822865188121795654e-01 -5.749846994876861572e-02 3.242610096931457520e-01
1.192404255270957947e-01 -1.538882702589035034e-01 -1.531555503606796265e-01
-3.508143723011016846e-01 3.655644878745079041e-02 -9.593698382377624512e-02
1.292667239904403687e-01 -1.623955368995666504e-02 -2.107037603855133057e-01
-2.403327971696853638e-01 -1.027953475713729858e-01 -7.558396318927407265e-04
2.112076729536056519e-01 -9.543356299400329590e-02 -3.602466881275177002e-01
-6.344899535179138184e-01 2.331624366343021393e-02 7.321900874376296997e-02
2.587845027446746826e-01 -1.380659341812133789e-01 -2.855576276779174805e-01
-1.289172917604446411e-01 3.960553929209709167e-02 -9.637649357318878174e-02
3.661274164915084839e-02 7.301634177565574646e-03 4.626788496971130371e-01
-7.996699959039688110e-02 3.070548363029956818e-02 -9.879378974437713623e-02
-1.450692713260650635e-01 -3.615481033921241760e-02 9.404074400663375854e-02
-1.320762783288955688e-01 1.138825491070747375e-01 -8.667000569403171539e-03
1.666799187660217285e-01 -1.014137454330921173e-02 -2.355085611343383789e-01
2.594712078571319580e-01 -1.432576328516006470e-01 -3.388480842113494873e-01
8.237457275390625000e-01 -1.450156718492507935e-01 1.880230754613876343e-02
6.268111616373062134e-02 -3.233657032251358032e-02 3.289582431316375732e-01
8.825504779815673828e-02 -1.225650776177644730e-02 2.849249541759490967e-01
-1.395753920078277588e-01 3.098832676187157631e-03 6.132655739784240723e-01
8.046820759773254395e-01 -3.837981820106506348e-02 -8.187270164489746094e-02
1.623672246932983398e-01 -2.807066077366471291e-03 -3.863699734210968018e-01
3.069107234477996826e-01 6.537175178527832031e-02 -8.750391751527786255e-02
6.225330829620361328e-01 5.891646444797515869e-02 -9.069035202264785767e-02
2.363146245479583740e-01 -1.303470730781555176e-01 3.474725782871246338e-01
-7.954875230789184570e-01 5.031857639551162720e-02 -1.962549090385437012e-01
-6.625085473060607910e-01 2.201613038778305054e-01 -9.710833430290222168e-03
1.087400130927562714e-02 -5.379011109471321106e-02 2.195479869842529297e-01
3.014168739318847656e-01 4.007251933217048645e-02 9.890280663967132568e-02
1.635209470987319946e-01 -7.686430960893630981e-02 -9.725552052259445190e-02
-9.686062484979629517e-02 -9.900457412004470825e-02 -2.918657474219799042e-02
4.906011163257062435e-04 2.078906260430812836e-02 6.309558153152465820e-01
2.297769337892532349e-01 -1.200735345482826233e-01 -2.775915265083312988e-01
-5.586471557617187500e-01 1.011093184351921082e-01 7.842053659260272980e-03
4.103530198335647583e-02 -1.145990099757909775e-02 3.442312180995941162e-01
8.332501649856567383e-01 -1.455375999212265015e-01 1.567080803215503693e-02
7.182839512825012207e-02 -4.884563386440277100e-02 2.684158980846405029e-01
-6.123496294021606445e-01 -3.670418635010719299e-02 -4.271910991519689560e-03
-2.008390985429286957e-02 -4.873574897646903992e-02 2.322937697172164917e-01
-7.384337186813354492e-01 4.328643158078193665e-02 1.947157382965087891e-01
1.519838273525238037e-01 -1.706363633275032043e-02 -1.828773617744445801e-01
2.907038331031799316e-01 -7.628747075796127319e-02 -2.646259963512420654e-01
4.272812306880950928e-01 -3.266619890928268433e-02 9.593611955642700195e-02
3.272929489612579346e-01 -3.892921283841133118e-02 3.250850737094879150e-01
6.303821504116058350e-02 -9.460949152708053589e-02 1.444194465875625610e-01
3.773695230484008789e-01 1.050923690199851990e-01 4.531018808484077454e-02
3.205283731222152710e-02 -4.401101917028427124e-02 2.814912796020507812e-01
-2.805000543594360352e-02 -3.392979502677917480e-02 3.280792236328125000e-01
-7.362911701202392578e-01 9.278612583875656128e-02 -2.339226775802671909e-04
8.107802867889404297e-01 9.251143038272857666e-02 -4.998083785176277161e-02
9.454073309898376465e-01 1.395735424011945724e-03 -4.698668047785758972e-02
5.924744904041290283e-02 -7.620505243539810181e-02 -1.106605380773544312e-01
1.076412387192249298e-02 -1.533114016056060791e-01 -1.849100887775421143e-01
-8.232864141464233398e-01 7.276099920272827148e-02 -3.676908612251281738e-01
-8.151829838752746582e-01 3.935750424861907959e-01 7.512421812862157822e-03
-5.729037523269653320e-01 3.155703097581863403e-02 5.025466531515121460e-02
2.594712078571319580e-01 -1.432576328516006470e-01 -3.388480842113494873e-01
-1.325981914997100830e-01 1.136353313922882080e-01 1.459950394928455353e-02
2.612017989158630371e-01 -1.744820736348628998e-02 1.309045553207397461e-01
1.312170326709747314e-01 -6.779944896697998047e-02 1.759267449378967285e-01
2.252444773912429810e-01 -2.324423380196094513e-02 -3.309369087219238281e-01
3.038341701030731201e-01 -4.282985255122184753e-02 -2.984956800937652588e-01
1.311071515083312988e-01 -4.537628963589668274e-03 -3.108019232749938965e-01
3.077347874641418457e-01 1.005324721336364746e-01 -5.162899568676948547e-02
-2.194561362266540527e-01 9.877443313598632812e-02 5.739668384194374084e-02
-8.785069733858108521e-02 3.593286499381065369e-03 -6.546902060508728027e-01
7.569129467010498047e-01 9.646701067686080933e-02 -5.753489956259727478e-02
3.459720611572265625e-01 -9.504900127649307251e-02 -3.211029171943664551e-01
-7.469766736030578613e-01 4.356111958622932434e-02 -1.146161183714866638e-01
-4.670166224241256714e-02 3.262833505868911743e-02 -9.829934686422348022e-02
-1.341090053319931030e-01 1.026832684874534607e-02 -7.014978528022766113e-01
1.343760043382644653e-01 -7.106829434633255005e-02 -1.559024900197982788e-01
-5.953461527824401855e-01 1.126738935708999634e-01 1.374795474112033844e-02
-4.860458076000213623e-01 1.448129862546920776e-01 -6.908964831382036209e-03
-5.553508400917053223e-01 -1.365744229406118393e-02 -6.973126530647277832e-02
-7.125301957130432129e-01 3.637159168720245361e-01 -3.090730868279933929e-03
-7.130795717239379883e-01 2.895762324333190918e-01 -8.254961110651493073e-03
-5.593888163566589355e-01 8.089191466569900513e-02 6.635167449712753296e-02
7.603120058774948120e-02 7.960902526974678040e-03 4.616349935531616211e-01
-1.039202362298965454e-01 2.545885369181632996e-02 8.057979941368103027e-01
2.326337248086929321e-01 -1.428181231021881104e-01 -3.070660829544067383e-01
8.417381644248962402e-01 -1.705621182918548584e-01 -1.440808456391096115e-02
1.955501437187194824e-01 -9.158787876367568970e-02 2.823153436183929443e-01
6.667860746383666992e-01 1.136353313922882080e-01 -1.190837752074003220e-02
3.345173895359039307e-01 -8.024303615093231201e-02 -2.606429755687713623e-01
3.392421007156372070e-01 -1.369396895170211792e-01 -3.282174766063690186e-01
2.478242516517639160e-01 1.033343374729156494e-01 4.940311610698699951e-02
7.097684592008590698e-02 -2.779600443318486214e-03 3.645310103893280029e-01
-6.315781474113464355e-01 1.926370561122894287e-01 1.336338464170694351e-02
3.285839855670928955e-01 -4.011037945747375488e-02 3.009944856166839600e-01
-2.805000543594360352e-02 -3.392979502677917480e-02 3.280792236328125000e-01
1.914847046136856079e-01 -5.623486265540122986e-02 2.297116369009017944e-01
3.859053179621696472e-02 -5.938573274761438370e-03 3.790622651576995850e-01
9.545199573040008545e-02 -7.733130455017089844e-02 -9.703576564788818359e-02
3.707972168922424316e-02 1.518532820045948029e-02 5.872521400451660156e-01
5.365266799926757812e-01 8.943486213684082031e-02 -6.835780292749404907e-02
2.377979308366775513e-01 7.767800241708755493e-02 8.247616142034530640e-02
-7.065490633249282837e-02 -1.516825892031192780e-02 4.847641587257385254e-01
1.521415170282125473e-02 -5.774568021297454834e-02 1.996052861213684082e-01
1.285525113344192505e-01 -3.752828016877174377e-02 8.384963124990463257e-02
-1.500208862125873566e-02 -2.371121011674404144e-02 4.329845309257507324e-01
-4.079576209187507629e-02 -1.032073944807052612e-01 9.792374446988105774e-03
-7.171725034713745117e-01 5.185685306787490845e-02 2.733054161071777344e-01
2.439510673284530640e-01 -7.507881522178649902e-02 3.495877087116241455e-01
2.046425044536590576e-01 -1.357585191726684570e-01 -3.023413717746734619e-01
9.564428776502609253e-02 -1.577339470386505127e-01 -1.827400177717208862e-01
-4.521761238574981689e-01 4.265464097261428833e-02 -8.942675590515136719e-02
1.773654818534851074e-01 -6.293738633394241333e-02 1.020892560482025146e-01
7.024138569831848145e-01 -1.038941219449043274e-01 1.167011912912130356e-03
2.955109775066375732e-01 -1.997538655996322632e-02 -1.277189850807189941e-01
-7.418949007987976074e-01 4.842318966984748840e-02 2.415783703327178955e-01
3.529218137264251709e-01 -6.079477816820144653e-02 -3.005009293556213379e-01
6.163799166679382324e-01 1.075646057724952698e-01 3.907465562224388123e-02
-2.589295208454132080e-01 9.306082129478454590e-02 -6.355067342519760132e-02
-6.475378274917602539e-01 1.157779246568679810e-01 -7.595697417855262756e-03
4.037603735923767090e-02 -1.771273165941238403e-01 -1.920795738697052002e-01
7.572150826454162598e-01 -6.323955208063125610e-02 7.780638337135314941e-02
4.515569657087326050e-02 -3.645697608590126038e-02 3.495053052902221680e-01
3.047406375408172607e-01 -4.824130609631538391e-02 3.350014984607696533e-01
-5.565666034817695618e-02 -6.103387568145990372e-03 -4.683933556079864502e-01
-1.506730020046234131e-01 -4.244526848196983337e-02 -8.860268443822860718e-02
2.723818123340606689e-01 8.984690904617309570e-02 7.047207653522491455e-02
-2.605227828025817871e-01 -1.015866920351982117e-01 6.935566198080778122e-03
-3.144724965095520020e-01 -9.304374456405639648e-02 3.649254143238067627e-02
-1.427343487739562988e-01 3.144715726375579834e-02 -8.607648611068725586e-01
6.667860746383666992e-01 1.136353313922882080e-01 -1.190837752074003220e-02
5.929526872932910919e-03 1.052846536040306091e-01 4.478827491402626038e-02
-1.464976668357849121e-01 -6.790933012962341309e-02 -7.953781634569168091e-02
2.623555362224578857e-01 -7.398004829883575439e-02 1.279928088188171387e-01
6.944202780723571777e-01 3.485335409641265869e-02 1.003861576318740845e-01
2.380726337432861328e-01 -7.054638117551803589e-02 -3.145377635955810547e-01
3.481146693229675293e-01 -9.021440893411636353e-02 3.700798153877258301e-01
-6.572070121765136719e-01 3.702342882752418518e-02 6.008867919445037842e-02
-7.420871257781982422e-01 7.144246995449066162e-02 -1.435314677655696869e-02
-6.417143344879150391e-01 2.818024456501007080e-01 -6.881495006382465363e-03
2.343917340040206909e-01 -5.906421691179275513e-02 2.019126862287521362e-01
9.009548276662826538e-02 7.136819418519735336e-03 -5.062735080718994141e-01
3.979714810848236084e-01 -1.000484153628349304e-01 2.698816172778606415e-02
-3.482871949672698975e-01 -8.947273343801498413e-02 2.289523184299468994e-02
-6.324022412300109863e-01 7.237643003463745117e-02 5.942941457033157349e-02
1.509125232696533203e-01 -1.076503191143274307e-03 3.570318818092346191e-01
-5.795787572860717773e-01 3.194160386919975281e-02 -8.928941935300827026e-02
-1.309500187635421753e-01 2.084400504827499390e-02 -6.961687803268432617e-01
3.045961819589138031e-02 -5.169431678950786591e-03 3.925222158432006836e-01
4.006673581898212433e-03 -3.137514740228652954e-02 2.723165452480316162e-01
-3.686419725418090820e-01 5.600472167134284973e-02 9.214536100625991821e-02
-7.553274035453796387e-01 4.595094919204711914e-02 1.390354633331298828e-01
5.919322371482849121e-01 -1.027403995394706726e-01 -1.281486544758081436e-02
2.490329146385192871e-01 -9.449961036443710327e-02 2.885234057903289795e-01
1.240750178694725037e-01 -5.958612635731697083e-02 -2.155933082103729248e-01
-1.697987876832485199e-02 -3.708876669406890869e-02 3.019284605979919434e-01
-5.020603537559509277e-01 7.089308649301528931e-02 -7.788965106010437012e-02
-3.390096873044967651e-02 5.167211056686937809e-04 6.295823454856872559e-01
-4.535567015409469604e-02 3.758101025596261024e-03 6.544695496559143066e-01
2.685910463333129883e-01 -9.370300173759460449e-02 -7.868626713752746582e-02
1.403093785047531128e-01 -4.043185152113437653e-03 3.162124752998352051e-01
-4.982912796549499035e-04 -1.461073872633278370e-03 6.038985252380371094e-01
