1.067599803209304810e-01 -1.532349586486816406e-01 3.055537641048431396e-01
3.159685730934143066e-01 -4.793572239577770233e-03 9.125681966543197632e-02
3.665856719017028809e-01 -4.553808830678462982e-03 -4.727427661418914795e-02
-9.725369513034820557e-02 9.991960600018501282e-03 6.532934904098510742e-01
-8.907502889633178711e-02 1.065797638148069382e-02 -5.740387439727783203e-01
3.041135072708129883e-01 -1.676741689443588257e-01 3.056336939334869385e-01
7.709633111953735352e-01 -1.881341636180877686e-01 -1.639782451093196869e-02
-5.374960228800773621e-02 -4.384867846965789795e-02 -2.155362665653228760e-01
-1.074037626385688782e-01 6.422115955501794815e-03 6.071785688400268555e-01
6.453464180231094360e-02 2.026422647759318352e-03 4.760535955429077148e-01
1.583628207445144653e-01 -1.370374709367752075e-01 -3.444234728813171387e-01
2.128428518772125244e-01 -5.924695357680320740e-02 -1.032728105783462524e-01
1.067599803209304810e-01 4.678262025117874146e-02 8.952517807483673096e-02
7.599074244499206543e-01 -1.165508627891540527e-01 1.398092601448297501e-03
-8.270195126533508301e-01 1.419961154460906982e-01 1.398092601448297501e-03
-4.708945378661155701e-02 -2.136401645839214325e-02 -3.522291779518127441e-01
-1.547973752021789551e-01 3.761826083064079285e-02 -7.945429682731628418e-01
2.877029180526733398e-01 -3.836072608828544617e-02 -1.440329104661941528e-01
-2.813135683536529541e-01 -8.631379157304763794e-02 1.538440492004156113e-02
-2.950334846973419189e-01 1.302898395806550980e-02 7.697746157646179199e-02
1.322017610073089600e-01 -4.749845340847969055e-02 2.403908818960189819e-01
-9.377911090850830078e-01 9.420287609100341797e-02 -3.175431191921234131e-01
-1.329787224531173706e-01 2.248639613389968872e-02 -7.626275420188903809e-01
1.859091818332672119e-01 -3.287276253104209900e-02 2.947909832000732422e-01
-3.683484196662902832e-01 -7.858803123235702515e-02 2.438892796635627747e-02
-4.179265499114990234e-01 9.068632125854492188e-02 5.577154830098152161e-02
2.554944157600402832e-01 -1.218789964914321899e-01 -2.415374815464019775e-01
2.577855288982391357e-01 -4.054525122046470642e-02 1.772793084383010864e-01
1.736545264720916748e-01 -5.843582912348210812e-04 3.509844839572906494e-02
7.599074244499206543e-01 -1.165508627891540527e-01 1.398092601448297501e-03
7.928352355957031250e-01 2.754811570048332214e-02 3.072938881814479828e-02
3.334181606769561768e-01 -5.605008453130722046e-02 9.240236878395080566e-02
1.534875929355621338e-01 -9.867502748966217041e-02 -4.162647202610969543e-02
-3.850520849227905273e-01 7.685985416173934937e-02 -7.543338090181350708e-02
1.955264508724212646e-01 -7.040935754776000977e-02 -1.032728105783462524e-01
-7.492556571960449219e-01 1.034471690654754639e-01 -9.391348809003829956e-03
3.398651480674743652e-01 -1.614246517419815063e-02 6.616137921810150146e-02
3.634889051318168640e-02 -1.036301776766777039e-01 -3.194612264633178711e-01
-3.444784581661224365e-01 8.810219168663024902e-02 -6.341847032308578491e-02
1.639306992292404175e-01 2.008874155580997467e-02 -5.009817704558372498e-02
4.890525043010711670e-01 -9.295833297073841095e-03 -2.817296609282493591e-02
5.075410604476928711e-01 -6.382912397384643555e-02 -6.642886251211166382e-02
7.463143020868301392e-02 -1.494786441326141357e-01 2.996395528316497803e-01
-1.416902095079421997e-01 -1.143806381151080132e-03 -4.239904507994651794e-02
2.629271745681762695e-01 -3.660244122147560120e-02 9.908916056156158447e-02
3.874005051329731941e-03 -9.867502748966217041e-02 8.265191316604614258e-02
-5.649560093879699707e-01 -1.219966169446706772e-02 -5.539965629577636719e-02
4.317752122879028320e-01 -7.537548430263996124e-03 6.911848485469818115e-02
-8.266999125480651855e-01 2.222908437252044678e-01 2.916606608778238297e-03
2.244847714900970459e-01 -6.548084318637847900e-02 -3.290784955024719238e-01
1.776772588491439819e-01 -6.081873923540115356e-02 1.450441777706146240e-01
-2.977306582033634186e-02 2.131421677768230438e-02 9.618533402681350708e-02
3.224422335624694824e-01 -1.680848188698291779e-02 -7.498048990964889526e-02
6.042997241020202637e-01 1.016356125473976135e-01 3.493860363960266113e-02
-1.700890809297561646e-01 3.263646364212036133e-02 -8.441210985183715820e-01
2.610889673233032227e-01 -5.495780706405639648e-02 -1.096399053931236267e-01
1.449626088142395020e-01 -4.953414667397737503e-03 -2.774671837687492371e-02
7.793550491333007812e-01 -1.840691454708576202e-02 8.323800563812255859e-02
1.399541646242141724e-01 -4.323594644665718079e-02 2.988403439521789551e-01
5.981457829475402832e-01 7.390274852514266968e-02 7.239528000354766846e-02
-9.061687588691711426e-01 8.748944848775863647e-02 -3.003066480159759521e-01
-3.065220825374126434e-02 -1.808723062276840210e-02 -4.284212887287139893e-01
2.510188221931457520e-01 -1.605877727270126343e-01 -3.292649686336517334e-01
-1.418831944465637207e-02 1.715827733278274536e-02 -6.215389370918273926e-01
-4.556496143341064453e-01 1.814397796988487244e-02 9.234908968210220337e-02
3.238009214401245117e-01 7.061494980007410049e-03 -9.099148958921432495e-02
-1.253660302609205246e-02 1.228304672986268997e-02 3.733625635504722595e-02
2.586380243301391602e-01 1.745132356882095337e-02 -5.526645109057426453e-02
1.935283988714218140e-01 -6.100523844361305237e-02 9.908916056156158447e-02
8.095122575759887695e-01 -7.597723603248596191e-02 2.747923508286476135e-02
-1.762963384389877319e-01 -1.406449545174837112e-02 3.608414903283119202e-02
1.137398183345794678e-01 -1.402876377105712891e-01 3.323542177677154541e-01
2.345549166202545166e-01 -1.560322344303131104e-01 -3.360316753387451172e-01
6.042997241020202637e-01 1.016356125473976135e-01 3.493860363960266113e-02
2.179045528173446655e-01 6.102431099861860275e-03 -3.246210515499114990e-02
2.070884704589843750e-01 -9.867502748966217041e-02 -7.812408357858657837e-02
-5.649358779191970825e-02 -2.913107746280729771e-04 4.768261313438415527e-01
-2.833915352821350098e-01 6.820166110992431641e-02 7.852261513471603394e-02
8.549078106880187988e-01 -6.225733831524848938e-02 3.733625635504722595e-02
-8.770239353179931641e-01 7.520813494920730591e-02 1.859641373157501221e-01
-2.795819342136383057e-01 -4.766935016959905624e-03 3.730961680412292480e-02
-4.201909899711608887e-01 -8.150290697813034058e-03 -5.172325298190116882e-02
-7.916675209999084473e-01 7.877797633409500122e-02 -1.913999021053314209e-01
-7.190985083580017090e-01 3.479435294866561890e-02 5.673061311244964600e-02
-7.598851919174194336e-01 2.948864996433258057e-01 3.449418582022190094e-03
-4.324190318584442139e-01 -6.931709498167037964e-02 -3.158296272158622742e-02
-8.545190840959548950e-02 -4.580445587635040283e-03 8.747385442256927490e-02
1.663484983146190643e-02 -1.465059071779251099e-02 3.288110196590423584e-01
8.871429562568664551e-01 -1.486371736973524094e-02 4.959093406796455383e-02
-3.802834153175354004e-01 -4.926777444779872894e-03 8.286503702402114868e-02
-1.272243708372116089e-01 -7.677645236253738403e-02 -7.567314803600311279e-02
-2.521421313285827637e-01 1.574632339179515839e-02 -1.018342077732086182e-01
-8.463872671127319336e-01 7.496836781501770020e-02 6.839919090270996094e-02
-8.468134403228759766e-01 4.106664955615997314e-01 1.584577024914324284e-03
7.471135258674621582e-02 9.032896719872951508e-03 5.025694519281387329e-02
-6.009656935930252075e-03 -5.101500451564788818e-02 -1.937975585460662842e-01
-2.425515055656433105e-01 -1.036145538091659546e-02 3.853508457541465759e-02
4.073990881443023682e-01 -1.383579801768064499e-03 8.166620880365371704e-02
4.462410509586334229e-01 1.094945818185806274e-01 5.367540754377841949e-03
2.699869275093078613e-01 -9.867502748966217041e-02 -8.355876058340072632e-02
-8.570967912673950195e-01 6.665650755167007446e-02 1.091859415173530579e-01
-1.318598240613937378e-01 1.080293506383895874e-01 -1.511907670646905899e-02
-1.400833367370069027e-03 -1.591491848230361938e-01 1.880421042442321777e-01
-8.918094635009765625e-01 3.527387976646423340e-02 6.113478448241949081e-03
-4.363352060317993164e-01 5.770526826381683350e-02 8.425034582614898682e-02
-2.450290620326995850e-01 -1.410216907970607281e-03 -7.743142545223236084e-02
3.174006938934326172e-02 -3.729509189724922180e-02 -2.852014303207397461e-01
4.863618314266204834e-01 -7.442006026394665241e-04 -1.834258809685707092e-02
-8.664742708206176758e-01 8.988710492849349976e-02 2.937519848346710205e-01
4.660616517066955566e-01 -5.932686477899551392e-02 -7.093112170696258545e-02
3.499886095523834229e-01 -8.426246047019958496e-02 7.924191653728485107e-02
8.595965504646301270e-01 -5.725989118218421936e-03 5.960779264569282532e-02
1.142992824316024780e-01 -6.721249222755432129e-02 2.865324020385742188e-01
7.103025913238525391e-01 -1.150699891149997711e-02 8.973830938339233398e-02
-1.475244909524917603e-01 8.589101582765579224e-02 6.077998504042625427e-02
5.170783996582031250e-01 8.658366650342941284e-02 6.008732318878173828e-02
-4.053586721420288086e-02 2.064820006489753723e-02 6.273188591003417969e-01
2.643124759197235107e-01 -1.003267392516136169e-01 -2.715614438056945801e-01
8.291665464639663696e-02 -2.946276031434535980e-02 -1.681692898273468018e-01
2.777926027774810791e-01 -1.718145050108432770e-02 9.908916056156158447e-02
-6.691207289695739746e-01 2.031362652778625488e-01 -6.860491819679737091e-03
1.123545169830322266e-01 -2.653229422867298126e-02 3.604333996772766113e-01
-5.262472033500671387e-01 3.194380924105644226e-02 8.307816088199615479e-02
-5.065598487854003906e-01 -5.370570719242095947e-02 -3.477983549237251282e-02
2.953221201896667480e-01 -9.867502748966217041e-02 -1.737023412715643644e-04
1.161108389496803284e-01 -7.430990226566791534e-03 3.997549116611480713e-01
-1.774685233831405640e-01 3.229014202952384949e-02 -8.370613455772399902e-01
1.840709894895553589e-01 -1.649301946163177490e-01 -3.179427385330200195e-01
-9.006274938583374023e-01 6.878775358200073242e-02 -1.006353944540023804e-01
1.077723354101181030e-01 -6.898179184645414352e-03 3.783358931541442871e-01
-4.331298638135194778e-03 4.450714215636253357e-03 -4.826615154743194580e-01
5.819749236106872559e-01 -8.045286685228347778e-02 -4.186623543500900269e-02
-1.610312759876251221e-01 -6.125604733824729919e-03 6.144248247146606445e-01
-1.613308116793632507e-02 -2.306901849806308746e-02 2.986272275447845459e-01
-8.710297942161560059e-01 3.629532456398010254e-01 -5.874789785593748093e-03
-1.609513610601425171e-01 1.649226061999797821e-02 6.815325021743774414e-01
3.003838360309600830e-01 1.561312749981880188e-02 8.052065968513488770e-02
-7.730456590652465820e-01 1.880044043064117432e-01 4.301917739212512970e-03
-8.012048602104187012e-01 7.147844880819320679e-02 6.038037315011024475e-02
-2.466457197442650795e-03 -5.735545977950096130e-02 -1.570601612329483032e-01
1.029503867030143738e-01 -6.392005365341901779e-03 -3.770048916339874268e-01
-2.451090067625045776e-01 1.573532703332602978e-03 -4.884607344865798950e-02
-2.910705283284187317e-02 -3.931977972388267517e-02 2.126313745975494385e-01
2.987321019172668457e-01 2.365858666598796844e-02 9.360119700431823730e-02
1.961924731731414795e-01 -2.395917661488056183e-03 9.908916056156158447e-02
-1.329787224531173706e-01 2.248639613389968872e-02 -7.626275420188903809e-01
9.388607926666736603e-03 7.464868575334548950e-02 7.204894721508026123e-02
-6.925443559885025024e-02 -6.185772269964218140e-02 -2.398324906826019287e-01
4.611864387989044189e-01 2.557670511305332184e-02 -3.600529953837394714e-02
2.804833054542541504e-01 -1.542316470295190811e-02 -2.700078114867210388e-02
3.922938704490661621e-01 -5.959327518939971924e-02 -7.447432726621627808e-02
-1.120125800371170044e-01 2.301920764148235321e-02 -7.705845683813095093e-02
1.975777745246887207e-01 -9.867502748966217041e-02 -7.538010179996490479e-02
4.667543470859527588e-01 -8.612731844186782837e-02 1.613034121692180634e-02
-4.185925722122192383e-01 6.844142824411392212e-02 7.950831949710845947e-02
2.568531036376953125e-01 -1.531660649925470352e-02 5.228162929415702820e-02
1.090712100267410278e-02 -1.508639454841613770e-01 1.745086759328842163e-01
3.050725758075714111e-01 2.014202624559402466e-02 3.837523981928825378e-02
-2.460946887731552124e-01 1.809070445597171783e-02 6.975785642862319946e-02
7.026236504316329956e-02 -1.574285887181758881e-02 5.228162929415702820e-02
-7.926265001296997070e-01 7.696641236543655396e-02 -1.586586087942123413e-01
1.135533452033996582e-01 -6.761208921670913696e-02 -1.100927963852882385e-01
1.573504656553268433e-01 -1.497716903686523438e-01 3.316082656383514404e-01
2.888751029968261719e-01 -4.648610576987266541e-02 -1.032728105783462524e-01
1.736811697483062744e-01 -1.090532285161316395e-03 8.526269346475601196e-02
-3.387240469455718994e-01 8.482539653778076172e-02 6.272473931312561035e-02
-4.606047868728637695e-01 -1.680848188698291779e-02 1.855463534593582153e-02
-6.925443559885025024e-02 -6.185772269964218140e-02 -2.398324906826019287e-01
-8.375425934791564941e-01 1.331780701875686646e-01 4.656718519981950521e-04
7.651556134223937988e-01 -1.811010390520095825e-01 -2.050047740340232849e-02
-4.842883050441741943e-01 3.620630875229835510e-02 -8.997914940118789673e-02
2.720382213592529297e-01 -9.867502748966217041e-02 4.293077811598777771e-02
2.994780540466308594e-01 7.752586901187896729e-02 -7.338205724954605103e-02
-2.004925161600112915e-02 -8.176927454769611359e-03 -5.281103849411010742e-01
2.094062119722366333e-01 1.809070445597171783e-02 -6.046137213706970215e-02
7.586553096771240234e-01 -8.522153645753860474e-02 -1.242837589234113693e-02
-2.032832652330398560e-01 3.279630467295646667e-02 9.320158511400222778e-02
5.944426655769348145e-01 1.021950617432594299e-01 -3.712420910596847534e-02
2.449447512626647949e-01 -1.063741520047187805e-01 3.369896709918975830e-01
-3.842528462409973145e-01 6.395478732883930206e-03 -1.290790736675262451e-02
-4.901225566864013672e-01 3.961630165576934814e-02 8.435691148042678833e-02
-2.484124302864074707e-01 2.360530383884906769e-02 -5.806371569633483887e-02
9.015639312565326691e-03 -4.408844932913780212e-02 2.373272031545639038e-01
3.056853115558624268e-01 -1.410216907970607281e-03 8.987151086330413818e-02
7.741068601608276367e-01 7.992351800203323364e-02 3.962734714150428772e-02
2.209682315587997437e-01 -8.751261979341506958e-02 9.178962558507919312e-02
-5.610398054122924805e-01 -1.278574671596288681e-02 6.104638800024986267e-02
2.585847377777099609e-01 -2.236075466498732567e-03 6.115294620394706726e-02
-4.145165681838989258e-01 3.544934326782822609e-03 9.426720440387725830e-02
-6.413943320512771606e-02 -6.691944599151611328e-02 -2.452405393123626709e-01
2.179045528173446655e-01 6.102431099861860275e-03 -3.246210515499114990e-02
2.712922990322113037e-01 -1.522226333618164062e-01 3.360306024551391602e-01
-1.933196783065795898e-01 7.381179369986057281e-03 8.363761007785797119e-02
-2.795819342136383057e-01 -4.766935016959905624e-03 3.730961680412292480e-02
-4.179265499114990234e-01 9.068632125854492188e-02 5.577154830098152161e-02
5.021330118179321289e-01 8.887476474046707153e-02 -6.197988241910934448e-02
3.986544907093048096e-02 -1.197090488858520985e-03 8.065386861562728882e-02
-3.084336817264556885e-01 -3.857384994626045227e-02 8.606190234422683716e-02
7.810068130493164062e-01 1.729148253798484802e-02 8.345112204551696777e-02
-1.324192732572555542e-01 2.781451679766178131e-02 7.109170556068420410e-01
-3.205817937850952148e-01 -4.174407199025154114e-02 8.281175047159194946e-02
6.644627079367637634e-03 -5.397211760282516479e-02 1.738160401582717896e-01
1.050816327333450317e-01 8.386632800102233887e-02 -6.698831170797348022e-02
-3.161594569683074951e-01 -1.516775111667811871e-03 -9.991609305143356323e-02
-4.901225566864013672e-01 3.961630165576934814e-02 8.435691148042678833e-02
7.182149291038513184e-01 -4.403517767786979675e-02 -8.278618752956390381e-02
4.354249835014343262e-01 6.513799726963043213e-02 -8.576993644237518311e-02
-7.967089861631393433e-02 -6.764973979443311691e-03 -4.547688066959381104e-01
9.916741400957107544e-02 -7.058021612465381622e-03 -2.772007696330547333e-02
1.492985058575868607e-02 6.448762957006692886e-03 -4.978200197219848633e-01
-7.356156110763549805e-01 2.677929997444152832e-01 3.449418582022190094e-03
-7.288489341735839844e-01 9.255116432905197144e-02 3.283399716019630432e-02
4.624651968479156494e-01 -4.633729811757802963e-03 4.849866777658462524e-02
-2.733480334281921387e-01 -3.488186746835708618e-03 6.093982607126235962e-02
-5.899182558059692383e-01 1.023815497756004333e-01 -3.512616455554962158e-02
2.138551771640777588e-01 -6.590709090232849121e-02 9.908916056156158447e-02
2.889017462730407715e-01 -7.302013039588928223e-02 9.908916056156158447e-02
-2.748132646083831787e-01 1.031541228294372559e-01 2.958384342491626740e-02
1.961924731731414795e-01 -2.395917661488056183e-03 9.908916056156158447e-02
-1.701222173869609833e-02 -1.680848188698291779e-02 -9.013899415731430054e-02
6.042997241020202637e-01 1.016356125473976135e-01 3.493860363960266113e-02
2.724111974239349365e-01 -1.679405719041824341e-01 -2.817115187644958496e-01
-3.523907065391540527e-01 -1.680848188698291779e-02 3.123556077480316162e-02
5.162525177001953125e-01 -6.942366808652877808e-02 5.667732656002044678e-02
8.648648858070373535e-02 -1.680848188698291779e-02 -2.356414310634136200e-02
-1.055122762918472290e-01 -1.410216907970607281e-03 3.893469274044036865e-02
2.613020837306976318e-01 -1.410216907970607281e-03 -7.276932150125503540e-02
7.793550491333007812e-01 -1.840691454708576202e-02 8.323800563812255859e-02
-8.566503971815109253e-02 -4.511530860327184200e-04 4.977741837501525879e-02
2.116173654794692993e-01 1.809070445597171783e-02 -8.297267556190490723e-02
-1.226155459880828857e-01 1.968913711607456207e-02 -7.413949370384216309e-01
1.295110583305358887e-01 -7.866793870925903320e-02 9.831658005714416504e-02
1.362777650356292725e-01 7.594306021928787231e-03 -4.658161848783493042e-02
2.581851184368133545e-01 -6.588045507669448853e-02 -2.660734951496124268e-01
2.947893142700195312e-01 -6.047241762280464172e-02 -2.770760655403137207e-01
-1.376206986606121063e-02 -2.120417542755603790e-02 3.077116608619689941e-01
4.462410509586334229e-01 1.094945818185806274e-01 5.367540754377841949e-03
-2.016848325729370117e-01 -1.680848188698291779e-02 5.001718178391456604e-02
8.909726887941360474e-02 -1.680848188698291779e-02 2.031291648745536804e-02
5.170251131057739258e-01 7.022634148597717285e-02 -8.065494149923324585e-02
-7.855934500694274902e-01 6.708275526762008667e-02 -1.028465554118156433e-01
3.077899217605590820e-01 9.592354297637939453e-03 -5.313520506024360657e-02
-1.409176290035247803e-01 -1.680848188698291779e-02 -7.138401269912719727e-02
2.510188221931457520e-01 -1.605877727270126343e-01 -3.292649686336517334e-01
-8.647159934043884277e-01 6.924064457416534424e-02 -1.370264440774917603e-01
2.573859095573425293e-01 8.633291348814964294e-03 -3.392733633518218994e-02
5.083669424057006836e-01 -8.314356207847595215e-02 -3.166288509964942932e-02
-2.484124302864074707e-01 2.360530383884906769e-02 -5.806371569633483887e-02
3.245735168457031250e-01 6.644337624311447144e-02 8.028090000152587891e-02
-8.624248504638671875e-01 8.722304552793502808e-02 -2.468922585248947144e-01
-7.288489341735839844e-01 9.255116432905197144e-02 3.283399716019630432e-02
-3.912391513586044312e-02 -2.498714625835418701e-02 -3.114956915378570557e-01
-4.354625567793846130e-02 -6.909165531396865845e-04 4.634077847003936768e-02
-1.019957214593887329e-01 2.626935765147209167e-02 7.778915762901306152e-01
3.928799629211425781e-01 1.188344135880470276e-02 9.866290539503097534e-02
-8.956190943717956543e-01 7.579422742128372192e-02 -1.317516118288040161e-01
1.623855531215667725e-01 1.931616850197315216e-02 5.665069073438644409e-02
4.646763801574707031e-01 8.926338516175746918e-03 -7.021182775497436523e-02
5.838065966963768005e-02 1.013692021369934082e-01 -4.053420573472976685e-02
2.303723394870758057e-01 5.969225894659757614e-03 -4.903255030512809753e-02
-2.500439994037151337e-02 -3.194033727049827576e-02 -2.576017677783966064e-01
-1.234680414199829102e-01 2.525701932609081268e-02 6.885655522346496582e-01
-8.667140007019042969e-01 2.781451679766178131e-02 3.449418582022190094e-03
1.470139324665069580e-01 -1.680848188698291779e-02 -4.247896745800971985e-02
3.118659257888793945e-01 -6.276350468397140503e-02 -1.032728105783462524e-01
2.238921634852886200e-02 1.082949966075830162e-04 -4.381184577941894531e-01
-5.252082347869873047e-01 -1.680848188698291779e-02 1.962026022374629974e-02
1.639839708805084229e-01 -4.470118135213851929e-02 2.278431504964828491e-01
4.531409740447998047e-01 1.082957535982131958e-01 -1.418665610253810883e-02
1.737877279520034790e-01 -1.641842573881149292e-01 -2.796601951122283936e-01
-3.731703460216522217e-01 7.194700185209512711e-03 3.968062996864318848e-02
2.188103199005126953e-01 -1.406449545174837112e-02 7.695082575082778931e-02
-2.679666280746459961e-01 -8.234435319900512695e-02 3.046298213303089142e-02
1.169100478291511536e-01 -1.672856137156486511e-02 -4.146214723587036133e-01
-8.838706016540527344e-01 9.007359296083450317e-02 -3.073131144046783447e-01
-2.508367300033569336e-01 6.988001614809036255e-02 8.652459979057312012e-01
-1.537051051855087280e-01 9.885392151772975922e-03 3.288727626204490662e-02
2.430266290903091431e-01 -1.435754355043172836e-02 9.908916056156158447e-02
1.338001936674118042e-01 -5.586358532309532166e-02 9.908916056156158447e-02
-2.608535885810852051e-01 -4.829766601324081421e-02 -8.196032792329788208e-02
-3.700800538063049316e-01 -8.383621275424957275e-02 3.875668393447995186e-03
1.323083192110061646e-01 4.717124626040458679e-03 9.924900531768798828e-02
-1.450800709426403046e-02 -2.770448476076126099e-02 -2.731066048145294189e-01
1.476533114910125732e-01 -5.946006998419761658e-02 1.646516770124435425e-01
6.895697861909866333e-02 -1.680848188698291779e-02 -7.775111496448516846e-02
6.015823483467102051e-01 -7.824169099330902100e-02 4.578132554888725281e-02
7.958658039569854736e-02 1.063132937997579575e-02 -3.779022023081779480e-02
1.595083773136138916e-01 -8.642036467790603638e-02 -2.529663145542144775e-01
3.023818731307983398e-01 9.592354297637939453e-03 3.624399378895759583e-02
-5.793685913085937500e-01 -1.680848188698291779e-02 6.006916519254446030e-03
1.433375179767608643e-01 -1.195988897234201431e-02 -3.279329538345336914e-01
3.676513135433197021e-01 -2.182791242375969887e-03 6.426990032196044922e-02
5.275481939315795898e-01 1.973138423636555672e-03 6.011396646499633789e-02
2.744625508785247803e-01 -4.713651258498430252e-03 9.485329687595367432e-02
1.673140674829483032e-01 4.424076993018388748e-03 -5.052442476153373718e-02
-5.398339629173278809e-01 1.896983571350574493e-02 8.057393878698348999e-02
-9.725369513034820557e-02 9.991960600018501282e-03 6.532934904098510742e-01
7.741601467132568359e-01 -7.962699234485626221e-02 -3.062390163540840149e-02
2.537361681461334229e-01 -9.867502748966217041e-02 -7.569979131221771240e-02
4.462410509586334229e-01 1.094945818185806274e-01 5.367540754377841949e-03
-3.174915015697479248e-01 -4.553808830678462982e-03 5.609123781323432922e-02
-6.505256295204162598e-01 3.747054724954068661e-04 -6.086097657680511475e-02
3.023019731044769287e-01 2.203350700438022614e-02 -1.001824885606765747e-01
-1.200846880674362183e-01 1.061112284660339355e-01 1.828823052346706390e-02
2.368193715810775757e-01 -1.729901414364576340e-03 3.728297352790832520e-02
-1.510144174098968506e-01 1.534671708941459656e-02 6.664091348648071289e-02
3.619768619537353516e-01 -8.996354788541793823e-02 -2.921195141971111298e-02
-7.075897455215454102e-01 2.309490442276000977e-01 3.928949125111103058e-03
-2.828119322657585144e-02 1.316218916326761246e-02 -5.610647797584533691e-01
-6.136283874511718750e-01 -2.629253081977367401e-02 -4.405076429247856140e-02
4.475464820861816406e-01 -1.680848188698291779e-02 -7.623259723186492920e-02
-8.120475411415100098e-01 6.290017813444137573e-02 -7.255619764328002930e-02
3.751906156539916992e-01 -1.680848188698291779e-02 2.921087481081485748e-02
6.510006785392761230e-01 6.388588249683380127e-02 6.568185240030288696e-02
-1.154225841164588928e-01 7.940637879073619843e-03 -5.734792947769165039e-01
-3.601431250572204590e-01 -6.481483578681945801e-02 -6.067449226975440979e-02
4.825255572795867920e-01 9.432502090930938721e-03 -1.030330359935760498e-01
-4.578406363725662231e-02 1.492046471685171127e-02 -5.775820016860961914e-01
2.715054154396057129e-01 -1.680848188698291779e-02 -8.204025030136108398e-02
-7.714654318988323212e-03 -4.278305545449256897e-02 -2.469721883535385132e-01
1.635577380657196045e-01 1.809070445597171783e-02 -5.947566404938697815e-02
2.419343590736389160e-01 -1.630387157201766968e-01 -2.701494991779327393e-01
5.764070153236389160e-01 -9.036316722631454468e-02 -4.169791471213102341e-03
1.257547289133071899e-01 9.007359296083450317e-02 5.659740790724754333e-02
-1.400833367370069027e-03 -1.591491848230361938e-01 1.880421042442321777e-01
-1.210170984268188477e-01 2.624271996319293976e-02 7.890805602073669434e-01
9.069570153951644897e-02 -1.313364058732986450e-01 3.295036852359771729e-01
-3.449046909809112549e-01 1.976905763149261475e-02 -2.473633177578449249e-02
-4.744845330715179443e-01 -4.986945167183876038e-02 5.097624287009239197e-02
-9.123759865760803223e-01 9.521522372961044312e-02 3.176219761371612549e-01
4.207661747932434082e-02 -1.563629135489463806e-02 -4.668103754520416260e-01
5.756877064704895020e-01 4.184313584119081497e-03 7.780332118272781372e-02
1.029503867030143738e-01 -6.392005365341901779e-03 -3.770048916339874268e-01
-4.014892876148223877e-01 3.090482391417026520e-02 -9.887710958719253540e-02
4.231170117855072021e-01 -1.318536326289176941e-02 9.293518215417861938e-02
1.072927936911582947e-01 -4.773820564150810242e-02 3.014244735240936279e-01
-3.765537142753601074e-01 4.688918590545654297e-02 9.016455709934234619e-02
5.170783996582031250e-01 8.658366650342941284e-02 6.008732318878173828e-02
-4.139304757118225098e-01 7.576759159564971924e-02 -7.604611665010452271e-02
-7.245130091905593872e-02 8.766496554017066956e-03 -5.515274405479431152e-01
2.668433189392089844e-01 -9.129558503627777100e-02 -3.125613331794738770e-01
1.990163773298263550e-01 -1.697254925966262817e-01 2.894362211227416992e-01
1.111290380358695984e-01 -3.108783997595310211e-02 1.268220245838165283e-01
-8.206257820129394531e-01 7.416915148496627808e-02 8.214573562145233154e-02
2.471559196710586548e-01 -8.620722591876983643e-02 3.253211081027984619e-01
1.333473026752471924e-01 -1.680848188698291779e-02 6.886055227369070053e-03
-9.146138429641723633e-01 9.268436580896377563e-02 -2.806991636753082275e-01
-1.330053806304931641e-01 -1.410216907970607281e-03 6.775981187820434570e-02
-8.573631644248962402e-01 2.073454856872558594e-01 -4.382916260510683060e-03
2.513319998979568481e-02 -6.376423989422619343e-04 4.270348846912384033e-01
7.471135258674621582e-02 9.032896719872951508e-03 5.025694519281387329e-02
5.599164962768554688e-01 -8.764582872390747070e-02 1.029605139046907425e-02
-7.279165387153625488e-01 1.214029341936111450e-01 -1.013728417456150055e-02
-5.654686316847801208e-02 7.541021797806024551e-03 7.657785713672637939e-02
-4.239739775657653809e-01 -4.835093766450881958e-02 6.565520912408828735e-02
-5.654686316847801208e-02 7.541021797806024551e-03 7.657785713672637939e-02
2.290669679641723633e-01 -1.680848188698291779e-02 -9.738523513078689575e-02
1.487455666065216064e-01 -2.394816093146800995e-02 -1.032728105783462524e-01
1.109425574541091919e-01 -6.518779695034027100e-02 -1.239991858601570129e-01
-1.443009823560714722e-01 8.979612961411476135e-03 -6.067267656326293945e-01
5.426000952720642090e-01 -8.017085492610931396e-03 -7.314229011535644531e-02
5.981457829475402832e-01 7.390274852514266968e-02 7.239528000354766846e-02
1.574836820363998413e-01 -1.984550617635250092e-02 1.561000347137451172e-01
-1.602586954832077026e-01 -1.680848188698291779e-02 -7.980244606733322144e-02
-5.154311060905456543e-01 5.671956017613410950e-02 -8.156071603298187256e-02
-7.904420495033264160e-01 7.448884099721908569e-02 -1.668372750282287598e-01
2.197694033384323120e-01 -1.406449545174837112e-02 5.505225434899330139e-02
-2.152715176343917847e-01 -8.247753977775573730e-02 3.003673255443572998e-02
5.179842114448547363e-01 1.241625193506479263e-02 -1.027133539319038391e-01
-1.480755163356661797e-03 1.112528666853904724e-01 -1.319247996434569359e-03
-4.746242240071296692e-02 2.296593412756919861e-02 6.978631615638732910e-01
5.200621485710144043e-01 -1.680848188698291779e-02 1.333307847380638123e-02
-1.439546644687652588e-01 -4.166416078805923462e-02 8.915220946073532104e-02
3.421113826334476471e-03 -3.963947296142578125e-02 -2.615179419517517090e-01
8.190430700778961182e-02 -1.410216907970607281e-03 -3.086366876959800720e-02
-8.559778928756713867e-01 7.861813157796859741e-02 1.153399199247360229e-01
-4.606047868728637695e-01 -1.680848188698291779e-02 1.855463534593582153e-02
-9.156794548034667969e-01 5.280339345335960388e-02 2.124533616006374359e-02
-9.293792396783828735e-02 7.967274636030197144e-03 -4.389091953635215759e-02
5.814953446388244629e-01 2.665791893377900124e-03 3.930766135454177856e-02
-4.557093605399131775e-02 -3.488186746835708618e-03 -4.529838860034942627e-01
1.076391264796257019e-01 -1.267009377479553223e-01 -2.759837806224822998e-01
5.858111381530761719e-01 6.553760170936584473e-02 8.084034919738769531e-02
-8.700973391532897949e-01 7.699305564165115356e-02 -2.037877738475799561e-01
6.158617734909057617e-01 -1.680848188698291779e-02 -8.084142208099365234e-02
1.801281869411468506e-01 -1.760769262909889221e-02 -1.904408335685729980e-01
2.815223038196563721e-01 -5.599679052829742432e-02 -2.934067547321319580e-01
-8.773435950279235840e-01 6.838814169168472290e-02 -1.179517731070518494e-01
1.255682557821273804e-01 -1.171369627118110657e-01 -3.465280830860137939e-01
-3.199690580368041992e-01 -6.365368142724037170e-03 4.141226783394813538e-02
-1.918810904026031494e-01 -1.410216907970607281e-03 5.217506736516952515e-02
-1.645211875438690186e-01 3.415497392416000366e-02 -7.773864269256591797e-01
3.805388882756233215e-02 -1.046801358461380005e-02 7.623152434825897217e-02
-6.954747438430786133e-02 -3.023534454405307770e-02 -1.005554571747779846e-01
-4.611376225948333740e-01 4.104382358491420746e-03 -9.187063574790954590e-02
-2.428510412573814392e-02 -1.257262099534273148e-02 3.749791681766510010e-01
6.308603882789611816e-01 1.089084893465042114e-01 7.445508148521184921e-03
-2.611732780933380127e-01 -4.499423131346702576e-02 8.110675960779190063e-02
-1.148364841938018799e-01 1.246953569352626801e-02 5.982006788253784180e-01
-2.397542297840118408e-01 -1.406449545174837112e-02 -7.703182101249694824e-02
1.734946817159652710e-01 -5.533078685402870178e-02 1.728036850690841675e-01
6.510006785392761230e-01 6.388588249683380127e-02 6.568185240030288696e-02
1.818000338971614838e-02 -2.362847700715065002e-02 -2.663132548332214355e-01
-5.079250037670135498e-02 -8.948402106761932373e-02 -8.971273899078369141e-02
1.234103590250015259e-01 1.590617559850215912e-02 -1.018075719475746155e-01
2.434528768062591553e-01 -5.826124176383018494e-02 1.046303957700729370e-01
2.925248742103576660e-01 -9.481213241815567017e-02 2.398580610752105713e-01
2.770733237266540527e-01 4.014911130070686340e-02 -9.544046968221664429e-02
-3.874230682849884033e-01 -1.680848188698291779e-02 2.097893133759498596e-02
4.475464820861816406e-01 -1.680848188698291779e-02 -7.623259723186492920e-02
6.424756646156311035e-01 -8.458214998245239258e-02 2.153838425874710083e-02
1.795420944690704346e-01 -2.955365693196654320e-03 7.460644841194152832e-02
1.403004974126815796e-01 1.153710950165987015e-02 9.876946359872817993e-02
3.128249943256378174e-01 4.077745601534843445e-03 7.210223376750946045e-02
2.708127796649932861e-01 -8.189146220684051514e-02 -3.454624414443969727e-01
1.455486863851547241e-01 -3.994350787252187729e-03 -6.581612676382064819e-02
1.451224386692047119e-01 -4.731195420026779175e-02 2.881308197975158691e-01
3.093883693218231201e-01 4.557282198220491409e-03 -6.027488783001899719e-02
-1.071107089519500732e-01 1.249617338180541992e-02 6.716754436492919922e-01
-1.759500205516815186e-01 -1.592933945357799530e-02 -6.237234473228454590e-01
-3.731703460216522217e-01 7.194700185209512711e-03 3.968062996864318848e-02
1.162641681730747223e-02 6.715163122862577438e-03 4.962204992771148682e-01
-8.560044765472412109e-01 8.011000603437423706e-02 1.386504471302032471e-01
1.431510448455810547e-01 -6.125604733824729919e-03 5.558506399393081665e-02
-1.055122762918472290e-01 -1.410216907970607281e-03 3.893469274044036865e-02
-8.743598461151123047e-01 3.433989882469177246e-01 -5.901429802179336548e-03
-8.284112811088562012e-02 -1.651543378829956055e-02 -9.951648861169815063e-02
1.250087916851043701e-01 -8.656454272568225861e-03 5.553178489208221436e-02
-1.165947616100311279e-01 -6.470827013254165649e-02 -7.884337753057479858e-02
-7.766687870025634766e-01 2.724018096923828125e-01 -8.325723931193351746e-03
6.158617734909057617e-01 -1.680848188698291779e-02 -8.084142208099365234e-02
-3.874230682849884033e-01 -1.680848188698291779e-02 2.097893133759498596e-02
-3.862775564193725586e-01 1.028077900409698486e-01 -3.507288172841072083e-02
1.993094086647033691e-01 -7.059583812952041626e-02 -3.356054425239562988e-01
-3.938701152801513672e-01 -8.119880408048629761e-02 -1.168243959546089172e-02
1.635843813419342041e-01 1.809070445597171783e-02 9.333478659391403198e-02
6.416167318820953369e-02 -1.680848188698291779e-02 6.125951185822486877e-02
-7.716669142246246338e-02 2.264623902738094330e-02 6.459939479827880859e-01
-9.219133257865905762e-01 8.013664931058883667e-02 1.565081067383289337e-02
5.179842114448547363e-01 1.241625193506479263e-02 -1.027133539319038391e-01
-5.529475957155227661e-02 -1.680848188698291779e-02 9.258884936571121216e-02
2.691812068223953247e-02 -9.867502748966217041e-02 -5.601238831877708435e-02
-3.444784581661224365e-01 8.810219168663024902e-02 -6.341847032308578491e-02
-2.395943850278854370e-01 -7.750674616545438766e-03 1.839479245245456696e-02
8.669961243867874146e-02 -1.276866346597671509e-01 -3.097640573978424072e-01
7.721087932586669922e-01 -7.792200148105621338e-02 3.331352770328521729e-02
1.470139324665069580e-01 -1.680848188698291779e-02 -4.247896745800971985e-02
-1.343374103307723999e-01 9.894490987062454224e-02 -4.975185170769691467e-02
2.414814680814743042e-01 -4.779149964451789856e-02 -1.570868045091629028e-01
2.129493951797485352e-01 -2.582407090812921524e-03 -2.729382924735546112e-02
1.136599034070968628e-01 -1.294558960944414139e-02 4.294591844081878662e-01
5.217340961098670959e-02 -8.221115171909332275e-02 2.803251147270202637e-01
5.621809363365173340e-01 -1.680848188698291779e-02 -1.027048844844102859e-02
6.887705624103546143e-02 -1.680848188698291779e-02 3.789570927619934082e-02
-3.933704271912574768e-02 -8.043722249567508698e-03 -6.749448925256729126e-02
3.158087432384490967e-01 -8.953730016946792603e-02 2.465448677539825439e-01
-1.928135156631469727e-01 2.677553147077560425e-02 -7.741629481315612793e-01
2.731571495532989502e-01 -5.746202915906906128e-02 -2.859473824501037598e-01
2.882357239723205566e-01 7.608727365732192993e-02 -7.479400932788848877e-02
-2.370368987321853638e-01 -9.070948511362075806e-02 -2.837762003764510155e-03
2.155335247516632080e-01 -9.867502748966217041e-02 -6.620726548135280609e-03
-6.643520593643188477e-01 1.600051522254943848e-01 -1.003072224557399750e-02
6.751189008355140686e-03 1.035270914435386658e-01 2.809197083115577698e-02
1.681399196386337280e-01 -1.579613424837589264e-02 2.192116081714630127e-01
2.694807350635528564e-01 -5.519758164882659912e-02 2.941249608993530273e-01
6.307005286216735840e-01 -1.342512667179107666e-02 -9.568023681640625000e-02
2.121703140437602997e-02 -2.165706455707550049e-02 4.128620922565460205e-01
-8.796080946922302246e-01 3.322255611419677734e-02 -1.602485589683055878e-02
-1.224823370575904846e-01 1.238961517810821533e-02 -6.069931983947753906e-01
3.573615476489067078e-02 1.147279981523752213e-03 -5.612779259681701660e-01
-1.560027059167623520e-02 1.886327750980854034e-02 8.052065968513488770e-02
4.609934985637664795e-02 -3.614955022931098938e-02 -3.035301566123962402e-01
5.792777240276336670e-02 -2.898323349654674530e-02 -3.703714013099670410e-01
-5.853094458580017090e-01 4.899379238486289978e-02 5.217506736516952515e-02
4.863618314266204834e-01 -7.442006026394665241e-04 -1.834258809685707092e-02
-1.488298773765563965e-01 -5.006698425859212875e-03 2.705298736691474915e-02
-3.451444506645202637e-01 -1.680848188698291779e-02 -8.124103397130966187e-02
-1.443009823560714722e-01 8.979612961411476135e-03 -6.067267656326293945e-01
-1.027949377894401550e-01 -9.775360114872455597e-03 -8.792781829833984375e-02
1.883068382740020752e-01 7.008210755884647369e-03 9.842314571142196655e-02
-3.749020099639892578e-01 6.608604919165372849e-03 6.317763030529022217e-02
7.933680415153503418e-01 7.989688217639923096e-02 -2.156610041856765747e-02
-9.690736234188079834e-02 6.821731571108102798e-03 5.491819977760314941e-01
7.015645503997802734e-01 -8.484856039285659790e-02 -2.660117298364639282e-02
-2.133001238107681274e-01 2.432460337877273560e-02 9.541276097297668457e-02
-2.129271626472473145e-01 2.656240575015544891e-02 -9.901031106710433960e-02
4.506036639213562012e-02 -1.899300888180732727e-02 4.427528381347656250e-01
-6.854514479637145996e-01 5.272347480058670044e-02 -6.616245210170745850e-02
6.173738092184066772e-02 -2.749135904014110565e-02 -3.904317915439605713e-01
2.553280815482139587e-02 -9.867502748966217041e-02 1.469174958765506744e-02
-8.801941871643066406e-01 9.028670936822891235e-02 -2.764899432659149170e-01
-4.842883050441741943e-01 3.620630875229835510e-02 -8.997914940118789673e-02
1.518092304468154907e-01 -4.661931097507476807e-02 2.288555055856704712e-01
6.970291584730148315e-02 -9.329362213611602783e-02 -3.290252089500427246e-01
2.477153837680816650e-01 -1.116490066051483154e-01 2.358886152505874634e-01
-5.451353788375854492e-01 9.047319740056991577e-02 5.028358474373817444e-02
-8.573631644248962402e-01 2.073454856872558594e-01 -4.382916260510683060e-03
5.943627953529357910e-01 8.021657168865203857e-02 6.618802249431610107e-02
-4.054854214191436768e-01 -3.914429340511560440e-03 9.357455372810363770e-02
-4.053586721420288086e-02 2.064820006489753723e-02 6.273188591003417969e-01
2.047441005706787109e-01 -4.920344427227973938e-02 9.908916056156158447e-02
4.660616517066955566e-01 -5.932686477899551392e-02 -7.093112170696258545e-02
-2.057075649499893188e-01 3.556692972779273987e-02 -8.145500421524047852e-01
-5.785225704312324524e-02 6.095541641116142273e-02 8.579549938440322876e-02
6.510006785392761230e-01 1.268266234546899796e-02 8.278511464595794678e-02
9.333313256502151489e-02 -6.598702818155288696e-02 1.131553947925567627e-01
-4.565553963184356689e-01 -1.680848188698291779e-02 7.300801575183868408e-02
-2.357314974069595337e-01 1.038201302289962769e-01 2.702634595334529877e-02
-1.845282912254333496e-01 -1.680848188698291779e-02 5.367540754377841949e-03
-1.525862067937850952e-01 2.967935986816883087e-02 -8.243004679679870605e-01
4.108623862266540527e-01 -4.462127014994621277e-02 8.281175047159194946e-02
-7.608092390000820160e-03 -1.086762920022010803e-02 7.620488852262496948e-02
8.161457180976867676e-01 2.106343628838658333e-03 3.861500695347785950e-02
2.242716550827026367e-01 -1.680848188698291779e-02 2.750587835907936096e-02
2.834137678146362305e-01 -2.895659580826759338e-02 9.943548589944839478e-02
-3.802834153175354004e-01 -4.926777444779872894e-03 8.286503702402114868e-02
1.485857218503952026e-01 -5.605008453130722046e-02 -1.921724677085876465e-01
-5.188476294279098511e-02 -2.369280671700835228e-03 5.584529638290405273e-01
8.419540524482727051e-02 -4.009236395359039307e-02 2.868520915508270264e-01
8.587376028299331665e-02 -9.867502748966217041e-02 6.744012981653213501e-02
2.253372818231582642e-01 -4.793572239577770233e-03 -3.549912944436073303e-02
2.518446743488311768e-01 -7.797528058290481567e-02 2.768884897232055664e-01
4.660616517066955566e-01 -5.932686477899551392e-02 -7.093112170696258545e-02
2.844261229038238525e-01 -1.407938003540039062e-01 2.436410188674926758e-01
-8.342722803354263306e-02 2.957279235124588013e-02 7.576446533203125000e-01
2.581851184368133545e-01 -6.588045507669448853e-02 -2.660734951496124268e-01
3.260120749473571777e-01 -9.744956344366073608e-02 7.338098436594009399e-02
-2.466457197442650795e-03 -5.735545977950096130e-02 -1.570601612329483032e-01
-1.071373596787452698e-01 -1.680848188698291779e-02 -5.611895024776458740e-02
-5.966583490371704102e-01 8.653038740158081055e-02 -5.561278387904167175e-02
5.057496577501296997e-02 5.063446238636970520e-03 -5.171611309051513672e-01
2.816288471221923828e-01 -5.122812092304229736e-02 -1.101194396615028381e-01
6.773482561111450195e-01 -1.680848188698291779e-02 5.020366609096527100e-02
-4.053586721420288086e-02 2.064820006489753723e-02 6.273188591003417969e-01
-8.700973391532897949e-01 7.699305564165115356e-02 -2.037877738475799561e-01
-2.002995163202285767e-01 1.270929910242557526e-02 4.764616861939430237e-02
-8.339194655418395996e-01 4.246684536337852478e-02 3.528493270277976990e-02
2.581052184104919434e-01 -1.472408324480056763e-01 2.903686165809631348e-01
5.944426655769348145e-01 1.021950617432594299e-01 -3.712420910596847534e-02
5.291466116905212402e-01 -1.170453382655978203e-03 4.999053850769996643e-02
-4.162215590476989746e-01 1.078428626060485840e-01 -1.575845107436180115e-02
-1.947582811117172241e-01 -1.680848188698291779e-02 -4.676810279488563538e-02
-3.443185985088348389e-01 3.727192804217338562e-02 -9.677249938249588013e-02
6.644009351730346680e-01 -8.816297166049480438e-03 9.168306738138198853e-02
2.268024981021881104e-01 -2.266941219568252563e-02 -2.231022119522094727e-01
-4.201909899711608887e-01 -8.150290697813034058e-03 -5.172325298190116882e-02
5.474486947059631348e-01 -7.896099239587783813e-02 -4.764724522829055786e-02
-8.847497701644897461e-01 2.837240993976593018e-01 -5.733113503083586693e-04
7.514090538024902344e-01 1.546885701827704906e-03 -6.943925470113754272e-02
-4.502682685852050781e-01 -1.680848188698291779e-02 5.739662423729896545e-02
5.738846026360988617e-03 4.076184332370758057e-02 9.109697490930557251e-02
4.587887823581695557e-01 1.622585952281951904e-02 -3.171616792678833008e-02
-3.443185985088348389e-01 1.111463010311126709e-01 -9.729202720336616039e-04
-1.184329688549041748e-01 2.415002381894737482e-04 5.223283171653747559e-01
5.774726271629333496e-01 7.247974164783954620e-03 -7.338205724954605103e-02
7.945135831832885742e-01 -7.909419387578964233e-02 -2.729382924735546112e-02
7.008718848228454590e-01 5.003277584910392761e-02 -8.872704207897186279e-02
-5.853094458580017090e-01 2.746818587183952332e-02 8.937380276620388031e-03
2.304789125919342041e-01 -6.642794469371438026e-04 8.944525569677352905e-02
-2.670342028141021729e-01 -1.680848188698291779e-02 -2.950499579310417175e-02
8.288533091545104980e-01 4.425176605582237244e-02 4.881835356354713440e-02
-1.308208405971527100e-01 6.208989303559064865e-03 5.867719054222106934e-01
-8.266999125480651855e-01 2.222908437252044678e-01 2.916606608778238297e-03
-1.683840900659561157e-01 1.440327498130500317e-03 -6.194609999656677246e-01
1.203200519084930420e-01 -1.022825017571449280e-02 -3.246561586856842041e-01
1.249022334814071655e-01 -2.970252372324466705e-02 -3.376034796237945557e-01
2.271754741668701172e-01 -5.770180374383926392e-02 1.199753880500793457e-01
1.786363124847412109e-01 -5.698250234127044678e-02 -2.916750907897949219e-01
3.453733026981353760e-02 -1.881075054407119751e-01 -2.266986966133117676e-01
-3.523907065391540527e-01 -1.680848188698291779e-02 3.123556077480316162e-02
1.391549408435821533e-01 1.016356125473976135e-01 3.539149090647697449e-02
-4.315931797027587891e-01 -1.680848188698291779e-02 -4.667489556595683098e-04
6.307005286216735840e-01 -1.342512667179107666e-02 -9.568023681640625000e-02
4.548661783337593079e-02 -8.763022720813751221e-03 3.310040012001991272e-02
-2.611732780933380127e-01 -4.499423131346702576e-02 8.110675960779190063e-02
6.368811726570129395e-01 1.057382598519325256e-01 1.943377591669559479e-02
-4.053586721420288086e-02 2.064820006489753723e-02 6.273188591003417969e-01
8.394296169281005859e-01 2.792107500135898590e-02 5.092296004295349121e-02
1.476533114910125732e-01 -5.946006998419761658e-02 1.646516770124435425e-01
8.763204514980316162e-02 4.637203644961118698e-03 -4.746076092123985291e-02
9.170336723327636719e-01 -5.213389918208122253e-02 -2.415023744106292725e-02
-9.197820425033569336e-01 8.562460541725158691e-02 -2.786211967468261719e-01
-8.236894607543945312e-01 7.843164354562759399e-02 -1.497872918844223022e-01
-7.864459156990051270e-01 3.634327352046966553e-01 -4.356276243925094604e-03
4.531409740447998047e-01 1.082957535982131958e-01 -1.418665610253810883e-02
2.816288471221923828e-01 -5.122812092304229736e-02 -1.101194396615028381e-01
7.324611395597457886e-02 1.034738048911094666e-01 -3.254202380776405334e-02
3.251595795154571533e-01 9.379228577017784119e-03 9.884938597679138184e-02
1.896921694278717041e-01 -1.542316470295190811e-02 3.856172412633895874e-02
2.650051414966583252e-01 5.196651443839073181e-03 -4.903255030512809753e-02
-3.483946323394775391e-01 4.184313584119081497e-03 9.685134887695312500e-02
4.815067350864410400e-02 -8.463544398546218872e-02 2.940716743469238281e-01
1.729352325201034546e-01 -7.072903960943222046e-02 2.607176601886749268e-01
4.246972501277923584e-03 3.198602702468633652e-03 4.650509953498840332e-01
1.155780255794525146e-01 -1.680848188698291779e-02 -7.271604239940643311e-02
2.170520573854446411e-01 -6.771865487098693848e-02 -2.632495760917663574e-01
-6.080935895442962646e-02 -4.074271768331527710e-03 7.471300661563873291e-02
1.266072243452072144e-01 -6.849122792482376099e-02 -2.899700999259948730e-01
-8.630376458168029785e-01 8.509179204702377319e-02 -2.131119817495346069e-01
-5.401601269841194153e-02 7.185141742229461670e-02 7.487285882234573364e-02
-2.305365949869155884e-01 1.005699783563613892e-01 -4.359787330031394958e-02
-2.425515055656433105e-01 -1.036145538091659546e-02 3.853508457541465759e-02
7.347054481506347656e-01 -1.680848188698291779e-02 5.569162592291831970e-02
-8.956190943717956543e-01 7.579422742128372192e-02 -1.317516118288040161e-01
-1.049528196454048157e-01 -2.049586037173867226e-03 -5.020292401313781738e-01
-8.516621589660644531e-01 3.407082855701446533e-01 -6.061274092644453049e-03
9.814857505261898041e-03 -5.072195455431938171e-02 1.931038200855255127e-01
2.939901053905487061e-01 -3.167393431067466736e-02 -1.155541166663169861e-01
-4.014892876148223877e-01 3.090482391417026520e-02 -9.887710958719253540e-02
7.404533773660659790e-02 2.552342973649501801e-02 3.592430427670478821e-02
-1.409176290035247803e-01 2.403155528008937836e-02 -7.723779678344726562e-01
-1.001224503852427006e-03 -4.089157655835151672e-02 -2.536323368549346924e-01
5.005345940589904785e-01 -1.680848188698291779e-02 -1.738352701067924500e-02
-4.727528989315032959e-01 1.036070138216018677e-01 2.721283026039600372e-02
2.079078182578086853e-02 -3.861155360937118530e-03 5.394049286842346191e-01
-4.578406363725662231e-02 1.492046471685171127e-02 -5.775820016860961914e-01
6.593658328056335449e-01 -2.181690745055675507e-02 -9.264320880174636841e-02
1.169100478291511536e-01 -1.499692257493734360e-02 -2.435355484485626221e-01
1.567111015319824219e-01 -1.403785869479179382e-02 3.353912532329559326e-01
2.433196753263473511e-01 -5.202735215425491333e-02 -2.934067547321319580e-01
7.158972024917602539e-01 9.382991492748260498e-02 4.026672616600990295e-02
-6.587108224630355835e-02 -1.680848188698291779e-02 -6.730800122022628784e-02
-8.838706016540527344e-01 9.007359296083450317e-02 -3.073131144046783447e-01
7.620322704315185547e-02 -5.581031367182731628e-02 -2.929804921150207520e-01
2.444119453430175781e-01 -7.070240378379821777e-02 -2.867732048034667969e-01
1.913906447589397430e-02 -1.484130173921585083e-01 -2.028020769357681274e-01
-1.443009823560714722e-01 8.979612961411476135e-03 -6.067267656326293945e-01
