-3.459566533565521240e-01 -3.385730087757110596e-02 8.355335891246795654e-02
5.724522471427917480e-01 -5.718931183218955994e-02 7.088968902826309204e-02
1.284787952899932861e-01 -2.127343788743019104e-02 2.484205663204193115e-01
6.217235326766967773e-01 -8.520370721817016602e-02 3.244639560580253601e-02
9.506372362375259399e-02 -1.430309563875198364e-02 -3.523323833942413330e-01
-2.935460805892944336e-01 6.425956636667251587e-02 -8.370821923017501831e-02
-7.895536720752716064e-02 5.803414434194564819e-02 -8.740623295307159424e-02
9.506372362375259399e-02 -1.430309563875198364e-02 -3.523323833942413330e-01
-7.509015798568725586e-01 8.495775610208511353e-02 7.275199890136718750e-02
-3.522352874279022217e-01 -8.405970782041549683e-02 2.350733429193496704e-02
4.006945490837097168e-01 5.345819517970085144e-02 8.429828286170959473e-02
-7.456073164939880371e-01 2.937487363815307617e-01 2.383475424721837044e-03
7.984603196382522583e-02 9.892503917217254639e-02 3.805991634726524353e-02
-1.084329858422279358e-01 -2.650391310453414917e-03 -5.857589840888977051e-01
1.759143620729446411e-01 -4.508434236049652100e-02 -2.194702476263046265e-01
-2.351188473403453827e-02 -4.375412315130233765e-02 -7.519482821226119995e-02
-3.226246535778045654e-01 -8.823660016059875488e-02 1.765437610447406769e-02
-5.378764495253562927e-02 9.964336454868316650e-02 -4.196598380804061890e-02
1.308731883764266968e-01 -1.975699141621589661e-02 -3.160174489021301270e-01
-4.231891334056854248e-01 -7.764807343482971191e-02 1.608471758663654327e-02
1.623461395502090454e-01 -5.420961976051330566e-02 2.417960613965988159e-01
3.559726178646087646e-01 5.712959915399551392e-02 -8.791171014308929443e-02
-6.544034928083419800e-02 -3.457560390233993530e-02 -9.038591384887695312e-02
7.971300929784774780e-02 -2.960059233009815216e-02 1.528843194246292114e-01
4.325399398803710938e-01 2.440624311566352844e-02 -9.836722910404205322e-02
7.778888102620840073e-04 8.817688375711441040e-02 -6.138716638088226318e-02
-7.747390866279602051e-01 9.969656169414520264e-02 -6.928048562258481979e-03
1.249138042330741882e-01 7.024554908275604248e-02 7.402900606393814087e-02
1.003313884139060974e-01 -4.013593122363090515e-02 -1.761583685874938965e-01
8.998229354619979858e-02 -4.117348417639732361e-02 1.547466218471527100e-01
-7.656097412109375000e-02 3.362201619893312454e-03 6.664547920227050781e-01
5.507696866989135742e-01 -8.326158672571182251e-02 -4.279071837663650513e-02
-4.131020233035087585e-02 -3.501727245748043060e-03 -5.953897833824157715e-01
-3.499739468097686768e-01 -6.916127353906631470e-02 -6.029638648033142090e-02
-4.491017758846282959e-01 1.344524882733821869e-02 -9.469582140445709229e-02
-3.338210657238960266e-02 -2.011881908401846886e-03 6.084306836128234863e-01
1.218809112906455994e-01 -4.016253352165222168e-02 -1.808939278125762939e-01
-4.822733625769615173e-02 -1.550028286874294281e-02 -4.040246307849884033e-01
-8.288788795471191406e-01 2.041452676057815552e-01 -4.631904594134539366e-04
-4.231891334056854248e-01 -7.764807343482971191e-02 1.608471758663654327e-02
4.298795163631439209e-01 -7.408308237791061401e-02 -5.864691734313964844e-02
8.958323299884796143e-02 -7.097037136554718018e-02 -2.558916211128234863e-01
3.172366917133331299e-01 -3.102665068581700325e-03 9.352999180555343628e-02
1.386723201721906662e-02 -8.396926335990428925e-03 -4.377855956554412842e-01
-1.463707983493804932e-01 9.884522855281829834e-02 -4.369526728987693787e-02
2.561531066894531250e-01 -5.897180736064910889e-02 -2.076845169067382812e-01
2.604896128177642822e-01 -1.152666211128234863e-01 2.595145702362060547e-01
6.915108114480972290e-02 -1.696352660655975342e-02 4.401315748691558838e-01
-8.148277550935745239e-02 -2.225778810679912567e-02 5.152090787887573242e-01
9.149833917617797852e-01 7.432665675878524780e-03 5.287854373455047607e-02
-7.642303705215454102e-01 8.301563560962677002e-02 6.022134795784950256e-02
7.284908741712570190e-02 -4.098725691437721252e-02 -2.532045543193817139e-01
5.131511688232421875e-01 9.594535082578659058e-02 4.393948242068290710e-02
1.880991458892822266e-01 -1.117016300559043884e-01 2.521451413631439209e-01
2.457507997751235962e-01 -9.196121245622634888e-02 2.204859703779220581e-01
3.137249350547790527e-01 2.759876847267150879e-02 -9.783513844013214111e-02
-3.341443538665771484e-01 -8.749167621135711670e-02 6.586963776499032974e-03
2.284313589334487915e-01 -6.227074563503265381e-02 -2.781594395637512207e-01
4.353108629584312439e-02 -2.869604341685771942e-02 1.975530385971069336e-01
9.711226075887680054e-02 -9.712244570255279541e-02 -4.593003541231155396e-02
1.368059515953063965e-01 -9.744169563055038452e-02 3.883143886923789978e-02
2.141448259353637695e-01 -1.308035701513290405e-01 2.407584935426712036e-01
-3.522352874279022217e-01 -8.405970782041549683e-02 2.350733429193496704e-02
-6.860666871070861816e-01 1.733108311891555786e-01 4.565032664686441422e-03
3.070472180843353271e-01 -1.422328315675258636e-02 -9.714341908693313599e-02
2.625913619995117188e-01 -1.033904496580362320e-02 -9.796815365552902222e-02
-3.572901189327239990e-01 9.937731176614761353e-02 -4.260448738932609558e-02
4.516685009002685547e-01 -8.778432011604309082e-02 -2.956835739314556122e-02
-4.878602176904678345e-02 7.399675995111465454e-02 7.099611312150955200e-02
1.257917582988739014e-01 2.036237902939319611e-02 9.342357516288757324e-02
-1.571721732616424561e-01 -4.247710481286048889e-02 -8.636865764856338501e-02
-6.176403760910034180e-01 -3.888551518321037292e-02 -1.392499450594186783e-02
-7.999293506145477295e-02 1.978769665583968163e-03 -6.546376943588256836e-01
1.386150568723678589e-01 -4.862271249294281006e-02 -2.455159127712249756e-01
-8.913990855216979980e-01 1.023304015398025513e-01 2.352247983217239380e-01
-3.793983757495880127e-01 9.432248771190643311e-02 -5.236828699707984924e-02
-2.071843110024929047e-02 -3.694339469075202942e-02 1.711881160736083984e-01
-7.466448545455932617e-01 2.811648547649383545e-01 2.622914500534534454e-03
8.679381571710109711e-03 -3.875248879194259644e-02 -1.039009243249893188e-01
-8.983428478240966797e-01 3.741205036640167236e-01 -2.272286685183644295e-03
5.111332982778549194e-02 7.375732809305191040e-02 7.118234038352966309e-02
1.291971057653427124e-01 1.065338924527168274e-01 -1.908623799681663513e-02
1.053063943982124329e-01 -8.254326134920120239e-02 8.036084473133087158e-02
2.064295709133148193e-01 -1.190870348364114761e-02 9.219977259635925293e-02
1.858111768960952759e-01 1.504150684922933578e-02 9.387584775686264038e-02
-7.770496606826782227e-02 1.315259933471679688e-02 -7.122095227241516113e-01
1.224662140011787415e-01 -8.509728312492370605e-02 -2.313091754913330078e-01
1.638093739748001099e-01 -7.065112143754959106e-02 -2.530449330806732178e-01
6.701169013977050781e-01 -8.954021334648132324e-02 -1.927246898412704468e-02
-2.131743282079696655e-01 -1.943774148821830750e-02 9.044389426708221436e-02
-8.666038513183593750e-01 9.873881191015243530e-02 2.014106512069702148e-01
1.175976097583770752e-01 -1.005012094974517822e-01 -2.652563452720642090e-01
-1.594867408275604248e-01 8.003594726324081421e-02 6.532938033342361450e-02
1.623461395502090454e-01 -5.420961976051330566e-02 2.417960613965988159e-01
-4.028634130954742432e-01 4.377421364188194275e-02 8.743759989738464355e-02
-3.613606095314025879e-01 1.079705134034156799e-01 -2.644747728481888771e-03
-2.365595549345016479e-01 -5.490134283900260925e-02 7.267218828201293945e-02
5.724522471427917480e-01 -5.718931183218955994e-02 7.088968902826309204e-02
1.369389742612838745e-01 -1.210131570696830750e-01 -2.567961513996124268e-01
-4.477449655532836914e-01 -6.812370568513870239e-02 3.484078869223594666e-02
4.516685009002685547e-01 -8.778432011604309082e-02 -2.956835739314556122e-02
-4.113501906394958496e-01 1.802119798958301544e-02 9.193373471498489380e-02
2.527477443218231201e-01 5.401689186692237854e-02 -8.948136866092681885e-02
3.565619885921478271e-02 -4.620171710848808289e-02 6.434502452611923218e-02
8.556556701660156250e-01 5.011671688407659531e-03 6.668620556592941284e-02
-5.500739905983209610e-03 -1.816072314977645874e-02 3.408707082271575928e-01
8.093640804290771484e-01 9.317850321531295776e-02 -5.065743811428546906e-03
4.520675539970397949e-01 -4.300919920206069946e-02 -8.607601374387741089e-02
9.285515546798706055e-01 1.983029209077358246e-02 -4.446679353713989258e-02
-2.186282277107238770e-01 -6.474496424198150635e-02 -6.939507275819778442e-02
4.438202083110809326e-01 9.700952470302581787e-02 -4.747308790683746338e-02
9.673141837120056152e-01 -3.874188521876931190e-03 -3.246822953224182129e-02
-1.117585375905036926e-01 -1.989001594483852386e-02 -5.184233784675598145e-01
3.713765740394592285e-01 -8.876869082450866699e-02 -2.520523965358734131e-02
-1.324301213026046753e-01 2.076145075261592865e-02 -8.110978603363037109e-01
1.913714855909347534e-01 -6.032862886786460876e-02 -2.355924993753433228e-01
2.146503180265426636e-01 9.666366875171661377e-02 4.263586550951004028e-02
-1.829783916473388672e-01 -4.537697136402130127e-02 7.927006483078002930e-02
-4.031294584274291992e-01 -3.622507303953170776e-02 7.900401949882507324e-02
-4.846677184104919434e-02 -1.749562285840511322e-02 -3.859602808952331543e-01
5.002254992723464966e-02 -4.284957423806190491e-02 1.630205661058425903e-01
1.633304953575134277e-01 -5.543341860175132751e-02 2.537946105003356934e-01
7.572235912084579468e-02 -1.475535985082387924e-02 3.390350043773651123e-01
2.791392505168914795e-01 -1.072321161627769470e-01 2.132761925458908081e-01
1.505870223045349121e-01 9.102354943752288818e-02 5.205380916595458984e-02
1.704072654247283936e-01 -4.138632863759994507e-02 -1.730722486972808838e-01
-1.632871106266975403e-02 -6.756500899791717529e-02 -9.286011755466461182e-02
1.681991070508956909e-01 -1.151868179440498352e-01 -2.624096572399139404e-01
-5.351136922836303711e-01 -3.492147475481033325e-02 -6.444666534662246704e-02
1.019583083689212799e-02 -3.196838498115539551e-02 1.881084889173507690e-01
6.178167462348937988e-02 -6.258999556303024292e-02 -9.286011755466461182e-02
6.769275665283203125e-01 -7.836637645959854126e-02 4.511007294058799744e-02
2.213280051946640015e-01 -9.552619606256484985e-02 2.695976197719573975e-01
4.621813073754310608e-02 -4.569623991847038269e-02 -2.358319163322448730e-01
-8.217450231313705444e-02 -9.594122879207134247e-03 -5.052009820938110352e-01
-7.556371092796325684e-01 3.143139183521270752e-01 1.744970912113785744e-03
-5.903975367546081543e-01 1.060550063848495483e-01 -4.631904594134539366e-04
-4.031294584274291992e-01 -3.622507303953170776e-02 7.900401949882507324e-02
-5.949202179908752441e-01 8.753837645053863525e-02 -5.276735126972198486e-02
-5.051039457321166992e-01 2.813085541129112244e-02 -9.022628515958786011e-02
-6.167890429496765137e-01 1.135840490460395813e-01 -1.357913762331008911e-02
9.877995252609252930e-01 -1.435630768537521362e-02 -2.113477513194084167e-02
1.125161796808242798e-01 -8.948699384927749634e-02 2.485003620386123657e-01
2.791392505168914795e-01 -1.072321161627769470e-01 2.132761925458908081e-01
1.510126739740371704e-01 -1.049973443150520325e-01 2.823144793510437012e-01
-5.067533850669860840e-01 1.023836061358451843e-01 1.031157374382019043e-02
-7.568609118461608887e-01 7.248031347990036011e-02 -7.846716046333312988e-02
-3.202528133988380432e-02 -2.473200298845767975e-02 -5.118520855903625488e-01
-6.832732558250427246e-01 9.567931294441223145e-02 -2.714735828340053558e-02
-1.019947454333305359e-01 1.437639724463224411e-02 7.246917486190795898e-01
2.472140491008758545e-01 -2.909511700272560120e-02 -7.325270771980285645e-02
-4.548708349466323853e-02 -1.353157218545675278e-02 -4.689392447471618652e-01
1.364068984985351562e-01 -8.685317635536193848e-02 1.944669187068939209e-01
-3.841032832860946655e-02 1.021010451950132847e-03 -6.485186815261840820e-01
1.630112379789352417e-01 -1.110365316271781921e-01 2.168943732976913452e-01
-5.552531480789184570e-01 9.943052381277084351e-02 3.497381135821342468e-02
1.194599196314811707e-01 -3.433617576956748962e-02 2.453876435756683350e-01
1.944576054811477661e-01 -2.691354975104331970e-02 1.550924628973007202e-01
4.073762893676757812e-02 -4.508434236049652100e-02 1.193362176418304443e-01
-1.656855642795562744e-01 1.799459755420684814e-02 -7.980617284774780273e-01
3.565047085285186768e-01 -8.605504781007766724e-02 3.007860854268074036e-02
1.848002076148986816e-01 -2.912171743810176849e-02 9.762705862522125244e-02
2.667150497436523438e-01 -6.237716972827911377e-02 -2.117549926042556763e-01
-7.813635468482971191e-01 9.387021511793136597e-02 -1.526933163404464722e-01
2.578291594982147217e-01 -1.040662005543708801e-01 2.578118741512298584e-01
-1.002348028123378754e-02 -7.412566337734460831e-03 -5.530356764793395996e-01
-3.603496253490447998e-01 7.476828992366790771e-02 7.027779519557952881e-02
1.338262706995010376e-01 -6.487796455621719360e-02 2.710608541965484619e-01
-3.970636725425720215e-01 7.379454094916582108e-03 -9.767550230026245117e-02
-3.019264638423919678e-01 3.651122003793716431e-02 9.044389426708221436e-02
8.425130844116210938e-01 -2.042209170758724213e-02 6.753754615783691406e-02
-3.721885979175567627e-01 1.055495217442512512e-01 1.866533979773521423e-02
6.489438563585281372e-02 -1.887904480099678040e-02 2.943130433559417725e-01
6.521363556385040283e-02 -3.284633159637451172e-02 -1.244128867983818054e-01
-5.977402925491333008e-01 -3.877910971641540527e-02 -3.496903926134109497e-02
1.218809112906455994e-01 -4.016253352165222168e-02 -1.808939278125762939e-01
-8.842692375183105469e-01 3.136754035949707031e-01 -3.097021719440817833e-03
-6.233869194984436035e-01 -2.856302075088024139e-02 -3.978442773222923279e-02
5.374715849757194519e-02 -2.201835997402667999e-02 -2.712157070636749268e-01
-4.699330031871795654e-01 1.074384376406669617e-01 6.959424819797277451e-03
-3.471232205629348755e-02 -1.273343805223703384e-02 -4.829597771167755127e-01
-8.746471256017684937e-03 -2.204496227204799652e-02 -3.726048767566680908e-01
2.625913619995117188e-01 -1.101585850119590759e-01 -2.596960365772247314e-01
1.101749986410140991e-01 -2.733922377228736877e-02 -3.316874206066131592e-01
9.410596638917922974e-02 -6.971997022628784180e-02 2.502030432224273682e-01
1.758877635002136230e-01 -3.702321648597717285e-02 7.003834843635559082e-02
-8.186628222465515137e-01 2.212252616882324219e-01 -5.810665898025035858e-03
2.541843652725219727e-01 -7.198134064674377441e-02 2.123716473579406738e-01
-2.518796175718307495e-02 -3.526732325553894043e-02 -3.506563007831573486e-01
-4.031294584274291992e-01 -3.622507303953170776e-02 7.900401949882507324e-02
-3.940041661262512207e-01 -8.153229206800460815e-02 -3.203439060598611832e-03
9.065763950347900391e-01 -4.402014985680580139e-02 -4.614286497235298157e-02
-1.779235601425170898e-01 1.384431123733520508e-02 -7.729738354682922363e-01
1.194599196314811707e-01 -3.433617576956748962e-02 2.453876435756683350e-01
-6.345607042312622070e-01 3.669745475053787231e-02 6.503673642873764038e-02
-1.214957386255264282e-01 -1.462235581129789352e-02 -9.706360846757888794e-02
7.974453568458557129e-01 2.882256731390953064e-02 7.642339915037155151e-02
5.308204889297485352e-02 -2.944096736609935760e-02 -2.976870536804199219e-01
3.044134080410003662e-01 -1.171555370092391968e-01 2.123716473579406738e-01
1.166664510965347290e-01 -4.380732402205467224e-02 1.945999413728713989e-01
1.720035225152969360e-01 -1.284091770648956299e-01 2.167613804340362549e-01
7.691955566406250000e-02 -3.553337231278419495e-02 2.449087798595428467e-01
1.101749986410140991e-01 -2.733922377228736877e-02 -3.316874206066131592e-01
2.433032095432281494e-01 -7.416288554668426514e-02 -2.139631509780883789e-01
1.492567956447601318e-01 -7.940394431352615356e-02 -2.191775888204574585e-01
1.467027813196182251e-01 -3.734246641397476196e-02 8.741098642349243164e-02
-7.556371092796325684e-01 3.143139183521270752e-01 1.744970912113785744e-03
-8.040836453437805176e-01 7.804062217473983765e-02 4.021487385034561157e-02
1.932072043418884277e-01 -5.221429839730262756e-02 -2.793832719326019287e-01
-7.092657089233398438e-01 9.812691807746887207e-02 -1.059944927692413330e-02
-5.972041562199592590e-02 -5.506096780300140381e-02 -9.054553508758544922e-02
2.581258863210678101e-02 -3.947081044316291809e-02 1.547200083732604980e-01
-6.618036031723022461e-01 2.163938805460929871e-02 5.795997753739356995e-02
-6.880354881286621094e-01 7.492791861295700073e-02 4.444495961070060730e-02
-7.752977609634399414e-01 8.104691654443740845e-02 -1.340436637401580811e-01
6.820090413093566895e-01 6.447239965200424194e-02 7.331068813800811768e-02
1.572380959987640381e-01 -9.395653009414672852e-02 -5.846068635582923889e-02
2.602767944335937500e-01 -1.198957785964012146e-01 -2.596428394317626953e-01
1.647671312093734741e-01 -5.577928945422172546e-02 2.750249207019805908e-01
-8.288788795471191406e-01 8.245694637298583984e-02 1.346603333950042725e-01
-1.014094427227973938e-01 -4.045518115162849426e-02 8.203691989183425903e-02
-4.692944586277008057e-01 -1.358477398753166199e-02 -8.751264214515686035e-02
-7.697640657424926758e-01 8.024878799915313721e-02 4.143866896629333496e-02
9.838926792144775391e-02 -4.646776616573333740e-02 -9.371146559715270996e-02
-4.192782938480377197e-01 1.010533869266510010e-01 3.321792557835578918e-02
3.110644817352294922e-01 -8.360743522644042969e-02 5.508670583367347717e-02
-7.834120392799377441e-01 7.814704626798629761e-02 3.108957409858703613e-02
5.845613032579421997e-02 -9.784077107906341553e-02 -1.764960400760173798e-02
4.140273854136466980e-02 -4.582924395799636841e-02 -7.860017567873001099e-02
1.753556728363037109e-01 -7.767467200756072998e-02 -2.084028422832489014e-01
2.965385019779205322e-01 -9.185478836297988892e-02 1.531319227069616318e-02
2.167520672082901001e-01 -5.128315091133117676e-02 -3.983763232827186584e-02
-5.748564749956130981e-02 -1.643145084381103516e-02 -4.261062741279602051e-01
-4.435414671897888184e-01 1.011332049965858459e-01 -1.246175449341535568e-02
1.932072043418884277e-01 -5.221429839730262756e-02 -2.793832719326019287e-01
-8.452672362327575684e-01 7.636454701423645020e-02 5.948458798229694366e-03
5.336099267005920410e-01 -5.144277587532997131e-02 -8.072853088378906250e-02
1.492567956447601318e-01 -7.166209071874618530e-02 -2.678369879722595215e-01
-7.645230293273925781e-01 2.996655181050300598e-02 2.845574542880058289e-02
9.105670452117919922e-01 -4.202482849359512329e-02 4.040109738707542419e-02
-7.136819958686828613e-01 8.264317363500595093e-02 -6.396778672933578491e-02
-7.648688554763793945e-01 3.250620663166046143e-01 1.611949061043560505e-03
-5.786383748054504395e-01 6.825021654367446899e-02 6.596788763999938965e-02
8.392142057418823242e-01 -8.134606480598449707e-02 7.012633141130208969e-03
-8.097503781318664551e-01 7.694984972476959229e-02 -1.039009243249893188e-01
-8.333750367164611816e-01 1.256890296936035156e-01 -2.165869344025850296e-03
-1.779235601425170898e-01 1.384431123733520508e-02 -7.729738354682922363e-01
-1.949462853372097015e-02 -7.932414859533309937e-02 8.384601026773452759e-02
2.204500585794448853e-01 -9.877191483974456787e-02 -2.817510366439819336e-01
1.295961737632751465e-01 -5.516738817095756531e-02 -1.473458409309387207e-01
-6.315238028764724731e-02 -2.858964167535305023e-02 -3.627879023551940918e-01
8.403049707412719727e-01 1.392412278801202774e-02 -7.500859349966049194e-02
2.205564826726913452e-01 -4.146613180637359619e-02 -2.667195796966552734e-01
4.699722826480865479e-01 3.877259790897369385e-02 8.983199298381805420e-02
1.600049585103988647e-01 -2.805754542350769043e-02 1.269982755184173584e-01
2.292560935020446777e-01 -4.638794437050819397e-02 2.305956333875656128e-01
2.575631439685821533e-01 -1.053165942430496216e-01 -2.184858918190002441e-01
2.396849989891052246e-01 -3.031891398131847382e-02 9.576476365327835083e-02
2.292560935020446777e-01 -4.638794437050819397e-02 2.305956333875656128e-01
6.127619370818138123e-02 -7.924432307481765747e-02 -5.226186662912368774e-02
-6.895212829113006592e-02 1.211502775549888611e-02 -7.170248627662658691e-01
-1.689312756061553955e-01 5.673053488135337830e-02 8.258414864540100098e-01
-8.288788795471191406e-01 8.245694637298583984e-02 1.346603333950042725e-01
-5.434408187866210938e-01 -1.983679458498954773e-02 6.942645460367202759e-02
-5.118880271911621094e-01 9.716915339231491089e-02 4.016166180372238159e-02
2.406161725521087646e-01 -1.161179617047309875e-01 -2.632610201835632324e-01
2.810056321322917938e-02 5.513427779078483582e-02 8.347354829311370850e-02
8.072397857904434204e-02 -4.705306142568588257e-02 -7.758921384811401367e-02
5.704610049724578857e-02 -3.132988512516021729e-02 -2.752063870429992676e-01
4.423037767410278320e-01 9.304548054933547974e-02 4.886128753423690796e-02
-8.744787573814392090e-01 8.724572509527206421e-02 1.302440017461776733e-01
-8.401325345039367676e-01 7.551320642232894897e-02 6.982552260160446167e-02
-4.567372500896453857e-01 -6.880479864776134491e-03 8.562849462032318115e-02
3.976616561412811279e-01 -8.954021334648132324e-02 -3.283252008259296417e-03
-1.652332991361618042e-01 1.192880235612392426e-02 7.479439973831176758e-01
1.336134225130081177e-01 -2.401368133723735809e-02 2.102167010307312012e-01
8.651533722877502441e-01 -4.423299804329872131e-02 5.298496037721633911e-02
5.229947566986083984e-01 -7.456196099519729614e-02 -5.800841376185417175e-02
-9.181631207466125488e-01 1.042193099856376648e-01 2.604723274707794189e-01
1.102814227342605591e-01 -9.076401591300964355e-02 2.629199326038360596e-01
1.854919344186782837e-01 -2.986663952469825745e-02 -8.032947033643722534e-02
-3.399440944194793701e-01 4.874922335147857666e-02 8.618719130754470825e-02
1.363270729780197144e-01 -7.545590400695800781e-03 9.291809797286987305e-02
2.024655044078826904e-01 -9.784077107906341553e-02 -6.422565784305334091e-03
1.203378587961196899e-01 -7.480140775442123413e-02 -2.447177916765213013e-01
9.652389883995056152e-01 1.051876973360776901e-02 2.348072826862335205e-02
-2.254921346902847290e-01 1.439928263425827026e-01 8.527385592460632324e-01
4.325399398803710938e-01 2.440624311566352844e-02 -9.836722910404205322e-02
2.527477443218231201e-01 5.401689186692237854e-02 -8.948136866092681885e-02
-6.399347782135009766e-01 6.024231389164924622e-02 5.958284065127372742e-02
9.907227940857410431e-04 -1.914509385824203491e-02 3.268235921859741211e-01
7.753144949674606323e-02 -4.210465401411056519e-02 4.404589906334877014e-02
6.872541457414627075e-02 -4.508434236049652100e-02 -1.027037277817726135e-01
2.060837149620056152e-01 -6.668706238269805908e-02 3.401605412364006042e-02
-8.375785350799560547e-01 3.161602094769477844e-02 2.817314234562218189e-04
1.790004670619964600e-01 -9.784077107906341553e-02 -4.204579815268516541e-02
1.340125054121017456e-01 -2.103399112820625305e-02 -2.561044394969940186e-01
3.941232562065124512e-01 4.800431057810783386e-02 -9.211519360542297363e-02
-8.040836453437805176e-01 7.804062217473983765e-02 4.021487385034561157e-02
2.586539089679718018e-01 -5.766818672418594360e-02 -2.283561080694198608e-01
1.603242009878158569e-01 -3.391050174832344055e-02 1.188307330012321472e-01
2.383548021316528320e-01 -1.187251880764961243e-01 2.527304589748382568e-01
1.511763688176870346e-02 -4.798421263694763184e-02 -9.286011755466461182e-02
-5.940116569399833679e-02 -4.199822992086410522e-02 -3.506031036376953125e-01
-8.238732814788818359e-02 4.772224463522434235e-03 -6.203712821006774902e-01
-5.448774695396423340e-01 6.125327572226524353e-02 7.402900606393814087e-02
-5.298460125923156738e-01 2.448605559766292572e-02 8.318089693784713745e-02
1.415415257215499878e-01 -7.631785422563552856e-02 2.276425510644912720e-01
2.314908653497695923e-01 -9.430237859487533569e-02 -2.524064481258392334e-01
-3.875924944877624512e-01 -7.033187150955200195e-02 4.777050763368606567e-02
-1.863837540149688721e-01 -8.238364011049270630e-02 -4.467962682247161865e-02
-1.656855642795562744e-01 1.799459755420684814e-02 -7.980617284774780273e-01
1.048541218042373657e-01 -2.063493803143501282e-02 -9.552055597305297852e-02
2.678590118885040283e-01 -5.064465105533599854e-02 2.320056557655334473e-01
1.725888103246688843e-01 -6.006257981061935425e-02 -2.226095646619796753e-01
5.332906842231750488e-01 8.003594726324081421e-02 6.532938033342361450e-02
-7.424639910459518433e-02 3.096153493970632553e-03 5.940909385681152344e-01
-7.996407151222229004e-01 9.583893418312072754e-02 -1.699063330888748169e-01
-7.231798171997070312e-01 8.163221180438995361e-02 -4.890972003340721130e-02
1.823792159557342529e-01 -1.326392740011215210e-01 -2.472451925277709961e-01
1.317777335643768311e-01 -9.044476598501205444e-02 -2.727055549621582031e-01
-1.495101153850555420e-01 7.432665675878524780e-03 6.955865621566772461e-01
-8.826197385787963867e-01 3.760094046592712402e-01 -1.234716735780239105e-03
2.274204045534133911e-01 -7.299229502677917480e-02 -2.932707369327545166e-01
-6.315238028764724731e-02 -2.858964167535305023e-02 -3.627879023551940918e-01
2.740578353404998779e-01 -5.298582464456558228e-02 -2.403546571731567383e-01
-2.365595549345016479e-01 -5.490134283900260925e-02 7.267218828201293945e-02
-2.707282314077019691e-03 -2.175231277942657471e-02 -3.096324205398559570e-01
9.812323004007339478e-02 -3.694339469075202942e-02 -2.158254534006118774e-01
7.965980470180511475e-02 -5.077765509486198425e-02 -1.421313881874084473e-01
-6.187577247619628906e-01 1.041660979390144348e-01 8.475872687995433807e-03
1.813150346279144287e-01 -4.614851623773574829e-02 2.661124467849731445e-01
2.365456968545913696e-01 -7.041167467832565308e-02 -2.327458262443542480e-01
4.951134026050567627e-01 8.942729234695434570e-02 5.423536524176597595e-02
4.609534144401550293e-01 1.006809324026107788e-01 3.409586474299430847e-02
-1.277477592229843140e-01 -2.739244513213634491e-02 5.100212097167968750e-01
1.570252627134323120e-01 -7.501423358917236328e-02 2.073434293270111084e-01
-1.791739761829376221e-01 5.798094347119331360e-02 8.287945985794067383e-01
1.583288758993148804e-01 -1.161711663007736206e-01 -2.508633732795715332e-01
2.585740983486175537e-01 -1.150271892547607422e-01 -2.172620892524719238e-01
2.238062396645545959e-02 -1.927811652421951294e-02 -4.157571494579315186e-01
-7.466448545455932617e-01 2.811648547649383545e-01 2.622914500534534454e-03
-7.745261788368225098e-01 3.031400740146636963e-01 2.117431955412030220e-03
1.232909485697746277e-01 -3.345822915434837341e-02 -2.616913616657257080e-01
4.643853604793548584e-01 9.658385813236236572e-02 4.276889190077781677e-02
-1.014094427227973938e-01 -4.045518115162849426e-02 8.203691989183425903e-02
-7.934685349464416504e-01 9.618479758501052856e-02 1.669846177101135254e-01
1.350766718387603760e-01 -4.386052489280700684e-02 -2.845097333192825317e-02
3.068118356168270111e-02 2.613552473485469818e-02 9.262544661760330200e-02
4.847376942634582520e-01 -6.213772296905517578e-02 6.657978147268295288e-02
4.954773467034101486e-03 -6.550605758093297482e-04 5.268883705139160156e-01
5.658277869224548340e-01 -6.352114677429199219e-02 6.519635766744613647e-02
5.153592824935913086e-01 5.683694779872894287e-02 8.262220770120620728e-02
-5.329054594039916992e-01 1.009469702839851379e-01 -3.739003464579582214e-02
-1.584983244538307190e-02 -3.049453487619757652e-03 -5.092715024948120117e-01
-8.739200830459594727e-01 3.153248727321624756e-01 -3.841943573206663132e-03
1.878065168857574463e-01 -1.275046318769454956e-01 2.139413058757781982e-01
3.081420622766017914e-02 -1.006608381867408752e-01 2.914745546877384186e-02
7.593519240617752075e-02 -2.521087788045406342e-02 3.478144407272338867e-01
2.684442996978759766e-01 -8.437895774841308594e-02 7.243274152278900146e-02
2.570617012679576874e-02 -4.681361466646194458e-02 -2.347677499055862427e-01
-2.170279063284397125e-02 -3.178215771913528442e-02 -3.635328114032745361e-01
7.867770195007324219e-01 -6.149922311305999756e-02 5.716184526681900024e-02
8.093640804290771484e-01 9.317850321531295776e-02 -5.065743811428546906e-03
7.976847887039184570e-01 -7.778108119964599609e-02 -4.201919585466384888e-02
-6.895212829113006592e-02 1.211502775549888611e-02 -7.170248627662658691e-01
7.005562633275985718e-02 -4.449904337525367737e-02 -9.286011755466461182e-02
-1.148180440068244934e-01 4.665811546146869659e-03 6.733187437057495117e-01
2.209555506706237793e-01 -4.346147179603576660e-02 -2.177941650152206421e-01
1.054394245147705078e-01 -4.519074782729148865e-02 -2.531247735023498535e-01
-7.090795040130615234e-01 2.569549083709716797e-01 -8.125244639813899994e-03
-3.362154215574264526e-02 4.427969828248023987e-02 8.807609975337982178e-02
-4.364114999771118164e-01 6.737227737903594971e-02 7.501336932182312012e-02
-4.058696925640106201e-01 -1.323892362415790558e-02 -9.411052614450454712e-02
1.602623844519257545e-03 7.902498543262481689e-02 -7.184267044067382812e-02
2.252388447523117065e-01 -2.912171743810176849e-02 7.732794433832168579e-02
1.987675130367279053e-01 -4.311560466885566711e-02 8.741098642349243164e-02
3.067279756069183350e-01 2.190543524920940399e-02 -9.868647903203964233e-02
7.888827472925186157e-02 -2.654109895229339600e-02 -2.046250104904174805e-01
5.507696866989135742e-01 -8.326158672571182251e-02 -4.279071837663650513e-02
5.188485234975814819e-02 -1.011131107807159424e-01 -3.204256296157836914e-02
-6.174234673380851746e-02 -4.540359228849411011e-02 3.546517789363861084e-01
2.136393487453460693e-01 -5.945067852735519409e-02 8.647984266281127930e-02
1.053862124681472778e-01 2.717309631407260895e-02 9.246582537889480591e-02
2.621922791004180908e-01 -9.677659720182418823e-02 2.413970082998275757e-01
7.516366988420486450e-02 1.023037955164909363e-01 2.986577339470386505e-02
-1.954292207956314087e-01 9.687650948762893677e-02 -8.457100987434387207e-01
9.987911581993103027e-02 -6.756500899791717529e-02 -3.874685615301132202e-02
2.302936762571334839e-01 -1.297926008701324463e-01 -2.516615092754364014e-01
-7.922141253948211670e-02 -1.111056841909885406e-02 -4.866045415401458740e-01
1.950162947177886963e-01 -2.827037125825881958e-02 -1.165912076830863953e-01
6.420267373323440552e-02 -3.622507303953170776e-02 -2.478038817644119263e-01
7.443164587020874023e-01 -2.437554765492677689e-03 -9.105101972818374634e-02
1.175177991390228271e-01 -5.263997241854667664e-02 -1.571096479892730713e-01
6.119597554206848145e-01 4.994641989469528198e-02 8.589453995227813721e-02
6.294919848442077637e-01 4.265682771801948547e-02 8.796968311071395874e-02
2.598245143890380859e-01 -7.288588583469390869e-02 -2.800749540328979492e-01
-2.808558046817779541e-01 1.036606281995773315e-01 2.571549639105796814e-02
5.419370532035827637e-01 -2.507785335183143616e-02 8.874121308326721191e-02
6.824080944061279297e-01 5.247383564710617065e-02 -8.559712767601013184e-02
7.393985986709594727e-02 -3.372427821159362793e-02 -1.036880984902381897e-01
-7.934685349464416504e-01 9.618479758501052856e-02 1.669846177101135254e-01
1.861570477485656738e-01 -3.449580073356628418e-02 2.494847327470779419e-01
2.214344292879104614e-01 -4.548339545726776123e-02 -1.290686428546905518e-01
7.380910515785217285e-01 3.190867230296134949e-02 8.326071500778198242e-02
1.788142472505569458e-01 -3.960383683443069458e-02 2.264187484979629517e-01
-1.863837540149688721e-01 -8.238364011049270630e-02 -4.467962682247161865e-02
6.083947420120239258e-01 -8.954021334648132324e-02 -1.514879520982503891e-02
6.183713674545288086e-01 -3.039873577654361725e-02 -9.219500422477722168e-02
1.833676360547542572e-02 -2.318895608186721802e-02 2.752909660339355469e-01
-6.618036031723022461e-01 2.163938805460929871e-02 5.795997753739356995e-02
-4.453771710395812988e-01 6.306236982345581055e-02 -8.280366659164428711e-02
3.834017217159271240e-01 -5.865255743265151978e-02 6.961268186569213867e-02
1.753556728363037109e-01 -7.767467200756072998e-02 -2.084028422832489014e-01
-2.254921346902847290e-01 1.439928263425827026e-01 8.527385592460632324e-01
-1.632645726203918457e-01 9.561010636389255524e-03 9.411529451608657837e-02
2.191464602947235107e-01 -4.532377049326896667e-02 2.301433682441711426e-01
-5.679393559694290161e-02 -3.356465324759483337e-02 8.549547940492630005e-02
-1.030855178833007812e-01 1.073852255940437317e-01 -1.280761137604713440e-02
6.284584850072860718e-02 -8.512388169765472412e-02 -8.102117478847503662e-02
-1.725760847330093384e-01 1.685060188174247742e-02 7.871853113174438477e-01
2.219931185245513916e-01 -4.785118624567985535e-02 9.568495303392410278e-02
-7.877219319343566895e-01 9.493438899517059326e-02 -1.512219011783599854e-02
-3.040241450071334839e-02 -1.816072314977645874e-02 4.092439115047454834e-01
2.788200080394744873e-01 -3.375087678432464600e-02 -8.051569014787673950e-02
2.102605849504470825e-01 -9.185478836297988892e-02 2.887261509895324707e-01
-7.230427861213684082e-02 -1.007299777120351791e-02 -5.034983158111572266e-01
2.061635106801986694e-01 -8.770451694726943970e-02 2.718856036663055420e-01
-3.493886590003967285e-01 6.601545959711074829e-02 7.700869441032409668e-02
2.287506312131881714e-01 -5.710950866341590881e-02 2.802127599716186523e-01
2.396849989891052246e-01 -3.031891398131847382e-02 9.576476365327835083e-02
7.779975533485412598e-01 -5.301242321729660034e-02 6.474408507347106934e-02
3.874230384826660156e-02 -4.513754323124885559e-02 -1.169636622071266174e-01
-4.574289321899414062e-01 -7.198134064674377441e-02 -8.843562565743923187e-03
-3.745829761028289795e-01 -8.347441256046295166e-02 -7.034466136246919632e-03
-8.384830951690673828e-01 4.914829507470130920e-02 -1.177004259079694748e-02
1.884982138872146606e-01 2.670480636879801750e-03 -9.940478950738906860e-02
-4.344693720340728760e-01 8.538343012332916260e-02 5.897093936800956726e-02
5.229947566986083984e-01 -7.456196099519729614e-02 -5.800841376185417175e-02
1.580628305673599243e-01 -6.149922311305999756e-02 -2.521669864654541016e-01
1.519744936376810074e-02 7.394355535507202148e-02 7.104931771755218506e-02
1.173049658536911011e-01 -2.454577758908271790e-02 2.074764519929885864e-01
-5.886907875537872314e-02 -9.557940065860748291e-02 2.536964043974876404e-02
2.458878606557846069e-02 -4.231747984886169434e-02 -6.968772411346435547e-02
-6.831362843513488770e-02 -8.317113853991031647e-03 5.223389863967895508e-01
-1.002122461795806885e-01 1.578642986714839935e-02 7.406809926033020020e-01
-3.320691883563995361e-01 3.087109886109828949e-02 -9.698379039764404297e-02
8.681637793779373169e-02 -3.963043540716171265e-02 -7.886622846126556396e-02
-8.842692375183105469e-01 3.136754035949707031e-01 -3.097021719440817833e-03
3.735887631773948669e-02 -4.928782954812049866e-02 -2.398144081234931946e-02
1.101217865943908691e-01 -5.865255743265151978e-02 -2.507037520408630371e-01
1.543382257223129272e-01 -8.076076954603195190e-02 2.356238514184951782e-01
2.260635793209075928e-01 -6.086072325706481934e-02 -2.142291814088821411e-01
6.287736892700195312e-01 -5.486473091877996922e-04 9.315753728151321411e-02
6.276031136512756348e-01 -8.672015368938446045e-02 -3.326635807752609253e-02
1.761538088321685791e-01 -9.784077107906341553e-02 2.300184778869152069e-02
-2.462701499462127686e-01 -7.333816587924957275e-02 -5.960467085242271423e-02
4.365838468074798584e-01 1.032615527510643005e-01 2.696589939296245575e-02
1.163206025958061218e-01 -7.637105882167816162e-02 2.347991317510604858e-01
2.029709964990615845e-01 -4.710626602172851562e-02 1.027617081999778748e-01
2.009756863117218018e-01 -5.971672758460044861e-02 3.284546360373497009e-02
1.058118864893913269e-01 -4.394034668803215027e-02 -1.291218549013137817e-01
4.282832741737365723e-01 -3.561317548155784607e-02 8.445791155099868774e-02
1.249138042330741882e-01 7.024554908275604248e-02 7.402900606393814087e-02
4.516685009002685547e-01 -8.778432011604309082e-02 -2.956835739314556122e-02
4.282832741737365723e-01 -3.561317548155784607e-02 8.445791155099868774e-02
2.283515483140945435e-01 -4.146613180637359619e-02 -2.548274397850036621e-01
5.229947566986083984e-01 -7.456196099519729614e-02 -5.800841376185417175e-02
7.042808830738067627e-02 -1.137661654502153397e-02 -3.881418406963348389e-01
1.082860901951789856e-01 1.074916422367095947e-01 6.400733254849910736e-03
1.257917582988739014e-01 2.036237902939319611e-02 9.342357516288757324e-02
1.351564824581146240e-01 -5.857273191213607788e-02 -2.433609515428543091e-01
2.398712486028671265e-01 -7.996264100074768066e-02 -2.040131092071533203e-01
7.470833063125610352e-01 9.027862548828125000e-02 4.058732837438583374e-02
7.073630094528198242e-01 4.316231235861778259e-02 8.216993510723114014e-02
3.725245967507362366e-02 7.963688671588897705e-02 6.572844833135604858e-02
8.713562786579132080e-02 -2.678054571151733398e-02 -1.952868849039077759e-01
-1.360749155282974243e-01 1.360487379133701324e-02 7.797361612319946289e-01
-6.624953150749206543e-01 -1.276003941893577576e-02 3.824614733457565308e-02
2.585209012031555176e-01 -8.759810030460357666e-02 -2.763503491878509521e-01
-1.928179711103439331e-02 -1.834694854915142059e-02 4.110796153545379639e-01
5.131511688232421875e-01 9.594535082578659058e-02 4.393948242068290710e-02
-2.188902162015438080e-02 -2.233760990202426910e-02 5.070148706436157227e-01
-5.265736579895019531e-01 1.162710785865783691e-01 8.848333731293678284e-03
7.973962277173995972e-02 -3.295275196433067322e-02 -1.720346808433532715e-01
2.588933408260345459e-01 9.740859270095825195e-02 -4.670155793428421021e-02
-6.717003583908081055e-01 1.765565425157546997e-01 4.618241451680660248e-03
4.718877971172332764e-01 1.034477800130844116e-01 -3.185633197426795959e-02
1.779363006353378296e-01 -9.395653009414672852e-02 2.750781178474426270e-01
5.658277869224548340e-01 -6.352114677429199219e-02 6.519635766744613647e-02
3.198479861021041870e-02 -9.141849353909492493e-03 5.167787075042724609e-01
1.144583001732826233e-01 -3.135648369789123535e-02 -1.052577421069145203e-01
9.458484500646591187e-02 7.508753985166549683e-02 -7.551407814025878906e-02
7.997905462980270386e-02 3.236094489693641663e-02 -9.687738120555877686e-02
6.039252281188964844e-01 3.031241148710250854e-02 9.188052266836166382e-02
2.171551622450351715e-02 -2.473200298845767975e-02 -3.482885062694549561e-01
-1.001856476068496704e-01 1.349845994263887405e-02 7.142096161842346191e-01
-3.282341361045837402e-02 -1.518103294074535370e-02 5.143045186996459961e-01
-7.146663665771484375e-01 3.432966396212577820e-02 4.811636358499526978e-02
-1.019947454333305359e-01 1.437639724463224411e-02 7.246917486190795898e-01
-5.674911737442016602e-01 1.258220523595809937e-01 7.810763549059629440e-03
2.457507997751235962e-01 -9.196121245622634888e-02 2.204859703779220581e-01
-4.548708349466323853e-02 -1.353157218545675278e-02 -4.689392447471618652e-01
1.330281347036361694e-01 -9.406295418739318848e-02 -2.174483239650726318e-01
2.210619449615478516e-01 -3.718284144997596741e-02 2.277489751577377319e-01
1.690012775361537933e-02 -6.295182276517152786e-03 -4.613570272922515869e-01
1.682031527161598206e-02 8.578249067068099976e-02 -6.442005932331085205e-02
-2.676866352558135986e-01 1.207246095873415470e-03 -9.929837286472320557e-02
1.832571625709533691e-01 -6.852277368307113647e-02 8.741098642349243164e-02
1.515979766845703125e-01 -3.973685950040817261e-02 -1.906843185424804688e-01
1.314052790403366089e-01 -4.034875705838203430e-02 -2.131916135549545288e-01
-1.191238779574632645e-02 -3.912496194243431091e-02 -1.476118862628936768e-01
-3.609574958682060242e-02 -2.800434269011020660e-02 2.772330641746520996e-01
2.392593473196029663e-01 -5.881218239665031433e-02 -2.075248956680297852e-01
5.443048477172851562e-01 2.709328383207321167e-02 9.246582537889480591e-02
-2.899238280951976776e-02 -2.462558075785636902e-02 -3.310489058494567871e-01
1.323630362749099731e-01 -2.271006256341934204e-02 -9.490866214036941528e-02
-4.461752772331237793e-01 -4.125330597162246704e-02 6.966589391231536865e-02
-1.919972598552703857e-01 -4.870253428816795349e-02 7.711511105298995972e-02
1.721938140690326691e-02 -6.410644203424453735e-02 -9.286011755466461182e-02
2.694818973541259766e-01 -1.230084970593452454e-01 2.668041586875915527e-01
-1.773874461650848389e-02 -4.253030568361282349e-02 -8.333575725555419922e-02
8.297430276870727539e-01 8.035519719123840332e-02 -3.385165706276893616e-02
-1.731879860162734985e-01 6.833002716302871704e-02 8.319339156150817871e-01
-1.558378897607326508e-02 -1.515443157404661179e-02 3.775314986705780029e-01
2.676993906497955322e-01 -8.664032816886901855e-02 2.425409853458404541e-01
3.573600947856903076e-02 -3.167573362588882446e-02 2.114671021699905396e-01
9.812323004007339478e-02 -3.694339469075202942e-02 -2.158254534006118774e-01
1.921430081129074097e-01 -2.741904556751251221e-02 -1.350812315940856934e-01
1.072791777551174164e-02 -3.489487245678901672e-02 1.699643135070800781e-01
2.002573609352111816e-01 -5.822688341140747070e-02 2.209382504224777222e-01
1.773509979248046875e-01 -2.808414585888385773e-02 -1.256366819143295288e-01
1.601379811763763428e-01 -9.871871769428253174e-02 2.088066786527633667e-01
2.603299915790557861e-01 -7.796732336282730103e-02 8.267541974782943726e-02
1.227854564785957336e-01 -1.026827543973922729e-01 -2.237535566091537476e-01
-2.631638944149017334e-01 9.118317812681198120e-02 5.178776383399963379e-02
-5.313890576362609863e-01 1.052036732435226440e-01 1.930384524166584015e-02
-6.309691667556762695e-01 1.010001823306083679e-01 8.236434310674667358e-03
-7.964747548103332520e-01 9.235376119613647461e-02 -1.421846002340316772e-01
-1.524099856615066528e-01 1.166275423020124435e-02 -7.554415464401245117e-01
-6.484215855598449707e-01 6.375408172607421875e-02 5.676278099417686462e-02
1.349436491727828979e-01 -1.097861304879188538e-01 -2.575144767761230469e-01
-7.895536720752716064e-02 5.803414434194564819e-02 -8.740623295307159424e-02
-4.028101861476898193e-01 8.631457388401031494e-02 5.835903808474540710e-02
-8.054757490754127502e-03 -9.743103291839361191e-04 5.977623462677001953e-01
7.945720553398132324e-01 4.441272094845771790e-02 -7.729656994342803955e-02
2.932436205446720123e-02 -6.900165230035781860e-02 8.741098642349243164e-02
6.318065524101257324e-01 3.206829726696014404e-02 9.068332612514495850e-02
-5.545880794525146484e-01 1.048312112689018250e-01 2.050104178488254547e-02
-1.153501272201538086e-01 6.474906578660011292e-03 -7.016475796699523926e-01
-6.832732558250427246e-01 9.567931294441223145e-02 -2.714735828340053558e-02
-9.172138758003711700e-03 -2.920153923332691193e-02 -2.794364690780639648e-01
3.778454661369323730e-02 -2.348160557448863983e-02 -3.606063127517700195e-01
1.193801090121269226e-01 -8.871547132730484009e-02 -2.705240249633789062e-01
-9.003116488456726074e-01 1.082897782325744629e-01 3.101426661014556885e-01
2.027847766876220703e-01 -9.206763654947280884e-02 -6.439345329999923706e-02
-2.310790568590164185e-01 -8.826319873332977295e-02 2.217711322009563446e-02
-7.432620972394943237e-02 -1.677730120718479156e-02 5.156081318855285645e-01
7.173170894384384155e-02 -4.088085517287254333e-02 -6.843732297420501709e-02
1.290906965732574463e-01 -5.069785565137863159e-02 -9.286011755466461182e-02
8.273220062255859375e-01 7.138953357934951782e-02 4.324776306748390198e-02
2.561531066894531250e-01 -5.897180736064910889e-02 -2.076845169067382812e-01
2.294157296419143677e-01 -4.519074782729148865e-02 1.275037527084350586e-01
2.421632409095764160e-02 -4.237068071961402893e-02 8.150483667850494385e-02
2.072276920080184937e-01 -3.266010433435440063e-02 -1.216992437839508057e-01
1.533006578683853149e-01 -3.308577835559844971e-02 2.284406721591949463e-01
-8.913990855216979980e-01 1.023304015398025513e-01 2.352247983217239380e-01
8.679381571710109711e-03 -3.875248879194259644e-02 -1.039009243249893188e-01
-3.603496253490447998e-01 7.476828992366790771e-02 7.027779519557952881e-02
2.106862515211105347e-01 -5.389036983251571655e-02 2.007455527782440186e-01
-7.244568467140197754e-01 3.198848292231559753e-02 4.420552402734756470e-02
-5.075069610029459000e-03 -1.174907851964235306e-02 4.049605727195739746e-01
-9.725917130708694458e-02 -3.093081153929233551e-02 -9.198217839002609253e-02
-2.534758672118186951e-02 -2.912171743810176849e-02 8.741098642349243164e-02
2.467883676290512085e-01 -6.426606327295303345e-02 -2.796759009361267090e-01
2.642408311367034912e-01 -1.023901104927062988e-01 2.735084593296051025e-01
1.265898793935775757e-01 -4.590906947851181030e-02 1.038524806499481201e-01
3.818361088633537292e-02 -4.167897999286651611e-02 1.305898576974868774e-01
2.047002762556076050e-01 -9.089703857898712158e-02 1.889598071575164795e-01
5.308204889297485352e-02 -3.492147475481033325e-02 1.011388376355171204e-01
2.396849989891052246e-01 -8.890169858932495117e-02 2.066517025232315063e-01
-3.774521872401237488e-02 -2.771169506013393402e-02 -2.859013378620147705e-01
-5.526459217071533203e-01 -2.999966405332088470e-02 -6.564386188983917236e-02
2.323422133922576904e-01 -6.333491951227188110e-02 2.612970471382141113e-01
9.229686856269836426e-02 -3.268670663237571716e-02 -2.663471400737762451e-01
2.616602182388305664e-01 -8.709260076284408569e-02 -2.566631436347961426e-01
-7.539077997207641602e-01 6.614847481250762939e-02 -3.576717153191566467e-02
-8.342264294624328613e-01 3.733595460653305054e-02 -1.022698916494846344e-02
-5.038229003548622131e-02 -1.951754465699195862e-02 3.635376095771789551e-01
1.605902463197708130e-01 -3.968365862965583801e-02 1.871507167816162109e-01
4.371731728315353394e-02 -8.650732040405273438e-02 6.413218379020690918e-02
4.209445416927337646e-02 -1.877262257039546967e-02 -4.253879189491271973e-01
-2.557679116725921631e-01 -8.656052500009536743e-02 2.850895188748836517e-02
-1.273486912250518799e-01 -3.178215771913528442e-02 -5.123309493064880371e-01
-4.692944586277008057e-01 -1.358477398753166199e-02 -8.751264214515686035e-02
2.416271120309829712e-01 -1.072054952383041382e-01 2.075828611850738525e-01
-8.842692375183105469e-01 3.136754035949707031e-01 -3.097021719440817833e-03
4.908833205699920654e-01 4.946754500269889832e-02 8.608078211545944214e-02
8.263948559761047363e-02 -4.282295331358909607e-02 1.314145922660827637e-01
-5.453256890177726746e-02 2.856716280803084373e-03 -6.687113642692565918e-01
2.339158952236175537e-02 -1.754882559180259705e-02 3.289519250392913818e-01
1.033642813563346863e-01 -1.052101701498031616e-01 2.477820366621017456e-01
-5.793793126940727234e-02 9.348173625767230988e-03 6.957728266716003418e-01
2.421632409095764160e-02 -4.237068071961402893e-02 8.150483667850494385e-02
-1.995262950658798218e-01 5.029227957129478455e-02 -8.314502239227294922e-01
1.388278901576995850e-01 -6.144602224230766296e-02 1.126319169998168945e-01
2.684442996978759766e-01 -8.437895774841308594e-02 7.243274152278900146e-02
-5.786383748054504395e-01 9.097033739089965820e-02 -5.087844654917716980e-02
5.903570055961608887e-01 -3.885891288518905640e-02 8.291485905647277832e-02
1.342253237962722778e-01 3.480855002999305725e-02 9.086955338716506958e-02
4.859348833560943604e-01 -8.568257838487625122e-02 -3.656530007719993591e-02
1.891101151704788208e-01 7.184181362390518188e-02 -7.822772115468978882e-02
1.226524338126182556e-01 -7.959017157554626465e-02 -2.558117806911468506e-01
2.145970910787582397e-01 2.254393510520458221e-02 -9.860666096210479736e-02
-7.319326400756835938e-01 7.929103076457977295e-02 2.616777084767818451e-02
2.048598974943161011e-01 -1.090412065386772156e-01 -2.634738683700561523e-01
-7.070575952529907227e-01 2.202675193548202515e-01 3.740297863259911537e-03
-7.556371092796325684e-01 3.143139183521270752e-01 1.744970912113785744e-03
1.022469028830528259e-01 -2.348160557448863983e-02 2.279617935419082642e-01
1.733071357011795044e-01 -7.772787660360336304e-02 -2.786915302276611328e-01
1.140592321753501892e-01 -2.518427744507789612e-02 1.986438035964965820e-01
2.210087478160858154e-01 -3.856626525521278381e-02 -2.287551611661911011e-01
1.166664510965347290e-01 -4.380732402205467224e-02 1.945999413728713989e-01
-3.793983757495880127e-01 9.432248771190643311e-02 -5.236828699707984924e-02
2.409088164567947388e-01 -6.067447736859321594e-02 -2.881360948085784912e-01
2.455645799636840820e-01 -4.149275273084640503e-02 2.285204976797103882e-01
4.603947103023529053e-01 1.071191877126693726e-01 -1.544144283980131149e-02
