5.963332578539848328e-02 -4.971554875373840332e-02 2.061343044042587280e-01
3.412258625030517578e-01 -7.341407239437103271e-02 -8.872939646244049072e-02
-2.169486731290817261e-01 -8.695606887340545654e-02 -1.966514997184276581e-02
-5.916018486022949219e-01 7.132291793823242188e-02 -5.687858909368515015e-02
-7.927548289299011230e-01 7.405840605497360229e-02 8.926676213741302490e-02
5.846570134162902832e-01 1.158490478992462158e-01 4.392812028527259827e-02
4.762125909328460693e-01 -8.520763367414474487e-03 9.148765355348587036e-02
2.867869734764099121e-01 -2.187317609786987305e-02 2.443498522043228149e-01
1.331966184079647064e-02 -2.888793870806694031e-02 -3.713240325450897217e-01
-1.218295842409133911e-01 -4.557169973850250244e-02 -7.805829495191574097e-02
-7.982257604598999023e-01 8.356489986181259155e-02 -1.687355786561965942e-01
2.034223675727844238e-01 -3.324846550822257996e-02 -3.015285134315490723e-01
-7.266697883605957031e-01 6.874994188547134399e-02 1.337928920984268188e-01
-7.477682828903198242e-01 7.980022579431533813e-02 2.077322602272033691e-01
-4.038794338703155518e-02 -2.414823509752750397e-02 4.199355244636535645e-01
-1.655161082744598389e-01 1.071279868483543396e-01 -1.530462317168712616e-02
1.358748376369476318e-01 -3.899027407169342041e-02 2.867905199527740479e-01
2.627634406089782715e-01 -1.759390160441398621e-02 2.659628987312316895e-01
2.034494578838348389e-01 -6.583054363727569580e-02 -3.306979835033416748e-01
2.844035923480987549e-01 -3.923403844237327576e-02 -2.283204197883605957e-01
8.587774634361267090e-02 -6.198461353778839111e-02 -1.186572313308715820e-01
5.450330972671508789e-01 2.907186001539230347e-02 9.040429443120956421e-02
1.411291360855102539e-01 -5.922204628586769104e-02 -1.385098248720169067e-01
-4.090254381299018860e-02 -8.419349789619445801e-02 -3.526554256677627563e-02
-7.431640028953552246e-01 7.078123837709426880e-02 -1.477454751729965210e-01
4.404616951942443848e-01 9.223178029060363770e-02 -5.888281017541885376e-02
5.356960464268922806e-03 -9.085617959499359131e-02 5.882356166839599609e-01
-6.795947253704071045e-02 -5.135254468768835068e-03 5.182775855064392090e-01
3.539313748478889465e-02 -3.823192045092582703e-02 2.031279802322387695e-01
-1.181732341647148132e-01 5.617102608084678650e-03 6.380702257156372070e-01
-8.219513893127441406e-01 2.922743558883666992e-01 -4.281428176909685135e-03
1.366873532533645630e-01 -6.187627092003822327e-02 1.271031349897384644e-01
2.887099385261535645e-01 -7.219529151916503906e-02 -1.039777025580406189e-01
1.222515776753425598e-01 -6.922805681824684143e-03 -4.042852818965911865e-01
1.788029968738555908e-01 -2.412115409970283508e-02 -3.601383268833160400e-01
3.443134129047393799e-01 -5.096141248941421509e-02 -3.301292359828948975e-01
2.503589987754821777e-01 -6.528884917497634888e-02 -3.285041749477386475e-01
1.623900979757308960e-01 -1.147291436791419983e-02 9.219183772802352905e-02
-3.069186396896839142e-02 -1.071456167846918106e-02 -4.443425536155700684e-01
-3.848424553871154785e-01 1.090509593486785889e-01 2.354156225919723511e-03
-3.894738256931304932e-01 -5.421149730682373047e-02 4.463230818510055542e-02
4.714760184288024902e-02 -1.063331030309200287e-02 3.813678920269012451e-01
7.900351285934448242e-01 -2.263152971863746643e-02 -6.801012158393859863e-02
2.366575598716735840e-02 -4.376901313662528992e-03 4.583135545253753662e-01
1.070303618907928467e-01 -1.379011124372482300e-01 1.368263065814971924e-01
9.510766863822937012e-01 8.460922166705131531e-03 3.377161547541618347e-02
5.126437172293663025e-02 -2.723581902682781219e-02 -5.828230977058410645e-01
-1.400029510259628296e-01 5.698353983461856842e-03 7.332164049148559570e-01
1.164555996656417847e-01 -5.108173936605453491e-03 -9.127528965473175049e-02
-4.285019040107727051e-01 -5.125933885574340820e-02 1.294400729238986969e-02
1.154534891247749329e-01 -3.617354482412338257e-02 3.105973601341247559e-01
5.823006629943847656e-01 7.458814885467290878e-03 -9.151905030012130737e-02
1.473313719034194946e-01 -3.132550045847892761e-02 -1.204176917672157288e-01
3.228899836540222168e-01 -9.554170072078704834e-02 -3.004180788993835449e-01
1.269672904163599014e-02 -6.734725087881088257e-02 -5.610204935073852539e-01
2.295584678649902344e-01 -1.225834805518388748e-02 -2.268037050962448120e-01
-7.971695065498352051e-01 1.362162232398986816e-01 -6.014804821461439133e-03
-7.579247355461120605e-01 4.545768722891807556e-02 -3.513012453913688660e-02
-6.795947253704071045e-02 -5.135254468768835068e-03 5.182775855064392090e-01
7.943174988031387329e-02 -3.942362219095230103e-02 -1.462287604808807373e-01
6.412625908851623535e-01 -7.780166715383529663e-02 4.390103369951248169e-02
6.828095316886901855e-01 7.909603416919708252e-02 6.602867692708969116e-02
-1.978814899921417236e-01 7.756739854812622070e-03 6.975196599960327148e-01
-6.432240009307861328e-01 5.534335225820541382e-02 -2.987582236528396606e-02
-2.140235751867294312e-01 9.905695915222167969e-02 -4.111569002270698547e-02
-7.811899781227111816e-01 7.256878912448883057e-02 1.571934819221496582e-01
6.429177522659301758e-02 -6.363674253225326538e-02 -5.505118966102600098e-01
4.093150794506072998e-01 4.675772041082382202e-02 -8.428761363029479980e-02
-7.318970561027526855e-01 5.030572414398193359e-02 4.111138731241226196e-02
-5.760556459426879883e-01 9.645689278841018677e-02 4.010927677154541016e-02
-1.341226417571306229e-02 -2.834625914692878723e-02 -8.585848659276962280e-02
-6.480178833007812500e-01 1.344015896320343018e-01 6.904270965605974197e-03
-7.486349344253540039e-01 6.753116101026535034e-02 1.216050758957862854e-01
2.371690720319747925e-01 -3.537296550348401070e-03 9.251685440540313721e-02
-7.181925773620605469e-01 7.004997134208679199e-02 -1.425724178552627563e-01
2.951590344309806824e-02 -8.194552361965179443e-02 6.228219270706176758e-01
8.229693174362182617e-01 -5.402191728353500366e-02 4.560732841491699219e-02
5.726858377456665039e-01 -2.024813741445541382e-02 -8.802521228790283203e-02
-6.456344723701477051e-01 1.835320144891738892e-01 -2.304294845089316368e-03
5.630895029753446579e-04 -2.379614859819412231e-02 -3.313480019569396973e-01
6.729811429977416992e-02 6.650196760892868042e-02 7.537266612052917480e-02
-8.772569298744201660e-01 3.696533739566802979e-01 3.627104917541146278e-03
1.459261029958724976e-02 -2.152108959853649139e-02 3.357584178447723389e-01
-6.920293569564819336e-01 1.034716591238975525e-01 -1.931305788457393646e-02
4.673290550708770752e-01 5.653505027294158936e-02 8.114156126976013184e-02
-8.046447038650512695e-01 8.518993854522705078e-02 -2.573815584182739258e-01
5.567906424403190613e-02 -3.912569582462310791e-02 2.954303324222564697e-01
6.744405031204223633e-01 6.414565443992614746e-02 -7.283107936382293701e-02
3.201544880867004395e-01 9.835276752710342407e-02 -5.249097943305969238e-02
2.344908192753791809e-02 -5.004055425524711609e-02 -6.230158209800720215e-01
2.047495096921920776e-01 -9.803344309329986572e-02 3.219997286796569824e-01
3.084812760353088379e-01 -5.291145667433738708e-02 3.359750807285308838e-01
-4.816105961799621582e-02 -1.707931235432624817e-02 4.183104634284973145e-01
3.978074714541435242e-02 -4.307996481657028198e-02 -2.562169432640075684e-01
-7.832956500351428986e-03 -6.225543841719627380e-02 -2.489042580127716064e-01
6.205974817276000977e-01 9.212344884872436523e-02 -5.893697589635848999e-02
-5.050413608551025391e-01 -8.466592058539390564e-03 -5.793486908078193665e-02
1.903438940644264221e-02 -9.527087211608886719e-02 -5.243680998682975769e-02
-1.400029510259628296e-01 5.698353983461856842e-03 7.332164049148559570e-01
3.367028236389160156e-01 -1.277294754981994629e-02 9.939619153738021851e-02
-1.019769981503486633e-01 1.534026209264993668e-02 -9.105862677097320557e-02
-9.712895750999450684e-02 -2.620662190020084381e-02 8.742505311965942383e-02
7.943174988031387329e-02 -3.942362219095230103e-02 -1.462287604808807373e-01
-7.531850934028625488e-01 2.268393635749816895e-01 6.037583108991384506e-03
1.910991519689559937e-01 -2.366072684526443481e-02 -1.204718649387359619e-01
-3.848424553871154785e-01 1.090509593486785889e-01 2.354156225919723511e-03
4.673290550708770752e-01 5.653505027294158936e-02 8.114156126976013184e-02
1.395041048526763916e-01 -3.357347846031188965e-02 1.171362176537513733e-01
-5.991552397608757019e-02 -9.369998425245285034e-02 -6.637737154960632324e-03
5.714160576462745667e-02 -5.074473842978477478e-02 1.767752319574356079e-01
-7.524538040161132812e-01 8.082941174507141113e-02 3.474663943052291870e-02
3.382465839385986328e-01 1.074259132146835327e-01 -4.707418009638786316e-02
-8.026675581932067871e-01 2.257559895515441895e-01 8.556395769119262695e-03
2.565612196922302246e-01 -7.146401703357696533e-02 1.081172451376914978e-01
2.204582244157791138e-01 -6.618262827396392822e-02 -1.192259937524795532e-01
2.605967223644256592e-01 -5.513235554099082947e-02 -3.332167863845825195e-01
-6.528929471969604492e-01 8.054655045270919800e-03 -3.407384455204010010e-02
3.082916736602783203e-01 9.504851698875427246e-02 5.592633783817291260e-02
3.704766035079956055e-01 1.276576817035675049e-01 1.150855328887701035e-02
3.253816962242126465e-01 -8.579146862030029297e-02 3.506275117397308350e-01
3.294172286987304688e-01 -6.198461353778839111e-02 1.289719343185424805e-01
-5.824204087257385254e-01 1.447356678545475006e-02 -5.335766822099685669e-02
2.935579717159271240e-01 -4.129242524504661560e-02 -2.122595906257629395e-01
2.443192452192306519e-01 -9.524377435445785522e-02 -3.035868704319000244e-01
9.833639115095138550e-02 -4.172576218843460083e-02 1.156195104122161865e-01
-3.529104292392730713e-01 1.005887985229492188e-02 -8.610224723815917969e-02
2.397962063550949097e-01 4.998071864247322083e-02 8.403954654932022095e-02
8.986691236495971680e-01 6.078724190592765808e-02 -2.180478535592556000e-02
-5.008402094244956970e-02 -2.834625914692878723e-02 -3.516068458557128906e-01
1.045115515589714050e-01 -5.358856916427612305e-02 1.790232211351394653e-01
-9.485390037298202515e-02 -7.273696362972259521e-02 5.622426420450210571e-02
8.238359689712524414e-01 -3.750065714120864868e-02 5.644093826413154602e-02
1.803228072822093964e-02 -4.532793536782264709e-02 5.714976787567138672e-01
2.910964377224445343e-02 -2.292945422232151031e-02 5.857438445091247559e-01
7.231375575065612793e-01 -1.517977652838453650e-04 -8.101044595241546631e-02
1.175389587879180908e-01 -5.388649180531501770e-02 8.582709729671478271e-02
1.835728995501995087e-02 -1.400678306818008423e-01 3.783421963453292847e-02
3.443134129047393799e-01 -5.096141248941421509e-02 -3.301292359828948975e-01
2.859744429588317871e-01 6.674572825431823730e-02 7.523724436759948730e-02
4.029844887554645538e-03 -1.068748161196708679e-02 5.496950149536132812e-01
-2.549475133419036865e-01 1.082655191421508789e-01 1.001893263310194016e-02
1.657755970954895020e-01 -1.745848916471004486e-02 -3.824826478958129883e-01
4.113494604825973511e-02 -4.156325757503509521e-02 6.190301179885864258e-01
-7.051651477813720703e-01 6.791033595800399780e-02 1.271573007106781006e-01
7.656323909759521484e-01 -8.056423813104629517e-02 1.581491157412528992e-02
-1.452572494745254517e-01 -1.614333246834576130e-03 -6.489081382751464844e-01
-5.132988840341567993e-02 -1.458757929503917694e-02 -4.331568479537963867e-01
-7.661041617393493652e-01 6.303521245718002319e-02 -6.551838666200637817e-02
3.464259803295135498e-01 -1.210548430681228638e-01 3.458878099918365479e-01
9.524309039115905762e-01 -1.537301298230886459e-02 2.835481427609920502e-02
2.388211935758590698e-01 -5.104266479611396790e-02 -3.270416557788848877e-01
2.361158840358257294e-02 -2.796708233654499054e-02 2.866280078887939453e-01
-9.924151748418807983e-02 8.027574978768825531e-03 -6.670544147491455078e-01
-9.799564629793167114e-02 -3.564387094229459763e-03 -5.475868582725524902e-01
3.098625838756561279e-01 -1.099734217859804630e-03 9.257101267576217651e-02
-6.591765284538269043e-01 6.850618869066238403e-02 -2.058600634336471558e-02
-2.766959965229034424e-01 -8.308306336402893066e-02 2.110400237143039703e-03
3.163085877895355225e-01 -8.370599150657653809e-02 2.940219342708587646e-01
6.412625908851623535e-01 -7.780166715383529663e-02 4.390103369951248169e-02
9.291958808898925781e-02 1.082113608717918396e-01 -9.346139617264270782e-03
-7.113131284713745117e-01 1.204533278942108154e-01 -1.145869214087724686e-02
3.417435288429260254e-02 -3.456045174971222878e-03 4.644887447357177734e-01
-6.557097434997558594e-01 7.113333046436309814e-02 -4.802211374044418335e-02
-7.552164196968078613e-01 5.504542961716651917e-02 3.834881633520126343e-02
4.214757978916168213e-01 -9.597504884004592896e-02 -5.408893525600433350e-02
3.490531444549560547e-01 -1.231132373213768005e-01 -3.354106247425079346e-01
3.237566649913787842e-01 -4.516543075442314148e-02 1.821649521589279175e-01
2.366575598716735840e-02 -4.376901313662528992e-03 4.583135545253753662e-01
2.295584678649902344e-01 -1.225834805518388748e-02 -2.268037050962448120e-01
-6.825739890336990356e-02 9.361306577920913696e-02 5.226999893784523010e-02
3.867030143737792969e-02 -1.177235245704650879e-01 -4.683041945099830627e-02
3.003050014376640320e-02 -7.471409440040588379e-02 -1.607999652624130249e-01
3.057457804679870605e-01 -1.288128923624753952e-02 -1.062798425555229187e-01
-2.949776947498321533e-01 2.175917290151119232e-02 -8.752221465110778809e-01
1.144784614443778992e-01 -7.715165615081787109e-02 8.550208806991577148e-02
-7.113131284713745117e-01 1.204533278942108154e-01 -1.145869214087724686e-02
1.666422784328460693e-01 -6.119918078184127808e-02 -1.345555484294891357e-01
3.666035830974578857e-01 -8.971863985061645508e-02 6.811414659023284912e-02
2.028025314211845398e-02 -4.914677888154983521e-02 2.029925584793090820e-01
5.687044858932495117e-01 1.324786245822906494e-01 -9.860735386610031128e-03
1.835728995501995087e-02 -1.400678306818008423e-01 3.783421963453292847e-02
-5.216167569160461426e-01 9.125676006078720093e-02 -4.953882098197937012e-02
-1.193920150399208069e-01 -1.201459392905235291e-02 -5.353448390960693359e-01
2.720262110233306885e-01 -8.974571526050567627e-02 -3.673968613147735596e-01
4.582048207521438599e-02 -3.568602725863456726e-02 -6.133738756179809570e-01
3.848852813243865967e-01 -1.651054248213768005e-02 -1.005109399557113647e-01
6.006667390465736389e-02 -1.293545030057430267e-02 -3.481401205062866211e-01
3.217795491218566895e-01 6.646290421485900879e-03 9.273351728916168213e-02
-7.892850041389465332e-02 -3.293542424216866493e-03 -6.274575591087341309e-01
1.127450913190841675e-01 -9.811468422412872314e-02 2.380469813942909241e-02
8.000051230192184448e-02 -3.676938638091087341e-02 -6.134822368621826172e-01
3.027394711971282959e-01 -8.462684601545333862e-02 -3.675322532653808594e-01
-5.718846917152404785e-01 -1.802724972367286682e-02 -2.760076522827148438e-02
1.846562512218952179e-02 -2.291434910148382187e-03 -4.815830886363983154e-01
-7.707625627517700195e-01 1.639773547649383545e-01 -9.671146981418132782e-03
8.276308327913284302e-02 1.090509593486785889e-01 -1.139681786298751831e-03
1.555378437042236328e-01 -9.170774370431900024e-03 3.255206346511840820e-01
4.214757978916168213e-01 -9.597504884004592896e-02 -5.408893525600433350e-02
-1.711967634037137032e-03 -3.549644351005554199e-02 -8.287924528121948242e-02
6.604922413825988770e-01 -8.576437085866928101e-02 2.570058032870292664e-02
9.638635069131851196e-02 -3.113591670989990234e-02 -3.403128087520599365e-01
2.020140290260314941e-01 -1.892102509737014771e-02 1.602539718151092529e-01
-1.731808632612228394e-01 3.716997802257537842e-02 -8.729393780231475830e-02
6.112295389175415039e-02 6.048931926488876343e-02 -7.781453430652618408e-02
1.113367155194282532e-01 -2.864418365061283112e-02 3.651174604892730713e-01
4.230195879936218262e-01 -6.761809438467025757e-02 8.799381554126739502e-02
-7.860109210014343262e-01 2.690362632274627686e-01 5.143810063600540161e-03
-7.272115349769592285e-01 2.158974111080169678e-01 5.414650309830904007e-03
4.586621224880218506e-01 9.721525013446807861e-02 5.711803585290908813e-02
-5.445027947425842285e-01 -2.133149653673171997e-02 2.220674231648445129e-02
-5.025225281715393066e-01 1.175824180245399475e-01 5.739658139646053314e-03
-2.336053103208541870e-01 -6.100957840681076050e-02 6.272442638874053955e-02
3.302568197250366211e-01 -1.237361654639244080e-01 3.373022079467773438e-01
-3.797236084938049316e-01 1.366105303168296814e-02 8.596251904964447021e-02
-8.681296110153198242e-01 2.499420046806335449e-01 2.922920510172843933e-03
2.875182330608367920e-01 1.542151346802711487e-02 9.224600344896316528e-02
3.380570411682128906e-01 -3.698606044054031372e-02 1.901276558637619019e-01
-8.322433233261108398e-01 6.574361771345138550e-02 4.381978511810302734e-02
5.261857062578201294e-02 -2.544826827943325043e-02 2.734380960464477539e-01
-8.124178051948547363e-01 7.229794561862945557e-02 8.181866258382797241e-02
-2.405117601156234741e-01 -8.728107064962387085e-02 1.435237564146518707e-02
-1.705808192491531372e-01 4.479572642594575882e-03 -7.149389386177062988e-01
-1.202587112784385681e-01 -1.705222204327583313e-02 4.796828627586364746e-01
-2.920526266098022461e-01 -1.735014654695987701e-02 -8.423344790935516357e-02
3.970189392566680908e-01 -6.729306280612945557e-02 -8.729393780231475830e-02
-3.402080237865447998e-01 8.895462006330490112e-02 -5.609315633773803711e-02
-1.362924575805664062e-01 -1.345004886388778687e-02 -8.940649777650833130e-02
3.298574592918157578e-03 -3.124424815177917480e-02 -3.023410141468048096e-01
5.451444908976554871e-02 -1.468929946422576904e-01 -6.649341434240341187e-02
7.830203771591186523e-01 -6.651960778981447220e-03 7.391012459993362427e-02
-8.581356406211853027e-01 6.964371353387832642e-02 2.131296880543231964e-02
7.774681448936462402e-01 1.286056190729141235e-01 -7.341921795159578323e-03
2.388211935758590698e-01 -5.104266479611396790e-02 -3.270416557788848877e-01
4.129714071750640869e-01 7.690582424402236938e-04 9.235434979200363159e-02
1.091699972748756409e-01 -4.508417844772338867e-02 2.470582574605941772e-01
-8.575127124786376953e-01 3.824370205402374268e-01 -2.981394995003938675e-03
-1.352090835571289062e-01 4.711330693680793047e-04 -5.998589992523193359e-01
-7.229050993919372559e-01 1.399538218975067139e-01 1.064186636358499527e-02
2.561008036136627197e-01 -1.064836457371711731e-01 3.069139420986175537e-01
3.856196627020835876e-02 -9.803344309329986572e-02 -6.020528078079223633e-01
-5.097779259085655212e-02 -4.012780264019966125e-02 -3.998164236545562744e-01
-4.114118814468383789e-01 1.043805666267871857e-02 -8.000834286212921143e-02
8.812572062015533447e-02 -1.348135173320770264e-01 -1.419765651226043701e-01
-8.386622667312622070e-01 3.121810853481292725e-01 -3.929335623979568481e-03
7.542331516742706299e-02 -1.615845598280429840e-02 4.770286381244659424e-01
4.353428184986114502e-01 1.674862578511238098e-02 9.216475486755371094e-02
-5.754055976867675781e-01 1.934869214892387390e-02 5.830973759293556213e-02
-8.142022788524627686e-02 -2.387740090489387512e-02 -4.040686190128326416e-01
2.852973639965057373e-01 -1.002814024686813354e-01 -3.348147571086883545e-01
1.808072179555892944e-01 -6.675139814615249634e-02 3.343229591846466064e-01
-5.713159441947937012e-01 -6.787383463233709335e-03 -4.171153903007507324e-02
-1.801654323935508728e-02 -1.255627349019050598e-02 -5.325822830200195312e-01
-4.786313325166702271e-02 3.586994484066963196e-02 -8.767311275005340576e-02
-8.484395146369934082e-01 2.463940232992172241e-01 4.954221658408641815e-03
7.526320815086364746e-01 4.415765404701232910e-02 -7.017683982849121094e-02
7.176666259765625000e-01 3.221360594034194946e-02 -7.849163562059402466e-02
8.161441683769226074e-01 1.186928674578666687e-01 1.584199629724025726e-02
1.511031063273549080e-03 7.946323603391647339e-03 9.270643442869186401e-02
7.276908308267593384e-02 -9.532503783702850342e-02 -5.872648954391479492e-01
1.465730220079421997e-01 -6.547845155000686646e-02 -1.056839898228645325e-01
3.094562888145446777e-01 -3.980279713869094849e-02 2.155324667692184448e-01
2.756895264610648155e-03 -1.298571527004241943e-01 -4.084485024213790894e-02
4.330166801810264587e-02 -3.801525756716728210e-02 3.045034706592559814e-01
-3.177522867918014526e-02 -4.784674942493438721e-02 -2.346580624580383301e-01
-1.937105804681777954e-01 -7.306196540594100952e-02 5.305543541908264160e-02
-1.383237540721893311e-01 -7.449743151664733887e-02 -5.216597020626068115e-02
2.361940145492553711e-01 -5.291145667433738708e-02 1.720896959304809570e-01
-2.476890087127685547e-01 1.328187622129917145e-02 8.176643848419189453e-01
3.018186092376708984e-01 -4.833426699042320251e-02 -3.308334052562713623e-01
5.126437172293663025e-02 -2.723581902682781219e-02 -5.828230977058410645e-01
-5.100247859954833984e-01 -4.051895812153816223e-03 6.101813912391662598e-02
-5.287367478013038635e-02 -5.216505844146013260e-03 6.112028360366821289e-01
1.185712497681379318e-02 -3.842151537537574768e-02 -5.964193344116210938e-01
3.246775269508361816e-01 -8.942071348428726196e-02 -3.299667239189147949e-01
8.252172470092773438e-01 -7.222237437963485718e-02 2.058169990777969360e-02
-8.263390064239501953e-01 1.763005703687667847e-01 -3.116815118119120598e-03
1.240120381116867065e-01 -2.100649103522300720e-02 -4.170147478580474854e-01
-1.962023079395294189e-01 -8.830705191940069199e-04 -6.440871953964233398e-01
8.641099333763122559e-01 9.640271961688995361e-02 7.832833216525614262e-04
-7.971695065498352051e-01 7.755224406719207764e-02 -1.981217265129089355e-01
3.251108527183532715e-01 -6.518053263425827026e-02 -3.419920504093170166e-01
-3.632534295320510864e-02 1.019007787108421326e-01 3.601958975195884705e-02
5.221540573984384537e-03 -8.029340952634811401e-02 5.710642933845520020e-01
1.321372389793395996e-01 -4.432582482695579529e-02 3.387647271156311035e-01
2.206779830157756805e-02 -8.899940177798271179e-03 -4.117333889007568359e-01
1.039698570966720581e-01 -3.213802352547645569e-02 1.692187935113906860e-01
9.346126765012741089e-02 1.815700158476829529e-02 9.208350628614425659e-02
-3.308640420436859131e-01 -6.214711815118789673e-02 -4.729084670543670654e-02
1.237953677773475647e-01 1.043383404612541199e-01 2.824647724628448486e-02
9.397586435079574585e-02 -3.679647669196128845e-02 -3.056994378566741943e-01
-4.090254381299018860e-02 -8.419349789619445801e-02 -3.526554256677627563e-02
1.969763785600662231e-01 2.295086346566677094e-02 9.148765355348587036e-02
-2.573549374938011169e-02 -9.670631587505340576e-02 -1.663173921406269073e-02
5.883404016494750977e-01 -3.286928683519363403e-02 8.517708629369735718e-02
6.532097607851028442e-02 -7.027231901884078979e-02 9.276060760021209717e-02
-7.686229348182678223e-01 3.094726800918579102e-01 -6.521695759147405624e-04
-3.588418066501617432e-01 1.069113239645957947e-01 1.752120628952980042e-02
3.550657629966735840e-01 -1.594178192317485809e-02 -1.323075890541076660e-01
1.014510542154312134e-01 -8.893319964408874512e-02 6.176759600639343262e-01
4.178496077656745911e-02 -5.762407928705215454e-02 2.333808243274688721e-01
-3.762537613511085510e-02 -2.837333828210830688e-02 -3.780408799648284912e-01
2.627363502979278564e-01 -6.504511088132858276e-02 3.452377915382385254e-01
-2.542433440685272217e-01 1.219851709902286530e-02 -7.953242659568786621e-01
-1.121876761317253113e-01 -8.118716627359390259e-02 -4.076359793543815613e-02
9.178205579519271851e-02 -8.574924431741237640e-03 -3.618175685405731201e-01
-7.553517818450927734e-01 8.567744493484497070e-02 -2.149409055709838867e-01
1.154534891247749329e-01 -3.617354482412338257e-02 3.105973601341247559e-01
-6.920293569564819336e-01 1.034716591238975525e-01 -1.931305788457393646e-02
4.548974633216857910e-01 -5.047390237450599670e-02 7.629352062940597534e-02
5.356960464268922806e-03 -8.208094537258148193e-02 -7.824788242578506470e-02
5.476602315902709961e-01 6.636655330657958984e-02 -7.426652312278747559e-02
-2.512640953063964844e-01 1.111515797674655914e-02 7.868968844413757324e-01
1.120710838586091995e-02 -5.404899641871452332e-02 1.514516621828079224e-01
8.026833534240722656e-01 -5.280313268303871155e-02 -4.940340295433998108e-02
7.067247033119201660e-01 1.091322153806686401e-01 -4.748043417930603027e-02
-1.282214075326919556e-01 -1.228543929755687714e-02 -5.992360711097717285e-01
6.883346438407897949e-01 8.602954447269439697e-02 -6.088702380657196045e-02
-2.441410124301910400e-01 1.972786895930767059e-02 -8.606238961219787598e-01
-8.710275888442993164e-01 8.741082996129989624e-02 -2.604149580001831055e-01
-8.242534995079040527e-01 6.739573925733566284e-02 -6.719759851694107056e-02
-1.437947303056716919e-01 1.149432454258203506e-02 -7.336539626121520996e-01
2.556403577327728271e-01 -6.046790629625320435e-02 -3.171830475330352783e-01
-2.320886105298995972e-01 3.233701223507523537e-03 -6.809755563735961914e-01
7.388262078166007996e-03 -5.304687842726707458e-02 -1.525935083627700806e-01
3.987523019313812256e-01 4.375139623880386353e-02 -8.528972417116165161e-02
-7.258573174476623535e-01 5.639963224530220032e-02 -1.822969689965248108e-02
3.791434764862060547e-01 1.233392953872680664e-02 9.243559837341308594e-02
2.691583894193172455e-02 -9.333277121186256409e-03 5.413802266120910645e-01
2.842952609062194824e-01 -5.296563729643821716e-02 1.570580601692199707e-01
8.823404461145401001e-02 -1.356260627508163452e-01 -1.216364726424217224e-01
4.904348403215408325e-02 -9.414529427886009216e-03 -3.854618966579437256e-01
7.631707936525344849e-02 -3.097340464591979980e-02 5.937336683273315430e-01
-4.432356059551239014e-01 7.810900919139385223e-03 7.805398106575012207e-02
2.852431833744049072e-01 -6.667013466358184814e-02 -2.996867895126342773e-01
3.585054576396942139e-01 -7.059732079505920410e-02 3.046388924121856689e-01
1.398561894893646240e-01 -7.154525816440582275e-02 1.453036069869995117e-01
1.532086133956909180e-01 1.028216332197189331e-01 -3.217796236276626587e-02
-4.014419019222259521e-02 -1.767515204846858978e-02 4.892706274986267090e-01
1.949992477893829346e-01 -9.806051850318908691e-02 -1.305664889514446259e-02
-7.574914097785949707e-01 1.246242672204971313e-01 1.177939493209123611e-02
-1.384862512350082397e-01 -9.101509931497275829e-04 5.961170196533203125e-01
1.008010357618331909e-01 -1.370579004287719727e-03 -9.135653823614120483e-02
-2.674332559108734131e-01 -1.014580205082893372e-02 -8.826896548271179199e-02
6.364145278930664062e-01 1.945703290402889252e-02 8.948343992233276367e-02
-6.535940617322921753e-02 -3.808141453191637993e-03 -5.218570232391357422e-01
-7.579247355461120605e-01 4.545768722891807556e-02 -3.513012453913688660e-02
3.084812760353088379e-01 -5.291145667433738708e-02 3.359750807285308838e-01
3.246775269508361816e-01 -8.942071348428726196e-02 -3.299667239189147949e-01
4.480181038379669189e-01 -4.711548611521720886e-02 9.414189308881759644e-02
2.339460551738739014e-01 3.178025782108306885e-02 -8.870231360197067261e-02
-1.962023079395294189e-01 -8.830705191940069199e-04 -6.440871953964233398e-01
9.436014890670776367e-01 1.989037171006202698e-02 -3.271964192390441895e-02
3.550657629966735840e-01 -1.594178192317485809e-02 -1.323075890541076660e-01
-1.886458545923233032e-01 -9.577032178640365601e-03 9.094597399234771729e-02
-2.958444058895111084e-01 6.235811486840248108e-02 -7.670409232378005981e-02
-1.387300044298171997e-01 -6.868634838610887527e-03 5.547056198120117188e-01
4.051201418042182922e-02 -3.863818943500518799e-02 1.949756890535354614e-01
2.384149432182312012e-01 3.026355244219303131e-02 9.016054123640060425e-02
-1.737496405839920044e-01 -2.453937893733382225e-03 -6.320889592170715332e-01
-6.804102659225463867e-01 6.690823286771774292e-02 -1.178447082638740540e-01
-7.701125741004943848e-01 7.668556272983551025e-02 -1.935716122388839722e-01
5.782922506332397461e-01 -7.233069092035293579e-02 5.682011321187019348e-02
1.713007241487503052e-01 -1.751264929771423340e-02 -2.019676566123962402e-01
-4.912285208702087402e-01 1.964661665260791779e-02 -7.258732616901397705e-02
6.207089126110076904e-02 -4.524668306112289429e-02 -1.633729487657546997e-01
-1.039812192320823669e-01 1.019820272922515869e-01 -3.464261069893836975e-02
1.372832059860229492e-01 -9.126242250204086304e-02 6.632660329341888428e-02
9.072578698396682739e-02 -4.237578436732292175e-02 -9.590665996074676514e-02
9.096953272819519043e-02 -8.782276511192321777e-02 -7.052893936634063721e-02
6.737363338470458984e-01 -1.856892742216587067e-02 -8.404386043548583984e-02
1.942679733037948608e-01 -7.024523615837097168e-02 -8.087503165006637573e-02
-3.069186396896839142e-02 -1.071456167846918106e-02 -4.443425536155700684e-01
1.202744394540786743e-01 -7.598704099655151367e-02 -8.558765053749084473e-02
7.810463011264801025e-02 -9.413333237171173096e-02 5.827104449272155762e-01
-6.584181189537048340e-01 7.237920165061950684e-02 6.705787032842636108e-02
3.987523019313812256e-01 4.375139623880386353e-02 -8.528972417116165161e-02
-7.530767321586608887e-01 8.483785390853881836e-02 -1.887235790491104126e-01
-2.741469815373420715e-02 -9.766625240445137024e-03 5.658100247383117676e-01
3.147105872631072998e-01 -4.719673842191696167e-02 -1.725544184446334839e-01
-5.008402094244956970e-02 -2.834625914692878723e-02 -3.516068458557128906e-01
1.318122297525405884e-01 -1.342447698116302490e-01 -1.240469515323638916e-01
1.835156232118606567e-01 -3.170467540621757507e-02 -3.226811289787292480e-01
-6.382676362991333008e-01 6.273729354143142700e-02 -8.138962835073471069e-02
-5.612065549939870834e-03 -1.316408044658601284e-03 -5.047128200531005859e-01
7.542331516742706299e-02 -1.615845598280429840e-02 4.770286381244659424e-01
-2.814627885818481445e-01 7.519593834877014160e-02 -6.803720444440841675e-02
7.763035297393798828e-01 7.246045023202896118e-02 5.427421629428863525e-02
2.913672663271427155e-02 -5.369688943028450012e-02 -1.206072792410850525e-01
-1.560096144676208496e-01 -2.926711365580558777e-02 5.124816298484802246e-01
-8.162907958030700684e-01 3.578989207744598389e-01 -1.375732681481167674e-04
5.543228983879089355e-01 6.452482938766479492e-02 7.656436413526535034e-02
2.934767305850982666e-01 2.048622071743011475e-02 -9.073361009359359741e-02
8.535200953483581543e-01 1.044195890426635742e-01 -4.625814326573163271e-04
-9.457997046411037445e-03 6.428107619285583496e-02 7.672686874866485596e-02
-3.239816054701805115e-02 -3.885485976934432983e-02 4.012746512889862061e-01
-8.330016732215881348e-01 2.660840749740600586e-01 7.445950992405414581e-03
-6.997483372688293457e-01 2.180641293525695801e-01 -2.683470724150538445e-03
3.899499773979187012e-01 -5.816576629877090454e-02 1.184091717004776001e-01
-5.276533961296081543e-02 -3.401884343475103378e-03 5.981483459472656250e-01
5.808953940868377686e-02 -4.242994263768196106e-02 1.526162773370742798e-01
2.129017710685729980e-01 -8.237887173891067505e-02 8.181866258382797241e-02
2.041567489504814148e-02 -3.311304003000259399e-02 5.881272554397583008e-01
9.497797489166259766e-02 -9.792509675025939941e-02 3.136114031076431274e-02
6.789364814758300781e-01 3.494908660650253296e-02 8.447289466857910156e-02
1.005572825670242310e-01 -2.989004552364349365e-02 -3.569153547286987305e-01
5.035674571990966797e-01 -8.032049238681793213e-02 4.354894533753395081e-02
1.922637820243835449e-01 9.772983938455581665e-02 -4.582831263542175293e-02
2.561008036136627197e-01 -8.920405060052871704e-02 3.050993084907531738e-01
1.028323397040367126e-01 -1.475159376859664917e-01 -1.535414457321166992e-01
-6.285444498062133789e-01 1.911155432462692261e-01 2.137484261766076088e-03
-1.633764654397964478e-01 9.300527162849903107e-03 -7.650172710418701172e-01
1.700308732688426971e-02 -1.722675166092813015e-03 5.453345179557800293e-01
-7.552164196968078613e-01 5.504542961716651917e-02 3.834881633520126343e-02
3.791434764862060547e-01 1.233392953872680664e-02 9.243559837341308594e-02
-4.912285208702087402e-01 1.964661665260791779e-02 -7.258732616901397705e-02
1.411291360855102539e-01 -5.922204628586769104e-02 -1.385098248720169067e-01
9.069869667291641235e-02 -1.033538486808538437e-02 -4.695306718349456787e-01
-7.223364114761352539e-01 6.455191969871520996e-02 9.977536648511886597e-02
7.825599908828735352e-01 -8.706440776586532593e-02 -7.666930090636014938e-03
7.909289002418518066e-01 -7.639330625534057617e-02 4.087533336132764816e-03
1.883365809917449951e-01 2.502438379451632500e-03 -9.146488457918167114e-02
-1.310652345418930054e-01 -1.404589973390102386e-02 -5.067441463470458984e-01
9.427077174186706543e-01 3.516576066613197327e-02 2.632351219654083252e-02
-2.294072806835174561e-01 1.517775934189558029e-02 -7.744695544242858887e-01
-2.312219142913818359e-01 1.144016440957784653e-02 -9.100445359945297241e-02
3.170398175716400146e-01 -5.375107005238533020e-02 3.499233424663543701e-01
-6.493991613388061523e-01 1.023341268301010132e-01 2.534848637878894806e-02
2.907954156398773193e-01 -1.469591073691844940e-02 9.213767200708389282e-02
2.244395762681961060e-01 6.197893992066383362e-02 -7.692076265811920166e-02
6.724362969398498535e-01 -3.869235888123512268e-02 -7.716451585292816162e-02
-4.613819122314453125e-01 1.063425540924072266e-01 2.006710320711135864e-02
-1.517845094203948975e-01 3.357106761541217566e-04 -6.093384027481079102e-01
1.308642923831939697e-01 -1.423428952693939209e-01 -1.647271513938903809e-01
5.150812491774559021e-02 -4.104866087436676025e-02 1.667812168598175049e-01
2.764679491519927979e-01 -1.269169617444276810e-02 -1.986905038356781006e-01
4.855294823646545410e-01 -2.311904728412628174e-02 -8.715852349996566772e-02
4.051201418042182922e-02 -3.863818943500518799e-02 1.949756890535354614e-01
1.269672904163599014e-02 -6.734725087881088257e-02 -5.610204935073852539e-01
3.936605155467987061e-01 6.013722717761993408e-02 8.146657049655914307e-02
-6.711205840110778809e-01 6.891244649887084961e-02 1.239343062043190002e-01
-9.994570165872573853e-02 -3.781050909310579300e-03 5.513742566108703613e-01
1.788029968738555908e-01 -2.412115409970283508e-02 -3.601383268833160400e-01
1.619365415535867214e-03 -8.809360861778259277e-02 -6.054653525352478027e-01
1.925616860389709473e-01 -1.334171742200851440e-02 -2.247994989156723022e-01
4.346417263150215149e-02 -4.424457624554634094e-02 2.513917088508605957e-01
7.981603145599365234e-01 8.608371019363403320e-02 -3.875938057899475098e-02
8.750247955322265625e-01 -4.620655439794063568e-03 -5.441394448280334473e-02
1.333831101655960083e-01 4.648688063025474548e-02 8.561041951179504395e-02
-2.441139370203018188e-01 8.650504983961582184e-03 7.578357458114624023e-01
-7.064110040664672852e-01 1.371522340923547745e-02 2.540265582501888275e-02
-1.582034081220626831e-01 1.085092872381210327e-01 7.608456071466207504e-03
3.416863083839416504e-01 -1.182110309600830078e-01 -3.265270590782165527e-01
3.365132510662078857e-01 -1.008772477507591248e-01 -3.636863529682159424e-01
1.308642923831939697e-01 -1.423428952693939209e-01 -1.647271513938903809e-01
3.848852813243865967e-01 -1.651054248213768005e-02 -1.005109399557113647e-01
-6.591765284538269043e-01 5.794750177301466465e-04 1.364819053560495377e-02
6.919097304344177246e-01 -8.598104864358901978e-02 -1.885262876749038696e-02
2.616530358791351318e-01 1.161198839545249939e-01 -2.448610216379165649e-02
3.250296115875244141e-01 -7.514744251966476440e-02 3.410126864910125732e-01
1.461125910282135010e-01 -1.278529465198516846e-01 1.636665612459182739e-01
3.474311903119087219e-02 -7.558079063892364502e-02 -5.547640919685363770e-01
-3.069186396896839142e-02 -1.071456167846918106e-02 -4.443425536155700684e-01
-8.107928037643432617e-01 2.784614861011505127e-01 5.793826654553413391e-03
-8.296401053667068481e-02 1.070738285779953003e-01 1.684410497546195984e-02
-3.405872285366058350e-01 5.306829512119293213e-02 8.997017741203308105e-01
2.377409301698207855e-02 -7.410313934087753296e-03 -5.460700988769531250e-01
1.570305600762367249e-02 8.630038797855377197e-02 -5.947865545749664307e-02
-2.528349757194519043e-01 4.464516788721084595e-02 8.620627224445343018e-02
2.735158205032348633e-01 5.942108109593391418e-03 -9.151905030012130737e-02
-6.630494594573974609e-01 5.474750325083732605e-02 2.358802594244480133e-02
-1.222056522965431213e-02 -7.360365986824035645e-02 6.153466701507568359e-01
2.731637060642242432e-01 -6.905353814363479614e-02 3.157162368297576904e-01
9.920307993888854980e-02 -6.144292280077934265e-02 2.387976348400115967e-01
-7.181925773620605469e-01 7.004997134208679199e-02 -1.425724178552627563e-01
-4.057513475418090820e-01 -8.195747621357440948e-03 -7.534988969564437866e-02
3.322069048881530762e-01 4.873485490679740906e-02 8.496040850877761841e-02
6.729238033294677734e-01 4.488892108201980591e-02 8.192699402570724487e-02
1.530461013317108154e-01 -4.760299250483512878e-02 -2.434874624013900757e-01
1.719778180122375488e-01 -2.320029959082603455e-02 -1.521060019731521606e-01
2.935579717159271240e-01 -4.129242524504661560e-02 -2.122595906257629395e-01
3.764621317386627197e-01 -5.667614191770553589e-02 1.281052529811859131e-01
4.311208054423332214e-02 -3.574019670486450195e-02 2.123365551233291626e-01
1.509877145290374756e-01 -1.740431785583496094e-02 -2.224973589181900024e-01
-4.686102643609046936e-02 -1.668504206463694572e-03 5.310341715812683105e-01
3.176356852054595947e-01 -1.818975247442722321e-02 1.953819543123245239e-01
3.357277810573577881e-01 -5.052806437015533447e-02 3.364625871181488037e-01
5.782922506332397461e-01 -7.233069092035293579e-02 5.682011321187019348e-02
4.598607309162616730e-03 -2.704622596502304077e-02 3.109494447708129883e-01
7.907934784889221191e-01 -8.611647039651870728e-02 -1.354416273534297943e-02
2.041567489504814148e-02 -3.311304003000259399e-02 5.881272554397583008e-01
-2.490973919630050659e-01 1.853617839515209198e-02 8.280104994773864746e-01
-4.277706444263458252e-01 1.005736663937568665e-01 -3.775727003812789917e-02
1.610358953475952148e-01 5.157867074012756348e-02 8.333536982536315918e-02
2.495193779468536377e-01 1.355271041393280029e-02 -9.116695821285247803e-02
2.609488070011138916e-01 -1.102212369441986084e-01 -3.153955340385437012e-01
3.257609009742736816e-01 -1.350422017276287079e-02 8.160199224948883057e-02
-7.056797146797180176e-01 7.868977636098861694e-02 -1.284887343645095825e-01
-1.194191053509712219e-01 -6.976966746151447296e-03 -5.922754406929016113e-01
5.012652873992919922e-01 -8.660398423671722412e-02 -4.967424273490905762e-02
7.899840176105499268e-02 -4.944470524787902832e-02 6.085215210914611816e-01
5.299472808837890625e-01 1.172032430768013000e-01 -4.144069924950599670e-02
3.213732540607452393e-01 -7.438909262418746948e-02 -3.560757339000701904e-01
6.334384530782699585e-02 1.083196923136711121e-01 9.612672962248325348e-03
3.358903229236602783e-01 -6.041372567415237427e-02 -3.026118576526641846e-01
-5.433621257543563843e-02 -6.046790629625320435e-02 5.873418450355529785e-01
2.764679491519927979e-01 -1.269169617444276810e-02 -1.986905038356781006e-01
3.665764927864074707e-01 7.682098448276519775e-02 6.906209141016006470e-02
-7.362304925918579102e-01 6.059765443205833435e-02 -5.709526315331459045e-02
-8.715422749519348145e-01 2.186870574951171875e-01 1.135375467129051685e-03
2.166153863072395325e-02 -4.408207163214683533e-02 -2.510167956352233887e-01
-1.207191422581672668e-01 -1.537301298230886459e-02 9.035012125968933105e-02
-5.743493437767028809e-01 -1.984187960624694824e-02 -1.789698377251625061e-03
4.964443445205688477e-01 -1.250211242586374283e-02 -8.956899493932723999e-02
3.685806989669799805e-01 -1.347712986171245575e-02 9.546900540590286255e-02
-8.064593672752380371e-01 3.532826527953147888e-02 -1.798593997955322266e-02
5.782922506332397461e-01 -7.233069092035293579e-02 5.682011321187019348e-02
-2.028920650482177734e-01 1.062763947993516922e-02 -7.826218605041503906e-01
-2.944360077381134033e-01 9.808193147182464600e-02 4.446979984641075134e-02
5.399985611438751221e-02 1.090238690376281738e-01 2.679164521396160126e-03
5.506394505500793457e-01 5.225577577948570251e-02 8.303744345903396606e-02
-4.114118814468383789e-01 1.043805666267871857e-02 -8.000834286212921143e-02
1.497418582439422607e-01 -7.493075728416442871e-02 8.956468850374221802e-02
5.450330972671508789e-01 2.907186001539230347e-02 9.040429443120956421e-02
2.445119246840476990e-02 -8.656175807118415833e-03 4.154124855995178223e-01
-7.917798161506652832e-01 1.594814062118530273e-01 8.745984174311161041e-03
6.595172286033630371e-01 1.197220608592033386e-01 -3.908438980579376221e-02
-1.316881626844406128e-01 8.840098977088928223e-03 -6.736629009246826172e-01
3.539313748478889465e-02 -3.823192045092582703e-02 2.031279802322387695e-01
1.873646490275859833e-02 1.085092872381210327e-01 -6.502317264676094055e-03
9.357200860977172852e-01 2.855726145207881927e-02 3.255283832550048828e-02
2.691011130809783936e-01 -5.456358566880226135e-02 3.149578869342803955e-01
2.229499518871307373e-01 -4.746757075190544128e-02 -2.054344117641448975e-01
2.847556769847869873e-01 -4.976972192525863647e-02 3.390355706214904785e-01
-8.670192360877990723e-01 8.074816316366195679e-02 -1.791629195213317871e-01
2.111684232950210571e-01 -1.480425242334604263e-02 -1.904569566249847412e-01
1.185712497681379318e-02 -3.842151537537574768e-02 -5.964193344116210938e-01
-5.365911498665809631e-02 -7.162652164697647095e-02 5.765971913933753967e-02
2.917704284191131592e-01 -2.198151685297489166e-02 -2.364726960659027100e-01
-1.121876761317253113e-01 -8.118716627359390259e-02 -4.076359793543815613e-02
-2.262384742498397827e-01 -4.722381755709648132e-02 -7.296649366617202759e-02
-4.854023456573486328e-02 5.309537798166275024e-02 -8.147087693214416504e-02
-3.006893396377563477e-02 -1.082290336489677429e-02 -5.511618852615356445e-01
7.810463011264801025e-02 -9.413333237171173096e-02 5.827104449272155762e-01
1.657755970954895020e-01 -1.745848916471004486e-02 -3.824826478958129883e-01
-1.991815119981765747e-01 1.615277677774429321e-02 9.219183772802352905e-02
5.654885433614253998e-03 -3.379014506936073303e-02 -6.064945459365844727e-01
-7.207112908363342285e-01 4.329096153378486633e-02 4.073220863938331604e-02
2.437775582075119019e-01 -1.986896060407161713e-02 8.122281730175018311e-02
8.744861185550689697e-02 -2.802125364542007446e-02 5.856897234916687012e-01
2.576716840267181396e-01 -5.069057643413543701e-02 3.357313275337219238e-01
8.514647185802459717e-02 -3.736523538827896118e-02 -5.962838530540466309e-01
5.204407572746276855e-01 -8.795818686485290527e-02 -2.556946501135826111e-02
-5.754055976867675781e-01 1.934869214892387390e-02 5.830973759293556213e-02
-7.372837513685226440e-02 -6.245703902095556259e-03 -6.005360484123229980e-01
3.183940052986145020e-01 -7.512035965919494629e-02 -3.020972907543182373e-01
2.178310602903366089e-01 -3.519851714372634888e-02 2.805611789226531982e-01
-5.807411670684814453e-01 8.773583918809890747e-02 -4.943048581480979919e-02
-1.039812192320823669e-01 1.019820272922515869e-01 -3.464261069893836975e-02
-6.414062529802322388e-02 -2.119607478380203247e-02 -5.873732566833496094e-01
8.051209449768066406e-01 -6.607428193092346191e-02 3.891758248209953308e-02
-1.210170686244964600e-01 -3.452141582965850830e-02 -8.328551054000854492e-02
4.625382646918296814e-02 9.277346730232238770e-02 5.367836356163024902e-02
-7.716293334960937500e-01 8.724832534790039062e-02 2.125261425971984863e-01
-7.697534281760454178e-03 -3.769024088978767395e-02 -2.980617582798004150e-01
-1.251067519187927246e-01 4.777498077601194382e-03 -7.147493362426757812e-01
-8.921532034873962402e-01 3.755576610565185547e-01 -2.385546918958425522e-03
1.590045839548110962e-01 1.099447309970855713e-01 7.832833216525614262e-04
-2.310834266245365143e-02 -3.674230352044105530e-02 2.775819599628448486e-01
1.815926730632781982e-01 -1.331462711095809937e-02 -3.572945296764373779e-01
-8.671545982360839844e-01 9.285470843315124512e-02 2.633628547191619873e-01
1.081137210130691528e-01 -1.740431785583496094e-02 -2.694068551063537598e-01
-6.028146743774414062e-01 5.596628412604331970e-02 3.536957502365112305e-02
1.703798770904541016e-01 8.039607107639312744e-02 -6.427253037691116333e-02
-3.296692296862602234e-02 -2.712747640907764435e-02 5.880460143089294434e-01
-2.762355804443359375e-01 1.585486158728599548e-02 8.498131036758422852e-01
-1.372945606708526611e-01 -9.820796549320220947e-03 -5.555224418640136719e-01
-1.303308736532926559e-02 9.881320595741271973e-02 -4.163028672337532043e-02
6.150181889533996582e-01 -8.646856248378753662e-02 2.727145329117774963e-02
4.869138821959495544e-02 -1.175609976053237915e-01 2.792146988213062286e-02
6.366884708404541016e-02 -6.299864966422319412e-03 4.994271099567413330e-01
7.826713472604751587e-02 -6.631805002689361572e-02 -5.866419672966003418e-01
2.503589987754821777e-01 -6.528884917497634888e-02 -3.285041749477386475e-01
2.594050168991088867e-01 -7.013689726591110229e-02 -3.061057031154632568e-01
9.592591971158981323e-02 -1.017710268497467041e-01 5.837396383285522461e-01
6.828095316886901855e-01 7.909603416919708252e-02 6.602867692708969116e-02
8.366737961769104004e-01 6.444358080625534058e-02 3.916133940219879150e-02
5.435194447636604309e-02 -1.534593198448419571e-02 4.931165277957916260e-01
-3.239816054701805115e-02 -3.885485976934432983e-02 4.012746512889862061e-01
2.526069581508636475e-01 -3.045881539583206177e-02 2.829716801643371582e-01
5.995833873748779297e-02 -1.440221071243286133e-01 6.746412813663482666e-02
5.088519677519798279e-02 -1.367094218730926514e-01 -2.930705994367599487e-02
1.759591698646545410e-01 -2.867126464843750000e-02 1.063567847013473511e-01
-1.158440187573432922e-01 8.217168040573596954e-03 -7.104970812797546387e-01
-8.220566809177398682e-02 1.091051250696182251e-01 1.785391941666603088e-03
-9.591017663478851318e-02 5.481680389493703842e-03 6.282657980918884277e-01
-2.407013177871704102e-01 4.813900217413902283e-02 8.487915992736816406e-02
4.007023572921752930e-01 3.879502043128013611e-02 8.799381554126739502e-02
-5.718846917152404785e-01 -1.802724972367286682e-02 -2.760076522827148438e-02
-1.670057326555252075e-01 -6.927020102739334106e-02 -5.926198512315750122e-02
-6.949544548988342285e-01 6.425399333238601685e-02 9.996495395898818970e-02
-3.783152401447296143e-01 5.523501709103584290e-02 9.005414247512817383e-01
1.075178682804107666e-01 -2.571911364793777466e-02 -3.363043963909149170e-01
3.181804716587066650e-02 -2.074761316180229187e-03 -4.842101931571960449e-01
1.890678405761718750e-01 -1.466883067041635513e-02 2.192700505256652832e-01
-6.493991613388061523e-01 1.023341268301010132e-01 2.534848637878894806e-02
1.085470616817474365e-01 -9.505418688058853149e-02 -6.059799790382385254e-01
1.127450913190841675e-01 -9.811468422412872314e-02 2.380469813942909241e-02
1.535065323114395142e-01 -2.552951872348785400e-02 1.603893935680389404e-01
3.225138783454895020e-02 -2.317320927977561951e-02 -4.243816435337066650e-01
1.759591698646545410e-01 -2.867126464843750000e-02 1.063567847013473511e-01
5.540520548820495605e-01 5.764549225568771362e-02 -7.946666330099105835e-02
2.561008036136627197e-01 -8.920405060052871704e-02 3.050993084907531738e-01
3.082916736602783203e-01 9.504851698875427246e-02 5.592633783817291260e-02
6.250423938035964966e-02 -9.835844486951828003e-02 -5.723958015441894531e-01
2.921798080205917358e-02 -2.087106928229331970e-02 4.518404901027679443e-01
-1.446853950619697571e-02 8.840098977088928223e-03 -9.143780171871185303e-02
1.041594520211219788e-01 -2.710039727389812469e-02 3.834533393383026123e-01
7.455661892890930176e-02 -1.147291436791419983e-02 3.511421382427215576e-01
-6.557097434997558594e-01 7.113333046436309814e-02 -4.802211374044418335e-02
-8.061072826385498047e-01 8.811500668525695801e-02 2.131761461496353149e-01
1.234703585505485535e-01 -2.636912465095520020e-02 -3.832139372825622559e-01
-6.545721888542175293e-01 2.306311130523681641e-01 9.187033865600824356e-04
-1.772705763578414917e-01 1.063425540924072266e-01 2.012127079069614410e-02
3.589117228984832764e-01 5.447666347026824951e-02 -8.087503165006637573e-02
3.357548713684082031e-01 -7.812667638063430786e-02 3.590506315231323242e-01
6.215213984251022339e-02 -8.600813150405883789e-02 7.466848194599151611e-02
1.475209742784500122e-01 -1.651054248213768005e-02 2.404768466949462891e-01
