2.721875011920928955e-01 -6.793619692325592041e-02 3.046036064624786377e-01
1.954906806349754333e-02 7.933097332715988159e-02 -5.899580568075180054e-02
-5.710782408714294434e-01 6.739910691976547241e-02 6.475698947906494141e-02
-6.389877796173095703e-01 8.591499924659729004e-02 4.833723977208137512e-02
-5.748674273490905762e-01 1.797861792147159576e-02 6.123655289411544800e-02
-1.656901277601718903e-02 -2.931886725127696991e-02 4.016709327697753906e-01
3.460092246532440186e-01 -6.326019018888473511e-02 3.601781427860260010e-01
3.860239386558532715e-01 7.876662909984588623e-02 -6.052759662270545959e-02
-2.973172068595886230e-01 8.841598406434059143e-03 9.633342921733856201e-02
2.506886422634124756e-01 -1.217353157699108124e-02 -2.232201993465423584e-01
2.148393094539642334e-01 1.084081828594207764e-01 -2.067409083247184753e-02
3.696314245462417603e-02 9.905617684125900269e-02 -3.349278494715690613e-02
1.388139724731445312e-01 -3.893960639834403992e-02 2.906293570995330811e-01
1.944422721862792969e-01 -4.603423178195953369e-02 -2.181411087512969971e-01
-2.546416595578193665e-02 3.759631887078285217e-02 9.238301962614059448e-02
-2.388671785593032837e-01 -7.357963919639587402e-02 -4.042616859078407288e-02
-8.800973892211914062e-01 2.910141050815582275e-01 2.867157105356454849e-03
4.426196813583374023e-01 1.189694926142692566e-01 -3.158476203680038452e-02
4.365500062704086304e-03 -1.015801914036273956e-02 -5.874108076095581055e-01
1.337617486715316772e-01 -2.862015739083290100e-02 9.934327751398086548e-02
-8.073775768280029297e-01 8.626436442136764526e-02 -2.658954262733459473e-01
9.568189084529876709e-02 -2.539533376693725586e-02 -3.904275894165039062e-01
1.018090695142745972e-01 -1.310622096061706543e-01 1.572826951742172241e-01
-8.708526194095611572e-02 6.933576893061399460e-03 -6.522299051284790039e-01
1.334392577409744263e-01 -2.778707630932331085e-02 3.734268248081207275e-01
-4.708129763603210449e-01 5.471478775143623352e-02 -7.087392359972000122e-02
3.812136054039001465e-01 -5.065648630261421204e-02 1.425559818744659424e-01
2.396436035633087158e-01 -4.431432113051414490e-02 -2.129276245832443237e-01
9.267205744981765747e-02 -1.975187845528125763e-02 4.506614804267883301e-01
1.440274417400360107e-01 -2.633590437471866608e-02 1.736487001180648804e-01
1.107310950756072998e-01 -7.812127470970153809e-02 6.223567128181457520e-01
-3.768092393875122070e-01 -3.203310072422027588e-02 6.884177774190902710e-02
-7.504589855670928955e-02 -3.668223321437835693e-02 -5.831648111343383789e-01
2.967230975627899170e-01 -1.216295808553695679e-01 -3.292364180088043213e-01
1.226632948964834213e-02 -7.347214221954345703e-02 1.666615605354309082e-01
7.471241950988769531e-01 -7.446646690368652344e-02 4.159197211265563965e-02
4.214974120259284973e-02 -8.492028713226318359e-02 5.916133522987365723e-01
6.886472702026367188e-01 9.647630900144577026e-02 -4.924069717526435852e-02
-2.747971415519714355e-01 -3.095815889537334442e-02 -7.361502200365066528e-02
6.673905253410339355e-02 -1.644643582403659821e-02 -3.156652748584747314e-01
-1.261863112449645996e-01 -6.906316149979829788e-03 5.522435903549194336e-01
-3.059436380863189697e-01 1.999412849545478821e-02 8.673093318939208984e-01
-1.606651097536087036e-01 -1.424101064912974834e-03 6.120910048484802246e-01
-8.006322979927062988e-01 8.865610510110855103e-02 -2.224140018224716187e-01
2.782877981662750244e-01 -9.346608072519302368e-02 6.516009569168090820e-02
-7.034036517143249512e-01 1.117942482233047485e-01 1.977063342928886414e-02
-1.852275580167770386e-01 3.601253498345613480e-03 7.129744291305541992e-01
-1.380913108587265015e-01 -4.138333722949028015e-03 -5.654820203781127930e-01
2.729937136173248291e-01 -9.499786794185638428e-02 -3.586092591285705566e-01
-8.383358716964721680e-01 3.602403998374938965e-01 1.039754250086843967e-03
-1.831851452589035034e-01 1.338323298841714859e-02 -7.405364513397216797e-01
-1.217521727085113525e-01 -6.261345464736223221e-03 6.077105998992919922e-01
3.581560850143432617e-01 -1.752137579023838043e-02 1.445177495479583740e-01
-3.876661658287048340e-01 5.406982079148292542e-02 8.534215390682220459e-02
5.732252597808837891e-01 5.350547656416893005e-02 -7.546930015087127686e-02
7.666342854499816895e-01 -1.238063573837280273e-01 6.441341713070869446e-03
1.294619739055633545e-01 -2.063870988786220551e-02 2.331736534833908081e-01
6.896957010030746460e-02 -4.692106321454048157e-02 -2.204791009426116943e-01
1.944422721862792969e-01 -4.603423178195953369e-02 -2.181411087512969971e-01
-1.099815368652343750e-01 2.176952315494418144e-03 -5.940486192703247070e-01
2.089540064334869385e-01 -1.029524579644203186e-01 -3.198306858539581299e-01
1.096292734146118164e-01 -5.557434260845184326e-02 -1.501240879297256470e-01
3.157495558261871338e-01 -1.351721212267875671e-02 -1.229280233383178711e-01
1.347560733556747437e-01 -3.009820729494094849e-02 1.564227491617202759e-01
-4.880658388137817383e-01 1.045652553439140320e-01 -1.586372219026088715e-02
-9.952771663665771484e-02 -3.923343494534492493e-03 -6.201965808868408203e-01
-2.406638814136385918e-03 -4.974278807640075684e-02 2.566611766815185547e-01
-5.109889507293701172e-01 1.070645004510879517e-01 -3.609373234212398529e-03
1.646394729614257812e-01 -6.672688573598861694e-02 1.113557592034339905e-01
6.160885691642761230e-01 -8.430220186710357666e-02 3.812528029084205627e-02
-8.339287042617797852e-01 8.819925040006637573e-02 -2.193503975868225098e-01
5.075999498367309570e-01 -5.390818044543266296e-02 -6.759534776210784912e-02
1.269358545541763306e-01 -9.381544589996337891e-02 6.564381718635559082e-02
-6.599223017692565918e-01 1.326481401920318604e-01 -8.876593783497810364e-03
1.748783141374588013e-01 -2.254673093557357788e-02 1.661509722471237183e-01
-7.809877991676330566e-01 8.129274845123291016e-02 -2.291592508554458618e-01
1.137946769595146179e-01 -6.562507152557373047e-02 6.232972741127014160e-01
2.301572561264038086e-01 -7.199411094188690186e-02 8.743828535079956055e-02
1.807102188467979431e-02 -2.483098395168781281e-02 -3.056683242321014404e-01
2.954603545367717743e-02 -3.735406324267387390e-02 -2.088428288698196411e-01
1.782915927469730377e-02 -4.466368257999420166e-02 -1.759495884180068970e-01
-2.480310797691345215e-01 1.744114607572555542e-02 8.189100623130798340e-01
-6.625828146934509277e-01 2.983163110911846161e-03 -9.145328775048255920e-03
-7.128360122442245483e-02 -4.246005043387413025e-02 4.079593718051910400e-01
-7.128360122442245483e-02 -4.246005043387413025e-02 4.079593718051910400e-01
9.839612245559692383e-02 -4.493241384625434875e-02 8.453594148159027100e-02
4.426196813583374023e-01 1.189694926142692566e-01 -3.158476203680038452e-02
-3.145696967840194702e-02 -3.367239236831665039e-02 -3.216043412685394287e-01
-1.537048518657684326e-01 5.563025362789630890e-03 6.615114808082580566e-01
1.954903304576873779e-01 -6.710310280323028564e-02 1.176173090934753418e-01
5.367847084999084473e-01 -7.008607685565948486e-02 6.378953903913497925e-02
5.999375581741333008e-01 -9.252550452947616577e-02 2.920904429629445076e-03
8.735108375549316406e-02 -1.254456341266632080e-01 1.590026170015335083e-01
-5.662947893142700195e-01 1.332662403583526611e-01 -5.866753403097391129e-03
4.268721491098403931e-02 -1.198542118072509766e-02 -5.103374123573303223e-01
3.586129248142242432e-01 -1.502213347703218460e-02 -1.142478659749031067e-01
1.387064903974533081e-01 -5.200016871094703674e-02 1.961956322193145752e-01
-1.299482397735118866e-02 -4.227193072438240051e-02 2.571986317634582520e-01
-2.546416595578193665e-02 3.759631887078285217e-02 9.238301962614059448e-02
1.089036986231803894e-01 -1.259562373161315918e-01 1.264587044715881348e-01
-4.273315370082855225e-01 -4.925906658172607422e-02 3.718470782041549683e-02
8.598049879074096680e-01 -3.891273587942123413e-02 -3.967370837926864624e-02
-7.203609943389892578e-01 3.576891869306564331e-02 4.027516767382621765e-02
-8.130709640681743622e-03 -3.630600497126579285e-02 -3.040827512741088867e-01
-6.416214108467102051e-01 1.639307476580142975e-02 4.672482609748840332e-02
1.665475070476531982e-01 -6.473824381828308105e-02 1.227501630783081055e-01
-6.851565241813659668e-01 5.568223446607589722e-02 4.054390266537666321e-02
-2.947104871273040771e-01 -1.859631761908531189e-02 8.888945728540420532e-02
1.123703867197036743e-01 5.388170480728149414e-02 8.625584840774536133e-02
8.700172603130340576e-02 -1.289912220090627670e-02 3.362338244915008545e-01
1.236035302281379700e-01 -1.091602519154548645e-01 1.450283378362655640e-01
7.617168128490447998e-02 -3.004445880651473999e-02 2.236066758632659912e-01
-5.662947893142700195e-01 1.332662403583526611e-01 -5.866753403097391129e-03
1.137946769595146179e-01 -6.562507152557373047e-02 6.232972741127014160e-01
6.246649194508790970e-03 1.074407324194908142e-01 1.152044627815485001e-02
-2.541582584381103516e-01 1.056670770049095154e-01 2.267297729849815369e-02
9.322830438613891602e-01 -1.781698688864707947e-02 -2.693563140928745270e-02
2.202677577733993530e-01 -1.281850226223468781e-02 -2.147550284862518311e-01
1.403457671403884888e-01 -2.595967426896095276e-02 -8.791176229715347290e-02
9.884219169616699219e-01 2.689304819796234369e-04 -4.523074720054864883e-03
-7.382856607437133789e-01 6.960274279117584229e-02 -1.391327977180480957e-01
2.790940105915069580e-01 -7.452020794153213501e-02 9.953138232231140137e-02
-3.862150013446807861e-01 -5.826170369982719421e-02 3.734594956040382385e-02
9.589416384696960449e-01 3.442523628473281860e-02 1.530961971729993820e-02
6.351423263549804688e-02 -1.006144657731056213e-01 5.839006304740905762e-01
-1.537048518657684326e-01 5.563025362789630890e-03 6.615114808082580566e-01
-4.798386245965957642e-03 -5.326322093605995178e-02 -2.443965822458267212e-01
-3.014016523957252502e-02 -1.655392535030841827e-02 -4.885698258876800537e-01
2.992223203182220459e-01 -9.134306758642196655e-02 6.897614151239395142e-02
8.659863471984863281e-02 5.767088010907173157e-02 8.453594148159027100e-02
9.226895123720169067e-02 -2.251986041665077209e-02 -4.183760881423950195e-01
-2.135522812604904175e-01 -7.828251272439956665e-02 4.594549536705017090e-02
-3.478932678699493408e-01 -5.189266800880432129e-02 -4.808513447642326355e-02
1.293276101350784302e-01 -3.558041155338287354e-02 1.249537914991378784e-01
-3.478932678699493408e-01 -5.189266800880432129e-02 -4.808513447642326355e-02
-8.263233900070190430e-01 9.193467348814010620e-02 2.658787667751312256e-01
6.149330139160156250e-01 1.149384602904319763e-01 4.817599430680274963e-02
-1.570905558764934540e-02 9.908305108547210693e-02 -3.338529169559478760e-02
7.369121313095092773e-01 1.019853949546813965e-01 5.263701081275939941e-02
-6.464582681655883789e-02 -5.054899677634239197e-02 5.949725508689880371e-01
1.401039063930511475e-01 -1.440404355525970459e-02 -8.457943797111511230e-02
-1.326359659433364868e-01 -2.015321748331189156e-03 6.542825102806091309e-01
-7.069238275289535522e-02 -1.289912220090627670e-02 -5.064676403999328613e-01
-8.419908285140991211e-01 7.218260318040847778e-02 1.128069385886192322e-01
9.691808372735977173e-02 -1.406560838222503662e-01 1.587338745594024658e-01
-1.331730931997299194e-02 -4.329312965273857117e-02 5.823419690132141113e-01
-8.683537244796752930e-01 8.707056194543838501e-02 2.384408712387084961e-01
8.493247628211975098e-02 -1.267087012529373169e-01 -1.264484524726867676e-01
3.093267977237701416e-01 -5.893355607986450195e-02 3.085540235042572021e-01
-1.926715224981307983e-01 -8.978440612554550171e-02 -7.425419986248016357e-03
9.028030931949615479e-02 -2.781395614147186279e-02 5.883885025978088379e-01
1.562552712857723236e-02 -7.575640827417373657e-02 -5.490891337394714355e-01
-8.176702260971069336e-01 8.771553635597229004e-02 -2.134919762611389160e-01
5.299587845802307129e-01 -8.341536670923233032e-02 -3.112791106104850769e-02
4.474838078022003174e-01 1.172764599323272705e-01 4.403746873140335083e-02
-5.386956334114074707e-01 7.258570939302444458e-02 -5.453478917479515076e-02
-1.157052721828222275e-02 5.482227727770805359e-02 -7.487808167934417725e-02
-3.345639705657958984e-01 6.960274279117584229e-02 7.701133936643600464e-02
2.635073661804199219e-01 -9.773898869752883911e-02 1.794322952628135681e-02
-2.200019508600234985e-01 1.073601096868515015e-01 1.211166474968194962e-02
1.954906806349754333e-02 7.933097332715988159e-02 -5.899580568075180054e-02
9.844177961349487305e-01 1.217392180114984512e-02 -5.033672787249088287e-03
3.518948704004287720e-02 -1.346901357173919678e-01 5.207266658544540405e-02
1.453980058431625366e-01 -3.042068891227245331e-02 -3.342080414295196533e-01
-1.589989513158798218e-01 -6.570567935705184937e-02 6.897614151239395142e-02
-8.740777373313903809e-01 3.793206512928009033e-01 8.859963156282901764e-03
-5.672084689140319824e-01 2.534197457134723663e-02 6.502572447061538696e-02
1.312893778085708618e-01 -7.255666423588991165e-03 -3.782000839710235596e-01
1.405876427888870239e-01 -1.397961229085922241e-01 1.657478660345077515e-01
1.646394729614257812e-01 -6.672688573598861694e-02 1.113557592034339905e-01
4.980330169200897217e-01 2.053160034120082855e-02 9.603781998157501221e-02
-1.307544857263565063e-02 -3.982643783092498779e-02 -4.021175503730773926e-01
2.328714877367019653e-01 -7.124164700508117676e-02 1.031593158841133118e-01
-8.695054799318313599e-03 -1.875755749642848969e-02 -3.679074943065643311e-01
-2.799027785658836365e-02 1.032484546303749084e-01 -2.177590690553188324e-02
6.753717064857482910e-01 -4.810349643230438232e-02 7.719945162534713745e-02
2.307484745979309082e-01 -7.051605731248855591e-02 -9.626944363117218018e-02
3.717003464698791504e-01 -1.389344315975904465e-02 -8.538565784692764282e-02
-1.022688299417495728e-01 -6.153855472803115845e-03 6.106129288673400879e-01
-9.040417671203613281e-01 3.385803401470184326e-01 7.301296573132276535e-03
5.075999498367309570e-01 -5.390818044543266296e-02 -6.759534776210784912e-02
-8.401364088058471680e-01 8.508192002773284912e-02 2.067300528287887573e-01
-7.262728363275527954e-02 -4.729554057121276855e-03 -5.177007913589477539e-01
5.692210793495178223e-01 -7.680445909500122070e-02 -4.287166148424148560e-02
1.294619739055633545e-01 -2.063870988786220551e-02 2.331736534833908081e-01
1.602322161197662354e-01 -6.008910760283470154e-02 -1.507421880960464478e-01
2.137647010385990143e-02 -1.224089115858078003e-01 3.801779076457023621e-02
7.246313244104385376e-02 1.046727523207664490e-01 -1.623995229601860046e-02
-1.116742473095655441e-02 -4.334688186645507812e-02 2.324749380350112915e-01
9.385449439287185669e-02 -1.293960362672805786e-01 -1.204825341701507568e-01
-1.158668547868728638e-01 6.019875872880220413e-03 -6.329884529113769531e-01
3.440474271774291992e-01 6.315486039966344833e-03 -8.597686141729354858e-02
-3.579439520835876465e-01 -3.087753802537918091e-02 7.327591627836227417e-02
-7.896944135427474976e-02 -1.402781344950199127e-02 5.135993361473083496e-01
3.768600523471832275e-01 8.833362162113189697e-02 6.585881114006042480e-02
-1.095246896147727966e-01 -7.973369210958480835e-02 -3.784630447626113892e-02
8.289272785186767578e-01 1.161746382713317871e-01 4.533318802714347839e-03
5.705378651618957520e-01 7.156451046466827393e-02 7.615138590335845947e-02
2.992223203182220459e-01 -9.134306758642196655e-02 6.897614151239395142e-02
5.977914202958345413e-03 -4.966216534376144409e-02 9.829520434141159058e-02
3.398014008998870850e-01 -1.240482032299041748e-01 3.345676362514495850e-01
2.756810784339904785e-01 -6.745076272636651993e-03 9.668280184268951416e-02
-1.188766956329345703e-01 -1.865006797015666962e-02 -8.304765075445175171e-02
2.258578129112720490e-02 -1.408979296684265137e-01 3.936146572232246399e-02
1.205668151378631592e-01 -8.303914964199066162e-02 -1.051108613610267639e-01
-8.321546763181686401e-02 3.214098140597343445e-02 9.394168108701705933e-02
1.377124991267919540e-02 -1.921440847218036652e-02 -4.587939083576202393e-01
9.065654128789901733e-02 -3.181811049580574036e-02 3.506380319595336914e-01
8.150873184204101562e-01 -4.487694241106510162e-03 7.306092232465744019e-02
-3.024731995537877083e-03 -9.135106229223310947e-04 -5.674437284469604492e-01
-8.459411263465881348e-01 3.090462386608123779e-01 1.106359623372554779e-02
-7.784615755081176758e-01 2.478282600641250610e-01 -3.421258646994829178e-03
5.275401473045349121e-01 7.618676871061325073e-02 7.341028004884719849e-02
5.650022625923156738e-02 -8.639834076166152954e-02 -6.695038080215454102e-02
-8.263233900070190430e-01 9.193467348814010620e-02 2.658787667751312256e-01
5.203918218612670898e-01 -5.681054294109344482e-02 7.956433296203613281e-02
1.441080719232559204e-01 -9.459299035370349884e-03 -3.147515952587127686e-01
3.889803960919380188e-02 -8.467841893434524536e-02 -6.093934178352355957e-01
-5.368950963020324707e-01 -2.649714425206184387e-02 1.705640368163585663e-02
5.007744580507278442e-02 -5.078914575278759003e-03 5.190278291702270508e-01
2.515754699707031250e-01 -1.175716668367385864e-01 -3.267909288406372070e-01
2.315012551844120026e-02 -2.088056877255439758e-02 3.391361534595489502e-01
1.076406314969062805e-01 -5.084459856152534485e-02 -1.911331564188003540e-01
1.025081332772970200e-02 -5.412318184971809387e-02 1.490593850612640381e-01
3.030383586883544922e-01 -5.664930492639541626e-02 -1.359348446130752563e-01
2.496674507856369019e-01 -4.654483497142791748e-02 -1.964541077613830566e-01
2.167207933962345123e-02 -1.114176362752914429e-01 -3.553517535328865051e-02
4.397173821926116943e-01 -9.768523275852203369e-02 -1.159082353115081787e-02
-7.912535071372985840e-01 7.978782802820205688e-02 1.481725573539733887e-01
1.813548207283020020e-01 -9.437977522611618042e-02 3.482731580734252930e-01
7.843170762062072754e-01 -1.210383623838424683e-01 2.135617285966873169e-02
-8.430656194686889648e-01 7.564929872751235962e-02 1.496506035327911377e-01
-8.534657359123229980e-01 2.801840305328369141e-01 8.247658843174576759e-04
1.990376412868499756e-01 4.461032152175903320e-02 9.026000648736953735e-02
-5.352020263671875000e-01 7.497745752334594727e-02 6.400453299283981323e-02
-8.212175369262695312e-01 6.836655735969543457e-02 -7.662486284971237183e-02
-5.074147582054138184e-01 1.617808453738689423e-02 7.351777702569961548e-02
-6.488234996795654297e-01 5.388170480728149414e-02 2.861203812062740326e-02
8.055207133293151855e-02 -4.541614279150962830e-02 6.123328804969787598e-01
3.140565156936645508e-01 -1.539836451411247253e-02 -1.770782917737960815e-01
-2.306707501411437988e-01 1.865044794976711273e-02 -8.232532739639282227e-01
-4.378659725189208984e-01 9.994300454854965210e-02 4.247879981994628906e-02
1.532988250255584717e-01 9.411143511533737183e-02 -4.330163821578025818e-02
2.790940105915069580e-01 -7.452020794153213501e-02 9.953138232231140137e-02
4.663762822747230530e-02 -5.807359516620635986e-02 1.416691392660140991e-01
1.245709806680679321e-01 -7.355277240276336670e-02 -1.319037973880767822e-01
1.527344882488250732e-01 -1.297454088926315308e-01 1.574439257383346558e-01
-1.583539694547653198e-01 -8.599522709846496582e-02 -2.502761036157608032e-02
9.363950043916702271e-02 -2.612091414630413055e-02 2.316418737173080444e-01
2.733699381351470947e-01 -4.888283461332321167e-02 3.401304483413696289e-01
-7.290949225425720215e-01 7.234384864568710327e-02 -6.090382486581802368e-02
7.638666778802871704e-02 -7.258532941341400146e-02 -1.534295231103897095e-01
-5.207978487014770508e-01 1.066345199942588806e-01 1.743263192474842072e-02
-3.602550923824310303e-01 7.922348380088806152e-02 -5.853895470499992371e-02
-1.958694756031036377e-01 3.902061656117439270e-02 -8.097837865352630615e-02
1.748783141374588013e-01 -2.254673093557357788e-02 1.661509722471237183e-01
-2.955704033374786377e-01 1.558686513453722000e-02 -8.046029806137084961e-01
-6.597610116004943848e-01 6.713037192821502686e-02 2.063058689236640930e-02
5.631207823753356934e-01 1.277840137481689453e-01 -1.615933142602443695e-02
1.053295060992240906e-01 -1.690328493714332581e-02 -2.741724848747253418e-01
2.782877981662750244e-01 -9.346608072519302368e-02 6.516009569168090820e-02
4.777703285217285156e-01 1.294770687818527222e-01 -7.559788879007101059e-03
-1.104921400547027588e-01 -1.405468303710222244e-02 -5.012004375457763672e-01
9.681058675050735474e-02 -6.586692482233047485e-02 5.604668855667114258e-01
4.012075364589691162e-01 -4.326625168323516846e-02 1.293879151344299316e-01
-1.742896251380443573e-02 -1.047870726324617863e-03 -5.896682143211364746e-01
1.607696861028671265e-01 -1.894567720592021942e-02 2.103042453527450562e-01
2.882310450077056885e-01 -6.132528930902481079e-02 -3.231092691421508789e-01
8.150873184204101562e-01 -4.487694241106510162e-03 7.306092232465744019e-02
4.474838078022003174e-01 1.172764599323272705e-01 4.403746873140335083e-02
-2.014319598674774170e-02 -2.953385747969150543e-02 -3.610278964042663574e-01
-8.300856947898864746e-01 1.934361606836318970e-01 1.308490056544542313e-03
5.199349522590637207e-01 1.119823679327964783e-01 -3.999618813395500183e-02
-1.586495786905288696e-01 5.299487337470054626e-02 -7.571116834878921509e-02
4.772059619426727295e-01 6.422976031899452209e-03 -8.594998717308044434e-02
7.256789207458496094e-01 -7.645510882139205933e-02 -3.026795573532581329e-02
2.877204120159149170e-01 1.225974261760711670e-01 3.861479461193084717e-03
-3.186007216572761536e-02 -6.207605823874473572e-03 4.898700118064880371e-01
1.183631867170333862e-01 -3.162999823689460754e-02 -1.502047032117843628e-01
2.479475438594818115e-01 -2.875452674925327301e-02 -2.821001708507537842e-01
-1.919459402561187744e-01 5.589895416051149368e-03 -7.192794084548950195e-01
1.861651986837387085e-01 -2.520721405744552612e-02 -8.836860954761505127e-02
3.255852758884429932e-01 -7.392898947000503540e-02 -7.573803514242172241e-02
-2.528683245182037354e-01 1.386695355176925659e-02 8.302775621414184570e-01
2.089540064334869385e-01 -1.029524579644203186e-01 -3.198306858539581299e-01
2.331670969724655151e-01 -2.079994976520538330e-02 -7.950033992528915405e-02
4.598187804222106934e-01 1.945665851235389709e-02 -8.522439748048782349e-02
8.178825676441192627e-02 -1.125983055680990219e-02 9.614532440900802612e-02
1.041201949119567871e-01 -5.885292589664459229e-02 -2.280843108892440796e-01
5.117960739880800247e-03 -1.773636601865291595e-02 4.888488352298736572e-01
-2.640473656356334686e-02 -8.142497390508651733e-03 5.889528393745422363e-01
2.212083488702774048e-01 -4.514740407466888428e-02 -2.145131677389144897e-01
3.126594424247741699e-02 -8.150734007358551025e-02 -5.969509482383728027e-01
-1.904947608709335327e-01 8.088964968919754028e-02 6.878802180290222168e-02
8.056010603904724121e-01 -8.569961786270141602e-02 2.044247277081012726e-02
9.312617778778076172e-01 -2.109555900096893311e-02 3.643224760890007019e-02
4.620761573314666748e-01 -4.920531436800956726e-02 -8.498255163431167603e-02
1.795543134212493896e-01 -9.760462492704391479e-02 -2.373767830431461334e-02
-2.451824843883514404e-01 1.975226961076259613e-02 -8.582963943481445312e-01
9.387057423591613770e-01 3.050169907510280609e-02 3.320742025971412659e-02
-7.455414533615112305e-01 2.860155999660491943e-01 1.267600990831851959e-02
-8.144181221723556519e-02 3.614515066146850586e-02 -8.186521381139755249e-02
4.557071030139923096e-01 1.032753288745880127e-01 -4.639209806919097900e-02
3.212049007415771484e-01 7.202136516571044922e-02 7.553329318761825562e-02
5.542528629302978516e-02 -4.520115256309509277e-02 2.476585060358047485e-01
8.864101767539978027e-02 -7.285404950380325317e-02 5.615417957305908203e-01
5.153127312660217285e-01 7.941159605979919434e-02 -6.052759662270545959e-02
1.881538629531860352e-01 9.833059459924697876e-02 -3.687885403633117676e-02
-7.691633701324462891e-01 3.073801100254058838e-01 1.189667731523513794e-02
5.203918218612670898e-01 -5.681054294109344482e-02 7.956433296203613281e-02
3.369259536266326904e-01 -1.596270501613616943e-02 1.579545438289642334e-01
1.199756041169166565e-01 -6.903800368309020996e-02 1.435771733522415161e-01
-8.182614445686340332e-01 7.911598682403564453e-02 3.178311884403228760e-02
-5.710782408714294434e-01 6.739910691976547241e-02 6.475698947906494141e-02
6.415919214487075806e-02 -3.958457708358764648e-02 -8.990040421485900879e-02
-7.490082383155822754e-01 8.137336373329162598e-02 -2.140563279390335083e-01
-2.549644708633422852e-01 -1.512962393462657928e-02 9.249051660299301147e-02
3.516795337200164795e-01 -1.216833442449569702e-01 3.439733982086181641e-01
6.542225182056427002e-02 6.154246162623167038e-03 9.692465513944625854e-02
5.932195484638214111e-02 -2.512659318745136261e-02 2.762520015239715576e-01
5.590900778770446777e-02 -4.141197726130485535e-02 -1.541282385587692261e-01
1.142246574163436890e-01 -7.787942141294479370e-02 -7.767293602228164673e-02
-6.419439315795898438e-01 1.765864193439483643e-01 -6.699834484606981277e-03
1.158102005720138550e-01 3.703197464346885681e-02 9.254425764083862305e-02
-4.740915596485137939e-01 1.009910777211189270e-01 -2.841367945075035095e-02
2.006500661373138428e-01 -9.717464447021484375e-02 -3.483646363019943237e-02
-6.263031810522079468e-02 9.601946175098419189e-02 5.115896463394165039e-02
-8.267265558242797852e-01 6.726474314928054810e-02 7.091103494167327881e-02
2.019937485456466675e-01 -2.251986041665077209e-02 1.273186653852462769e-01
-5.672084689140319824e-01 2.534197457134723663e-02 6.502572447061538696e-02
8.359144330024719238e-01 -4.536239430308341980e-02 5.220703408122062683e-02
-7.504589855670928955e-02 -3.668223321437835693e-02 -5.831648111343383789e-01
-9.040417671203613281e-01 3.385803401470184326e-01 7.301296573132276535e-03
9.008408784866333008e-01 -3.087753802537918091e-02 4.199507459998130798e-02
-4.708129763603210449e-01 5.471478775143623352e-02 -7.087392359972000122e-02
5.732252597808837891e-01 5.350547656416893005e-02 -7.546930015087127686e-02
4.953187704086303711e-01 9.951302409172058105e-02 5.957039073109626770e-02
-9.286307543516159058e-02 -2.954100491479039192e-04 -6.556428074836730957e-01
-6.995338797569274902e-01 2.504636347293853760e-02 -2.844055369496345520e-02
-8.162992447614669800e-02 -7.753005623817443848e-02 5.228765308856964111e-02
-7.702652215957641602e-01 1.526958197355270386e-01 -4.146845079958438873e-03
-5.955063700675964355e-01 9.317086637020111084e-02 4.521990194916725159e-02
2.258578129112720490e-02 -1.408979296684265137e-01 3.936146572232246399e-02
-8.528208136558532715e-01 3.159258961677551270e-01 1.084860879927873611e-02
-6.464582681655883789e-02 -5.054899677634239197e-02 5.949725508689880371e-01
3.053763806819915771e-01 8.787677437067031860e-02 -5.367483571171760559e-02
1.096292734146118164e-01 -5.557434260845184326e-02 -1.501240879297256470e-01
8.444873988628387451e-02 -4.622234404087066650e-02 2.419344484806060791e-01
-8.088824748992919922e-01 3.213275074958801270e-01 1.160106807947158813e-02
-7.919790744781494141e-01 7.575678825378417969e-02 -1.054333373904228210e-01
5.199349522590637207e-01 1.119823679327964783e-01 -3.999618813395500183e-02
-8.251675218343734741e-02 -3.034006804227828979e-02 4.168545007705688477e-01
-8.022715449333190918e-01 2.207934409379959106e-01 1.294474583119153976e-02
1.673805862665176392e-01 -3.055505827069282532e-02 1.131294146180152893e-01
7.763087749481201172e-01 -6.922611594200134277e-02 -3.437961265444755554e-02
-7.044249773025512695e-01 7.734233140945434570e-02 -1.683712452650070190e-01
7.549712061882019043e-01 5.476853251457214355e-02 7.040043920278549194e-02
-8.643226623535156250e-01 2.833551168441772461e-01 1.657846383750438690e-03
4.561643302440643311e-02 5.920267105102539062e-02 8.359536528587341309e-02
-7.215701937675476074e-01 5.922954529523849487e-02 -4.875697195529937744e-02
-8.006322979927062988e-01 8.865610510110855103e-02 -2.224140018224716187e-01
-8.079684525728225708e-02 -4.111463669687509537e-03 -5.894801020622253418e-01
-6.114423871040344238e-01 6.911902129650115967e-02 -3.956621140241622925e-02
-7.921940684318542480e-01 8.911295235157012939e-02 -2.292936295270919800e-01
1.409373246133327484e-02 -5.530562251806259155e-02 -1.267171949148178101e-01
-3.210193663835525513e-02 -2.770645543932914734e-02 6.004010438919067383e-01
9.960543364286422729e-02 -6.543694436550140381e-02 -8.783115446567535400e-02
-2.902494370937347412e-01 1.265764236450195312e-02 7.973036766052246094e-01
-8.395183086395263672e-01 7.505808025598526001e-02 -1.157796606421470642e-01
-3.337040543556213379e-01 1.856982707977294922e-02 -8.585920333862304688e-01
-7.969468832015991211e-03 -4.566602292470633984e-04 5.800039172172546387e-01
-3.240295648574829102e-01 1.063120439648628235e-01 -8.769098669290542603e-03
1.179063320159912109e-01 -4.802287369966506958e-02 2.276914566755294800e-01
7.622542977333068848e-02 -3.708533570170402527e-02 1.004719734191894531e-01
-2.778607606887817383e-01 -7.258532941341400146e-02 4.898220673203468323e-02
7.969207763671875000e-01 -7.288093864917755127e-02 3.285806253552436829e-02
8.591870069503784180e-01 -5.756300315260887146e-02 -2.285085059702396393e-02
-4.589079618453979492e-01 9.803498536348342896e-02 4.669795557856559753e-02
8.878073096275329590e-01 -5.256452038884162903e-02 2.501097880303859711e-02
-1.709845513105392456e-01 -2.203441923484206200e-03 6.130584478378295898e-01
-2.955704033374786377e-01 1.558686513453722000e-02 -8.046029806137084961e-01
3.053763806819915771e-01 8.787677437067031860e-02 -5.367483571171760559e-02
4.053732752799987793e-02 -5.127457901835441589e-02 1.920570880174636841e-01
-8.016535639762878418e-01 7.030145823955535889e-02 -6.514985114336013794e-02
-2.828861176967620850e-01 -7.946495711803436279e-02 -5.651764571666717529e-03
7.700476050376892090e-02 -6.126975640654563904e-03 -3.978715240955352783e-01
7.622542977333068848e-02 -3.708533570170402527e-02 1.004719734191894531e-01
-2.149765938520431519e-01 1.273826230317354202e-02 8.192057013511657715e-01
1.517670303583145142e-01 -3.496232256293296814e-02 -7.802228629589080811e-02
-1.187960803508758545e-01 5.213665310293436050e-03 6.406844854354858398e-01
-7.216240167617797852e-01 1.628271639347076416e-01 -6.135488860309123993e-03
5.792452767491340637e-02 -6.909176707267761230e-02 6.284838914871215820e-01
4.558955505490303040e-02 -1.977875828742980957e-02 -3.131660223007202148e-01
4.190787672996520996e-02 -7.543390989303588867e-02 5.744411349296569824e-01
-6.042134165763854980e-01 1.758608520030975342e-01 1.461090706288814545e-02
2.876666784286499023e-01 -1.189153492450714111e-01 -3.376209735870361328e-01
3.566780388355255127e-01 -9.779272973537445068e-02 -2.830040175467729568e-03
-2.813811898231506348e-01 1.079244539141654968e-01 6.763824727386236191e-03
-1.158668547868728638e-01 6.019875872880220413e-03 -6.329884529113769531e-01
-7.793752551078796387e-01 2.722832262516021729e-01 1.375095359981060028e-02
-1.401068121194839478e-01 -8.043239265680313110e-02 4.753103479743003845e-02
-1.589989513158798218e-01 -6.570567935705184937e-02 6.897614151239395142e-02
1.823760420083999634e-01 -5.697178468108177185e-02 1.627649068832397461e-01
1.406685914844274521e-02 -7.016670703887939453e-02 6.233510375022888184e-01
1.491065472364425659e-01 -9.728214144706726074e-02 -3.166538104414939880e-02
-9.254059195518493652e-02 -9.996769018471240997e-03 -5.786231756210327148e-01
2.755735814571380615e-01 -4.950092732906341553e-02 -3.201262950897216797e-01
-3.387024998664855957e-01 5.291425436735153198e-02 -7.538867741823196411e-02
2.821038365364074707e-01 -1.512962393462657928e-02 9.821459650993347168e-02
-7.580915093421936035e-01 1.072257384657859802e-01 2.195317763835191727e-03
-1.626268625259399414e-01 -3.224632702767848969e-03 6.345841884613037109e-01
-6.182410567998886108e-02 6.527609378099441528e-02 -6.896589696407318115e-02
-7.500831484794616699e-01 5.245740339159965515e-02 4.226380959153175354e-02
9.096017479896545410e-01 6.457738578319549561e-02 -2.319442108273506165e-03
2.989539317786693573e-02 5.820835009217262268e-02 8.421345055103302002e-02
5.311415717005729675e-02 -5.476814135909080505e-02 1.589757353067398071e-01
-2.286283671855926514e-01 3.789363894611597061e-03 -6.862517595291137695e-01
9.296767413616180420e-02 -4.557738453149795532e-02 -6.867028772830963135e-02
4.540678262710571289e-01 9.180030971765518188e-02 -5.319111049175262451e-02
7.190949320793151855e-01 -8.634457737207412720e-02 9.934905916452407837e-03
-6.351713836193084717e-02 -1.631206460297107697e-02 -4.917409420013427734e-01
7.758519649505615234e-01 -1.367325335741043091e-01 -9.172203019261360168e-03
5.845927596092224121e-01 1.056670770049095154e-01 5.591558665037155151e-02
-8.682193160057067871e-01 7.548805326223373413e-02 2.127555385231971741e-02
-7.040756344795227051e-01 7.865913212299346924e-02 -1.315813064575195312e-01
1.675421744585037231e-02 -5.691802501678466797e-02 5.644173026084899902e-01
7.773301005363464355e-01 -2.036996930837631226e-02 -6.469300389289855957e-02
-8.637852668762207031e-01 2.711276412010192871e-01 8.779342286288738251e-03
5.367847084999084473e-01 -7.008607685565948486e-02 6.378953903913497925e-02
2.035527490079402924e-02 -2.131054922938346863e-02 -3.253666460514068604e-01
1.409373246133327484e-02 -5.530562251806259155e-02 -1.267171949148178101e-01
-3.768092393875122070e-01 -3.203310072422027588e-02 6.884177774190902710e-02
-8.178313374519348145e-01 6.352931261062622070e-02 -2.604880556464195251e-02
-3.986839950084686279e-02 2.660682657733559608e-03 -6.057117581367492676e-01
4.814254865050315857e-02 -4.560425132513046265e-02 1.519079804420471191e-01
-7.691633701324462891e-01 3.073801100254058838e-01 1.189667731523513794e-02
-2.344864420592784882e-02 -6.973672658205032349e-02 6.142946481704711914e-01
3.287026286125183105e-01 1.703803613781929016e-02 -8.535876870155334473e-02
-6.791906952857971191e-01 9.384270757436752319e-02 -2.529634535312652588e-02
-1.143350675702095032e-01 1.080050691962242126e-01 5.957617424428462982e-03
8.743170648813247681e-02 -3.904710710048675537e-02 1.514780074357986450e-01
-4.460086822509765625e-01 7.094642519950866699e-02 -6.463925540447235107e-02
5.843240618705749512e-01 1.246129497885704041e-01 3.524981066584587097e-02
-1.147381663322448730e-01 6.925338506698608398e-02 7.738757133483886719e-02
7.329885363578796387e-01 1.245054453611373901e-01 -1.954540051519870758e-02
5.584716200828552246e-01 5.509275477379560471e-03 -8.589625358581542969e-02
4.038679897785186768e-01 -6.317958235740661621e-02 -9.127095341682434082e-02
3.228441774845123291e-01 -6.401264667510986328e-02 -1.171233430504798889e-01
-5.579102039337158203e-01 1.052370965480804443e-01 2.157116122543811798e-02
2.519248425960540771e-01 -9.644904732704162598e-02 3.109457790851593018e-01
-3.909447193145751953e-01 -1.873068697750568390e-02 -6.614416837692260742e-02
-3.942501544952392578e-01 -4.955466464161872864e-02 5.132020264863967896e-02
9.890672564506530762e-02 -5.670125130563974380e-03 -4.082178473472595215e-01
-4.702486395835876465e-01 1.109342947602272034e-01 -5.189129151403903961e-04
-8.346543312072753906e-01 9.360083937644958496e-02 3.013787865638732910e-01
-2.799027785658836365e-02 1.032484546303749084e-01 -2.177590690553188324e-02
5.117960739880800247e-03 -1.773636601865291595e-02 4.888488352298736572e-01
4.933838844299316406e-01 1.076288446784019470e-01 5.476002395153045654e-02
3.470576182007789612e-02 -8.110424876213073730e-02 4.855222627520561218e-02
-5.921471714973449707e-01 1.819074004888534546e-01 1.066628028638660908e-03
4.177385009825229645e-03 -4.133135825395584106e-02 2.259984016418457031e-01
3.287026286125183105e-01 1.703803613781929016e-02 -8.535876870155334473e-02
8.237947523593902588e-02 -7.054292410612106323e-02 6.129509806632995605e-01
-9.157314151525497437e-02 -1.125983055680990219e-02 -5.426125526428222656e-01
7.535468935966491699e-01 -1.964438892900943756e-02 7.899998873472213745e-02
8.165923357009887695e-01 5.748276412487030029e-02 -4.190421476960182190e-02
4.790602326393127441e-01 -5.097896605730056763e-02 8.031678944826126099e-02
-8.683537244796752930e-01 8.707056194543838501e-02 2.384408712387084961e-01
-8.534657359123229980e-01 2.801840305328369141e-01 8.247658843174576759e-04
5.972506105899810791e-02 -5.191953852772712708e-02 -8.310139179229736328e-02
1.879119873046875000e-01 -3.555354475975036621e-02 2.946066260337829590e-01
8.254071325063705444e-02 -3.294679895043373108e-02 3.429521620273590088e-01
4.128978773951530457e-02 -5.576247349381446838e-02 -7.299693673849105835e-02
3.591507300734519958e-02 -9.706714004278182983e-02 -5.925436615943908691e-01
-7.756129503250122070e-01 3.190432190895080566e-01 1.260527060367166996e-04
-4.798693954944610596e-01 -2.214363031089305878e-02 5.699053034186363220e-02
-7.558341026306152344e-01 1.025766134262084961e-01 -9.333444759249687195e-03
3.183831870555877686e-01 -5.581621080636978149e-02 1.469095051288604736e-01
8.040154576301574707e-01 1.048089005053043365e-02 -6.442426145076751709e-02
1.795543134212493896e-01 -9.760462492704391479e-02 -2.373767830431461334e-02
-6.430187821388244629e-01 2.256575673818588257e-01 1.980329165235161781e-03
-1.143350675702095032e-01 1.080050691962242126e-01 5.957617424428462982e-03
2.070191055536270142e-01 -9.687902778387069702e-02 4.884783551096916199e-02
-6.883811205625534058e-02 3.413133323192596436e-03 -5.878945589065551758e-01
3.591234683990478516e-01 1.274346709251403809e-01 5.339525640010833740e-03
-5.080594122409820557e-02 -3.463984280824661255e-02 5.915864706039428711e-01
-7.299816608428955078e-01 5.683779716491699219e-02 -1.916917040944099426e-02
1.273658275604248047e-01 -7.632074505090713501e-02 1.264587044715881348e-01
3.274395763874053955e-01 -1.184853687882423401e-01 -3.027391135692596436e-01
8.704738616943359375e-01 -1.459215395152568817e-02 5.865669250488281250e-02
4.207177460193634033e-01 -9.765835851430892944e-02 -1.613245718181133270e-02
4.335095584392547607e-01 -1.598958484828472137e-02 9.439855068922042847e-02
1.911909133195877075e-02 1.044846400618553162e-01 2.799394726753234863e-02
6.090208292007446289e-01 -2.569094486534595490e-02 9.071685373783111572e-02
-6.303307600319385529e-03 -9.790023416280746460e-02 2.141570905223488808e-03
4.376212358474731445e-01 -9.781960397958755493e-02 8.295618928968906403e-03
-2.005992233753204346e-01 -3.278382821008563042e-03 -8.476755023002624512e-02
6.082687154412269592e-02 -3.727344423532485962e-02 -5.533351302146911621e-01
-1.589989513158798218e-01 -6.570567935705184937e-02 6.897614151239395142e-02
-1.463952213525772095e-01 -1.322160195559263229e-02 -5.098806023597717285e-01
-1.099815368652343750e-01 2.176952315494418144e-03 -5.940486192703247070e-01
-8.415876626968383789e-01 8.602248877286911011e-02 2.724090814590454102e-01
2.793362177908420563e-02 -9.752399474382400513e-02 -2.814494259655475616e-02
-1.831851452589035034e-01 8.841598406434059143e-03 -6.913039684295654297e-01
-7.254668474197387695e-01 1.639307476580142975e-02 1.549773570150136948e-02
-2.218562215566635132e-01 2.682001516222953796e-02 9.490913897752761841e-02
-9.353491663932800293e-02 -5.643255077302455902e-03 -5.912268757820129395e-01
6.149867773056030273e-01 -8.572649210691452026e-02 -2.338832058012485504e-02
2.188706956803798676e-02 -1.386136859655380249e-01 -6.157566606998443604e-02
-1.106533780694007874e-01 1.069301292300224304e-01 1.627706922590732574e-02
-7.918447256088256836e-01 7.202136516571044922e-02 8.657833188772201538e-02
-5.804302692413330078e-01 1.371897757053375244e-01 -6.592339370399713516e-03
1.004653871059417725e-01 -9.905578196048736572e-02 -5.644070506095886230e-01
1.202712133526802063e-01 -5.861105397343635559e-02 9.507037699222564697e-02
9.691808372735977173e-02 -1.406560838222503662e-01 1.587338745594024658e-01
5.230795219540596008e-02 -5.089834704995155334e-02 1.979961544275283813e-01
-7.040756344795227051e-01 7.865913212299346924e-02 -1.315813064575195312e-01
6.932694315910339355e-01 -1.128490897826850414e-03 8.996439725160598755e-02
3.768600523471832275e-01 8.833362162113189697e-02 6.585881114006042480e-02
7.402212824672460556e-03 -1.312234401702880859e-01 5.097084864974021912e-02
1.527344882488250732e-01 -9.803460538387298584e-02 1.786261051893234253e-02
-2.661976218223571777e-01 1.867732778191566467e-02 -8.223664164543151855e-01
9.377387166023254395e-02 -6.395715754479169846e-03 4.069650471210479736e-01
-8.220506310462951660e-01 6.995210051536560059e-02 1.043148860335350037e-01
6.730340421199798584e-02 -9.779272973537445068e-02 2.748334966599941254e-02
1.890410296618938446e-02 -1.305784881114959717e-01 7.534517347812652588e-02
3.513573855161666870e-02 8.776928484439849854e-02 -5.163244158029556274e-02
-5.921737104654312134e-02 -4.211068898439407349e-02 4.062394499778747559e-01
-1.217521727085113525e-01 -6.261345464736223221e-03 6.077105998992919922e-01
-2.546416595578193665e-02 3.759631887078285217e-02 9.238301962614059448e-02
-1.574671417474746704e-01 1.238891202956438065e-02 7.483937740325927734e-01
5.918758362531661987e-02 -3.386050090193748474e-02 -3.257159888744354248e-01
3.321155607700347900e-01 3.055544942617416382e-02 -8.328951150178909302e-02
2.332476973533630371e-01 1.131916791200637817e-01 2.329107187688350677e-02
5.206609144806861877e-02 -3.735406324267387390e-02 -2.993530333042144775e-01
3.364422321319580078e-01 1.351760327816009521e-02 9.652156382799148560e-02
1.669237315654754639e-01 -7.065042853355407715e-02 8.725016564130783081e-02
4.365500062704086304e-03 -1.015801914036273956e-02 -5.874108076095581055e-01
1.126122400164604187e-01 -4.014891758561134338e-02 -2.723450958728790283e-01
-2.344864420592784882e-02 -6.973672658205032349e-02 6.142946481704711914e-01
-1.537048518657684326e-01 5.563025362789630890e-03 6.615114808082580566e-01
1.782915927469730377e-02 -4.466368257999420166e-02 -1.759495884180068970e-01
9.501004964113235474e-02 -5.162392929196357727e-02 -1.150540709495544434e-01
-6.767988801002502441e-01 5.920267105102539062e-02 -5.964076891541481018e-02
-2.817839384078979492e-02 9.407711331732571125e-04 5.639335513114929199e-01
3.814557939767837524e-02 -4.993089661002159119e-02 1.394923925399780273e-01
-8.025937527418136597e-02 6.369226146489381790e-03 -6.449739933013916016e-01
-3.147581517696380615e-01 1.077094599604606628e-01 8.833089843392372131e-03
1.782915927469730377e-02 -4.466368257999420166e-02 -1.759495884180068970e-01
6.292301416397094727e-02 4.301706212572753429e-04 -8.584251254796981812e-02
-6.992383599281311035e-01 1.467316411435604095e-02 3.172937408089637756e-02
3.565973937511444092e-01 -1.056129485368728638e-01 3.582701385021209717e-01
3.338892161846160889e-01 -9.048312157392501831e-02 3.293810188770294189e-01
1.236035302281379700e-01 -1.091602519154548645e-01 1.450283378362655640e-01
1.132575515657663345e-02 -6.734497100114822388e-02 -5.502446889877319336e-01
5.999375581741333008e-01 -9.252550452947616577e-02 2.920904429629445076e-03
-4.720488190650939941e-02 -9.075184166431427002e-02 -3.620701283216476440e-02
-5.579102039337158203e-01 1.052370965480804443e-01 2.157116122543811798e-02
-6.634964942932128906e-01 7.516556978225708008e-02 1.147418394684791565e-01
1.732659041881561279e-01 -8.677455782890319824e-02 3.503155708312988281e-01
-6.340964883565902710e-02 -2.149865962564945221e-02 -4.369188547134399414e-01
1.016746982932090759e-01 -1.339914351701736450e-01 -1.471411138772964478e-01
-2.828861176967620850e-01 -7.946495711803436279e-02 -5.651764571666717529e-03
-1.294107921421527863e-02 -4.111463669687509537e-03 -4.774710834026336670e-01
9.089840203523635864e-02 -1.348513811826705933e-01 -1.360423415899276733e-01
-8.837254643440246582e-01 3.101480901241302490e-01 8.188123814761638641e-03
4.663762822747230530e-02 -5.807359516620635986e-02 1.416691392660140991e-01
-8.162727952003479004e-01 8.156148344278335571e-02 1.938038766384124756e-01
6.870082765817642212e-02 -8.156109601259231567e-02 -5.544100999832153320e-01
-2.306707501411437988e-01 1.865044794976711273e-02 -8.232532739639282227e-01
-1.742896251380443573e-02 -1.047870726324617863e-03 -5.896682143211364746e-01
-8.683537244796752930e-01 8.293203264474868774e-02 -1.954866796731948853e-01
2.127431780099868774e-01 -1.706452667713165283e-02 1.787815541028976440e-01
-4.096487462520599365e-01 -1.082985009998083115e-02 -6.778346002101898193e-02
2.316352874040603638e-01 7.739607989788055420e-02 7.112602889537811279e-02
9.122122079133987427e-03 -1.232957467436790466e-01 -3.161163255572319031e-02
-6.321081519126892090e-01 -3.332132939249277115e-03 2.791332453489303589e-02
-2.383297234773635864e-01 7.067946717143058777e-03 7.204721570014953613e-01
-2.966453731060028076e-01 2.496574446558952332e-02 9.523162245750427246e-02
2.294585257768630981e-01 -3.501607105135917664e-02 -2.686096429824829102e-01
3.240266144275665283e-01 1.217643469572067261e-01 2.992884442210197449e-02
3.778812885284423828e-01 7.395625859498977661e-02 -6.356430798768997192e-02
-1.241976618766784668e-01 -8.478591591119766235e-02 3.920022398233413696e-02
8.226388096809387207e-01 6.796345114707946777e-02 -3.300905972719192505e-02
-4.720488190650939941e-02 -9.075184166431427002e-02 -3.620701283216476440e-02
-6.995608210563659668e-01 7.199449092149734497e-02 1.644310504198074341e-01
1.120478957891464233e-01 -2.595967426896095276e-02 3.975055217742919922e-01
2.138449847698211670e-01 -3.912772610783576965e-02 -2.509268522262573242e-01
-4.298573359847068787e-02 -7.151038944721221924e-02 6.095649003982543945e-01
5.235897302627563477e-01 -7.742257416248321533e-02 -4.948256164789199829e-02
3.513573855161666870e-02 8.776928484439849854e-02 -5.163244158029556274e-02
2.089540064334869385e-01 -1.029524579644203186e-01 -3.198306858539581299e-01
4.980330169200897217e-01 2.053160034120082855e-02 9.603781998157501221e-02
-6.141834855079650879e-01 1.057208180427551270e-01 -5.087420344352722168e-03
3.868838846683502197e-01 -1.152857020497322083e-02 9.867144376039505005e-02
4.554921388626098633e-01 5.791274085640907288e-02 -7.342690974473953247e-02
-6.323769092559814453e-01 7.110766321420669556e-02 9.762337058782577515e-02
-3.876661658287048340e-01 5.406982079148292542e-02 8.534215390682220459e-02
-4.799768626689910889e-01 -2.633412368595600128e-03 7.182473689317703247e-02
8.764669299125671387e-02 -5.173142999410629272e-02 -1.688280850648880005e-01
-7.526361346244812012e-01 1.738722026348114014e-01 1.582021825015544891e-02
-6.416214108467102051e-01 1.639307476580142975e-02 4.672482609748840332e-02
-5.196150392293930054e-02 -9.029327891767024994e-03 -4.701076745986938477e-01
1.629195660352706909e-01 -3.439797088503837585e-02 3.188734650611877441e-01
2.326833456754684448e-01 -1.550585404038429260e-02 -2.926077544689178467e-01
-1.307544857263565063e-02 -3.982643783092498779e-02 -4.021175503730773926e-01
-3.859731256961822510e-01 6.425490230321884155e-02 8.026304095983505249e-02
1.818923056125640869e-01 -2.155240997672080994e-02 -3.573461771011352539e-01
9.108650684356689453e-02 -1.002919673919677734e-01 6.019865274429321289e-01
1.381152570247650146e-01 -8.846759051084518433e-02 -6.369867920875549316e-02
7.639738917350769043e-01 2.716937661170959473e-02 -6.652040034532546997e-02
1.532988250255584717e-01 9.411143511533737183e-02 -4.330163821578025818e-02
3.581560850143432617e-01 -1.752137579023838043e-02 1.445177495479583740e-01
2.860546112060546875e-02 -4.348124191164970398e-02 -8.973916620016098022e-02
7.522569894790649414e-01 1.157177910208702087e-01 3.844776377081871033e-02
1.727015525102615356e-01 -2.870077639818191528e-02 -3.373522460460662842e-01
-6.564287543296813965e-01 4.020305722951889038e-02 5.328197404742240906e-02
1.998438686132431030e-01 -2.085370011627674103e-02 1.444371342658996582e-01
9.973979741334915161e-02 -1.709139533340930939e-02 -8.578874915838241577e-02
6.351956725120544434e-01 5.267415195703506470e-03 9.431792050600051880e-02
1.770281940698623657e-01 -4.966216534376144409e-02 -1.547194719314575195e-01
2.194346934556961060e-01 -5.197329819202423096e-02 3.417160212993621826e-01
2.574608027935028076e-01 -9.752399474382400513e-02 -2.483949437737464905e-02
6.989936232566833496e-01 -4.874846711754798889e-02 -6.262373179197311401e-02
3.481325507164001465e-02 -1.266280710697174072e-01 6.822367757558822632e-02
4.335095584392547607e-01 -1.598958484828472137e-02 9.439855068922042847e-02
2.089540064334869385e-01 -1.029524579644203186e-01 -3.198306858539581299e-01
