-7.609338164329528809e-01 1.022231355309486389e-01 -3.033681213855743408e-02
-8.662071228027343750e-01 7.643324136734008789e-02 -4.862718284130096436e-02
-2.962722182273864746e-01 3.548952192068099976e-02 -8.400851488113403320e-02
-1.163247823715209961e+00 4.638653248548507690e-02 -2.420837432146072388e-02
-1.221785068511962891e+00 -3.629980236291885376e-02 3.049034625291824341e-03
-1.039379537105560303e-01 1.079186722636222839e-01 -4.583828896284103394e-02
-4.993572831153869629e-02 1.181024685502052307e-01 -2.413198351860046387e-02
-2.625050842761993408e-01 5.905896425247192383e-02 9.506198018789291382e-02
-6.764411926269531250e-01 -3.258110582828521729e-02 9.194730222225189209e-02
-1.967014968395233154e-01 -6.275130063295364380e-02 2.428850904107093811e-02
-3.188404440879821777e-01 -5.229093134403228760e-02 -4.223923757672309875e-02
-3.529005348682403564e-01 -3.297807276248931885e-02 8.580553531646728516e-02
-1.168154478073120117e-01 1.011144518852233887e-01 6.304317712783813477e-02
-1.619266569614410400e-01 4.110175743699073792e-02 -8.073677122592926025e-02
-1.057600975036621094e+00 -5.383744090795516968e-02 5.039453878998756409e-02
-2.545703053474426270e-01 2.133974805474281311e-03 -7.838436961174011230e-02
-3.347946703433990479e-01 -1.477873697876930237e-02 -7.369546592235565186e-02
-8.917418122291564941e-02 -1.111005619168281555e-02 -6.466898322105407715e-02
-1.064995646476745605e+00 7.455959916114807129e-02 4.410426318645477295e-02
-2.658018171787261963e-01 9.090357273817062378e-02 7.839781790971755981e-02
-1.887646019458770752e-01 -6.263594329357147217e-02 5.041323602199554443e-04
-6.682986021041870117e-01 -7.623976469039916992e-02 3.423526510596275330e-02
-6.513038277626037598e-01 -6.593532860279083252e-03 -7.576291263103485107e-02
-1.096598863601684570e+00 3.437637165188789368e-02 -4.320750758051872253e-02
-2.874237895011901855e-01 -4.901657253503799438e-02 -4.460843652486801147e-02
-8.743932843208312988e-02 -5.504471063613891602e-02 1.847763359546661377e-02
-1.645049452781677246e-01 -4.461961239576339722e-02 6.057548895478248596e-02
1.842805743217468262e-02 1.159406602382659912e-01 -1.994709298014640808e-02
-8.936331272125244141e-01 -7.225359231233596802e-02 2.864407375454902649e-02
3.341704607009887695e-03 1.177322342991828918e-01 2.278257906436920166e-02
2.703667581081390381e-01 -4.585552960634231567e-03 9.135548025369644165e-03
-5.573070049285888672e-01 -4.021897912025451660e-02 -5.988594144582748413e-02
3.409406542778015137e-02 -4.334708303213119507e-02 4.585613496601581573e-03
-4.132381379604339600e-01 1.228817477822303772e-01 3.439712151885032654e-02
-6.410144567489624023e-01 5.829682946205139160e-02 -7.500658929347991943e-02
-4.980460107326507568e-01 -6.930500268936157227e-02 4.963645339012145996e-02
1.231791675090789795e-01 -1.960926502943038940e-02 -3.124445304274559021e-02
-4.269989728927612305e-01 -7.486778497695922852e-02 1.110655348747968674e-02
-1.200591206550598145e+00 5.685379728674888611e-02 7.786596193909645081e-03
-1.863344013690948486e-01 9.038141369819641113e-02 7.607544213533401489e-02
-2.496300935745239258e-01 1.246174573898315430e-01 -1.938226446509361267e-02
-3.749203085899353027e-01 -6.729836761951446533e-02 4.424065724015235901e-02
-9.422835111618041992e-01 5.797858536243438721e-02 -5.283638834953308105e-02
-3.160925507545471191e-01 -4.249331355094909668e-02 7.619939744472503662e-02
-5.752065777778625488e-01 8.977071940898895264e-02 7.885444909334182739e-02
-8.306359648704528809e-01 -3.174044191837310791e-02 -5.731522291898727417e-02
-8.984831571578979492e-01 8.294141292572021484e-02 6.282113492488861084e-02
-3.492301702499389648e-01 2.877769991755485535e-03 -8.061475306749343872e-02
-5.430703759193420410e-01 6.079151853919029236e-02 -7.769751548767089844e-02
3.180089294910430908e-01 3.397154435515403748e-02 3.490638732910156250e-02
-8.641160130500793457e-01 9.070519357919692993e-02 5.682269111275672913e-02
-4.208810925483703613e-01 6.073243170976638794e-02 9.761751443147659302e-02
-1.578196883201599121e-01 7.259120047092437744e-02 8.559003472328186035e-02
-9.719299077987670898e-01 8.903140574693679810e-02 3.888664767146110535e-02
-9.171121120452880859e-01 2.369273826479911804e-02 -6.525864452123641968e-02
-3.219935894012451172e-01 1.190143823623657227e-01 4.511262848973274231e-02
-7.410300374031066895e-01 3.138203918933868408e-02 1.016008183360099792e-01
-5.711140632629394531e-01 -6.220200657844543457e-02 -3.609585389494895935e-02
-1.126363158226013184e+00 -3.441804274916648865e-02 6.241530925035476685e-02
-8.016712069511413574e-01 1.011597886681556702e-01 -2.590776234865188599e-02
-8.817363381385803223e-01 -2.166159823536872864e-02 -5.950171500444412231e-02
-7.961597442626953125e-01 -4.146099090576171875e-02 -5.242805182933807373e-02
-2.916861176490783691e-01 -6.624347716569900513e-02 3.503105789422988892e-02
-5.692173242568969727e-01 5.934106186032295227e-02 9.770467877388000488e-02
-9.073005914688110352e-01 -5.335420370101928711e-02 6.791795790195465088e-02
-9.782606363296508789e-01 8.095125854015350342e-02 5.324457585811614990e-02
-1.087821841239929199e+00 7.524801790714263916e-02 -5.696104839444160461e-03
-8.043670058250427246e-01 4.289747774600982666e-02 -7.058243453502655029e-02
-3.935005664825439453e-01 -7.346362620592117310e-02 5.719540640711784363e-03
-6.200304031372070312e-01 -7.815838605165481567e-02 1.143811456859111786e-02
-5.303305387496948242e-01 -6.695477664470672607e-02 -2.759269997477531433e-02
-9.825444221496582031e-01 -3.764295578002929688e-02 -4.170319810509681702e-02
-9.344762563705444336e-01 9.561450034379959106e-02 -6.399061530828475952e-03
-1.257214546203613281e+00 1.209800224751234055e-02 -1.561319828033447266e-02
-3.081430196762084961e-01 1.250765621662139893e-01 -1.810899190604686737e-02
-8.476240634918212891e-01 4.449238255620002747e-02 -6.708913296461105347e-02
-6.895246505737304688e-01 -5.045066773891448975e-02 7.886464893817901611e-02
-4.268390834331512451e-01 5.238244310021400452e-03 1.032723039388656616e-01
2.386037409305572510e-01 9.720540046691894531e-02 5.777214188128709793e-03
-5.868810415267944336e-01 6.885765492916107178e-02 9.298346936702728271e-02
1.481080353260040283e-01 -1.333462819457054138e-02 -3.400221467018127441e-02
-4.607728123664855957e-01 7.440884411334991455e-02 9.142198413610458374e-02
-4.443416595458984375e-01 4.894372075796127319e-02 1.015010923147201538e-01
-1.117467880249023438e-02 -4.557561129331588745e-02 2.881666272878646851e-02
-3.383641839027404785e-01 1.242421790957450867e-01 3.190751373767852783e-02
-6.921849250793457031e-01 1.153907328844070435e-01 2.650553174316883087e-02
-7.301079034805297852e-01 -7.723668962717056274e-02 2.510268986225128174e-02
-7.927494645118713379e-01 7.891532778739929199e-02 -5.407878011465072632e-02
-4.796151816844940186e-01 6.379169970750808716e-02 -7.821030169725418091e-02
-4.790534079074859619e-01 -1.357886940240859985e-02 9.948401153087615967e-02
-1.611012220382690430e-02 -9.171459823846817017e-03 7.488710433244705200e-02
-6.930615305900573730e-01 5.667762085795402527e-02 -7.308516651391983032e-02
-8.594645261764526367e-01 -4.396007210016250610e-02 -4.669439792633056641e-02
-1.151199102401733398e+00 -4.681173712015151978e-02 4.143813624978065491e-02
-9.387789964675903320e-01 1.564893126487731934e-02 9.386391192674636841e-02
1.997556984424591064e-01 -1.946572586894035339e-02 1.028556656092405319e-02
-5.652107000350952148e-01 7.493473589420318604e-02 8.998325467109680176e-02
2.302782833576202393e-01 7.189181447029113770e-02 -4.251999408006668091e-02
-8.740825653076171875e-01 -1.374421641230583191e-02 9.423247724771499634e-02
-8.425470590591430664e-01 -4.509123414754867554e-02 7.940579205751419067e-02
-9.729911088943481445e-01 -2.498463168740272522e-02 8.432980626821517944e-02
-1.107346117496490479e-01 1.190108507871627808e-01 -2.771443128585815430e-02
-6.777178049087524414e-01 -6.769571453332901001e-03 1.018254607915878296e-01
5.934563279151916504e-02 1.815802045166492462e-02 -6.542555987834930420e-02
-8.521105051040649414e-01 -5.855616927146911621e-02 -3.137093782424926758e-02
-6.460430026054382324e-01 -2.154263854026794434e-02 9.747671335935592651e-02
-8.108752965927124023e-01 1.015543937683105469e-02 -7.238264381885528564e-02
2.938453257083892822e-01 4.288437590003013611e-02 4.276460409164428711e-02
-3.091973066329956055e-02 -4.385901242494583130e-02 -2.191965281963348389e-02
-6.487426161766052246e-01 -5.007488280534744263e-02 -5.006266012787818909e-02
-5.622109770774841309e-01 -1.248045265674591064e-02 -7.559966295957565308e-02
-5.086161494255065918e-01 -5.538498982787132263e-03 -7.860677689313888550e-02
-6.591414809226989746e-01 1.119190752506256104e-01 -2.505458518862724304e-02
2.643066942691802979e-01 8.693984150886535645e-02 2.365418709814548492e-02
2.306321561336517334e-01 -8.542947471141815186e-03 2.717684395611286163e-02
-7.006213068962097168e-01 -3.968072682619094849e-02 -5.768302828073501587e-02
-1.660613417625427246e-01 1.268202662467956543e-01 8.311665616929531097e-03
7.843047380447387695e-03 6.478609144687652588e-02 7.815925031900405884e-02
-2.629092335700988770e-01 4.341048002243041992e-02 -8.305831998586654663e-02
-5.277186036109924316e-01 3.843307122588157654e-02 1.039796993136405945e-01
-5.837684869766235352e-01 1.173689216375350952e-01 -2.124529704451560974e-02
-2.126352190971374512e-01 1.223394796252250671e-01 3.447927907109260559e-02
-2.655272483825683594e-01 -2.348368987441062927e-02 8.717601001262664795e-02
6.918755173683166504e-02 -1.920266076922416687e-02 5.578441917896270752e-02
-3.451684713363647461e-01 2.041724696755409241e-02 1.028274297714233398e-01
-8.285284042358398438e-02 1.242917254567146301e-01 -2.248192206025123596e-03
2.543699443340301514e-01 5.192516371607780457e-03 3.736416250467300415e-02
-4.826593399047851562e-01 9.168234467506408691e-02 -6.274486333131790161e-02
1.175061166286468506e-01 9.760987013578414917e-02 4.329373687505722046e-02
-3.796041011810302734e-01 -4.732485860586166382e-02 7.523936033248901367e-02
-1.100868463516235352e+00 2.691965736448764801e-02 7.698827981948852539e-02
-7.843236923217773438e-01 1.918947324156761169e-02 -7.438158243894577026e-02
5.653202533721923828e-04 1.205700337886810303e-01 -3.773411735892295837e-04
-8.053892254829406738e-01 5.866870284080505371e-02 8.992155641317367554e-02
-9.772808551788330078e-01 1.446868944913148880e-02 -6.025599688291549683e-02
-3.511839210987091064e-01 1.158795654773712158e-01 -3.874827548861503601e-02
-7.663601636886596680e-01 3.405137360095977783e-02 -7.452667504549026489e-02
-4.434235394001007080e-01 3.873852267861366272e-02 -8.415602147579193115e-02
-6.405833959579467773e-01 9.514256566762924194e-02 7.091112434864044189e-02
-1.174094438552856445e+00 1.287234202027320862e-02 6.942702829837799072e-02
-5.611410140991210938e-01 7.469848543405532837e-02 -7.109830528497695923e-02
-6.258316636085510254e-01 1.015954464673995972e-01 -4.552894458174705505e-02
2.193379700183868408e-01 5.086954683065414429e-02 5.704744905233383179e-02
2.019208371639251709e-01 -3.891009837388992310e-04 -3.617326542735099792e-02
-4.420511722564697266e-01 2.832617238163948059e-02 1.046961471438407898e-01
5.612671375274658203e-03 1.063104420900344849e-01 4.662716388702392578e-02
-6.348359584808349609e-01 8.345863223075866699e-02 -6.222275644540786743e-02
-1.646579802036285400e-01 -6.134016811847686768e-02 1.728649437427520752e-02
-4.860179722309112549e-01 1.171744093298912048e-01 -3.084584325551986694e-02
-6.089944839477539062e-01 4.142006859183311462e-02 1.027221307158470154e-01
-4.442074894905090332e-01 -4.882312566041946411e-02 7.675445079803466797e-02
-2.089807093143463135e-01 1.250333487987518311e-01 -1.647366397082805634e-02
-7.051809430122375488e-01 1.126949563622474670e-01 -1.521511003375053406e-02
-7.933620214462280273e-01 1.103885695338249207e-01 1.408985722810029984e-02
-5.236624479293823242e-01 -4.949779808521270752e-02 7.861385494470596313e-02
-9.396127462387084961e-01 -3.105805814266204834e-02 -5.016466230154037476e-02
-1.358398795127868652e-01 9.879279881715774536e-02 -5.685913562774658203e-02
-9.047988057136535645e-02 -1.849229261279106140e-02 7.690972089767456055e-02
-8.762623667716979980e-01 -3.291587904095649719e-02 8.613498508930206299e-02
-9.261032342910766602e-01 6.594637781381607056e-02 -4.975479841232299805e-02
-1.288925409317016602e+00 -3.228178247809410095e-03 4.090223461389541626e-02
-5.139243006706237793e-01 -5.633927881717681885e-02 -4.373555257916450500e-02
-4.447904229164123535e-01 -7.444193959236145020e-02 4.472155123949050903e-04
-2.511054277420043945e-02 7.647375762462615967e-02 7.553752511739730835e-02
4.303708672523498535e-02 8.326600492000579834e-02 -5.819290131330490112e-02
-1.019017219543457031e+00 3.608462959527969360e-02 -5.307587236166000366e-02
-7.244153618812561035e-01 1.099855527281761169e-01 -1.944239996373653412e-02
-2.310644239187240601e-01 9.779928624629974365e-02 -6.010939925909042358e-02
-1.125597000122070312e+00 4.891270399093627930e-02 -3.075150772929191589e-02
-2.069334983825683594e-01 6.912747025489807129e-02 8.929593116044998169e-02
-9.013918638229370117e-01 9.731569886207580566e-02 3.627020865678787231e-02
-8.879998922348022461e-01 3.232083469629287720e-02 9.468007087707519531e-02
-7.116953134536743164e-01 5.690616369247436523e-02 -7.200341671705245972e-02
3.083209693431854248e-01 8.075247704982757568e-02 1.398099586367607117e-02
-5.877975225448608398e-01 5.911385640501976013e-03 -8.037867397069931030e-02
-4.517519474029541016e-01 -1.339659094810485840e-03 -8.010725677013397217e-02
-7.432430982589721680e-02 1.186711713671684265e-03 -6.978440284729003906e-02
-5.049769282341003418e-01 4.593014717102050781e-02 1.024543717503547668e-01
-9.688017964363098145e-01 4.041768983006477356e-02 8.639196306467056274e-02
-4.074867367744445801e-01 -1.749619841575622559e-02 9.628418087959289551e-02
-8.753046989440917969e-01 9.686753153800964355e-02 -2.037583664059638977e-02
-1.039960980415344238e+00 -5.980897694826126099e-02 4.122316092252731323e-02
-1.116881132125854492e+00 6.616057455539703369e-02 -1.403610222041606903e-02
-4.409060776233673096e-01 1.250224560499191284e-01 -1.125683262944221497e-02
1.485153734683990479e-01 2.186215855181217194e-02 6.676250696182250977e-02
1.557739078998565674e-01 7.367835938930511475e-02 5.833081156015396118e-02
3.222605586051940918e-02 1.010130867362022400e-01 5.059465393424034119e-02
1.170822083950042725e-01 1.089926213026046753e-01 2.207052335143089294e-02
4.775747656822204590e-02 7.065376639366149902e-02 7.221713662147521973e-02
-1.648462414741516113e-01 -4.292099177837371826e-02 -4.277655482292175293e-02
-2.747986316680908203e-01 1.094916388392448425e-01 5.986169725656509399e-02
-4.290970265865325928e-01 1.262149214744567871e-01 1.898285187780857086e-02
-6.589794158935546875e-02 -3.012697398662567139e-02 -4.769212752580642700e-02
-3.732277154922485352e-01 1.272860914468765259e-01 1.659744232892990112e-02
-7.781971693038940430e-01 3.615394234657287598e-06 1.008398011326789856e-01
-8.094224333763122559e-01 -7.576657831668853760e-02 2.389175817370414734e-02
-4.009217321872711182e-01 1.179454550147056580e-01 -3.366987407207489014e-02
-9.809257984161376953e-01 -1.456630975008010864e-02 -5.460199713706970215e-02
-5.474928617477416992e-01 7.537045329809188843e-02 9.004505723714828491e-02
-8.318103551864624023e-01 9.184146672487258911e-02 -3.642038255929946899e-02
-3.753327429294586182e-01 1.092148870229721069e-01 6.129929795861244202e-02
-3.332030475139617920e-01 1.117578893899917603e-01 5.761661380529403687e-02
-3.905791044235229492e-02 4.091007634997367859e-03 8.296635001897811890e-02
-7.650781869888305664e-01 1.124769300222396851e-01 1.228157617151737213e-02
-7.162805795669555664e-01 2.151879295706748962e-02 1.034146547317504883e-01
-5.740820169448852539e-01 -5.299133062362670898e-02 7.612395286560058594e-02
-2.835327386856079102e-01 -6.015262752771377563e-02 -2.642465382814407349e-02
-5.542961955070495605e-01 9.498912841081619263e-02 -5.703888088464736938e-02
-3.827717304229736328e-01 -3.274173289537429810e-02 -6.399472802877426147e-02
1.231128871440887451e-01 -1.520054787397384644e-02 4.962765052914619446e-02
-1.012530803680419922e+00 -4.181649535894393921e-02 -3.494127467274665833e-02
-1.045189619064331055e+00 2.419829368591308594e-02 -5.246411263942718506e-02
-3.275861144065856934e-01 -4.101747646927833557e-03 9.831671416759490967e-02
-2.469187527894973755e-01 1.078351959586143494e-01 6.125989928841590881e-02
-2.356013953685760498e-01 1.185465604066848755e-03 9.571316093206405640e-02
-7.940049171447753906e-01 3.349965438246726990e-02 9.924168139696121216e-02
-6.144679188728332520e-01 -3.679846227169036865e-02 8.965521305799484253e-02
-7.011270523071289062e-01 1.092592626810073853e-02 1.038383394479751587e-01
-4.331856071949005127e-01 1.049332395195960999e-01 -5.170843005180358887e-02
-8.500511646270751953e-01 1.733967661857604980e-02 -7.039047032594680786e-02
-9.987913370132446289e-01 -2.796612679958343506e-02 -4.661852121353149414e-02
-8.651598095893859863e-01 6.093746796250343323e-02 -5.913224816322326660e-02
-9.973829984664916992e-01 2.720336243510246277e-02 -5.739334970712661743e-02
-9.901849031448364258e-01 8.359661698341369629e-02 -1.982403174042701721e-02
-3.245604634284973145e-01 1.375759206712245941e-02 1.017212122678756714e-01
-3.810024261474609375e-02 5.732734128832817078e-02 -7.341752946376800537e-02
-7.722173929214477539e-01 -5.461677163839340210e-02 -4.114102199673652649e-02
-6.818554997444152832e-01 2.365744113922119141e-02 -7.919699698686599731e-02
-1.213085055351257324e+00 2.671425417065620422e-02 -2.366248518228530884e-02
-2.770757377147674561e-01 -1.795820891857147217e-02 -7.042636722326278687e-02
-9.607576131820678711e-01 2.314955368638038635e-02 -6.148355454206466675e-02
-1.270214796066284180e+00 3.715721145272254944e-02 1.309920754283666611e-02
-9.591060876846313477e-01 2.566822990775108337e-02 9.122707694768905640e-02
-9.207549095153808594e-01 1.059363689273595810e-02 9.515690803527832031e-02
-3.402906954288482666e-01 5.428276956081390381e-02 9.857760369777679443e-02
2.464110553264617920e-01 -8.230995386838912964e-03 1.898062229156494141e-02
-1.183623671531677246e+00 3.027597256004810333e-02 6.269952654838562012e-02
3.769674897193908691e-02 1.065896004438400269e-01 -3.639820963144302368e-02
-6.302435994148254395e-01 -5.257286131381988525e-03 1.026529073715209961e-01
-8.943566083908081055e-01 -6.415704637765884399e-02 5.333656072616577148e-02
1.002896726131439209e-01 -3.448622673749923706e-02 -2.389493398368358612e-03
-6.747679710388183594e-01 -3.916009515523910522e-02 -5.882053822278976440e-02
-7.566644549369812012e-01 -7.710190117359161377e-02 2.179162204265594482e-02
-2.893108129501342773e-02 8.179181814193725586e-02 -6.394287198781967163e-02
-7.102425098419189453e-01 7.873800396919250488e-02 8.238729834556579590e-02
-3.346688747406005859e-01 -7.026275247335433960e-02 -1.639538444578647614e-03
-3.637146949768066406e-01 1.278192251920700073e-01 -9.551923722028732300e-05
1.734443604946136475e-01 1.060643345117568970e-01 7.416667416691780090e-03
5.371096730232238770e-02 8.818068355321884155e-02 6.088078394532203674e-02
-1.058577179908752441e+00 -4.997079819440841675e-02 -1.925528794527053833e-02
-5.484675168991088867e-01 5.462402850389480591e-02 9.970661997795104980e-02
-6.480842828750610352e-01 -2.476301044225692749e-02 -6.847196072340011597e-02
-5.215771794319152832e-01 6.819096207618713379e-02 -7.548391819000244141e-02
-9.861741065979003906e-01 -4.928410053253173828e-02 6.583222001791000366e-02
-1.007793426513671875e+00 7.787875086069107056e-02 5.219356715679168701e-02
-1.260000348091125488e+00 3.711872547864913940e-02 3.275581449270248413e-02
-8.336195349693298340e-02 4.168381541967391968e-02 9.017591923475265503e-02
-1.022410511970520020e+00 -5.305887758731842041e-02 5.703839287161827087e-02
-8.036926984786987305e-01 8.982822299003601074e-02 -4.251247271895408630e-02
-1.491661667823791504e-01 -5.011979490518569946e-02 5.015192180871963501e-02
-2.899442613124847412e-01 4.281366989016532898e-02 9.983456134796142578e-02
-1.070261120796203613e+00 -4.464877396821975708e-02 6.097671762108802795e-02
-9.480547904968261719e-02 8.379870653152465820e-02 7.598751038312911987e-02
1.998499333858489990e-01 1.027436181902885437e-01 -4.296622239053249359e-03
2.147015631198883057e-01 3.277655318379402161e-02 5.836761370301246643e-02
-1.158725738525390625e+00 6.316120177507400513e-02 -2.728206105530261993e-03
-3.955667316913604736e-01 1.198790594935417175e-02 -8.309019356966018677e-02
-9.388138055801391602e-01 -7.078854739665985107e-02 1.856872811913490295e-02
-1.181673169136047363e+00 5.934184789657592773e-02 3.101149387657642365e-02
-2.293522506952285767e-01 1.175920367240905762e-01 -3.581310436129570007e-02
-5.704337358474731445e-02 6.641180813312530518e-02 8.243232965469360352e-02
-6.487858295440673828e-02 1.217122450470924377e-01 -1.453277654945850372e-02
-6.514439582824707031e-01 1.000997275114059448e-01 -4.535172507166862488e-02
-8.268394470214843750e-01 -6.759314984083175659e-02 -1.803413778543472290e-02
-4.262610673904418945e-01 -1.332316920161247253e-02 9.843686223030090332e-02
-6.299272179603576660e-01 1.168131083250045776e-01 3.350733220577239990e-02
-7.344986200332641602e-01 1.143377646803855896e-01 3.784844651818275452e-03
-7.306282520294189453e-01 -1.460071653127670288e-02 9.881063550710678101e-02
7.165935635566711426e-02 3.505463153123855591e-02 7.756255567073822021e-02
-3.203841447830200195e-01 1.094418466091156006e-01 -4.845146462321281433e-02
-3.288166522979736328e-01 -6.012861430644989014e-02 5.476349964737892151e-02
-5.528461933135986328e-01 1.174435093998908997e-01 -2.461415901780128479e-02
-2.541950941085815430e-01 4.503786563873291016e-03 9.742898494005203247e-02
-4.528809785842895508e-01 -6.859079003334045410e-02 -2.124500274658203125e-02
-2.013770937919616699e-01 1.024178341031074524e-01 -5.533647537231445312e-02
-3.669051527976989746e-01 -2.462751790881156921e-02 -6.904678046703338623e-02
3.442994058132171631e-01 1.991335861384868622e-02 8.494672365486621857e-03
-3.332917988300323486e-01 -3.034614026546478271e-02 8.661334216594696045e-02
-1.676062941551208496e-01 1.217494308948516846e-01 -2.466250583529472351e-02
-1.811502277851104736e-01 6.763686239719390869e-02 8.884679526090621948e-02
-8.664069175720214844e-01 9.061651304364204407e-03 -6.882290542125701904e-02
-1.176583647727966309e+00 -4.788984358310699463e-02 1.668561995029449463e-02
-6.458604335784912109e-01 -7.755326479673385620e-02 2.686870843172073364e-02
-7.146747112274169922e-01 9.443352371454238892e-02 -4.652683436870574951e-02
-7.933664321899414062e-01 -4.898697882890701294e-02 7.797651737928390503e-02
-9.954482316970825195e-01 9.063267707824707031e-02 4.208089783787727356e-03
-6.478322744369506836e-01 -2.439714968204498291e-03 1.030861139297485352e-01
-1.705071628093719482e-01 7.856981456279754639e-02 -7.145812362432479858e-02
-6.767836809158325195e-01 7.583738863468170166e-02 8.603030443191528320e-02
-1.090001940727233887e+00 -1.421990618109703064e-02 7.785335183143615723e-02
2.235405147075653076e-01 -1.158154010772705078e-02 -1.328135840594768524e-02
-5.515861511230468750e-01 4.524357616901397705e-03 1.045796722173690796e-01
-9.680498838424682617e-01 -6.906227022409439087e-02 1.950777880847454071e-02
1.896232068538665771e-01 4.916979745030403137e-02 -5.494480580091476440e-02
-9.133564829826354980e-01 -4.129494726657867432e-02 -4.499513283371925354e-02
-5.421986579895019531e-01 -7.328289002180099487e-02 -1.262827031314373016e-02
-9.200972318649291992e-02 -5.224937945604324341e-02 -1.424307003617286682e-02
-7.316686511039733887e-01 1.005769819021224976e-01 5.725636333227157593e-02
-1.182325959205627441e+00 -5.730610340833663940e-03 6.747950613498687744e-02
9.976503252983093262e-02 1.029333323240280151e-01 3.864908218383789062e-02
-2.261008024215698242e-01 1.144244149327278137e-01 5.124633386731147766e-02
-9.060043096542358398e-01 -6.242667138576507568e-02 -2.042336761951446533e-02
-4.828339219093322754e-01 1.250265240669250488e-01 1.927728205919265747e-02
-5.062068700790405273e-01 1.241577044129371643e-01 2.093771100044250488e-02
-8.218798637390136719e-01 3.442340716719627380e-02 -7.108686119318008423e-02
1.794247925281524658e-01 6.943699717521667480e-02 -5.131306126713752747e-02
-1.158010482788085938e+00 -4.328850656747817993e-02 -7.699560374021530151e-03
1.208979189395904541e-01 9.470817446708679199e-02 -4.110201820731163025e-02
-7.280132770538330078e-01 4.838768020272254944e-02 -7.379340380430221558e-02
-5.917336344718933105e-01 7.840457558631896973e-02 -6.774742156267166138e-02
6.364157795906066895e-02 1.154901683330535889e-01 1.458191685378551483e-02
-4.973939061164855957e-01 -2.536198124289512634e-02 9.486850351095199585e-02
-9.398975372314453125e-01 -5.481284111738204956e-02 6.363121420145034790e-02
7.756456732749938965e-02 1.654907688498497009e-02 7.461600750684738159e-02
2.245542705059051514e-01 9.332730621099472046e-02 -2.270261570811271667e-02
-6.354646682739257812e-01 -5.952117592096328735e-02 6.926066428422927856e-02
-7.614511251449584961e-01 -5.440479144454002380e-03 -7.203846424818038940e-02
-1.144929528236389160e+00 6.004188209772109985e-02 -1.443839259445667267e-02
-3.086558878421783447e-01 1.089792698621749878e-01 6.116785481572151184e-02
2.748070657253265381e-01 9.009633958339691162e-02 9.362462908029556274e-03
-8.234239816665649414e-01 3.359390422701835632e-02 9.789691120386123657e-02
-3.548236787319183350e-01 1.175426617264747620e-01 4.808743670582771301e-02
1.368381679058074951e-01 -2.890807762742042542e-02 1.832172833383083344e-02
-8.497543334960937500e-01 9.834358096122741699e-02 -2.264403924345970154e-02
-4.586144983768463135e-01 1.101545542478561401e-01 5.895595625042915344e-02
2.062099277973175049e-01 9.265875071287155151e-02 3.237359225749969482e-02
-1.123387455940246582e+00 3.964149951934814453e-02 6.857264786958694458e-02
-6.744974851608276367e-01 -6.852979212999343872e-02 -2.422422915697097778e-02
-4.993976950645446777e-01 2.528567798435688019e-02 -8.395528048276901245e-02
-1.168945312500000000e+00 -3.170472010970115662e-02 5.719612538814544678e-02
-2.363339066505432129e-01 8.899075537919998169e-02 7.896924763917922974e-02
-7.828082442283630371e-01 -7.636019587516784668e-02 9.092595428228378296e-03
-3.855687677860260010e-01 1.050736978650093079e-01 -5.274009704589843750e-02
3.618640601634979248e-01 3.428355231881141663e-02 1.315316092222929001e-02
-6.100320219993591309e-01 9.867107495665550232e-03 -8.051932603120803833e-02
-4.004610180854797363e-01 1.768304035067558289e-03 1.020407751202583313e-01
-1.137580633163452148e+00 6.762513518333435059e-02 3.232043981552124023e-02
-5.417491793632507324e-01 -4.737509042024612427e-02 -5.371496826410293579e-02
-6.593341827392578125e-01 9.342420846223831177e-02 7.176914811134338379e-02
-4.243892431259155273e-01 -6.577862799167633057e-02 5.228111520409584045e-02
-1.389642059803009033e-01 1.106824949383735657e-01 -4.384933412075042725e-02
-5.793376564979553223e-01 4.507043957710266113e-02 1.022319346666336060e-01
-9.693999290466308594e-01 -6.210336834192276001e-02 4.877919331192970276e-02
-7.499197721481323242e-01 -2.477177977561950684e-02 -6.512802839279174805e-02
-7.202364206314086914e-01 2.726419642567634583e-02 -7.747267186641693115e-02
-1.104060173034667969e+00 5.481000989675521851e-04 7.918190211057662964e-02
-6.734584569931030273e-01 -7.555714994668960571e-02 -5.430657416582107544e-03
-5.769017934799194336e-01 -3.424119204282760620e-02 9.105727821588516235e-02
-1.114706099033355713e-01 1.105172932147979736e-02 9.058382362127304077e-02
-4.637131392955780029e-01 4.158797860145568848e-02 -8.365376293659210205e-02
-1.179760575294494629e+00 5.981403589248657227e-02 7.014377042651176453e-04
2.772069871425628662e-01 5.699844285845756531e-02 -3.949910774827003479e-02
-6.648824810981750488e-01 3.285476565361022949e-02 -7.945054024457931519e-02
-1.204681098461151123e-01 8.900070190429687500e-02 -6.388982385396957397e-02
-5.501402020454406738e-01 -4.780840873718261719e-02 8.071082085371017456e-02
1.788453161716461182e-01 1.158269867300987244e-02 5.860901251435279846e-02
-1.031727671623229980e+00 6.577357649803161621e-02 6.300139427185058594e-02
-6.152349710464477539e-01 4.572805017232894897e-02 -7.944545894861221313e-02
-8.492975234985351562e-01 5.592733994126319885e-02 8.862340450286865234e-02
-1.804261505603790283e-01 3.205550462007522583e-02 -8.139240741729736328e-02
2.877309918403625488e-02 6.979603320360183716e-02 7.434421777725219727e-02
6.303921341896057129e-02 -3.824058175086975098e-02 2.320679835975170135e-02
-1.244996786117553711e+00 -1.793094724416732788e-02 -1.136363297700881958e-02
-8.447227478027343750e-01 -1.313678920269012451e-02 -6.528139859437942505e-02
-5.354907512664794922e-01 1.477206218987703323e-02 1.054877117276191711e-01
-5.342717766761779785e-01 -1.347484439611434937e-02 -7.552455365657806396e-02
-4.343044757843017578e-01 5.772750079631805420e-02 -8.084524422883987427e-02
-6.411169767379760742e-01 1.191244870424270630e-01 -2.528429031372070312e-03
3.570881187915802002e-01 5.266107618808746338e-02 1.878382079303264618e-02
-1.191241502761840820e+00 5.076966807246208191e-02 -1.135008968412876129e-02
-7.537004947662353516e-01 -2.713821083307266235e-02 9.346020966768264771e-02
-4.094009101390838623e-01 -5.237378925085067749e-02 7.140458375215530396e-02
-2.355497926473617554e-01 -5.546035617589950562e-02 -3.059734404087066650e-02
-9.341928958892822266e-01 6.648544222116470337e-02 7.494175434112548828e-02
-9.270564317703247070e-01 7.858820259571075439e-02 6.429392099380493164e-02
-4.236928522586822510e-01 3.017529100179672241e-02 1.043275594711303711e-01
-3.324565291404724121e-01 -6.821406632661819458e-02 3.551760688424110413e-02
-9.105884432792663574e-01 1.003772020339965820e-01 1.404287293553352356e-02
-5.883467197418212891e-01 1.010683998465538025e-01 6.658937036991119385e-02
-3.718992173671722412e-01 1.250366568565368652e-01 -1.638847589492797852e-02
-1.210468888282775879e+00 4.898375645279884338e-02 3.884553909301757812e-02
2.529586255550384521e-01 3.349189460277557373e-02 -4.432406276464462280e-02
8.546975255012512207e-02 1.131669580936431885e-01 -1.287343353033065796e-02
7.907035946846008301e-02 9.776836633682250977e-02 4.868903756141662598e-02
-1.879241168498992920e-01 5.278547480702400208e-02 -8.021295070648193359e-02
-1.669745147228240967e-01 4.340002685785293579e-02 9.478556364774703979e-02
3.898844122886657715e-02 1.173645704984664917e-01 -8.906064555048942566e-03
-1.384439170360565186e-01 -1.309290528297424316e-04 8.949057012796401978e-02
-7.451900243759155273e-01 -5.332849174737930298e-02 -4.378126561641693115e-02
-5.372962951660156250e-01 1.223736479878425598e-01 -1.025617495179176331e-02
-5.765058994293212891e-01 -4.940750449895858765e-02 -5.164689198136329651e-02
-9.000248908996582031e-01 -3.995139896869659424e-02 8.041222393512725830e-02
-5.920153856277465820e-02 1.235583946108818054e-01 3.272609785199165344e-03
-1.213320016860961914e+00 1.063437480479478836e-02 6.259759515523910522e-02
9.273400902748107910e-02 6.917864829301834106e-02 6.830833107233047485e-02
-7.461342215538024902e-01 -5.410908907651901245e-02 7.434014976024627686e-02
-1.113405227661132812e+00 5.504184216260910034e-02 5.903873220086097717e-02
-6.781332492828369141e-01 -5.213424563407897949e-02 -4.729103296995162964e-02
-3.111510276794433594e-01 8.040624856948852539e-02 8.662897348403930664e-02
-7.416685223579406738e-01 -7.644094526767730713e-02 3.056239336729049683e-03
2.171878516674041748e-01 -1.622050628066062927e-02 9.553713724017143250e-03
7.925245165824890137e-02 -3.737628832459449768e-02 -1.368731260299682617e-03
-1.827488541603088379e-01 1.177972331643104553e-01 4.329677671194076538e-02
-1.051259040832519531e+00 4.884313791990280151e-02 -4.370503872632980347e-02
-1.285480737686157227e+00 2.564548701047897339e-02 3.289911895990371704e-02
-7.747948169708251953e-01 7.567387819290161133e-02 -5.805313587188720703e-02
1.365214288234710693e-01 9.388023614883422852e-02 4.475220292806625366e-02
-4.640678763389587402e-01 1.080995053052902222e-01 -4.675783216953277588e-02
-1.067235350608825684e+00 3.102026320993900299e-02 7.981866598129272461e-02
-7.488395571708679199e-01 -6.846783310174942017e-02 5.401393771171569824e-02
3.277954459190368652e-02 -4.854662343859672546e-03 -5.792589485645294189e-02
-5.919805765151977539e-01 -7.696259021759033203e-02 1.038122922182083130e-03
1.723805963993072510e-01 8.527894318103790283e-02 4.758378490805625916e-02
-7.452874183654785156e-01 1.074357479810714722e-01 -2.212800458073616028e-02
-3.846855759620666504e-01 2.469130791723728180e-02 1.038564220070838928e-01
-2.807515263557434082e-01 -6.871137768030166626e-02 8.153549395501613617e-03
-7.082586884498596191e-01 -6.200241297483444214e-02 6.557048857212066650e-02
-5.748711824417114258e-01 1.184478029608726501e-01 3.558768332004547119e-02
-9.889867305755615234e-01 -1.225339993834495544e-02 8.768858015537261963e-02
-6.420111656188964844e-01 3.871658071875572205e-02 1.027569323778152466e-01
-4.609107375144958496e-01 -4.779119044542312622e-04 1.028295382857322693e-01
-1.244757890701293945e+00 -3.159413486719131470e-02 5.434508901089429855e-03
-2.634614706039428711e-01 -4.457313567399978638e-02 7.035723328590393066e-02
1.017389595508575439e-01 5.126447230577468872e-02 -6.437353044748306274e-02
1.855185627937316895e-02 -2.238035947084426880e-02 -4.568745195865631104e-02
6.959727406501770020e-02 4.433663934469223022e-02 -6.771155446767807007e-02
-3.701698780059814453e-01 -7.288455218076705933e-02 1.129331719130277634e-02
-1.194462180137634277e-01 -2.198019251227378845e-02 7.732249051332473755e-02
-2.621245682239532471e-01 1.164283007383346558e-01 4.900146275758743286e-02
7.963359355926513672e-03 -3.759119659662246704e-02 4.300356283783912659e-02
-5.086292624473571777e-01 1.186698898673057556e-01 -2.575891464948654175e-02
-1.216518580913543701e-01 6.263752281665802002e-02 -7.592570781707763672e-02
-6.059746742248535156e-01 -5.631397664546966553e-02 -4.388027638196945190e-02
2.439269125461578369e-01 -1.051091775298118591e-02 -9.912839159369468689e-04
-2.997986376285552979e-01 -5.221242457628250122e-02 6.427405774593353271e-02
-5.226798653602600098e-01 -1.111490651965141296e-02 1.009057015180587769e-01
-1.728101074695587158e-01 1.094797551631927490e-01 -4.668088257312774658e-02
-1.841517090797424316e-01 -5.262746661901473999e-02 -2.988774701952934265e-02
-1.004335284233093262e+00 1.213848590850830078e-03 8.889470249414443970e-02
1.883899271488189697e-01 8.906742557883262634e-03 -4.570125788450241089e-02
2.826086580753326416e-01 8.229131251573562622e-02 2.418590709567070007e-02
-1.921752095222473145e-02 1.191653236746788025e-01 -1.630696281790733337e-02
-4.646168053150177002e-01 -3.968666493892669678e-02 -6.003537774085998535e-02
-5.935702919960021973e-01 2.030277252197265625e-02 1.054358556866645813e-01
-1.292510271072387695e+00 2.031056769192218781e-02 2.518141642212867737e-03
-3.500684499740600586e-01 -6.550635397434234619e-02 -2.092743664979934692e-02
-6.922132372856140137e-01 1.044616773724555969e-01 5.474599450826644897e-02
-2.244117856025695801e-02 2.232603169977664948e-02 8.558238297700881958e-02
-4.515138268470764160e-01 -3.016725182533264160e-02 9.123530238866806030e-02
2.004868686199188232e-01 5.004642158746719360e-02 6.022064387798309326e-02
-4.759603738784790039e-01 1.257289350032806396e-01 -5.161128938198089600e-04
-1.397174298763275146e-01 -5.543289333581924438e-02 -1.608573086559772491e-02
-1.086797952651977539e+00 6.592395901679992676e-02 -2.295441180467605591e-02
-6.284487247467041016e-01 -1.436458900570869446e-02 -7.365473359823226929e-02
-2.237450927495956421e-01 -4.585085064172744751e-02 6.540127098560333252e-02
-5.599349737167358398e-02 8.147493004798889160e-02 -6.558435410261154175e-02
1.414480805397033691e-02 1.364159956574440002e-02 -6.793805956840515137e-02
-1.043387651443481445e-01 1.129689812660217285e-01 4.679565504193305969e-02
-1.220203757286071777e+00 -2.801977843046188354e-02 4.845459386706352234e-02
-6.215769052505493164e-01 -3.250811994075775146e-02 -6.458149850368499756e-02
-2.087106406688690186e-01 -5.629613250494003296e-02 -2.573050186038017273e-02
-3.643855750560760498e-01 9.784688055515289307e-02 7.409823685884475708e-02
-6.653940677642822266e-02 1.768627017736434937e-02 -7.453181594610214233e-02
-8.375422954559326172e-01 8.363591134548187256e-02 6.882589310407638550e-02
-7.028173208236694336e-01 -5.696246773004531860e-02 -4.114144667983055115e-02
-6.399965286254882812e-02 -4.836829006671905518e-02 -1.846737973392009735e-02
-1.051980376243591309e+00 6.932763755321502686e-02 5.532914027571678162e-02
-8.491533994674682617e-02 1.003503426909446716e-01 6.177698448300361633e-02
-5.522164106369018555e-01 3.150177001953125000e-02 1.049081683158874512e-01
-7.298288345336914062e-01 7.919222116470336914e-02 -5.908374488353729248e-02
-7.702065110206604004e-01 1.103833913803100586e-01 -6.781646981835365295e-03
-3.187828063964843750e-01 -1.859005168080329895e-02 9.247437119483947754e-02
-3.916669487953186035e-01 7.296693325042724609e-02 -7.584372907876968384e-02
-1.034395992755889893e-01 -3.684468939900398254e-02 6.257852911949157715e-02
-5.269445180892944336e-01 5.216422677040100098e-02 -8.062853664159774780e-02
-1.042146682739257812e-01 1.216732636094093323e-01 2.737143076956272125e-02
-1.386297941207885742e-01 -2.030825242400169373e-02 8.010113239288330078e-02
3.183344900608062744e-01 8.989753201603889465e-03 5.650970153510570526e-03
-1.225740611553192139e-01 -4.416282474994659424e-02 -3.647649660706520081e-02
-7.474033236503601074e-01 6.810374557971954346e-02 -6.478375196456909180e-02
-1.155214786529541016e+00 -3.515647724270820618e-03 7.206997275352478027e-02
-7.181942462921142578e-01 -1.202005892992019653e-03 1.022171005606651306e-01
-2.934271097183227539e-01 1.282663643360137939e-01 8.511599153280258179e-03
-9.224627017974853516e-01 -6.443122029304504395e-02 4.991130903363227844e-02
-1.060684204101562500e+00 1.666568219661712646e-03 8.392006158828735352e-02
-9.586905241012573242e-01 -6.039147078990936279e-02 -1.765308715403079987e-02
2.193544209003448486e-01 8.072765171527862549e-02 4.295258969068527222e-02
-5.743706226348876953e-01 9.567338973283767700e-02 -5.535582453012466431e-02
-5.889278054237365723e-01 -6.175678223371505737e-03 1.025901660323143005e-01
-1.882961392402648926e-02 1.167862042784690857e-01 2.977324463427066803e-02
1.795216500759124756e-01 1.029428243637084961e-01 -1.548098586499691010e-02
-1.106327176094055176e-01 -5.059769004583358765e-02 4.234471917152404785e-02
2.909645438194274902e-02 1.133834496140480042e-01 3.046469390392303467e-02
-3.210130333900451660e-02 -5.031429976224899292e-02 4.494572058320045471e-03
-5.709372758865356445e-01 2.124825119972229004e-02 1.055384352803230286e-01
-1.094504714012145996e+00 7.202482968568801880e-02 3.988964855670928955e-02
7.050302624702453613e-02 -1.782580837607383728e-02 -4.299527779221534729e-02
-1.065129637718200684e+00 8.164602518081665039e-02 6.958568003028631210e-03
-9.187506437301635742e-01 -3.138417005538940430e-02 8.469466120004653931e-02
-7.858204841613769531e-01 9.463866800069808960e-02 -3.868172690272331238e-02
-8.881857395172119141e-01 8.904588222503662109e-02 -3.177444636821746826e-02
2.844439446926116943e-01 2.470962703227996826e-02 -3.468961268663406372e-02
-1.119263291358947754e+00 -1.712349429726600647e-02 7.336695492267608643e-02
1.765488088130950928e-01 9.532129019498825073e-02 -3.131089359521865845e-02
-4.890829324722290039e-02 9.102226048707962036e-02 6.772197782993316650e-02
-1.081547141075134277e-02 4.416046291589736938e-02 8.461214601993560791e-02
2.512511312961578369e-01 7.155245542526245117e-02 -3.883080184459686279e-02
-3.350791633129119873e-01 1.272058337926864624e-01 -7.745381444692611694e-03
-5.621630549430847168e-01 -7.772921025753021240e-02 1.113619003444910049e-02
-6.129115819931030273e-01 8.802437782287597656e-02 7.910244911909103394e-02
-4.998732209205627441e-01 -6.774383038282394409e-02 -2.520529180765151978e-02
-2.029165327548980713e-01 1.763306185603141785e-02 -8.060044795274734497e-02
3.412726819515228271e-01 3.342763334512710571e-02 2.579534053802490234e-02
-4.773772656917572021e-01 -7.300143688917160034e-02 3.786048293113708496e-02
3.422325551509857178e-01 4.040128737688064575e-02 -2.239005640149116516e-02
-5.099117755889892578e-01 1.175593733787536621e-01 4.344833642244338989e-02
-1.613262593746185303e-01 -9.714890271425247192e-03 -6.982995569705963135e-02
-8.764380216598510742e-01 7.033687084913253784e-02 7.746208459138870239e-02
9.595096111297607422e-03 5.173888057470321655e-03 7.864456623792648315e-02
-7.226667404174804688e-01 -3.439769521355628967e-02 -6.063468754291534424e-02
-6.626349687576293945e-02 2.919402904808521271e-02 8.950469642877578735e-02
-1.427872776985168457e-01 -2.182210236787796021e-02 -6.137637048959732056e-02
-1.023854494094848633e+00 -4.418827593326568604e-04 8.710880577564239502e-02
-3.577549457550048828e-01 8.327604085206985474e-02 -7.081476598978042603e-02
-1.055666804313659668e+00 -6.114078313112258911e-02 3.165163844823837280e-02
-9.343180656433105469e-01 1.739297062158584595e-02 -6.408321857452392578e-02
-4.207350611686706543e-01 1.087817922234535217e-01 6.157645210623741150e-02
-1.178148627281188965e+00 4.820527508854866028e-03 -3.391784057021141052e-02
-9.470481872558593750e-01 3.633975610136985779e-02 -6.068088114261627197e-02
-7.204801440238952637e-01 1.150376647710800171e-01 1.782756857573986053e-02
-9.229909181594848633e-01 4.199301451444625854e-02 -6.145548075437545776e-02
-8.617109060287475586e-02 3.919715434312820435e-02 -7.776674628257751465e-02
1.482211053371429443e-01 1.004221737384796143e-01 -2.923509478569030762e-02
1.902761757373809814e-01 -7.267960160970687866e-02 -8.966279774904251099e-02
5.413538813591003418e-01 -4.469184577465057373e-02 5.927690863609313965e-02
3.616787195205688477e-01 -1.375956237316131592e-01 -6.587464362382888794e-03
9.626836329698562622e-02 6.129308789968490601e-02 -5.498169735074043274e-02
-2.201027125120162964e-01 2.064895071089267731e-02 -3.853880614042282104e-02
3.279601037502288818e-01 -1.355555951595306396e-01 2.934558689594268799e-02
5.531327128410339355e-01 -7.714210450649261475e-02 5.202537775039672852e-02
-2.671544551849365234e-01 -1.369607076048851013e-02 2.071520499885082245e-02
-1.870130151510238647e-01 -5.288323387503623962e-02 4.432404413819313049e-02
-1.745056360960006714e-01 2.755975350737571716e-03 7.553980499505996704e-02
-1.656626611948013306e-01 6.810521334409713745e-02 3.474336117506027222e-03
-1.052581220865249634e-01 3.761106729507446289e-02 -6.137052178382873535e-02
8.109218627214431763e-02 8.262088149785995483e-02 1.644377224147319794e-02
4.738663136959075928e-02 -8.410504460334777832e-02 -7.019685953855514526e-02
2.996617555618286133e-01 -7.715052366256713867e-02 -8.741872012615203857e-02
4.085236787796020508e-01 3.547043353319168091e-02 -3.137369826436042786e-02
-8.743785321712493896e-02 1.506062224507331848e-03 9.320556372404098511e-02
-2.157156318426132202e-01 -4.398645833134651184e-02 3.635311126708984375e-02
2.513848543167114258e-01 -1.253097355365753174e-01 5.401262268424034119e-02
-1.228737086057662964e-01 5.842293053865432739e-02 -3.928287699818611145e-02
2.160161882638931274e-01 -1.304795444011688232e-01 3.994204476475715637e-02
5.380322933197021484e-01 2.318220213055610657e-03 -8.051765151321887970e-03
2.922670841217041016e-01 -1.371296942234039307e-01 2.357262372970581055e-02
3.001444041728973389e-02 7.570242881774902344e-02 -3.107966855168342590e-02
1.056765094399452209e-01 -4.471737891435623169e-03 1.084025204181671143e-01
3.800987005233764648e-01 -1.367769390344619751e-01 -6.825465708971023560e-03
5.761312246322631836e-01 -8.599758148193359375e-02 3.596177697181701660e-02
2.977888584136962891e-01 5.674684047698974609e-02 -3.112683445215225220e-02
-2.674859762191772461e-01 2.834239043295383453e-02 1.205346081405878067e-02
5.226728916168212891e-01 -8.315694332122802734e-02 -5.461899191141128540e-02
3.977566957473754883e-02 -4.359755665063858032e-02 -8.973617851734161377e-02
1.341367512941360474e-01 5.797961354255676270e-02 -5.755795538425445557e-02
2.387895882129669189e-01 4.738935828208923340e-02 7.191678136587142944e-02
1.789722442626953125e-01 -1.328691393136978149e-01 -1.252674497663974762e-02
4.440218806266784668e-01 2.827937714755535126e-02 3.542588278651237488e-02
8.732005953788757324e-02 3.258395940065383911e-02 -8.073680102825164795e-02
3.581423759460449219e-01 2.952492423355579376e-02 6.761690229177474976e-02
3.382889628410339355e-01 5.457700043916702271e-02 2.780108712613582611e-02
3.686588406562805176e-01 -3.218529373407363892e-02 9.708681702613830566e-02
3.720944523811340332e-01 -5.425555258989334106e-02 9.649094194173812866e-02
3.051366209983825684e-01 -2.008475922048091888e-02 1.027426123619079590e-01
1.946439594030380249e-01 -1.172485277056694031e-01 6.354932487010955811e-02
4.546792507171630859e-01 2.297869138419628143e-02 -3.199732303619384766e-02
-1.108363121747970581e-01 3.365077823400497437e-02 8.000507950782775879e-02
-1.170229762792587280e-01 -8.130242675542831421e-02 -2.150874212384223938e-02
2.860577404499053955e-01 2.517241053283214569e-02 8.561693131923675537e-02
2.225907444953918457e-01 -7.526756823062896729e-02 9.957277029752731323e-02
4.021140933036804199e-01 -4.147384315729141235e-02 9.293476492166519165e-02
1.359274089336395264e-01 -1.275940239429473877e-01 3.094390034675598145e-02
2.631033658981323242e-01 -6.315691769123077393e-02 1.031433269381523132e-01
1.334198862314224243e-01 -5.484902113676071167e-02 1.058521345257759094e-01
2.723063528537750244e-02 -1.032847389578819275e-01 -4.374507442116737366e-02
2.718487977981567383e-01 -1.319646239280700684e-01 -3.185434639453887939e-02
-4.043529927730560303e-02 -9.750768542289733887e-02 4.346987977623939514e-02
1.086103916168212891e-01 -5.744935572147369385e-02 -9.148666262626647949e-02
4.065621495246887207e-01 -1.354979574680328369e-01 9.954849258065223694e-03
8.670046925544738770e-02 -1.063694804906845093e-01 6.526847183704376221e-02
5.095691680908203125e-01 -8.595875650644302368e-02 6.251411885023117065e-02
4.805511236190795898e-01 3.787539899349212646e-04 -5.064262449741363525e-02
5.300911664962768555e-01 -6.668309122323989868e-02 -5.760676413774490356e-02
2.845343053340911865e-01 -2.225216850638389587e-02 1.049252524971961975e-01
4.682230949401855469e-01 -1.098352000117301941e-01 5.415146797895431519e-02
4.257339239120483398e-01 -1.334063410758972168e-01 -8.470813743770122528e-03
1.939079165458679199e-01 4.997657984495162964e-02 7.503974437713623047e-02
4.587305784225463867e-01 -5.977958440780639648e-03 7.030390202999114990e-02
4.310590028762817383e-01 2.088298834860324860e-02 5.470136925578117371e-02
1.118877828121185303e-01 -9.994670748710632324e-02 -6.492054462432861328e-02
3.185303211212158203e-01 -5.226988345384597778e-03 9.742191433906555176e-02
6.091742515563964844e-01 -5.075448006391525269e-02 -1.139344833791255951e-02
2.295386195182800293e-01 -2.999315969645977020e-02 -9.793499857187271118e-02
-8.425785601139068604e-02 -4.337168484926223755e-02 -7.078216224908828735e-02
2.825314700603485107e-01 5.350296199321746826e-02 5.404053628444671631e-02
-1.923426538705825806e-01 1.211600564420223236e-02 6.937221437692642212e-02
-3.208519518375396729e-02 -1.062253341078758240e-01 -2.893468365073204041e-03
5.215510725975036621e-01 -2.099983580410480499e-02 5.783025547862052917e-02
1.652180701494216919e-01 -1.059444546699523926e-01 7.547344267368316650e-02
-2.479970306158065796e-01 -3.180331364274024963e-02 -1.357048284262418747e-03
2.935415208339691162e-01 -1.259700804948806763e-01 -4.494887590408325195e-02
5.792115926742553711e-01 -7.870689034461975098e-02 -3.421042487025260925e-02
1.060636416077613831e-01 4.534955322742462158e-02 -7.155703753232955933e-02
2.763119637966156006e-01 -1.216016635298728943e-01 -5.172979831695556641e-02
3.200252652168273926e-01 1.924623362720012665e-02 -7.437567412853240967e-02
3.665265440940856934e-02 6.437569856643676758e-02 6.640120595693588257e-02
