-3.298584222793579102e-01 1.371177732944488525e-01 8.503939956426620483e-03
1.631203293800354004e-01 1.270492821931838989e-01 -3.706044703722000122e-02
4.948483109474182129e-01 -1.253040507435798645e-02 -2.054023742675781250e-02
-5.912573337554931641e-01 -4.060536623001098633e-02 -3.376218676567077637e-02
2.679445445537567139e-01 1.159894540905952454e-01 -3.860931843519210815e-02
-3.302479684352874756e-01 -7.225903123617172241e-02 -2.438547648489475250e-02
1.190674826502799988e-01 -4.255153983831405640e-02 7.210617512464523315e-02
-3.058167099952697754e-01 -1.804812625050544739e-02 8.149295300245285034e-02
-1.544370949268341064e-01 -6.956732273101806641e-02 3.835694491863250732e-02
2.834220528602600098e-01 1.157641261816024780e-01 7.168006151914596558e-02
2.687551677227020264e-01 6.308251619338989258e-02 1.002165377140045166e-01
3.640887439250946045e-01 -4.162872582674026489e-02 -2.387309074401855469e-02
-6.102259457111358643e-02 2.985817939043045044e-02 1.070715710520744324e-01
1.198726370930671692e-01 1.461398899555206299e-01 2.354704402387142181e-02
-3.526140153408050537e-01 1.352426707744598389e-01 4.521563183516263962e-03
-2.396499738097190857e-02 7.216808199882507324e-02 -8.835319429636001587e-02
3.706075847148895264e-01 7.175131887197494507e-02 -5.681419372558593750e-02
5.373812913894653320e-01 4.946653172373771667e-02 -2.928847260773181915e-02
-1.649445295333862305e-02 1.705102436244487762e-02 1.056728661060333252e-01
-5.983904004096984863e-01 6.392886489629745483e-02 5.250239372253417969e-02
-4.339123964309692383e-01 9.238891303539276123e-03 8.013985306024551392e-02
5.114469528198242188e-01 4.252182692289352417e-02 7.237108796834945679e-02
1.681714951992034912e-01 3.232169896364212036e-03 9.900063276290893555e-02
-2.430997788906097412e-01 2.638019248843193054e-02 -9.816228598356246948e-02
-4.372072517871856689e-01 7.176950573921203613e-02 7.761190831661224365e-02
2.487231791019439697e-01 1.392809599637985229e-01 1.476444397121667862e-02
6.400238722562789917e-02 -5.330564826726913452e-02 -5.895172804594039917e-02
-6.453258395195007324e-01 1.073096133768558502e-02 4.438875615596771240e-02
3.499352633953094482e-01 9.484100341796875000e-02 8.165355026721954346e-02
-2.417488098144531250e-01 4.624314606189727783e-02 -9.627281874418258667e-02
3.210602998733520508e-01 9.082397818565368652e-02 8.703053742647171021e-02
6.919711083173751831e-02 1.388032585382461548e-01 5.433627218008041382e-02
3.069075047969818115e-01 -6.841571629047393799e-02 2.282838523387908936e-02
9.150843322277069092e-02 -7.584206759929656982e-04 1.131523996591567993e-01
-2.973578274250030518e-01 4.766354709863662720e-02 4.993403702974319458e-02
3.204055428504943848e-01 1.104003638029098511e-01 7.677385210990905762e-02
1.215314865112304688e-02 7.412260770797729492e-02 1.171023696660995483e-01
-6.918515264987945557e-02 4.754128307104110718e-02 1.119002848863601685e-01
5.409058332443237305e-01 3.659726679325103760e-02 1.031155437231063843e-01
8.791065216064453125e-02 -6.457005441188812256e-02 6.425902247428894043e-03
2.061345577239990234e-01 4.548391699790954590e-02 -7.056546956300735474e-02
3.118404746055603027e-02 1.168074458837509155e-01 7.740003615617752075e-02
1.669441759586334229e-01 4.182104021310806274e-02 1.296730488538742065e-01
1.722930371761322021e-02 1.230503767728805542e-01 4.450897127389907837e-02
5.242609381675720215e-01 6.551346927881240845e-02 -1.044147275388240814e-02
-2.711069881916046143e-01 8.300486952066421509e-02 3.241698071360588074e-02
-5.194044113159179688e-02 1.021951064467430115e-01 -1.976463384926319122e-02
2.238360345363616943e-01 8.648764342069625854e-02 1.179251745343208313e-01
-2.438656985759735107e-02 7.490935921669006348e-02 -5.243840813636779785e-02
6.635853648185729980e-01 3.068748861551284790e-02 5.089325457811355591e-02
3.826465010643005371e-01 1.072569712996482849e-01 3.081998601555824280e-02
-1.007554531097412109e-01 1.140388175845146179e-01 5.299809575080871582e-02
1.214068681001663208e-01 1.188662350177764893e-01 7.736358046531677246e-02
2.359766513109207153e-01 8.179690688848495483e-02 -4.408038407564163208e-02
2.389877587556838989e-01 -1.895073242485523224e-02 1.073874831199645996e-01
-1.200374364852905273e-01 1.083591878414154053e-01 5.442416295409202576e-03
2.358942925930023193e-01 3.243370726704597473e-02 1.295624077320098877e-01
2.476676702499389648e-01 -6.088372319936752319e-02 5.196633189916610718e-02
1.833679378032684326e-01 1.060468852519989014e-01 -1.643161661922931671e-02
5.596803426742553711e-01 7.482783496379852295e-02 2.555579505860805511e-02
8.405716717243194580e-02 -1.461045630276203156e-02 1.032167598605155945e-01
7.081830501556396484e-02 7.102347165346145630e-02 1.223966032266616821e-01
1.842300593852996826e-01 -4.222542792558670044e-02 8.212565630674362183e-02
-6.952674686908721924e-02 8.689574152231216431e-02 -3.798671066761016846e-02
-5.992203950881958008e-03 1.211327686905860901e-01 5.499799549579620361e-02
2.002715915441513062e-01 7.360742986202239990e-02 -5.376806110143661499e-02
1.276318430900573730e-01 -5.104050785303115845e-02 6.406433135271072388e-02
2.566052079200744629e-01 -4.303215444087982178e-02 -5.814614892005920410e-02
4.927903711795806885e-01 -4.056748002767562866e-02 6.827975809574127197e-02
2.347064614295959473e-01 -6.811556965112686157e-02 2.637107484042644501e-02
3.750786185264587402e-01 1.090051233768463135e-01 5.692643672227859497e-02
3.272683620452880859e-01 -6.575314700603485107e-02 3.483583778142929077e-02
2.336313724517822266e-01 1.055064573884010315e-01 -1.258604414761066437e-02
-1.812726855278015137e-01 9.588186442852020264e-02 6.715007871389389038e-02
-2.242502570152282715e-01 8.848247677087783813e-02 -3.277780488133430481e-03
7.196101546287536621e-02 -4.415855556726455688e-02 -5.319857597351074219e-02
-1.968247294425964355e-01 1.013852432370185852e-01 1.998540014028549194e-02
-9.132003784179687500e-02 5.746376886963844299e-02 -5.828446149826049805e-02
5.149994492530822754e-01 -4.530796781182289124e-03 9.894492477178573608e-02
3.754378557205200195e-01 8.280404657125473022e-02 1.092990860342979431e-01
-6.221815943717956543e-03 9.566231817007064819e-02 1.030720844864845276e-01
-3.006045520305633545e-02 -5.216710269451141357e-02 2.261687256395816803e-02
5.947425961494445801e-03 -5.694961547851562500e-02 1.742285490036010742e-02
1.507663279771804810e-01 6.029084324836730957e-03 -7.953158020973205566e-02
2.825647592544555664e-01 7.355858385562896729e-02 -4.765691608190536499e-02
2.001585960388183594e-01 -6.934630125761032104e-02 2.619618549942970276e-03
4.203146696090698242e-01 9.931978583335876465e-02 1.742686331272125244e-02
-2.249834239482879639e-01 -2.647986635565757751e-03 5.076292529702186584e-02
-1.709474921226501465e-01 -2.907399646937847137e-02 2.372547984123229980e-02
5.288639068603515625e-01 2.106049843132495880e-02 1.053874492645263672e-01
-2.378759086132049561e-01 2.464783750474452972e-02 -4.042937606573104858e-02
4.436411857604980469e-01 -4.743340611457824707e-02 6.581735610961914062e-02
3.975152671337127686e-01 8.669341355562210083e-02 1.023237779736518860e-01
4.683303534984588623e-01 -5.883509665727615356e-02 2.540494315326213837e-02
1.438595354557037354e-01 3.559911251068115234e-02 1.284418106079101562e-01
5.086249113082885742e-01 -3.009529598057270050e-02 7.916636019945144653e-02
3.945520520210266113e-01 -9.346788749098777771e-03 1.096693947911262512e-01
-2.665230929851531982e-01 6.540392339229583740e-02 -1.693047396838665009e-02
-1.766458153724670410e-03 -5.177308619022369385e-02 3.701187297701835632e-02
-2.080022990703582764e-01 2.530865557491779327e-02 7.948058843612670898e-02
-1.121285259723663330e-01 7.817060500383377075e-02 -4.169797152280807495e-02
2.185281664133071899e-01 2.650334872305393219e-02 -7.610240578651428223e-02
2.912848591804504395e-01 1.140606626868247986e-01 2.016155049204826355e-02
5.663314461708068848e-01 -3.782638907432556152e-02 5.094049870967864990e-02
-1.505588591098785400e-01 9.767121821641921997e-02 -1.075664348900318146e-02
3.464244306087493896e-02 1.129335351288318634e-02 -7.751257717609405518e-02
-6.898374855518341064e-02 4.891522228717803955e-02 -6.425858289003372192e-02
-9.486752748489379883e-02 -1.748523302376270294e-02 7.440483570098876953e-02
-2.154843211174011230e-01 9.860627353191375732e-02 3.197791427373886108e-02
2.378852665424346924e-02 1.931644231081008911e-02 1.167761906981468201e-01
8.295750617980957031e-02 -1.768658868968486786e-02 -7.332646846771240234e-02
4.352792501449584961e-01 7.199978828430175781e-02 1.086422279477119446e-01
-2.860991358757019043e-01 3.492319956421852112e-02 -2.264066599309444427e-02
1.830095797777175903e-01 1.180978491902351379e-01 1.172705739736557007e-02
9.811434149742126465e-02 8.641572296619415283e-02 1.170160099864006042e-01
-1.982420086860656738e-01 9.988337010145187378e-02 4.900480061769485474e-02
1.653469204902648926e-01 -5.486191809177398682e-02 -4.470133036375045776e-02
5.240460634231567383e-01 1.693578436970710754e-03 -4.352761059999465942e-02
5.741493701934814453e-01 6.321649253368377686e-02 7.802907377481460571e-02
-5.992199480533599854e-02 1.163381561636924744e-01 6.064842641353607178e-02
2.410373091697692871e-01 1.140023171901702881e-01 8.225837349891662598e-02
4.268331229686737061e-01 -3.502653539180755615e-02 8.533517271280288696e-02
-2.250518202781677246e-01 -1.511012576520442963e-02 2.528380975127220154e-02
3.502230346202850342e-02 1.075614914298057556e-01 -1.691413111984729767e-02
1.845172047615051270e-02 -4.457772523164749146e-02 5.920213460922241211e-02
1.555131375789642334e-02 -4.010839387774467468e-03 -7.434309273958206177e-02
6.729792952537536621e-01 2.043340355157852173e-03 3.750052675604820251e-02
1.869963109493255615e-01 2.927030436694622040e-02 1.286458820104598999e-01
-1.606036722660064697e-01 -2.032332308590412140e-02 5.114315450191497803e-02
3.086321055889129639e-01 7.677730917930603027e-02 1.198037266731262207e-01
3.072918057441711426e-01 2.949795126914978027e-02 1.279045492410659790e-01
5.580459535121917725e-02 1.043963730335235596e-01 -2.275181747972965240e-02
6.505630016326904297e-01 4.297387599945068359e-02 3.376057371497154236e-02
5.481591224670410156e-01 7.564509660005569458e-02 7.041868567466735840e-02
1.431799530982971191e-01 6.366651505231857300e-02 1.273438334465026855e-01
4.927132725715637207e-01 -5.663724243640899658e-02 1.699212752282619476e-02
4.699609279632568359e-01 -4.685664921998977661e-02 -2.812745235860347748e-02
9.965625405311584473e-02 1.241521686315536499e-01 5.224377289414405823e-02
-6.489332020282745361e-02 1.104129999876022339e-01 -1.916131004691123962e-03
-4.475480318069458008e-02 1.109654754400253296e-01 -3.699827939271926880e-03
-9.540796279907226562e-03 1.054462119936943054e-01 -1.817993633449077606e-02
1.110456883907318115e-01 -2.289506234228610992e-02 9.843195974826812744e-02
4.123112559318542480e-01 -5.323754251003265381e-02 -3.087989054620265961e-02
5.039192438125610352e-01 -3.952496498823165894e-02 -2.873904444277286530e-02
5.282576084136962891e-01 8.345509320497512817e-02 6.103496253490447998e-02
-2.708806991577148438e-01 6.202951073646545410e-03 3.702965751290321350e-02
-6.207917630672454834e-02 9.964683651924133301e-02 9.190192073583602905e-02
1.379674971103668213e-01 7.217220962047576904e-03 1.200350075960159302e-01
-6.743267178535461426e-02 -4.371279478073120117e-02 -2.743562124669551849e-02
4.378933310508728027e-01 3.693774342536926270e-03 1.127289459109306335e-01
2.796148657798767090e-01 -6.603579223155975342e-02 3.659630566835403442e-02
-1.193961501121520996e-02 1.158043220639228821e-01 7.380541414022445679e-02
5.920606255531311035e-01 3.356617689132690430e-02 -1.662824861705303192e-02
-1.327728927135467529e-01 5.443822965025901794e-02 -5.489615350961685181e-02
4.791385233402252197e-01 2.798723429441452026e-02 1.139770969748497009e-01
3.502097129821777344e-01 -5.101315677165985107e-02 -4.309221357107162476e-02
4.034077525138854980e-01 1.058807820081710815e-01 4.149682819843292236e-02
2.643781304359436035e-01 8.322119712829589844e-03 1.231047809123992920e-01
7.857205718755722046e-02 1.152931824326515198e-01 -1.839645206928253174e-03
-2.208628356456756592e-01 -1.690187491476535797e-02 -1.030440069735050201e-02
1.937470436096191406e-01 -1.049322076141834259e-02 -7.671026885509490967e-02
3.666927218437194824e-01 -4.244229197502136230e-02 8.129720389842987061e-02
4.504448175430297852e-02 7.384455949068069458e-02 1.198178455233573914e-01
3.853911161422729492e-02 -4.471203684806823730e-02 6.273331493139266968e-02
-1.010364294052124023e-01 -4.114967584609985352e-02 -1.936249993741512299e-02
1.861582100391387939e-01 6.596986204385757446e-02 1.274916827678680420e-01
-1.043662726879119873e-01 -2.229833975434303284e-03 -6.231129914522171021e-02
-2.392348945140838623e-01 -5.639033392071723938e-03 3.811272233724594116e-02
3.163740634918212891e-01 5.120007693767547607e-02 -6.011227518320083618e-02
3.280453681945800781e-01 3.595401346683502197e-02 -6.595499813556671143e-02
-1.888814270496368408e-01 6.136104464530944824e-03 -4.907493293285369873e-02
1.360985338687896729e-01 1.198474913835525513e-01 1.313093025237321854e-02
7.147967815399169922e-03 -3.116659633815288544e-02 7.767489552497863770e-02
1.404386907815933228e-01 -2.921696193516254425e-02 9.450446814298629761e-02
-7.518443465232849121e-02 -4.777123779058456421e-02 -4.896245896816253662e-03
4.046612679958343506e-01 -4.768810421228408813e-02 7.048324495553970337e-02
6.285384297370910645e-02 -1.191291771829128265e-02 1.033783406019210815e-01
2.530214786529541016e-01 -6.703419983386993408e-02 3.248529881238937378e-02
4.063933789730072021e-01 7.620800286531448364e-02 -2.772713266313076019e-02
4.236527681350708008e-01 -5.541328340768814087e-02 5.280165374279022217e-02
3.092883825302124023e-01 -6.445635110139846802e-02 -2.228326909244060516e-02
6.681235432624816895e-01 4.187552258372306824e-03 1.604709960520267487e-02
5.435022115707397461e-01 -1.501868106424808502e-02 -3.572998940944671631e-02
4.571115672588348389e-01 9.567132592201232910e-02 6.839840114116668701e-02
-5.120731890201568604e-02 1.360660512000322342e-02 1.056325212121009827e-01
2.211886197328567505e-01 -5.765635520219802856e-02 -4.108325392007827759e-02
8.004635572433471680e-02 -3.864315897226333618e-02 7.803616672754287720e-02
3.821417093276977539e-01 7.258498668670654297e-02 -3.584786504507064819e-02
1.381467431783676147e-01 1.241828501224517822e-01 4.325615614652633667e-02
2.975849211215972900e-01 5.825018137693405151e-02 1.272888928651809692e-01
-1.281965076923370361e-01 5.040727555751800537e-04 -5.946208536624908447e-02
1.175834611058235168e-01 1.196980476379394531e-01 1.153861172497272491e-02
4.756214022636413574e-01 -2.456169016659259796e-02 -4.653514176607131958e-02
6.454353332519531250e-01 -1.988785155117511749e-02 2.234826609492301941e-02
5.388793945312500000e-01 -1.004833914339542389e-02 9.129118174314498901e-02
4.532866179943084717e-02 8.943072706460952759e-02 -4.195539653301239014e-02
5.281296372413635254e-01 -5.114046484231948853e-02 9.132498875260353088e-03
4.210345745086669922e-01 3.987882658839225769e-02 -5.302285403013229370e-02
3.712057471275329590e-01 4.521092399954795837e-03 -6.748476624488830566e-02
4.380365312099456787e-01 -6.119805574417114258e-02 -2.090917900204658508e-03
3.496634364128112793e-01 -6.724150478839874268e-02 2.271192148327827454e-02
3.899863362312316895e-02 -4.341628402471542358e-02 -5.065990239381790161e-02
-8.757084608078002930e-02 1.111253052949905396e-01 6.820755451917648315e-02
9.515537321567535400e-02 -4.997260868549346924e-02 6.203379482030868530e-02
-1.225901246070861816e-01 9.777277708053588867e-03 9.158422052860260010e-02
-4.685679078102111816e-02 4.407159984111785889e-02 1.145936697721481323e-01
3.848468065261840820e-01 -5.994044989347457886e-02 4.722960293292999268e-02
3.940263390541076660e-01 2.392607927322387695e-02 1.223718300461769104e-01
-1.286015510559082031e-01 -3.776359558105468750e-02 -1.362412609159946442e-02
-1.392056345939636230e-01 4.076838493347167969e-02 9.990152716636657715e-02
-7.634073495864868164e-03 -4.355452209711074829e-02 5.549921095371246338e-02
3.997991085052490234e-01 7.214715331792831421e-02 1.136898323893547058e-01
2.807166576385498047e-01 -5.730366706848144531e-02 6.028065085411071777e-02
1.310436129570007324e-01 9.910473227500915527e-02 -2.989058010280132294e-02
4.348177015781402588e-01 5.441492423415184021e-02 1.169620454311370850e-01
-1.311719119548797607e-01 1.110680699348449707e-01 2.141062170267105103e-02
-4.677239060401916504e-02 1.115564182400703430e-01 7.699486613273620605e-02
3.592970967292785645e-01 9.214305132627487183e-02 -1.558380387723445892e-02
3.498536944389343262e-01 -2.870103903114795685e-02 -6.169215589761734009e-02
3.795889019966125488e-01 2.081884443759918213e-02 -6.486535072326660156e-02
6.395075917243957520e-01 1.304578781127929688e-02 -5.066307261586189270e-03
1.424844264984130859e-01 4.262977465987205505e-02 -7.356199622154235840e-02
-2.369789183139801025e-01 5.972116440534591675e-02 7.553622126579284668e-02
-1.829931139945983887e-01 9.996387362480163574e-02 5.123272538185119629e-03
5.926312208175659180e-01 5.715382099151611328e-02 7.626720517873764038e-02
-3.011193275451660156e-01 1.340887043625116348e-02 9.176379069685935974e-03
3.648028373718261719e-01 5.739276856184005737e-02 1.233547404408454895e-01
3.020256757736206055e-01 1.061965897679328918e-01 9.036506712436676025e-02
5.940852165222167969e-01 5.960085988044738770e-02 1.251011248677968979e-02
3.631980121135711670e-01 1.082238554954528809e-01 2.421189844608306885e-02
-1.579791605472564697e-01 6.733538955450057983e-02 9.473077952861785889e-02
5.775930881500244141e-01 7.254408299922943115e-02 4.235550016164779663e-02
4.709134697914123535e-01 6.184349954128265381e-02 -2.902685292065143585e-02
2.817204594612121582e-01 8.772102743387222290e-02 1.144081577658653259e-01
-1.085899770259857178e-01 -2.558131702244281769e-02 -4.560409486293792725e-02
1.053051576018333435e-01 1.843409240245819092e-02 1.227001622319221497e-01
3.453233242034912109e-01 -4.116448014974594116e-02 8.412586897611618042e-02
-7.759937644004821777e-02 6.851040571928024292e-02 1.085210964083671570e-01
-1.643329858779907227e-01 -6.746353581547737122e-03 -4.841902852058410645e-02
3.057510554790496826e-01 -4.410242289304733276e-02 -5.449667572975158691e-02
4.005677700042724609e-01 2.423555962741374969e-02 -6.151727586984634399e-02
4.527021646499633789e-01 7.960533350706100464e-02 9.896939247846603394e-02
1.870753914117813110e-01 9.916107356548309326e-02 1.083140969276428223e-01
4.987370967864990234e-01 8.708421140909194946e-02 7.118256390094757080e-02
5.531157255172729492e-01 6.054070591926574707e-02 8.939647674560546875e-02
5.328409075736999512e-01 7.004195451736450195e-02 8.685576170682907104e-02
4.406749308109283447e-01 -5.241408199071884155e-02 -2.631915546953678131e-02
1.135240793228149414e-01 9.622266888618469238e-02 -3.413973003625869751e-02
-5.728772282600402832e-02 -5.000698566436767578e-02 1.410023123025894165e-02
-1.716835796833038330e-01 4.434951767325401306e-02 -5.291593819856643677e-02
1.999051272869110107e-01 1.164200454950332642e-01 8.054036647081375122e-02
4.682385623455047607e-01 8.547262847423553467e-02 1.871930435299873352e-03
5.084974169731140137e-01 7.653745263814926147e-02 3.495253622531890869e-04
2.800973057746887207e-01 -3.165613859891891479e-02 9.637939184904098511e-02
1.294527947902679443e-01 5.687545239925384521e-02 -6.729348003864288330e-02
5.576945543289184570e-01 7.767976820468902588e-02 5.183402448892593384e-02
1.514005810022354126e-01 -4.254347831010818481e-02 7.959840446710586548e-02
4.624797999858856201e-01 9.611096233129501343e-02 3.111081570386886597e-02
-8.197504281997680664e-02 1.390591543167829514e-02 1.011331379413604736e-01
8.307208120822906494e-02 6.035932898521423340e-02 -6.555229425430297852e-02
-1.458755135536193848e-02 1.153066307306289673e-01 3.560639917850494385e-03
-1.938992142677307129e-01 4.908393323421478271e-02 -4.713103920221328735e-02
-1.976997554302215576e-01 -2.469814755022525787e-02 1.333752833306789398e-02
6.068320870399475098e-01 1.317847613245248795e-02 8.522058278322219849e-02
5.702691078186035156e-01 -4.331076145172119141e-02 1.235374249517917633e-02
4.103111922740936279e-01 9.523461759090423584e-02 2.698382362723350525e-03
1.544196009635925293e-01 -1.525724120438098907e-02 -7.568886876106262207e-02
-9.393924474716186523e-02 9.863457828760147095e-02 8.734513819217681885e-02
-2.600196897983551025e-01 4.428368434309959412e-02 6.801176071166992188e-02
4.185285568237304688e-01 8.393980562686920166e-02 -1.520797051489353180e-02
3.626334667205810547e-01 -6.172604858875274658e-02 -2.239735983312129974e-02
4.119813144207000732e-01 9.284470975399017334e-02 9.146346151828765869e-02
5.444754958152770996e-01 8.092603832483291626e-02 3.855584189295768738e-02
2.757252752780914307e-01 1.183266937732696533e-01 5.170797556638717651e-02
-2.513729631900787354e-01 8.549866080284118652e-02 5.575088784098625183e-03
1.062716394662857056e-01 -3.792201727628707886e-02 8.181162923574447632e-02
-2.529324591159820557e-01 8.916845172643661499e-02 2.407449111342430115e-02
2.643379569053649902e-01 9.340716153383255005e-02 -2.805257402360439301e-02
5.976308882236480713e-02 -1.630668155848979950e-02 -7.284358888864517212e-02
4.515199363231658936e-01 -3.644913434982299805e-02 -4.322034120559692383e-02
1.512034237384796143e-01 1.034933179616928101e-01 -2.264788188040256500e-02
1.374597251415252686e-01 1.053112596273422241e-01 1.017510369420051575e-01
4.217579960823059082e-03 7.634739577770233154e-02 -5.279184877872467041e-02
4.655519127845764160e-01 3.659370914101600647e-02 -4.717772454023361206e-02
3.555140495300292969e-01 6.659021228551864624e-02 -4.517459124326705933e-02
2.456227838993072510e-01 -6.412953883409500122e-02 -2.708218432962894440e-02
1.937779039144515991e-01 -6.474792957305908203e-02 3.757663816213607788e-02
-1.545123159885406494e-01 -3.225027024745941162e-02 -1.525460742413997650e-02
-1.475122570991516113e-02 -9.949924424290657043e-03 -7.011552900075912476e-02
-2.581355273723602295e-01 -3.423666581511497498e-03 2.776013128459453583e-02
1.812927573919296265e-01 -1.202721707522869110e-02 1.110004931688308716e-01
-1.633896231651306152e-01 1.032782271504402161e-01 5.970165133476257324e-02
-1.103074252605438232e-01 1.028550043702125549e-01 -9.967504069209098816e-03
2.151375859975814819e-01 4.420538246631622314e-02 1.303611099720001221e-01
-2.210835218429565430e-01 6.477392464876174927e-02 -3.242663294076919556e-02
4.473861753940582275e-01 8.761895447969436646e-02 -1.121867448091506958e-03
6.057760715484619141e-01 6.074646115303039551e-02 6.063001602888107300e-02
2.789270281791687012e-01 -5.567651242017745972e-02 -4.252496361732482910e-02
6.498042345046997070e-01 1.556374784559011459e-02 6.750380247831344604e-02
2.835367321968078613e-01 -9.504383429884910583e-03 -7.339350134134292603e-02
2.879443168640136719e-01 -1.040040515363216400e-02 1.133320555090904236e-01
7.853045314550399780e-02 1.234667003154754639e-01 2.892181463539600372e-02
-2.311193048954010010e-01 2.315185964107513428e-02 7.125462591648101807e-02
1.601073443889617920e-01 -3.007636032998561859e-02 9.485772252082824707e-02
6.433020234107971191e-01 -5.059985443949699402e-03 -1.161841675639152527e-03
-5.318720638751983643e-02 6.531939655542373657e-02 -5.720981210470199585e-02
9.507298469543457031e-03 -5.548986047506332397e-02 -1.971956528723239899e-02
-1.131740510463714600e-01 1.015957146883010864e-01 7.937839627265930176e-02
-5.818267166614532471e-02 -1.437625475227832794e-02 8.509156852960586548e-02
-3.309011459350585938e-02 1.201587393879890442e-01 2.872385084629058838e-02
2.058507651090621948e-01 1.934539526700973511e-02 1.266320198774337769e-01
6.095571517944335938e-01 6.126882135868072510e-02 3.255392983555793762e-02
-7.735076546669006348e-02 -4.204450175166130066e-03 9.047829359769821167e-02
1.611695289611816406e-01 4.904246702790260315e-02 -7.054679095745086670e-02
-1.038748323917388916e-01 2.544390037655830383e-02 -6.618149578571319580e-02
6.212519407272338867e-01 -2.352447994053363800e-02 1.084206625819206238e-03
5.572752952575683594e-01 1.234352309256792068e-02 9.800586104393005371e-02
1.076249703764915466e-01 -5.941046401858329773e-03 -7.773087173700332642e-02
5.077540874481201172e-01 1.905207335948944092e-02 -4.516214877367019653e-02
-3.381085395812988281e-02 -5.110891163349151611e-02 -1.803479902446269989e-02
6.392624229192733765e-02 9.242206066846847534e-02 1.113565266132354736e-01
5.187643766403198242e-01 4.885128140449523926e-02 -2.842502482235431671e-02
1.020275950431823730e-01 1.228976622223854065e-01 2.502533607184886932e-02
2.469511330127716064e-02 3.324055299162864685e-02 -7.493310421705245972e-02
9.667142480611801147e-02 8.097457885742187500e-02 -5.061625689268112183e-02
4.622864723205566406e-01 -3.063960000872612000e-03 -5.499311536550521851e-02
2.351022064685821533e-01 1.159335747361183167e-01 1.283005252480506897e-02
1.021860316395759583e-01 -6.173436343669891357e-02 -2.332269586622714996e-02
1.085283234715461731e-01 5.441072210669517517e-02 -6.876352429389953613e-02
-2.719516456127166748e-01 7.568232715129852295e-02 5.011829733848571777e-02
1.026545763015747070e-01 2.436635084450244904e-02 -7.847097516059875488e-02
4.144504070281982422e-01 2.548019215464591980e-02 1.209321767091751099e-01
4.842637777328491211e-01 -5.158439278602600098e-02 -1.545203290879726410e-02
-2.393704056739807129e-01 9.111925959587097168e-02 4.357904195785522461e-02
-6.902647018432617188e-02 1.834227144718170166e-02 -7.024332880973815918e-02
4.278267920017242432e-02 -1.642346940934658051e-02 9.770011156797409058e-02
-2.872507870197296143e-01 2.959624305367469788e-02 5.065081268548965454e-02
-2.391743659973144531e-02 -4.721260815858840942e-02 -3.308834880590438843e-02
-9.508937597274780273e-02 -4.516886919736862183e-02 5.626399070024490356e-03
-1.292235851287841797e-01 -3.854407370090484619e-02 1.705338805913925171e-02
1.663765460252761841e-01 1.234851554036140442e-01 5.042457580566406250e-02
-5.159315466880798340e-02 8.841065317392349243e-02 1.030921936035156250e-01
3.735820055007934570e-01 9.818509221076965332e-02 -1.478865742683410645e-03
5.778851509094238281e-01 4.232864081859588623e-02 9.226953983306884766e-02
-1.686872541904449463e-01 2.102816849946975708e-02 8.766485005617141724e-02
4.757718741893768311e-02 1.205718740820884705e-01 6.818462163209915161e-02
4.697129130363464355e-02 3.378489986062049866e-02 -7.558936625719070435e-02
2.259930670261383057e-01 -1.196123100817203522e-02 -7.552080601453781128e-02
4.776810109615325928e-01 -5.804566293954849243e-02 6.323171779513359070e-03
1.898978948593139648e-01 -4.430110752582550049e-02 -5.819940567016601562e-02
3.021923303604125977e-01 -6.478125602006912231e-02 4.038136079907417297e-02
7.016459107398986816e-02 2.752864547073841095e-02 1.230658739805221558e-01
6.473286747932434082e-01 -7.266631349921226501e-03 5.650118365883827209e-02
5.497684478759765625e-01 -3.166517615318298340e-02 6.762806326150894165e-02
5.537927150726318359e-01 -2.938262932002544403e-02 -2.411338128149509430e-02
3.577740490436553955e-01 -6.035029888153076172e-02 4.944875091314315796e-02
8.038535714149475098e-03 1.011413186788558960e-01 -2.604896388947963715e-02
4.784414470195770264e-01 7.818423956632614136e-02 9.426242858171463013e-02
8.334833383560180664e-02 -5.716750025749206543e-02 4.387325793504714966e-02
5.088380575180053711e-01 3.084580972790718079e-02 1.095773577690124512e-01
2.073215544223785400e-01 -6.793408095836639404e-02 2.481623180210590363e-02
3.692342042922973633e-01 -1.795135997235774994e-02 1.054703667759895325e-01
4.874071180820465088e-01 8.674603700637817383e-02 1.288810186088085175e-02
6.121500730514526367e-01 -3.294276446104049683e-02 2.156636863946914673e-02
3.355493545532226562e-01 -6.857602298259735107e-02 1.035302318632602692e-02
4.670297801494598389e-01 5.956260859966278076e-02 1.103632003068923950e-01
2.142778038978576660e-01 -6.778888404369354248e-02 -1.368405111134052277e-02
3.333439528942108154e-01 1.016945689916610718e-01 -3.735151141881942749e-03
1.652680635452270508e-01 1.053084731101989746e-01 1.017085984349250793e-01
-8.670607209205627441e-02 1.099278479814529419e-01 1.082632690668106079e-03
2.111281454563140869e-02 -5.377297103404998779e-02 3.817108273506164551e-02
3.971867561340332031e-01 -6.477952748537063599e-02 2.389751374721527100e-02
1.306575238704681396e-01 -2.619573846459388733e-03 -7.865439355373382568e-02
-1.343440413475036621e-01 -2.856265939772129059e-02 -3.405447304248809814e-02
1.148931607604026794e-01 1.105787009000778198e-01 -1.165845803916454315e-02
-1.705513298511505127e-01 7.467053085565567017e-02 -3.565146028995513916e-02
-1.324956715106964111e-01 1.049442961812019348e-01 6.816550344228744507e-02
2.630901634693145752e-01 2.611760422587394714e-02 -7.389523088932037354e-02
6.308797001838684082e-01 2.204162999987602234e-03 7.232764363288879395e-02
3.516975939273834229e-01 1.037730798125267029e-01 5.504904314875602722e-03
5.192800760269165039e-01 -1.619261689484119415e-02 -4.117399454116821289e-02
3.407812714576721191e-01 1.111351475119590759e-01 6.679428368806838989e-02
3.280255198478698730e-01 1.142425164580345154e-01 4.925825819373130798e-02
1.960089653730392456e-01 -5.649913102388381958e-02 5.949658155441284180e-02
2.306722104549407959e-01 5.765404552221298218e-03 1.220153197646141052e-01
3.404738306999206543e-01 1.026830673217773438e-01 9.024303406476974487e-02
5.072134733200073242e-01 5.404290929436683655e-02 1.053198352456092834e-01
-3.370840847492218018e-02 -6.863856688141822815e-03 -6.944215297698974609e-02
1.988271623849868774e-01 8.855244517326354980e-02 -3.962830454111099243e-02
3.265548348426818848e-01 -1.128900982439517975e-02 1.118956506252288818e-01
2.907722592353820801e-01 -2.756273932754993439e-02 -6.683695316314697266e-02
1.586856395006179810e-01 2.117094956338405609e-02 1.259989440441131592e-01
-2.716979086399078369e-01 6.666034460067749023e-05 -4.419950768351554871e-03
4.800944626331329346e-01 -2.309307456016540527e-03 1.052062809467315674e-01
3.056011497974395752e-01 -3.721191734075546265e-02 9.015350788831710815e-02
-1.211595833301544189e-01 1.126467958092689514e-01 4.710236936807632446e-02
-3.111877739429473877e-01 6.106087565422058105e-02 1.134123094379901886e-02
-4.528142511844635010e-02 4.444666579365730286e-02 -6.781119853258132935e-02
9.956041723489761353e-02 -5.068688094615936279e-02 -4.697097837924957275e-02
-1.778057813644409180e-01 -2.979167364537715912e-02 6.634095683693885803e-03
-2.023747265338897705e-01 -1.812590472400188446e-02 -2.167211659252643585e-02
6.185393333435058594e-01 5.029017478227615356e-02 1.273079775273799896e-02
2.037575244903564453e-01 8.767630159854888916e-02 1.175643131136894226e-01
1.420455724000930786e-01 8.713550865650177002e-02 1.178737953305244446e-01
5.476231873035430908e-02 1.737477257847785950e-03 -7.754085958003997803e-02
3.675655126571655273e-01 2.551173977553844452e-02 1.244556456804275513e-01
4.032815694808959961e-01 6.116045638918876648e-03 1.167020946741104126e-01
-1.913864016532897949e-01 -1.791751570999622345e-02 4.172005504369735718e-02
3.169721961021423340e-01 8.644177764654159546e-02 -3.039639629423618317e-02
3.690144419670104980e-01 1.022219657897949219e-01 8.488997817039489746e-02
1.381277740001678467e-01 2.092149853706359863e-02 -7.898148894309997559e-02
1.123927161097526550e-01 7.050670683383941650e-02 1.245679631829261780e-01
1.180723309516906738e-01 8.932445198297500610e-02 1.159042939543724060e-01
3.979102671146392822e-01 5.168253555893898010e-03 -6.443316489458084106e-02
3.983499705791473389e-01 4.467980936169624329e-02 -5.393657088279724121e-02
-1.134521961212158203e-01 6.406761705875396729e-02 1.039791628718376160e-01
2.177454233169555664e-01 1.124071180820465088e-01 8.827457576990127563e-02
3.940032124519348145e-01 1.026442497968673706e-01 1.671392098069190979e-02
5.423171520233154297e-01 4.995008185505867004e-02 -2.100004814565181732e-02
2.619932591915130615e-01 4.947604238986968994e-02 1.297247856855392456e-01
1.683579683303833008e-01 3.266225755214691162e-02 -7.624401897192001343e-02
2.398608028888702393e-01 -3.281432390213012695e-02 9.499424695968627930e-02
-1.278760433197021484e-01 3.446182608604431152e-02 -6.200595945119857788e-02
2.877556681632995605e-01 -4.540388286113739014e-02 8.017431199550628662e-02
1.843700259923934937e-01 9.313354268670082092e-03 1.226854547858238220e-01
-5.847716331481933594e-02 -1.736681722104549408e-02 -6.155363470315933228e-02
5.069543123245239258e-01 8.708504587411880493e-02 2.641569636762142181e-02
3.023825287818908691e-01 7.275277376174926758e-02 -4.633761942386627197e-02
5.697202682495117188e-01 2.031581103801727295e-02 -2.970012463629245758e-02
4.925831854343414307e-01 6.271506845951080322e-02 -2.293257601559162140e-02
-5.649842321872711182e-02 1.163433864712715149e-01 1.475816965103149414e-02
-1.946241557598114014e-01 8.858252316713333130e-02 -1.395710743963718414e-02
3.882676064968109131e-01 4.928114637732505798e-02 1.230740994215011597e-01
-1.279567182064056396e-01 -9.667592123150825500e-03 7.497894018888473511e-02
-2.052057981491088867e-01 8.381436020135879517e-02 7.330471277236938477e-02
7.899059355258941650e-02 -6.298226118087768555e-02 -1.071289740502834320e-02
6.281304359436035156e-01 -1.343401335179805756e-02 6.108312308788299561e-02
3.378962278366088867e-01 7.156994938850402832e-02 -4.320371150970458984e-02
2.982327640056610107e-01 3.983009606599807739e-02 -6.712175905704498291e-02
-2.359879016876220703e-01 7.254929840564727783e-02 -2.136762998998165131e-02
3.464718461036682129e-01 1.524611189961433411e-02 -6.929460167884826660e-02
3.812556266784667969e-01 -3.688042610883712769e-02 -5.328982323408126831e-02
5.528192967176437378e-02 -5.729227513074874878e-02 3.680871427059173584e-02
3.763019144535064697e-01 4.432052373886108398e-04 1.160919591784477234e-01
1.930773258209228516e-02 1.045029610395431519e-03 1.076824814081192017e-01
3.911413550376892090e-01 -6.207324564456939697e-02 -1.547018624842166901e-02
1.633953005075454712e-01 8.933591842651367188e-02 -4.067026078701019287e-02
-1.008492410182952881e-01 3.469518572092056274e-02 1.055013388395309448e-01
2.232049405574798584e-01 -4.098437726497650146e-02 8.532375842332839966e-02
2.308689057826995850e-02 -5.946783721446990967e-02 7.082281634211540222e-03
3.617222905158996582e-01 5.026704072952270508e-02 -5.567277222871780396e-02
-1.239343285560607910e-01 8.691781759262084961e-02 9.212424606084823608e-02
4.079477488994598389e-02 -6.025902181863784790e-02 1.695568859577178955e-02
-8.070498704910278320e-02 -1.822161115705966949e-02 -5.764010548591613770e-02
-2.419579923152923584e-01 -1.264904998242855072e-02 5.805304273962974548e-03
4.387736320495605469e-01 9.783580899238586426e-02 7.126596570014953613e-02
-5.841289460659027100e-02 -2.761362306773662567e-02 6.997909396886825562e-02
5.663882195949554443e-02 7.283632457256317139e-02 -5.707350373268127441e-02
1.718953251838684082e-02 6.338823586702346802e-02 -6.237394362688064575e-02
-2.967748343944549561e-01 2.118043974041938782e-02 3.727615624666213989e-02
3.739911317825317383e-01 -1.647034101188182831e-02 -6.420888006687164307e-02
-1.533088982105255127e-01 -3.112494014203548431e-02 2.991795912384986877e-02
-1.832485795021057129e-01 2.801649831235408783e-02 -5.375374853610992432e-02
2.942159175872802734e-01 1.170875653624534607e-01 4.814238101243972778e-02
1.308879703283309937e-01 8.197862654924392700e-02 -4.920686781406402588e-02
2.624700069427490234e-01 -1.456011645495891571e-02 -7.334078103303909302e-02
1.814742088317871094e-01 5.766072496771812439e-02 -6.552381068468093872e-02
-2.214973270893096924e-01 9.144207835197448730e-02 5.620469897985458374e-02
2.449968457221984863e-01 1.197918429970741272e-01 5.751444399356842041e-02
4.685000479221343994e-01 9.629261493682861328e-02 5.270743370056152344e-02
4.443892240524291992e-01 -1.126497797667980194e-02 1.041997075080871582e-01
3.500398099422454834e-01 -2.061033807694911957e-02 1.044020354747772217e-01
-3.124587237834930420e-02 -1.325302757322788239e-02 9.065053611993789673e-02
3.520667552947998047e-01 3.925306349992752075e-02 1.265124380588531494e-01
3.101484179496765137e-01 6.566185504198074341e-03 -7.303912937641143799e-02
2.220824807882308960e-01 -5.687569826841354370e-02 6.011390686035156250e-02
-3.599266707897186279e-02 -3.395085781812667847e-02 6.575409322977066040e-02
5.956801176071166992e-01 -3.666072338819503784e-02 3.334744274616241455e-02
2.110386788845062256e-01 1.204986274242401123e-01 2.727180346846580505e-02
-2.837896943092346191e-01 6.375297158956527710e-02 -1.010637916624546051e-02
4.138495922088623047e-01 1.037063077092170715e-01 6.089194864034652710e-02
-2.054195404052734375e-01 4.814584180712699890e-02 8.579739928245544434e-02
-9.244933724403381348e-03 6.441871076822280884e-02 1.177034676074981689e-01
2.319062352180480957e-01 1.011921539902687073e-01 1.044933423399925232e-01
6.744248867034912109e-01 2.071862109005451202e-02 3.895460814237594604e-02
4.582385420799255371e-01 -5.711913108825683594e-02 -1.011370681226253510e-02
-2.090640664100646973e-01 2.452508732676506042e-02 -4.816451668739318848e-02
4.497074186801910400e-01 1.189240906387567520e-02 -5.684298276901245117e-02
3.445800840854644775e-01 8.299686014652252197e-02 1.127534136176109314e-01
2.424617111682891846e-01 -3.135423362255096436e-02 -6.711644679307937622e-02
5.252259969711303711e-01 3.001323528587818146e-02 -3.776588290929794312e-02
-2.296227216720581055e-02 2.813000045716762543e-02 1.146145686507225037e-01
1.765463352203369141e-01 -1.275297254323959351e-04 -7.879720628261566162e-02
3.509883582592010498e-02 4.136273264884948730e-02 1.227391287684440613e-01
5.048805475234985352e-01 7.558702677488327026e-02 8.963197469711303711e-02
1.818805932998657227e-03 2.660193480551242828e-02 1.169109344482421875e-01
4.837802946567535400e-01 3.164312615990638733e-02 -4.591003805398941040e-02
-3.159525692462921143e-01 2.932687103748321533e-02 2.462832629680633545e-02
7.087012380361557007e-02 1.265467051416635513e-02 -7.883415371179580688e-02
-1.754746139049530029e-01 4.622275382280349731e-02 9.301264584064483643e-02
5.132114887237548828e-02 -3.545611351728439331e-02 7.865179330110549927e-02
2.828650772571563721e-01 4.331761598587036133e-02 1.295074820518493652e-01
1.839066445827484131e-01 -6.267346441745758057e-02 -2.992243878543376923e-02
2.956256270408630371e-01 9.210433810949325562e-02 -2.598443813621997833e-02
-2.952795922756195068e-01 7.268321514129638672e-02 2.884453348815441132e-02
5.347884446382522583e-02 -5.245449393987655640e-02 -3.851038217544555664e-02
-1.520869135856628418e-02 9.405972436070442200e-03 -7.447650283575057983e-02
3.019435703754425049e-02 1.163025125861167908e-01 2.265753224492073059e-03
-8.988767862319946289e-02 -4.297838360071182251e-02 2.754815667867660522e-02
-6.754964590072631836e-03 -2.620391547679901123e-03 1.023086458444595337e-01
2.003676891326904297e-01 2.336267568171024323e-02 -7.739398628473281860e-02
-1.875473260879516602e-01 -6.563911214470863342e-03 6.088792532682418823e-02
8.721454441547393799e-02 3.489257767796516418e-02 -7.613203674554824829e-02
5.487419962882995605e-01 -4.624930769205093384e-02 2.919055521488189697e-03
6.010707616806030273e-01 4.664941132068634033e-02 -2.186870202422142029e-03
3.256506919860839844e-01 -6.720766425132751465e-02 -9.506912901997566223e-03
1.255277544260025024e-01 -6.648050993680953979e-02 -3.178896382451057434e-03
-2.309909462928771973e-01 9.361957013607025146e-02 1.557496655732393265e-02
1.129540279507637024e-01 3.625500947237014771e-02 1.272263973951339722e-01
2.022207975387573242e-01 1.145784258842468262e-01 3.609925508499145508e-03
-4.367032647132873535e-02 6.433275341987609863e-02 1.139305382966995239e-01
5.358173847198486328e-01 -4.507220536470413208e-02 4.680039361119270325e-02
9.322167932987213135e-02 4.934316873550415039e-02 1.269728839397430420e-01
5.897313952445983887e-01 -2.874690108001232147e-02 -1.047095097601413727e-02
-2.506034970283508301e-01 -2.308230847120285034e-03 -1.933029852807521820e-02
-3.018786013126373291e-02 1.039943322539329529e-01 9.160821884870529175e-02
6.218391060829162598e-01 3.076083585619926453e-02 -6.091920658946037292e-03
-8.689746260643005371e-03 -1.933017559349536896e-02 8.842083066701889038e-02
1.794380247592926025e-01 -6.867477297782897949e-02 -1.229109242558479309e-03
-9.044352173805236816e-02 9.197726845741271973e-02 -2.980109490454196930e-02
1.955552101135253906e-01 -2.673410810530185699e-02 9.975635260343551636e-02
-1.822267174720764160e-01 -1.450362987816333771e-02 -3.637198358774185181e-02
-5.683167278766632080e-02 -3.967706114053726196e-02 5.026949569582939148e-02
4.997465908527374268e-01 -1.660573296248912811e-02 9.340366721153259277e-02
2.694395184516906738e-01 1.140616908669471741e-01 1.400025933980941772e-02
-4.648528993129730225e-02 9.183038771152496338e-02 -3.456335514783859253e-02
2.359542846679687500e-01 -4.479889571666717529e-02 2.573754191398620605e-01
7.415315508842468262e-02 -1.385153271257877350e-02 2.767854928970336914e-01
2.634806334972381592e-01 -3.294342383742332458e-02 2.548611462116241455e-01
7.786899805068969727e-04 -6.236433237791061401e-02 1.918631196022033691e-01
-5.124111473560333252e-02 -3.901598602533340454e-02 4.204722046852111816e-01
1.102020442485809326e-01 -4.438380524516105652e-02 3.595468401908874512e-01
-6.455704569816589355e-02 -2.346337027847766876e-02 3.484930694103240967e-01
1.571923494338989258e-02 -2.976748719811439514e-02 2.233901321887969971e-01
5.702907964587211609e-02 -6.902995705604553223e-02 1.853017508983612061e-01
5.333027988672256470e-02 -1.784434914588928223e-02 2.607449293136596680e-01
-4.236632585525512695e-02 -3.926151245832443237e-02 2.495378553867340088e-01
-4.545325040817260742e-02 -5.437019467353820801e-02 3.036898374557495117e-01
1.231004521250724792e-01 -6.988272070884704590e-02 1.778089404106140137e-01
-2.125026285648345947e-02 -1.054260507225990295e-02 3.915078639984130859e-01
2.221176028251647949e-01 -5.721330270171165466e-02 2.403810620307922363e-02
6.922673434019088745e-02 -5.298784747719764709e-02 3.338981270790100098e-01
1.750122308731079102e-01 -7.086902856826782227e-02 4.789283871650695801e-02
2.482129335403442383e-01 -6.453777849674224854e-02 2.599509060382843018e-02
3.199839591979980469e-02 -2.380953915417194366e-02 2.400524318218231201e-01
-7.169257104396820068e-02 -2.116227522492408752e-02 3.777002692222595215e-01
1.296312063932418823e-01 -2.572184801101684570e-02 1.711435019969940186e-01
-1.378572732210159302e-02 -2.544713206589221954e-02 2.724646925926208496e-01
1.708647012710571289e-01 -2.458374761044979095e-02 1.646546125411987305e-01
1.491784751415252686e-01 -4.026164859533309937e-02 3.520006537437438965e-01
5.906134843826293945e-03 -3.096152096986770630e-02 4.533256888389587402e-01
1.075381189584732056e-01 -5.977209657430648804e-03 3.548811674118041992e-01
6.008158251643180847e-02 -1.211620867252349854e-02 2.995144128799438477e-01
2.427022904157638550e-01 -6.777185946702957153e-02 8.806699514389038086e-02
1.352579891681671143e-02 -5.710635334253311157e-03 4.338303804397583008e-01
1.139878556132316589e-01 -9.206371381878852844e-03 3.035641610622406006e-01
-3.100509941577911377e-02 -3.859007731080055237e-02 4.264711439609527588e-01
2.678517699241638184e-01 -3.813605755567550659e-02 8.953021466732025146e-02
1.573579758405685425e-01 -1.453891023993492126e-02 2.423020750284194946e-01
2.757481336593627930e-01 -6.248932331800460815e-02 8.622719347476959229e-02
2.268289476633071899e-01 -1.690227165818214417e-02 2.502959966659545898e-01
1.924843192100524902e-01 -7.204747200012207031e-02 9.058092534542083740e-02
7.484227418899536133e-03 -6.648808717727661133e-03 4.089011549949645996e-01
2.818302810192108154e-01 -4.583626240491867065e-02 1.913281381130218506e-01
-2.026888728141784668e-02 -8.569143712520599365e-03 4.600177705287933350e-01
3.200306743383407593e-02 -4.570397734642028809e-02 3.853097259998321533e-01
6.139593571424484253e-02 -6.497468799352645874e-02 2.452052533626556396e-01
8.144749701023101807e-02 -5.515109002590179443e-02 3.162338137626647949e-01
2.708768248558044434e-01 -4.413313418626785278e-02 6.304189562797546387e-02
-7.484115660190582275e-03 -6.221586465835571289e-02 2.324024289846420288e-01
1.485465168952941895e-01 -2.445805072784423828e-02 1.715130656957626343e-01
2.381630241870880127e-02 -6.051141768693923950e-03 4.526916742324829102e-01
5.386631563305854797e-02 -3.977717831730842590e-02 1.521281898021697998e-01
1.695100963115692139e-02 -5.331480875611305237e-02 1.527399718761444092e-01
3.005649447441101074e-01 -5.397582054138183594e-02 1.008568704128265381e-01
7.825838774442672729e-02 -4.611988365650177002e-02 1.143651157617568970e-01
1.339603960514068604e-02 -6.471903622150421143e-02 2.245401740074157715e-01
2.769217640161514282e-02 -6.458888947963714600e-02 2.430898249149322510e-01
1.304874718189239502e-01 -2.166231162846088409e-02 1.952444165945053101e-01
2.087783068418502808e-02 -1.130025833845138550e-02 3.361127376556396484e-01
1.903868019580841064e-01 -6.747831404209136963e-02 1.602838039398193359e-01
1.075230389833450317e-01 -1.055452972650527954e-02 4.308991432189941406e-01
1.309482604265213013e-01 -6.282599270343780518e-02 2.409050315618515015e-01
2.726758122444152832e-01 -6.382887810468673706e-02 5.671091377735137939e-02
1.960038542747497559e-01 -1.999714784324169159e-02 1.948749423027038574e-01
-4.734618961811065674e-02 -5.481857806444168091e-02 2.796589136123657227e-01
2.852036654949188232e-01 -4.939644411206245422e-02 5.202342569828033447e-02
2.198386192321777344e-01 -6.948267668485641479e-02 1.024820506572723389e-01
1.130873858928680420e-01 -5.501184239983558655e-02 3.028578758239746094e-01
1.060933694243431091e-01 -4.965665936470031738e-02 8.663094043731689453e-02
2.388204783201217651e-01 -2.048460207879543304e-02 2.864862084388732910e-01
8.306710422039031982e-02 -3.497177362442016602e-02 4.114241898059844971e-01
1.384336948394775391e-01 -1.780403591692447662e-02 2.191123515367507935e-01
1.680250316858291626e-01 -3.117478825151920319e-02 3.665978908538818359e-01
1.887209117412567139e-01 -6.129154562950134277e-02 2.128438353538513184e-01
4.857301712036132812e-02 -6.684636324644088745e-02 1.351936161518096924e-01
2.633565068244934082e-01 -4.782763123512268066e-02 2.110490202903747559e-01
6.579847633838653564e-02 -3.179482370615005493e-02 1.755208969116210938e-01
1.514585912227630615e-01 -1.950387470424175262e-02 2.032023966312408447e-01
4.968484863638877869e-02 -6.852892041206359863e-02 1.533398926258087158e-01
-3.009600937366485596e-02 -4.864928871393203735e-02 3.701128959655761719e-01
1.338054537773132324e-01 -3.977589309215545654e-02 1.029852032661437988e-01
-1.925143599510192871e-02 -3.037834167480468750e-02 4.587460458278656006e-01
2.211170494556427002e-01 -3.137977793812751770e-02 1.182751506567001343e-01
1.495272964239120483e-01 -3.467655181884765625e-02 3.711802959442138672e-01
1.011238619685173035e-01 -7.207774370908737183e-02 1.288119256496429443e-01
1.993226557970046997e-01 -1.381181925535202026e-02 2.632705271244049072e-01
9.085522592067718506e-02 -3.743946924805641174e-02 1.355105191469192505e-01
-2.034729719161987305e-02 -1.465428993105888367e-02 3.495564460754394531e-01
3.354630619287490845e-02 -1.936628855764865875e-02 2.651913166046142578e-01
1.316812783479690552e-01 -1.110712997615337372e-02 2.791239023208618164e-01
1.292750239372253418e-04 -6.929349154233932495e-03 4.556346535682678223e-01
2.473680973052978516e-01 -2.039324864745140076e-02 2.307259738445281982e-01
2.747917920351028442e-02 -4.978181794285774231e-02 3.640099763870239258e-01
6.316740810871124268e-02 -4.764992743730545044e-03 4.221374094486236572e-01
-4.749129712581634521e-02 -1.854620873928070068e-02 3.550349473953247070e-01
1.237813383340835571e-02 -1.770953275263309479e-02 2.935756444931030273e-01
9.101621806621551514e-02 -2.693944051861763000e-02 1.835214495658874512e-01
2.823697328567504883e-01 -3.068291395902633667e-02 1.563405394554138184e-01
2.004558742046356201e-01 -5.495517328381538391e-02 2.430606484413146973e-01
1.764062047004699707e-02 -5.590472370386123657e-02 3.248213827610015869e-01
