-1.184054985642433167e-01 -6.987163424491882324e-02 -1.863234639167785645e-01
1.583895981311798096e-01 3.350753337144851685e-03 -2.459536045789718628e-01
-1.360539793968200684e-01 -2.205611579120159149e-02 -2.690046727657318115e-01
-2.503820657730102539e-01 -9.166355431079864502e-02 -2.882968485355377197e-01
6.652267277240753174e-02 -8.801367878913879395e-02 -2.347739487886428833e-01
3.853169381618499756e-01 -4.323709011077880859e-02 -2.054227888584136963e-01
-3.142395019531250000e-01 -6.398218870162963867e-02 -3.843299746513366699e-01
-9.198350459337234497e-02 -9.627853333950042725e-02 -2.348695695400238037e-01
4.115603268146514893e-01 -1.291750743985176086e-02 -9.027096629142761230e-02
4.030631184577941895e-01 2.401284873485565186e-03 -1.555338203907012939e-01
1.837562769651412964e-01 -4.733530804514884949e-02 -2.851081490516662598e-01
-2.950408458709716797e-01 -8.788096904754638672e-02 -3.118070065975189209e-01
2.756907939910888672e-01 -2.893416397273540497e-02 -9.150101244449615479e-02
1.148111075162887573e-01 -3.781304508447647095e-02 -1.271619647741317749e-01
-2.169574797153472900e-01 -3.092835098505020142e-02 -2.900094091892242432e-01
3.849986195564270020e-01 7.813833653926849365e-04 -2.030092477798461914e-01
-6.147777289152145386e-02 -7.394811511039733887e-02 -1.646552830934524536e-01
-4.286486655473709106e-02 -1.077020540833473206e-02 -3.403013348579406738e-01
4.754782915115356445e-01 -1.270782202482223511e-03 -1.359663456678390503e-01
6.080917268991470337e-02 -4.638733714818954468e-02 -1.352729797363281250e-01
2.270033955574035645e-01 4.764951765537261963e-03 -2.307416051626205444e-01
-2.548298239707946777e-01 -3.082489036023616791e-02 -3.770788311958312988e-01
4.175649285316467285e-01 -6.770651042461395264e-02 -7.652884721755981445e-02
2.938003838062286377e-01 -7.940834760665893555e-02 -9.755329787731170654e-02
2.534487843513488770e-01 -5.315851420164108276e-03 -1.512638330459594727e-01
1.138792708516120911e-01 -2.537058107554912567e-02 -1.475778818130493164e-01
2.030601501464843750e-01 -8.712293207645416260e-02 -1.588094830513000488e-01
1.483028680086135864e-01 2.008326351642608643e-03 -2.306945770978927612e-01
4.490231871604919434e-01 -6.444057822227478027e-02 -9.606876224279403687e-02
3.548251092433929443e-01 -2.594938501715660095e-02 -2.362070679664611816e-01
3.402362465858459473e-01 -3.494918346405029297e-03 -2.338929325342178345e-01
8.314785361289978027e-02 6.544850766658782959e-04 -2.656334042549133301e-01
2.886850237846374512e-01 -4.011597484350204468e-03 -1.451650261878967285e-01
4.789875447750091553e-01 -1.862406358122825623e-02 -6.880903244018554688e-02
1.623368114233016968e-01 -2.810454741120338440e-02 -3.072204589843750000e-01
1.860428601503372192e-01 -7.886802405118942261e-02 -1.002136245369911194e-01
-1.986953318119049072e-01 -3.427524492144584656e-02 -2.684085965156555176e-01
6.777282804250717163e-02 -1.735034212470054626e-02 -1.832556426525115967e-01
2.874647080898284912e-01 -8.173045516014099121e-02 -1.197919696569442749e-01
-8.445446938276290894e-02 -7.120389491319656372e-02 -1.729590892791748047e-01
-9.122814983129501343e-02 -3.565068542957305908e-02 -3.721320033073425293e-01
-3.391097486019134521e-01 -4.351666197180747986e-02 -3.668062984943389893e-01
-6.545720249414443970e-02 -9.590433537960052490e-02 -2.106525897979736328e-01
3.262363374233245850e-03 -7.127356529235839844e-02 -3.083955645561218262e-01
1.788859069347381592e-01 -3.237762302160263062e-02 -2.999628782272338867e-01
4.884256049990653992e-02 -5.373694002628326416e-02 -3.229802846908569336e-01
4.038889706134796143e-01 -1.005679368972778320e-04 -1.964961141347885132e-01
2.415756881237030029e-01 -7.413199543952941895e-02 -2.057326287031173706e-01
1.280932128429412842e-01 -5.943624675273895264e-02 -2.879364490509033203e-01
2.351813316345214844e-01 -3.517221286892890930e-02 -9.401158243417739868e-02
-1.904967427253723145e-01 -2.608913742005825043e-02 -2.894169688224792480e-01
1.681998372077941895e-01 2.126127481460571289e-03 -2.207344770431518555e-01
-1.917618811130523682e-01 -8.186912536621093750e-02 -2.203439772129058838e-01
-1.109706535935401917e-01 -4.876311123371124268e-02 -1.986078321933746338e-01
-6.527023762464523315e-02 -9.018158912658691406e-02 -1.825816333293914795e-01
-3.530911356210708618e-02 -9.247317910194396973e-03 -2.639916539192199707e-01
-3.201426565647125244e-01 -8.024622499942779541e-02 -3.501309156417846680e-01
2.215187996625900269e-01 -8.633293956518173218e-02 -1.318743526935577393e-01
5.908437818288803101e-02 -5.445219576358795166e-04 -2.691130042076110840e-01
-1.060684397816658020e-01 -1.170946285128593445e-02 -3.332378268241882324e-01
4.801873862743377686e-01 -5.867360532283782959e-02 -6.547141075134277344e-02
-3.037995994091033936e-01 -5.188616737723350525e-02 -2.951055765151977539e-01
3.840276300907135010e-01 -6.650047004222869873e-02 -1.495122313499450684e-01
1.126817986369132996e-01 -3.289718180894851685e-02 -3.210830092430114746e-01
3.254940509796142578e-01 2.198908478021621704e-03 -1.638289093971252441e-01
4.154690355062484741e-02 -7.585148513317108154e-02 -2.850168645381927490e-01
3.976421654224395752e-01 -9.304229170083999634e-03 -2.162434607744216919e-01
5.152004957199096680e-01 -8.829928934574127197e-03 -9.494103491306304932e-02
-4.060868173837661743e-02 -7.311569899320602417e-02 -3.180628120899200439e-01
-1.932483911514282227e-01 -9.169168770313262939e-02 -2.396125942468643188e-01
1.950224488973617554e-02 -1.619307138025760651e-02 -2.071804255247116089e-01
2.171222269535064697e-01 -8.418295532464981079e-03 -2.840799689292907715e-01
-1.840069293975830078e-01 -9.149435162544250488e-02 -2.973575890064239502e-01
-3.354294300079345703e-01 -8.287935703992843628e-02 -3.239707350730895996e-01
1.193302869796752930e-01 -7.995709776878356934e-02 -2.432632446289062500e-01
4.130015894770622253e-02 -6.774760782718658447e-02 -3.030961453914642334e-01
-3.289602994918823242e-01 -5.664308741688728333e-02 -3.050228953361511230e-01
1.100657135248184204e-01 -2.615686506032943726e-03 -2.181688249111175537e-01
1.456361263990402222e-02 -4.080639407038688660e-02 -3.452630043029785156e-01
-2.799038589000701904e-01 -3.189903497695922852e-02 -3.646419644355773926e-01
-2.830118834972381592e-01 -8.694962412118911743e-02 -3.250755965709686279e-01
6.281996518373489380e-02 -2.804742567241191864e-02 -1.611158549785614014e-01
5.097885727882385254e-01 -5.349046364426612854e-02 -9.534607827663421631e-02
2.417772710323333740e-01 -2.364508062601089478e-02 1.355349868535995483e-01
-3.062944114208221436e-02 -5.658866837620735168e-02 3.360963165760040283e-01
2.028831243515014648e-01 -1.013105735182762146e-02 2.564374208450317383e-01
-1.255655884742736816e-01 -4.483956471085548401e-02 4.047424197196960449e-01
8.571703732013702393e-02 -4.409883543848991394e-02 3.360510468482971191e-01
-1.357263326644897461e-01 -3.142916783690452576e-02 4.606713056564331055e-01
-1.508117467164993286e-02 -2.729894034564495087e-02 5.015166997909545898e-01
3.666571900248527527e-02 -2.435157820582389832e-02 2.484047263860702515e-01
7.975586503744125366e-02 -2.604741603136062622e-03 3.752237856388092041e-01
1.927536427974700928e-01 -6.228148937225341797e-02 4.273697733879089355e-02
5.647523328661918640e-02 1.135107129812240601e-03 4.628301858901977539e-01
-1.186924949288368225e-01 -3.489965945482254028e-02 5.025167465209960938e-01
-6.898505240678787231e-02 -1.677585393190383911e-02 4.216504693031311035e-01
3.875121474266052246e-04 -5.832215026021003723e-02 3.058716058731079102e-01
1.635260432958602905e-01 -6.274104118347167969e-03 2.948937714099884033e-01
1.411390304565429688e-01 -6.382046639919281006e-02 1.262384653091430664e-01
1.671168208122253418e-01 -2.827444858849048615e-02 3.258793652057647705e-01
4.034120589494705200e-03 -2.181618288159370422e-02 2.968794405460357666e-01
2.583756744861602783e-01 -2.727646380662918091e-02 1.208157688379287720e-01
-1.477570831775665283e-02 -6.467377394437789917e-02 2.381561100482940674e-01
2.429623901844024658e-01 -4.986089095473289490e-02 8.583992719650268555e-02
-2.846285700798034668e-02 -2.171165496110916138e-02 5.312018394470214844e-01
2.339492440223693848e-01 -3.064840659499168396e-02 8.864519000053405762e-02
-7.824931293725967407e-02 -7.822306826710700989e-03 5.524445772171020508e-01
-3.252170979976654053e-03 -1.248696073889732361e-02 3.675997257232666016e-01
-1.667672395706176758e-02 -1.303633488714694977e-02 3.792000412940979004e-01
4.523475468158721924e-02 -6.634633988142013550e-02 1.941248476505279541e-01
1.955898478627204895e-02 -6.571273505687713623e-02 2.170544713735580444e-01
-1.204320117831230164e-01 -4.019280523061752319e-02 3.851887285709381104e-01
-2.181215584278106689e-02 -1.840516924858093262e-03 5.057110786437988281e-01
9.894287586212158203e-02 -2.065140753984451294e-03 3.692634105682373047e-01
-4.910997301340103149e-02 -5.778117850422859192e-02 3.297070860862731934e-01
1.620732843875885010e-01 -2.493634633719921112e-02 1.467372775077819824e-01
-1.695772260427474976e-02 -5.756477639079093933e-02 3.215918242931365967e-01
1.034407913684844971e-01 -4.527964070439338684e-02 3.117392361164093018e-01
1.605598330497741699e-01 -5.486658960580825806e-02 1.836286634206771851e-01
1.982973814010620117e-01 -1.168595068156719208e-02 2.335484325885772705e-01
9.917307645082473755e-02 -4.296143352985382080e-02 1.031322032213211060e-01
1.206629276275634766e-01 -6.738442182540893555e-02 1.020879447460174561e-01
-1.606734842061996460e-02 -1.211991906166076660e-02 5.498938560485839844e-01
1.888046264648437500e-01 -3.338198363780975342e-02 8.697940409183502197e-02
2.909464389085769653e-02 -3.709481656551361084e-02 4.237347841262817383e-01
1.795810014009475708e-01 -1.882618665695190430e-02 3.413183987140655518e-01
6.355869770050048828e-02 -5.042351037263870239e-02 3.172392845153808594e-01
-6.127352267503738403e-02 -6.001481041312217712e-02 2.928544580936431885e-01
9.195099771022796631e-02 -2.830221131443977356e-02 1.769276559352874756e-01
1.174483597278594971e-01 -6.054087728261947632e-02 1.882017701864242554e-01
2.148812115192413330e-01 -2.489063702523708344e-02 2.714985609054565430e-01
6.685239076614379883e-02 -1.773231662809848785e-02 4.713892936706542969e-01
1.421842575073242188e-01 -1.150142028927803040e-02 2.507115006446838379e-01
-1.088482514023780823e-01 -1.417787931859493256e-02 5.502557754516601562e-01
3.442071378231048584e-03 -5.137158185243606567e-02 3.575511574745178223e-01
1.960446313023567200e-02 -3.907057270407676697e-02 1.924410462379455566e-01
1.554007530212402344e-01 -4.474822804331779480e-02 2.579425573348999023e-01
1.290903240442276001e-01 -2.529680728912353516e-02 1.654474139213562012e-01
-7.230026274919509888e-02 -4.384670034050941467e-02 4.459487199783325195e-01
1.306944191455841064e-01 -4.419755935668945312e-02 7.455024123191833496e-02
-2.487823367118835449e-02 -1.993807777762413025e-02 3.414415717124938965e-01
2.375977933406829834e-01 -5.284785851836204529e-02 6.765243411064147949e-02
1.275568008422851562e-01 -6.152908504009246826e-02 1.675252169370651245e-01
-3.143712133169174194e-02 -4.622710868716239929e-03 4.768737256526947021e-01
1.202857866883277893e-02 -2.991836518049240112e-03 5.357853174209594727e-01
6.433416157960891724e-03 -6.245884671807289124e-02 1.500847488641738892e-01
1.510846763849258423e-01 -2.640419453382492065e-02 3.527974486351013184e-01
9.471260011196136475e-03 -1.573347672820091248e-02 3.301606178283691406e-01
6.866786628961563110e-02 -2.404689043760299683e-02 2.204089760780334473e-01
6.193175539374351501e-02 -6.433638185262680054e-02 2.057610154151916504e-01
-1.125100329518318176e-01 -1.553383842110633850e-02 5.239276289939880371e-01
-8.303638547658920288e-02 -3.628233820199966431e-02 3.315119445323944092e-01
8.983254432678222656e-02 -4.924845695495605469e-02 3.006432056427001953e-01
3.231433033943176270e-02 -1.806744374334812164e-02 2.909925282001495361e-01
2.132590860128402710e-02 -2.846094779670238495e-02 4.704859256744384766e-01
1.938924491405487061e-01 -1.664604619145393372e-02 3.249840438365936279e-01
6.085813790559768677e-02 -6.802514940500259399e-02 1.559494435787200928e-01
1.905459761619567871e-01 -5.416908487677574158e-02 1.477173417806625366e-01
8.457803726196289062e-02 -6.634135544300079346e-02 7.345928251743316650e-02
-7.932876795530319214e-02 -4.049669206142425537e-02 4.686367213726043701e-01
-4.777682572603225708e-02 -3.032924607396125793e-02 3.105312585830688477e-01
1.906834542751312256e-01 -3.135443851351737976e-02 2.823038101196289062e-01
1.810358017683029175e-01 -1.483604311943054199e-02 2.067600190639495850e-01
-6.435892730951309204e-02 -3.713658452033996582e-02 4.822012782096862793e-01
1.874186396598815918e-01 -5.915237218141555786e-02 1.071937531232833862e-01
5.699421837925910950e-02 -5.999175831675529480e-03 3.592817783355712891e-01
1.026943922042846680e-01 -1.851610466837882996e-02 2.262381613254547119e-01
-1.079049035906791687e-01 -4.169382527470588684e-02 3.539955615997314453e-01
6.396850198507308960e-02 8.851103484630584717e-04 4.442700445652008057e-01
-9.955585747957229614e-02 -3.283036127686500549e-02 3.733934164047241211e-01
-1.025680825114250183e-01 -3.889581933617591858e-02 4.818897545337677002e-01
1.277730911970138550e-01 -3.213787823915481567e-02 1.295870840549468994e-01
-5.844019353389739990e-02 -2.729385346174240112e-02 3.405355811119079590e-01
6.827941536903381348e-02 -9.925784543156623840e-03 4.885863661766052246e-01
2.003814280033111572e-01 -1.599075086414813995e-02 1.928489208221435547e-01
2.222792208194732666e-01 -1.299259252846240997e-02 2.582487761974334717e-01
3.739722073078155518e-02 -1.110959798097610474e-03 4.316077828407287598e-01
-2.624706923961639404e-02 -6.209310516715049744e-02 2.777675390243530273e-01
-3.101412951946258545e-02 -3.157587721943855286e-02 4.927173256874084473e-01
6.655503809452056885e-02 -1.254847086966037750e-02 2.971417307853698730e-01
1.471098959445953369e-01 -5.242723226547241211e-02 2.181385457515716553e-01
1.813709735870361328e-01 -6.303849816322326660e-02 2.622342109680175781e-02
-6.939395517110824585e-02 -2.409056760370731354e-02 3.739638924598693848e-01
3.251054883003234863e-02 -6.070905178785324097e-02 1.188719272613525391e-01
3.501830995082855225e-02 -1.393889449536800385e-02 3.163891434669494629e-01
-8.986862748861312866e-02 -2.613412588834762573e-02 5.414648056030273438e-01
9.298364818096160889e-02 -1.023666188120841980e-02 2.932115793228149414e-01
-1.081970259547233582e-01 -2.651634067296981812e-02 4.219884872436523438e-01
1.014113202691078186e-01 -5.106200277805328369e-02 2.773462533950805664e-01
7.063541561365127563e-02 -5.225946754217147827e-02 2.985634207725524902e-01
2.139935195446014404e-01 -1.263546571135520935e-02 2.861512899398803711e-01
-1.159820482134819031e-01 -2.474048547446727753e-02 4.484916925430297852e-01
5.724512040615081787e-02 -4.147786274552345276e-02 3.768954277038574219e-01
-1.007393971085548401e-01 -5.236298590898513794e-02 3.349852859973907471e-01
-7.704637199640274048e-02 -3.193266689777374268e-02 5.131444334983825684e-01
2.929891645908355713e-02 -5.071868002414703369e-02 3.434938788414001465e-01
-1.107648015022277832e-03 -1.571670174598693848e-03 4.728657007217407227e-01
2.067932188510894775e-01 -2.310888655483722687e-02 1.389416903257369995e-01
-6.458408385515213013e-02 -1.933674514293670654e-02 3.971933722496032715e-01
-9.232603013515472412e-03 -4.548970609903335571e-02 1.993969529867172241e-01
5.610100924968719482e-03 -3.299527615308761597e-02 4.618336856365203857e-01
9.786495566368103027e-02 -3.223403170704841614e-02 3.857888281345367432e-01
1.743158251047134399e-01 -5.798763036727905273e-02 1.390577554702758789e-01
2.608838081359863281e-01 -3.889378160238265991e-02 5.754341185092926025e-02
1.749434620141983032e-01 -5.401632189750671387e-02 1.711850017309188843e-01
2.796196192502975464e-02 -4.579291120171546936e-02 3.760074377059936523e-01
-1.020094752311706543e-02 -6.562148034572601318e-02 1.962980628013610840e-01
-4.649256169795989990e-02 -6.146086752414703369e-02 2.818652391433715820e-01
1.515250802040100098e-01 -4.002354666590690613e-02 7.718263566493988037e-02
2.260295450687408447e-01 -5.375163257122039795e-02 1.260200142860412598e-02
1.250148564577102661e-01 -4.731612280011177063e-03 3.234164416790008545e-01
1.536565721035003662e-01 -3.313208371400833130e-02 1.073572784662246704e-01
8.782593905925750732e-02 -6.866686046123504639e-02 9.204488992691040039e-02
-3.499157726764678955e-02 -4.200736060738563538e-03 5.564899444580078125e-01
7.190465182065963745e-02 -1.945457607507705688e-02 2.453496754169464111e-01
-1.831103116273880005e-02 -4.367461055517196655e-02 2.163907289505004883e-01
1.564851552248001099e-01 -4.943819716572761536e-03 3.131410777568817139e-01
1.415545940399169922e-01 -1.372910477221012115e-02 4.024828076362609863e-01
6.189447641372680664e-02 -2.937690168619155884e-02 4.325872063636779785e-01
2.393810153007507324e-01 -3.682905435562133789e-02 5.734579265117645264e-02
-1.455165445804595947e-03 -7.952377200126647949e-03 4.023883938789367676e-01
1.620918065309524536e-01 -8.184969425201416016e-03 2.728119194507598877e-01
-1.808613538742065430e-02 -9.328352287411689758e-03 4.106433987617492676e-01
2.300464212894439697e-01 -4.450307786464691162e-02 1.538873016834259033e-01
-3.737032413482666016e-03 -1.504582725465297699e-02 5.356265306472778320e-01
4.381904006004333496e-02 -2.830963954329490662e-02 4.528982639312744141e-01
-9.566698223352432251e-02 -1.228618435561656952e-02 5.125826597213745117e-01
2.079343199729919434e-01 -4.577452689409255981e-02 1.817257106304168701e-01
2.366600930690765381e-01 -1.768006011843681335e-02 1.890012621879577637e-01
1.156135797500610352e-01 -2.930948883295059204e-02 3.805731534957885742e-01
7.439772039651870728e-02 -3.004159964621067047e-02 1.826045811176300049e-01
1.222810000181198120e-01 -6.558072566986083984e-02 1.293051987886428833e-01
1.134558096528053284e-01 -4.969416186213493347e-03 4.435494244098663330e-01
-7.248856872320175171e-02 -7.915046066045761108e-03 5.133841633796691895e-01
1.319942250847816467e-02 -3.225579857826232910e-03 4.321568608283996582e-01
2.433851361274719238e-03 -1.448184438049793243e-02 3.465957641601562500e-01
-1.226535439491271973e-02 -1.747671514749526978e-03 4.880137443542480469e-01
2.538260817527770996e-01 -2.944538369774818420e-02 1.006214171648025513e-01
-2.595400065183639526e-02 -3.047831356525421143e-02 2.828409969806671143e-01
2.300365269184112549e-01 -2.764278836548328400e-02 1.064056158065795898e-01
1.051262170076370239e-01 -1.537797786295413971e-02 2.456183880567550659e-01
1.943491995334625244e-01 -2.348490059375762939e-02 3.070838749408721924e-01
2.151056230068206787e-01 -5.044475570321083069e-02 1.378837972879409790e-01
-1.015345677733421326e-01 -4.943660274147987366e-02 4.038465321063995361e-01
1.727666854858398438e-01 -3.651104122400283813e-02 2.816280126571655273e-01
9.381686896085739136e-02 -4.711113870143890381e-04 4.522327184677124023e-01
-6.343010812997817993e-02 -3.234475478529930115e-02 3.212630748748779297e-01
1.105443388223648071e-01 -9.463075548410415649e-03 2.868630290031433105e-01
2.052586674690246582e-01 -2.033299580216407776e-02 1.584281325340270996e-01
1.125548407435417175e-02 -5.426787585020065308e-02 3.314599990844726562e-01
1.028787717223167419e-02 -6.708010286092758179e-02 1.761601418256759644e-01
8.710451424121856689e-02 1.569576561450958252e-04 4.124200344085693359e-01
5.828157067298889160e-02 -5.655660852789878845e-02 2.782141864299774170e-01
4.685260355472564697e-02 -6.852629035711288452e-02 1.358636915683746338e-01
-1.396347582340240479e-02 -5.694974213838577271e-03 4.393350481986999512e-01
-3.123997896909713745e-02 -3.779691085219383240e-02 4.619677662849426270e-01
-1.089555695652961731e-01 -1.646479591727256775e-02 4.995056092739105225e-01
-7.379985600709915161e-02 -1.068947464227676392e-02 4.816311895847320557e-01
1.465780660510063171e-02 -8.027782663702964783e-03 3.834688961505889893e-01
2.580138444900512695e-01 -3.340082615613937378e-02 1.578215956687927246e-01
1.499413549900054932e-01 -3.556670993566513062e-02 3.139063417911529541e-01
-3.840263187885284424e-02 -6.261678785085678101e-02 2.267470061779022217e-01
8.472558856010437012e-02 -5.680149048566818237e-02 2.525263130664825439e-01
1.313336491584777832e-01 -3.069793805480003357e-03 3.423606753349304199e-01
1.400737464427947998e-01 -6.687657535076141357e-02 7.675950229167938232e-02
8.719178289175033569e-02 -8.776674047112464905e-03 4.716474711894989014e-01
-7.074423134326934814e-03 -6.266012787818908691e-04 5.229167938232421875e-01
2.120362222194671631e-01 -3.145846351981163025e-02 2.513122558593750000e-01
7.693105936050415039e-02 -6.612731143832206726e-03 3.366151452064514160e-01
2.179965004324913025e-02 -4.944027587771415710e-02 1.523783653974533081e-01
3.663728758692741394e-02 -5.342313274741172791e-02 3.190668821334838867e-01
-5.471452325582504272e-02 -8.330581709742546082e-03 4.723763167858123779e-01
2.536637187004089355e-01 -2.201022394001483917e-02 1.715713739395141602e-01
1.870590075850486755e-02 5.724839866161346436e-04 5.002678632736206055e-01
9.994332492351531982e-02 -2.567652054131031036e-02 4.116590619087219238e-01
1.258160471916198730e-01 -6.857918575406074524e-03 3.008395731449127197e-01
1.218171268701553345e-01 -6.298248469829559326e-02 4.035404324531555176e-02
1.526912450790405273e-01 -6.623294949531555176e-02 5.661992728710174561e-02
2.315237224102020264e-01 -4.798088967800140381e-02 1.270230114459991455e-01
9.934066236019134521e-02 -1.644774898886680603e-02 4.433932602405548096e-01
1.544390320777893066e-01 -3.870807588100433350e-03 3.310429453849792480e-01
9.657995402812957764e-02 -6.831502541899681091e-03 3.196091353893280029e-01
1.674593240022659302e-01 -4.680013656616210938e-02 2.307058274745941162e-01
5.432267487049102783e-02 -6.839060783386230469e-02 1.189299672842025757e-01
6.041004881262779236e-02 -6.036087870597839355e-05 4.257183074951171875e-01
-2.157216519117355347e-02 -4.840263351798057556e-02 3.932719826698303223e-01
1.795762628316879272e-01 -1.004410721361637115e-02 2.504092752933502197e-01
5.565074831247329712e-02 -9.094852954149246216e-03 3.336689770221710205e-01
-1.228785887360572815e-01 -4.456407576799392700e-02 4.299836158752441406e-01
-5.895071476697921753e-02 -2.328056469559669495e-02 5.415660142898559570e-01
-1.361626982688903809e-01 -2.612584084272384644e-02 5.033669471740722656e-01
-1.212614402174949646e-01 -4.053343087434768677e-02 4.666787683963775635e-01
2.326797842979431152e-01 -5.535768344998359680e-02 3.453028202056884766e-02
2.153397202491760254e-01 -3.602233529090881348e-02 2.253650873899459839e-01
1.915300190448760986e-01 -2.793607488274574280e-02 1.147394627332687378e-01
-4.093212634325027466e-02 -2.099143713712692261e-02 3.546326756477355957e-01
1.555034220218658447e-01 -6.398381292819976807e-02 1.027561724185943604e-01
2.091857194900512695e-01 -3.309053555130958557e-02 8.041591942310333252e-02
-7.708311825990676880e-02 -5.426684394478797913e-02 3.647174537181854248e-01
9.575206041336059570e-02 -6.803733855485916138e-02 1.226527839899063110e-01
-8.640065044164657593e-02 -9.544976055622100830e-03 5.276809930801391602e-01
3.232795745134353638e-03 -2.058794721961021423e-02 5.142943859100341797e-01
-1.886948943138122559e-02 -4.074927419424057007e-02 4.383618235588073730e-01
2.465266585350036621e-01 -4.548766091465950012e-02 1.143942922353744507e-01
-6.050803512334823608e-02 -4.885307699441909790e-02 4.082167148590087891e-01
1.810922771692276001e-01 -1.900675892829895020e-02 1.754500567913055420e-01
2.355974912643432617e-02 -4.880180582404136658e-03 4.028851389884948730e-01
1.884872019290924072e-01 -4.317509382963180542e-02 4.436361789703369141e-02
-5.241930484771728516e-04 -4.729781672358512878e-02 3.873015344142913818e-01
-3.853659331798553467e-02 -4.170182347297668457e-02 4.443723857402801514e-01
9.161677956581115723e-02 -3.953994810581207275e-02 3.557220697402954102e-01
8.027409017086029053e-02 -4.803118854761123657e-02 1.006955206394195557e-01
-5.404347926378250122e-02 -3.071099147200584412e-02 5.091534852981567383e-01
-6.601233035326004028e-02 -5.914753675460815430e-02 2.708328664302825928e-01
2.645757496356964111e-01 -4.242048040032386780e-02 8.238056302070617676e-02
6.591066718101501465e-02 -4.255705326795578003e-02 1.332162767648696899e-01
1.222323849797248840e-01 -4.612224176526069641e-02 2.871707677841186523e-01
1.443874239921569824e-01 -2.303052693605422974e-03 3.694599568843841553e-01
-9.674473851919174194e-02 -2.653129771351814270e-02 4.017091393470764160e-01
1.478542536497116089e-01 -1.837728172540664673e-02 1.964512467384338379e-01
-7.228255271911621094e-03 -5.368327349424362183e-02 1.741232722997665405e-01
5.414013937115669250e-02 -3.807712346315383911e-03 3.833420276641845703e-01
1.530161499977111816e-01 -5.577185750007629395e-02 2.689790725708007812e-02
2.707801386713981628e-02 -4.217264428734779358e-02 3.979301154613494873e-01
5.682867020368576050e-03 -4.222861677408218384e-02 4.135662913322448730e-01
2.218212485313415527e-01 -3.880197927355766296e-02 5.038022994995117188e-02
8.858562260866165161e-02 -1.381492987275123596e-02 2.694844603538513184e-01
-5.587898939847946167e-02 -5.596704035997390747e-02 3.486039340496063232e-01
-1.637068390846252441e-02 -3.163398802280426025e-02 2.658443450927734375e-01
1.335363686084747314e-01 -1.496102660894393921e-03 3.855003118515014648e-01
-4.695881903171539307e-02 -3.663677722215652466e-03 5.373060107231140137e-01
2.733906731009483337e-02 -1.140688546001911163e-02 3.427609503269195557e-01
3.532023727893829346e-02 -6.391444057226181030e-02 2.303764075040817261e-01
9.950780868530273438e-02 -5.655310302972793579e-02 2.399804592132568359e-01
-2.681222558021545410e-02 -1.926407217979431152e-03 5.337043404579162598e-01
1.765602678060531616e-01 -4.002097249031066895e-02 2.586165964603424072e-01
9.349223971366882324e-02 -4.636527970433235168e-03 3.430414199829101562e-01
1.672837138175964355e-01 -6.419114768505096436e-02 7.768085598945617676e-02
1.197524890303611755e-01 -1.380675472319126129e-02 4.279571771621704102e-01
4.001587629318237305e-02 -3.733740746974945068e-02 1.793671250343322754e-01
3.182690963149070740e-02 -6.785717606544494629e-02 1.719338297843933105e-01
1.446802467107772827e-01 -1.483958587050437927e-02 2.233331799507141113e-01
1.169958114624023438e-01 -5.292184650897979736e-04 3.970934450626373291e-01
1.108851283788681030e-02 -6.676696985960006714e-02 1.990846693515777588e-01
2.628521323204040527e-01 -3.515895083546638489e-02 1.365873217582702637e-01
7.590848952531814575e-03 -6.459665298461914062e-02 2.372557818889617920e-01
1.520942300558090210e-01 -4.198148846626281738e-02 2.778019309043884277e-01
4.429791122674942017e-02 -4.606569185853004456e-02 3.612648248672485352e-01
-1.201939582824707031e-02 -6.556691974401473999e-02 2.145453393459320068e-01
-5.291917920112609863e-02 -5.339300632476806641e-02 3.708795607089996338e-01
1.148673370480537415e-01 -3.880403935909271240e-02 3.361689448356628418e-01
3.063097968697547913e-02 2.096407115459442139e-04 4.613646864891052246e-01
-7.000099867582321167e-02 -2.740503102540969849e-02 3.558668494224548340e-01
1.205405741930007935e-01 -6.797650456428527832e-02 8.309310674667358398e-02
1.078557595610618591e-01 -6.566387414932250977e-02 1.457346975803375244e-01
7.177340984344482422e-02 -2.168343961238861084e-02 4.538989663124084473e-01
2.205518186092376709e-01 -3.942561522126197815e-02 1.996964514255523682e-01
-9.449871629476547241e-02 -4.505295306444168091e-02 3.199241757392883301e-01
2.484174072742462158e-01 -4.459613934159278870e-02 3.145885467529296875e-02
2.273555845022201538e-02 -6.584526598453521729e-02 1.376179009675979614e-01
1.266595423221588135e-01 -3.088563680648803711e-02 3.618822693824768066e-01
-4.362189024686813354e-02 -4.687629640102386475e-02 4.149701893329620361e-01
1.970257163047790527e-01 -3.870047256350517273e-02 2.383853793144226074e-01
-3.647658228874206543e-02 -4.205498844385147095e-02 2.444991767406463623e-01
-7.181916385889053345e-02 -4.277610778808593750e-02 2.899378836154937744e-01
7.379104942083358765e-02 -4.035462811589241028e-02 3.682248592376708984e-01
5.470741167664527893e-02 -4.072884842753410339e-02 1.508648246526718140e-01
1.822059750556945801e-01 -7.649993523955345154e-03 2.797393202781677246e-01
1.482867896556854248e-01 -2.236584201455116272e-02 3.707966506481170654e-01
-3.209695219993591309e-03 -3.419119119644165039e-02 2.386607676744461060e-01
1.157612651586532593e-01 -5.329526588320732117e-02 2.471782267093658447e-01
2.403693646192550659e-02 -1.543225534260272980e-02 5.144429802894592285e-01
1.712507009506225586e-01 -1.694785989820957184e-02 3.572834134101867676e-01
1.659539937973022461e-01 -5.126428976655006409e-02 2.031325697898864746e-01
6.366416811943054199e-02 -6.577497720718383789e-02 9.054541587829589844e-02
8.154570311307907104e-02 -6.592880934476852417e-02 1.699647754430770874e-01
2.358214110136032104e-01 -4.829004406929016113e-02 2.212956994771957397e-01
2.294862270355224609e-01 -2.113164663314819336e-01 -8.767811954021453857e-02
3.326655626296997070e-01 -2.325760573148727417e-02 -1.118318960070610046e-01
4.370183944702148438e-01 -3.331297636032104492e-02 -1.776293963193893433e-01
8.221383392810821533e-02 -1.163769811391830444e-01 2.724393010139465332e-01
4.963471889495849609e-01 -1.551733165979385376e-01 5.119768530130386353e-02
3.040918707847595215e-01 -1.927758157253265381e-01 2.145363241434097290e-01
3.311684429645538330e-01 -2.983450144529342651e-02 1.693716645240783691e-01
6.233386695384979248e-02 -1.816090345382690430e-01 -1.976257860660552979e-01
4.182863235473632812e-01 -1.634960770606994629e-01 -2.007202506065368652e-01
3.270885944366455078e-01 -2.118769288063049316e-02 6.831667572259902954e-02
1.578114628791809082e-01 -4.551076143980026245e-02 1.217493508011102676e-02
3.814465105533599854e-01 -1.904532164335250854e-01 -6.451486051082611084e-02
5.010679364204406738e-01 -2.899094671010971069e-02 -6.586087867617607117e-03
-4.658371210098266602e-03 -1.821675598621368408e-01 3.873575478792190552e-02
3.492124676704406738e-01 -3.856231272220611572e-02 -2.289647161960601807e-01
2.166120260953903198e-01 -1.862817406654357910e-01 2.827751636505126953e-01
3.819394111633300781e-02 -1.169187128543853760e-01 -1.933039575815200806e-01
1.014840900897979736e-01 -7.447451353073120117e-02 1.670948863029479980e-01
2.382426112890243530e-01 -3.670798987150192261e-02 -1.480637341737747192e-01
3.814722299575805664e-01 -1.488946080207824707e-01 -2.913461923599243164e-01
4.891605675220489502e-01 -3.868472576141357422e-02 1.540984660387039185e-01
6.348758935928344727e-03 -1.080249398946762085e-01 -7.401946932077407837e-03
8.394518494606018066e-02 -1.696391701698303223e-01 2.701988518238067627e-01
-7.590740919113159180e-03 -1.793792396783828735e-01 -2.594027668237686157e-02
4.431813061237335205e-01 -4.834952205419540405e-02 2.408314645290374756e-01
4.604285359382629395e-01 -1.408739238977432251e-01 -2.234162241220474243e-01
6.860591471195220947e-02 -2.051332294940948486e-01 1.029757559299468994e-01
2.706186175346374512e-01 -2.031742483377456665e-01 1.700835973024368286e-01
3.280324935913085938e-01 -2.691139280796051025e-02 -1.480307579040527344e-01
1.129657030105590820e-02 -1.400625705718994141e-01 -1.660285294055938721e-01
1.308735460042953491e-01 -1.365160048007965088e-01 -3.186928331851959229e-01
1.512904018163681030e-01 -8.252996206283569336e-02 -2.739703059196472168e-01
4.245746731758117676e-01 -1.734692305326461792e-01 1.569661051034927368e-01
2.232214063405990601e-01 -1.990020871162414551e-01 -1.944309771060943604e-01
9.459803998470306396e-02 -2.127636969089508057e-01 2.671233192086219788e-02
1.207423210144042969e-02 -1.918443143367767334e-01 -1.652090996503829956e-02
5.203010141849517822e-02 -8.353349566459655762e-02 6.397757679224014282e-02
5.078184008598327637e-01 -1.358814239501953125e-01 -1.446252018213272095e-01
1.386108994483947754e-01 -5.297484248876571655e-02 7.851349562406539917e-02
3.257248401641845703e-01 -5.198173224925994873e-02 -2.799705862998962402e-01
2.844427824020385742e-01 -1.773885339498519897e-01 -2.688857614994049072e-01
3.371512293815612793e-01 -1.938139945268630981e-01 -1.338799595832824707e-01
2.401247024536132812e-01 -4.893174767494201660e-02 -2.307080924510955811e-01
5.424132347106933594e-01 -1.124162301421165466e-01 1.522522568702697754e-01
2.525483667850494385e-01 -2.968899905681610107e-02 -9.014312177896499634e-02
-9.695202112197875977e-03 -1.715801507234573364e-01 -6.730068475008010864e-02
2.381218969821929932e-01 -1.903911232948303223e-01 -2.342401891946792603e-01
1.071828603744506836e-01 -6.808626651763916016e-02 1.367679983377456665e-01
4.131705760955810547e-01 -1.785680651664733887e-01 -1.111441403627395630e-01
2.620123624801635742e-01 -3.139438480138778687e-02 1.241687461733818054e-01
2.584901452064514160e-01 -4.339771717786788940e-02 -2.164485603570938110e-01
5.503805875778198242e-01 -7.281389832496643066e-02 -1.418301761150360107e-01
7.981942594051361084e-02 -1.200095713138580322e-01 -2.651850879192352295e-01
4.056895375251770020e-01 -1.855496615171432495e-01 7.523144036531448364e-02
2.311432957649230957e-01 -8.114743232727050781e-02 -3.267943263053894043e-01
3.130115568637847900e-01 -2.626942098140716553e-02 -1.318763643503189087e-01
1.499336063861846924e-01 -2.056152820587158203e-01 -1.526579260826110840e-01
2.059931457042694092e-01 -5.236839503049850464e-02 2.128850668668746948e-01
3.699771463871002197e-01 -3.268902003765106201e-02 -1.982357650995254517e-01
3.082537353038787842e-01 -2.042785882949829102e-01 9.987354278564453125e-02
5.169181823730468750e-01 -1.265269517898559570e-01 1.810105741024017334e-01
1.548025310039520264e-01 -1.260746121406555176e-01 3.463632166385650635e-01
4.318616986274719238e-01 -1.635815799236297607e-01 -1.770559847354888916e-01
5.696058869361877441e-01 -7.181942462921142578e-02 8.002191781997680664e-02
3.005073666572570801e-01 -1.375121027231216431e-01 -3.508583307266235352e-01
2.678416967391967773e-01 -2.009285092353820801e-01 1.905020624399185181e-01
3.489729762077331543e-01 -1.983480304479598999e-01 -4.531198740005493164e-02
4.802310466766357422e-01 -1.616988480091094971e-01 -3.128119558095932007e-02
2.125362604856491089e-01 -3.979922831058502197e-02 1.294113844633102417e-01
2.111518383026123047e-02 -1.171180382370948792e-01 1.591575145721435547e-01
3.563930988311767578e-01 -6.381794065237045288e-02 3.152284026145935059e-01
3.480165898799896240e-01 -1.818431615829467773e-01 -2.017588615417480469e-01
3.641980290412902832e-01 -4.934953898191452026e-02 -2.714559733867645264e-01
2.192177772521972656e-01 -4.251695424318313599e-02 -1.692342311143875122e-01
5.660189688205718994e-02 -1.970111727714538574e-01 1.465510278940200806e-01
4.367427825927734375e-01 -1.765224635601043701e-01 -4.468969628214836121e-02
3.828536272048950195e-01 -8.466468751430511475e-02 -3.347329795360565186e-01
4.064855575561523438e-01 -4.393327236175537109e-02 2.433892041444778442e-01
4.912480711936950684e-01 -5.181982368230819702e-02 2.080686837434768677e-01
1.309321969747543335e-01 -7.622262090444564819e-02 2.295822650194168091e-01
3.477640450000762939e-01 -1.763240844011306763e-01 2.582032084465026855e-01
1.689589023590087891e-01 -1.907251477241516113e-01 -2.356335073709487915e-01
1.312348991632461548e-01 -1.896105408668518066e-01 -2.269954830408096313e-01
-1.005706191062927246e-02 -1.672056168317794800e-01 9.908922016620635986e-02
2.181002944707870483e-01 -3.578823059797286987e-02 -9.854083508253097534e-02
2.554745674133300781e-01 -2.000461816787719727e-01 2.051635086536407471e-01
5.195352435111999512e-01 -3.939437121152877808e-02 -9.466545283794403076e-02
4.393905997276306152e-01 -9.616767615079879761e-02 -3.071066737174987793e-01
5.038720369338989258e-01 -7.912480831146240234e-02 -2.347360700368881226e-01
4.589613080024719238e-01 -1.706311255693435669e-01 1.163766626268625259e-02
5.483793020248413086e-01 -1.200573593378067017e-01 9.666336327791213989e-02
2.263254225254058838e-01 -2.150873988866806030e-01 4.255929216742515564e-02
9.256991744041442871e-02 -2.062395364046096802e-01 1.337898671627044678e-01
1.639620959758758545e-01 -7.422207295894622803e-02 -2.619580030441284180e-01
3.607697784900665283e-02 -1.009731739759445190e-01 1.382056176662445068e-01
3.499462604522705078e-01 -1.924789696931838989e-02 -5.615118518471717834e-02
1.636576652526855469e-01 -4.973293095827102661e-02 -1.257666349411010742e-01
2.452277839183807373e-01 -2.135132253170013428e-01 5.210671201348304749e-02
2.558746039867401123e-01 -2.776203304529190063e-02 -6.095108762383460999e-02
4.559936821460723877e-01 -1.689454913139343262e-01 -6.501123309135437012e-02
1.203351914882659912e-01 -1.315819621086120605e-01 3.244352042675018311e-01
3.270756006240844727e-01 -1.482204645872116089e-01 -3.262539207935333252e-01
1.554537713527679443e-01 -2.119281589984893799e-01 1.306281387805938721e-01
5.573579072952270508e-01 -5.286883562803268433e-02 5.001020431518554688e-02
3.224890232086181641e-01 -1.882603764533996582e-01 -1.928343176841735840e-01
1.849951595067977905e-01 -3.991547226905822754e-02 4.487565904855728149e-02
4.886411428451538086e-01 -4.741878807544708252e-02 -1.917058527469635010e-01
5.110885500907897949e-01 -3.696457296609878540e-02 1.002428755164146423e-01
2.868225574493408203e-01 -2.030517458915710449e-01 -1.202347055077552795e-01
3.006951510906219482e-01 -1.981475055217742920e-01 -1.479440331459045410e-01
4.923580586910247803e-01 -1.541277021169662476e-01 -7.010317593812942505e-02
1.117973476648330688e-01 -2.135717272758483887e-01 6.596151739358901978e-02
5.198590457439422607e-02 -2.024811953306198120e-01 8.970811963081359863e-02
5.567155480384826660e-01 -1.158124804496765137e-01 -5.053059011697769165e-02
5.596394836902618408e-02 -8.279194682836532593e-02 -7.859931141138076782e-02
3.591574728488922119e-02 -9.695483744144439697e-02 1.132072284817695618e-01
1.685918122529983521e-01 -1.797283440828323364e-01 -2.730225324630737305e-01
6.817016005516052246e-02 -7.699424028396606445e-02 7.423646003007888794e-02
3.571325540542602539e-01 -7.667033374309539795e-02 3.403979539871215820e-01
3.643751442432403564e-01 -1.948952376842498779e-01 8.597272634506225586e-02
5.301045179367065430e-01 -4.904396831989288330e-02 -1.260859668254852295e-01
1.105157732963562012e-01 -2.102713286876678467e-01 1.159573122859001160e-01
1.921391785144805908e-01 -2.143858671188354492e-01 -6.621129065752029419e-02
3.964230418205261230e-02 -1.929299533367156982e-01 -1.134475320577621460e-01
4.625403285026550293e-01 -1.450066715478897095e-01 2.307536005973815918e-01
3.781881332397460938e-01 -1.746119260787963867e-01 -2.031976729631423950e-01
2.147862762212753296e-01 -2.145779430866241455e-01 -4.637201130390167236e-02
3.701839745044708252e-01 -1.520102024078369141e-01 3.166050910949707031e-01
7.313066720962524414e-02 -1.731930524110794067e-01 2.528068721294403076e-01
4.740208983421325684e-01 -1.648348420858383179e-01 -9.522550739347934723e-03
5.212148427963256836e-01 -7.500402629375457764e-02 2.161744236946105957e-01
3.887123465538024902e-01 -2.306883037090301514e-02 -1.225265190005302429e-01
3.554507493972778320e-01 -3.454594314098358154e-02 2.062545418739318848e-01
4.586128890514373779e-01 -1.466588973999023438e-01 -2.064234018325805664e-01
1.971237957477569580e-01 -1.882815361022949219e-01 2.758092582225799561e-01
4.526069760322570801e-01 -2.631852775812149048e-02 -1.112045720219612122e-01
2.517932951450347900e-01 -1.637369990348815918e-01 -3.168305754661560059e-01
4.531549215316772461e-01 -2.316228300333023071e-02 -7.023304700851440430e-02
2.825048863887786865e-01 -1.976298093795776367e-01 2.020922899246215820e-01
2.518143355846405029e-01 -2.021330296993255615e-01 -1.608622223138809204e-01
2.299842536449432373e-01 -3.445561975240707397e-02 1.030585616827011108e-01
5.397085547447204590e-01 -1.002073064446449280e-01 -1.655302643775939941e-01
3.036943674087524414e-01 -3.794383257627487183e-02 2.109628021717071533e-01
2.384615987539291382e-01 -2.986966073513031006e-02 4.126799479126930237e-02
3.747546076774597168e-01 -2.642164379358291626e-02 1.512729525566101074e-01
4.027822315692901611e-01 -1.805301010608673096e-02 1.857903599739074707e-02
4.257196187973022461e-02 -1.857813149690628052e-01 -1.546579450368881226e-01
2.179684638977050781e-01 -5.576292797923088074e-02 -2.436081618070602417e-01
3.461066484451293945e-01 -1.861573755741119385e-02 2.070752531290054321e-02
1.151272356510162354e-01 -1.992107629776000977e-01 -1.743173450231552124e-01
2.645310759544372559e-01 -6.945917010307312012e-02 -3.147577941417694092e-01
7.915976643562316895e-02 -9.021875262260437012e-02 1.986327618360519409e-01
2.743808329105377197e-01 -2.107906937599182129e-01 -1.103532966226339340e-02
2.538721561431884766e-01 -9.967169910669326782e-02 -3.580990731716156006e-01
5.742532014846801758e-02 -1.039135158061981201e-01 2.046835720539093018e-01
9.617011249065399170e-02 -2.129421085119247437e-01 2.736857160925865173e-03
2.900737226009368896e-01 -4.151405394077301025e-02 -2.265614271163940430e-01
5.237998366355895996e-01 -1.265022754669189453e-01 -1.397736072540283203e-01
3.976912796497344971e-02 -1.964090168476104736e-01 -8.908990770578384399e-02
2.415567487478256226e-01 -1.366466432809829712e-01 3.739268779754638672e-01
4.981690645217895508e-01 -2.962131053209304810e-02 5.119976401329040527e-02
3.870682120323181152e-01 -1.857025921344757080e-01 1.407468020915985107e-01
1.968635916709899902e-01 -2.129132151603698730e-01 1.194954216480255127e-01
3.956893682479858398e-01 -1.854598969221115112e-01 1.188776865601539612e-01
4.937090873718261719e-01 -1.568037569522857666e-01 -6.985438987612724304e-03
4.073494672775268555e-01 -1.349211633205413818e-01 -2.991238534450531006e-01
3.058700263500213623e-01 -2.041860967874526978e-01 -7.331954687833786011e-02
3.063663244247436523e-01 -3.105158358812332153e-02 1.657289713621139526e-01
4.955172538757324219e-01 -1.008415222167968750e-01 -2.460160702466964722e-01
8.527207374572753906e-02 -1.853706538677215576e-01 2.338543385267257690e-01
3.245894908905029297e-01 -2.312843501567840576e-02 9.801641851663589478e-02
2.683559358119964600e-01 -1.814632117748260498e-01 -2.607627809047698975e-01
4.177871942520141602e-01 -1.845099031925201416e-02 4.630256444215774536e-04
2.729780077934265137e-01 -7.908889651298522949e-02 -3.366282582283020020e-01
2.315116226673126221e-01 -3.056639432907104492e-02 -3.088170662522315979e-02
2.632454037666320801e-01 -1.639911830425262451e-01 3.381743729114532471e-01
2.590599060058593750e-01 -2.998416125774383545e-02 -1.079377904534339905e-01
5.341283082962036133e-01 -8.942446112632751465e-02 2.009468972682952881e-01
5.101232528686523438e-01 -4.646551609039306641e-02 1.603917777538299561e-01
2.681354880332946777e-01 -1.463843733072280884e-01 -3.455184698104858398e-01
3.120357096195220947e-01 -4.210428893566131592e-02 2.365739643573760986e-01
2.998127043247222900e-01 -1.961598694324493408e-01 1.962987929582595825e-01
2.611174881458282471e-01 -4.422090202569961548e-02 2.201263010501861572e-01
4.774618148803710938e-02 -2.040456831455230713e-01 4.229038208723068237e-02
3.615278303623199463e-01 -1.804663985967636108e-02 -2.390865236520767212e-02
2.990768551826477051e-01 -2.072441279888153076e-01 -2.834863215684890747e-02
4.801630973815917969e-01 -1.493606120347976685e-01 1.758087724447250366e-01
1.434807181358337402e-01 -2.162008881568908691e-01 -1.483862195163965225e-02
6.651279330253601074e-02 -1.117742955684661865e-01 -2.344462275505065918e-01
1.328138709068298340e-01 -9.288784861564636230e-02 -2.805963456630706787e-01
2.022098600864410400e-01 -2.093113213777542114e-01 -1.250267922878265381e-01
2.927346229553222656e-01 -5.197998881340026855e-02 2.724995017051696777e-01
7.822947204113006592e-02 -1.915425509214401245e-01 2.042494714260101318e-01
3.173100650310516357e-01 -2.051719725131988525e-01 3.134480491280555725e-02
-1.828485727310180664e-02 -1.358749270439147949e-01 -2.955256775021553040e-02
1.323980838060379028e-01 -1.833876073360443115e-01 2.736893594264984131e-01
2.415346503257751465e-01 -2.132843136787414551e-01 6.974349915981292725e-02
4.293841123580932617e-02 -1.956262588500976562e-01 1.279324889183044434e-01
1.538353264331817627e-01 -4.660675674676895142e-02 -2.406289055943489075e-02
2.169678956270217896e-01 -3.565495461225509644e-02 8.764559775590896606e-02
4.214756786823272705e-01 -4.216287285089492798e-02 2.299272567033767700e-01
3.636806309223175049e-01 -1.966489255428314209e-01 6.629265844821929932e-04
2.036553621292114258e-01 -7.160002738237380981e-02 2.904621362686157227e-01
9.257513284683227539e-02 -1.525968164205551147e-01 2.978590726852416992e-01
2.608658969402313232e-01 -6.732852756977081299e-02 3.105712532997131348e-01
2.479823380708694458e-01 -1.780454218387603760e-01 3.055099248886108398e-01
5.772017240524291992e-01 -7.579132914543151855e-02 2.026272937655448914e-03
-2.232432365417480469e-03 -1.430246382951736450e-01 -1.302426904439926147e-01
1.321351975202560425e-01 -2.146537005901336670e-01 -4.407921433448791504e-02
5.709178447723388672e-01 -1.008420661091804504e-01 -3.002704679965972900e-02
2.711301445960998535e-01 -2.102622687816619873e-01 7.578859478235244751e-02
3.732724487781524658e-01 -4.159476608037948608e-02 2.413836121559143066e-01
4.965650141239166260e-01 -2.826453745365142822e-02 -2.460205182433128357e-02
4.860467612743377686e-01 -1.124431416392326355e-01 2.660866081714630127e-01
3.334960341453552246e-01 -8.103894442319869995e-02 -3.428058326244354248e-01
2.824668586254119873e-01 -6.165299937129020691e-02 3.019638955593109131e-01
1.750367879867553711e-02 -1.002009585499763489e-01 5.367706995457410812e-03
3.628199696540832520e-01 -6.861482560634613037e-02 -3.194876313209533691e-01
2.569414675235748291e-01 -2.128763347864151001e-01 2.076096460223197937e-02
4.019693732261657715e-01 -1.691101789474487305e-01 2.267152220010757446e-01
3.160184323787689209e-01 -2.609673887491226196e-02 1.270896345376968384e-01
5.726661682128906250e-01 -6.640368700027465820e-02 -1.671633124351501465e-02
2.632590532302856445e-01 -2.102610468864440918e-01 9.371801465749740601e-02
2.857130467891693115e-01 -2.504245936870574951e-02 7.477691769599914551e-02
2.338269352912902832e-02 -1.642558425664901733e-01 -1.793934851884841919e-01
2.413227111101150513e-01 -2.128805220127105713e-01 -4.613917693495750427e-02
-1.326799392700195312e-04 -1.257353276014328003e-01 1.141928657889366150e-01
3.917962312698364258e-03 -1.099261194467544556e-01 1.382078230381011963e-02
4.826758503913879395e-01 -1.540569514036178589e-01 1.387775838375091553e-01
-1.338914036750793457e-02 -1.410844027996063232e-01 -8.354470133781433105e-02
1.637892723083496094e-01 -1.062573641538619995e-01 -3.274229466915130615e-01
5.375283956527709961e-02 -9.215955436229705811e-02 -1.432467252016067505e-01
4.912453889846801758e-01 -1.336213201284408569e-01 -1.924665868282318115e-01
4.286146759986877441e-01 -8.135060220956802368e-02 3.186099231243133545e-01
3.305603563785552979e-01 -1.952800899744033813e-02 -3.316074609756469727e-02
4.467785954475402832e-01 -2.058801800012588501e-02 1.215108670294284821e-02
6.458154320716857910e-02 -1.894620507955551147e-01 -1.719192862510681152e-01
2.138983756303787231e-01 -2.160077840089797974e-01 1.652015373110771179e-02
4.134263396263122559e-01 -1.919484138488769531e-02 4.772177338600158691e-02
3.666800260543823242e-01 -1.902155876159667969e-01 -1.110426709055900574e-01
4.728167653083801270e-01 -3.071913868188858032e-02 -1.230814084410667419e-01
2.326158434152603149e-01 -7.157748192548751831e-02 -3.064067959785461426e-01
9.632696211338043213e-02 -2.081748992204666138e-01 -9.105812013149261475e-02
3.084385395050048828e-01 -2.965737879276275635e-02 -1.603164523839950562e-01
1.685001850128173828e-01 -1.670599877834320068e-01 3.257104456424713135e-01
1.433121412992477417e-01 -5.030356347560882568e-02 -5.633595213294029236e-02
4.820659458637237549e-01 -1.562447845935821533e-01 -9.495211392641067505e-02
2.800765037536621094e-01 -2.103583067655563354e-01 2.816976234316825867e-02
4.965686798095703125e-01 -1.370883882045745850e-01 1.922080963850021362e-01
4.199043512344360352e-01 -9.875708073377609253e-02 -3.213339447975158691e-01
