1.795575022697448730e-02 -7.530169934034347534e-02 3.502746671438217163e-02
-1.440412402153015137e-01 2.278581261634826660e-02 -1.406377553939819336e-01
7.594802379608154297e-01 1.956975460052490234e-02 2.021596208214759827e-02
5.810849368572235107e-02 9.719165414571762085e-02 1.378691792488098145e-01
-3.171426653861999512e-01 2.447589486837387085e-02 9.678278118371963501e-02
4.557392895221710205e-01 -3.427600115537643433e-02 5.439148843288421631e-02
4.161861836910247803e-01 1.787401586771011353e-01 2.470992133021354675e-02
-4.713764786720275879e-02 1.142629384994506836e-01 1.068109869956970215e-01
1.238289400935173035e-01 3.127019852399826050e-03 -1.577356308698654175e-01
6.939061880111694336e-01 1.118407100439071655e-01 1.049128174781799316e-01
4.682474136352539062e-01 1.039320603013038635e-02 -1.369029581546783447e-01
-7.903331518173217773e-02 -8.346611261367797852e-02 -7.951706647872924805e-03
-1.809251308441162109e-01 7.895453274250030518e-02 1.100779324769973755e-01
1.966540813446044922e-01 1.271933913230895996e-01 -1.111396551132202148e-01
6.505654454231262207e-01 8.075088262557983398e-02 -1.201826930046081543e-01
8.726928234100341797e-01 8.418868482112884521e-02 2.491706795990467072e-02
5.573033094406127930e-01 1.549371182918548584e-01 9.257289022207260132e-02
6.910440325736999512e-02 1.127963140606880188e-01 1.278889477252960205e-01
5.173888802528381348e-01 1.653138399124145508e-01 -5.458483472466468811e-02
3.483437001705169678e-01 1.763311773538589478e-01 3.699075058102607727e-02
-7.620173692703247070e-02 6.729791313409805298e-02 1.354917287826538086e-01
1.686012446880340576e-01 1.540468633174896240e-01 -6.011350080370903015e-02
3.766487240791320801e-01 4.789135605096817017e-02 -1.559926718473434448e-01
-4.933139681816101074e-02 1.321316361427307129e-01 7.561906427145004272e-02
1.623641699552536011e-01 1.404193192720413208e-01 1.083753108978271484e-01
-2.626562118530273438e-02 -1.365199685096740723e-02 -1.475853919982910156e-01
-1.208081543445587158e-01 7.450299710035324097e-02 -1.208685338497161865e-01
5.418322980403900146e-02 -8.265112340450286865e-02 -2.476770989596843719e-02
-1.341098546981811523e-01 1.164491027593612671e-01 7.737146317958831787e-02
2.830781340599060059e-01 1.738795489072799683e-01 -7.412252016365528107e-03
-4.656426310539245605e-01 -2.410821616649627686e-02 -1.269083749502897263e-02
5.713245868682861328e-01 9.989802539348602295e-02 1.296206712722778320e-01
3.516885638236999512e-02 -5.219905078411102295e-02 8.533058315515518188e-02
-3.519603610038757324e-01 4.994014650583267212e-02 7.539351284503936768e-02
2.153071165084838867e-01 1.671955138444900513e-01 5.366153642535209656e-02
1.856862008571624756e-01 1.649627387523651123e-01 5.427236482501029968e-02
-1.988084614276885986e-01 2.858993038535118103e-02 -1.306572109460830688e-01
7.471683621406555176e-01 7.362271845340728760e-02 -9.682498127222061157e-02
7.631326913833618164e-01 1.387204527854919434e-01 6.620824337005615234e-02
1.434084028005599976e-01 7.922202348709106445e-04 -1.570089757442474365e-01
3.289878666400909424e-01 3.081478364765644073e-02 1.441763192415237427e-01
1.886495053768157959e-01 -7.622913271188735962e-02 -2.253487147390842438e-02
6.376605629920959473e-01 7.237789779901504517e-02 1.183186843991279602e-01
-9.126067161560058594e-04 5.674303323030471802e-02 -1.481477916240692139e-01
5.402966737747192383e-01 1.594359576702117920e-01 -6.584654748439788818e-02
4.997922778129577637e-01 1.212106868624687195e-01 1.295802593231201172e-01
-3.811181783676147461e-01 -5.411361902952194214e-02 8.443677797913551331e-03
-1.486659646034240723e-01 -2.042141556739807129e-02 -1.342703253030776978e-01
-2.201074361801147461e-01 1.124227568507194519e-01 -1.747968606650829315e-02
1.185424625873565674e-02 1.469209194183349609e-01 5.672438442707061768e-02
3.101779818534851074e-01 1.228425353765487671e-01 -1.219875514507293701e-01
-1.098549067974090576e-01 -7.181526720523834229e-02 4.345230385661125183e-02
-8.362314105033874512e-02 1.124703437089920044e-01 1.002873107790946960e-01
7.540615200996398926e-01 1.357486993074417114e-01 -6.131321191787719727e-02
2.025624066591262817e-01 -5.381654947996139526e-03 -1.533430516719818115e-01
7.028717398643493652e-01 8.969859778881072998e-02 1.060587763786315918e-01
5.650602579116821289e-01 -1.353584229946136475e-03 8.053848892450332642e-02
2.603259384632110596e-01 -1.646705716848373413e-02 1.168754696846008301e-01
-3.677636384963989258e-02 -3.503546118736267090e-02 -1.349985748529434204e-01
-1.688812971115112305e-01 -5.465321242809295654e-02 -1.049923449754714966e-01
2.490502297878265381e-01 1.629708707332611084e-01 7.601244002580642700e-02
-4.419945478439331055e-01 -1.706922054290771484e-02 3.613495081663131714e-02
4.706581532955169678e-01 -4.662562161684036255e-02 -2.669441886246204376e-02
-3.649531006813049316e-01 5.360060557723045349e-02 -6.440417468547821045e-02
2.709192633628845215e-01 9.225469827651977539e-02 -1.453676521778106689e-01
8.670176863670349121e-01 6.947781145572662354e-02 1.405757013708353043e-02
-3.929787278175354004e-01 -2.482718229293823242e-02 5.533926561474800110e-02
4.711403250694274902e-01 1.767878085374832153e-01 -1.550618186593055725e-02
-1.887115538120269775e-01 3.221425786614418030e-02 1.244946494698524475e-01
2.776573598384857178e-01 -3.700131177902221680e-02 -1.224737465381622314e-01
1.357921659946441650e-01 7.509011775255203247e-03 1.407040357589721680e-01
3.262791335582733154e-01 -6.400255113840103149e-02 -3.680082410573959351e-02
2.499055266380310059e-01 -3.355235606431961060e-02 9.791798889636993408e-02
3.420493006706237793e-01 1.685179769992828369e-01 7.146675884723663330e-02
5.011440515518188477e-01 -4.104780405759811401e-02 -3.850011900067329407e-02
3.256292641162872314e-02 7.781116664409637451e-02 1.442947387695312500e-01
5.166631937026977539e-01 1.151738315820693970e-01 -1.223726719617843628e-01
1.017088666558265686e-01 -8.720353245735168457e-03 -1.534784734249114990e-01
3.738400936126708984e-01 -5.416516959667205811e-02 -6.452161818742752075e-02
6.007474660873413086e-01 1.511307656764984131e-01 -7.378007471561431885e-02
6.601980328559875488e-01 1.629366874694824219e-01 -3.605010360479354858e-02
-2.501900196075439453e-01 6.532327830791473389e-02 1.011258512735366821e-01
-1.846033334732055664e-01 1.176826208829879761e-01 4.542374983429908752e-02
7.818758487701416016e-03 -6.279899179935455322e-02 6.715837866067886353e-02
8.161447048187255859e-01 8.436121046543121338e-02 -7.060642540454864502e-02
5.266120433807373047e-01 -1.247815415263175964e-02 -1.038478091359138489e-01
7.328757047653198242e-01 7.235869765281677246e-03 -5.924736149609088898e-03
-1.761987507343292236e-01 -8.097012341022491455e-02 -1.693768054246902466e-02
-2.572690844535827637e-01 8.370423316955566406e-02 8.128804713487625122e-02
-8.733284473419189453e-02 6.715971231460571289e-02 -1.319327950477600098e-01
7.502784729003906250e-01 7.797458767890930176e-02 9.083361178636550903e-02
3.303052484989166260e-02 -3.526366502046585083e-02 1.074820309877395630e-01
6.232037544250488281e-01 1.606140583753585815e-01 -5.144146829843521118e-02
-2.447961568832397461e-01 -5.403948575258255005e-02 -9.311026334762573242e-02
3.631222248077392578e-01 1.670382618904113770e-01 7.704811543226242065e-02
6.182787418365478516e-01 1.729357540607452393e-01 -4.913684912025928497e-03
-4.661109447479248047e-01 1.845950447022914886e-02 1.885781995952129364e-02
7.967239618301391602e-01 1.481078863143920898e-01 -8.169459179043769836e-03
-4.831650853157043457e-02 1.132811829447746277e-01 -9.264981746673583984e-02
8.491880893707275391e-01 1.168208420276641846e-01 4.228024557232856750e-02
-1.399664580821990967e-02 5.680968984961509705e-02 1.449014693498611450e-01
1.808097958564758301e-02 2.557792700827121735e-02 -1.567001193761825562e-01
5.788707733154296875e-01 -9.296257048845291138e-03 -9.129384160041809082e-02
4.006279706954956055e-01 1.500367224216461182e-01 -8.850163966417312622e-02
-2.013573050498962402e-01 1.109343841671943665e-01 5.660058557987213135e-02
5.883355736732482910e-01 1.208531633019447327e-01 -1.105498224496841431e-01
5.746402740478515625e-01 1.621419042348861694e-01 -5.600111559033393860e-02
9.216606616973876953e-03 1.518597900867462158e-01 1.311090867966413498e-02
3.282823860645294189e-01 -6.027306616306304932e-02 2.003927715122699738e-02
3.568916022777557373e-02 1.184657961130142212e-01 -1.021181493997573853e-01
1.699165999889373779e-01 4.018777981400489807e-02 1.524283140897750854e-01
7.207218408584594727e-01 3.389871120452880859e-02 7.143448293209075928e-02
-1.266502141952514648e-01 1.260099112987518311e-01 -3.622424602508544922e-02
6.435751914978027344e-03 7.071642577648162842e-02 1.440297961235046387e-01
6.469466686248779297e-01 -1.470043882727622986e-02 -2.137003839015960693e-02
-3.279360532760620117e-01 8.757918328046798706e-02 -4.098094068467617035e-03
3.869483470916748047e-01 1.781538426876068115e-01 2.743510529398918152e-02
-6.207513809204101562e-02 1.163348555564880371e-03 1.316613554954528809e-01
7.560239434242248535e-01 5.205525457859039307e-02 -8.757995069026947021e-02
-3.789037466049194336e-01 -2.860375493764877319e-02 -7.984852790832519531e-02
-5.756634473800659180e-02 1.373673081398010254e-01 5.629694461822509766e-02
5.002937316894531250e-01 1.783048510551452637e-01 1.057036453858017921e-03
8.564265966415405273e-01 1.274637877941131592e-01 1.417713891714811325e-02
-2.997747063636779785e-01 3.179809078574180603e-02 -1.064946874976158142e-01
-2.148498892784118652e-01 8.344446122646331787e-02 9.678108990192413330e-02
-7.851880788803100586e-02 1.366946101188659668e-01 -2.285696566104888916e-02
4.907661676406860352e-01 -2.450797706842422485e-02 -9.615415334701538086e-02
5.625034570693969727e-01 1.570976153016090393e-02 1.015342101454734802e-01
-2.482909560203552246e-01 9.818041324615478516e-02 6.059831753373146057e-02
-1.793268918991088867e-01 1.114511787891387939e-01 -5.164631083607673645e-02
-1.072076857089996338e-01 1.231930553913116455e-01 -5.500791594386100769e-02
6.148045063018798828e-01 1.676504313945770264e-01 -3.327668085694313049e-02
2.996920645236968994e-01 1.559230387210845947e-01 -7.371235638856887817e-02
1.146317273378372192e-01 1.631428003311157227e-01 1.844156719744205475e-02
1.683859825134277344e-01 -7.230056077241897583e-02 -6.632634997367858887e-02
3.122298121452331543e-01 -1.769089698791503906e-02 1.101738736033439636e-01
1.386456787586212158e-01 -6.901228427886962891e-02 -8.291959762573242188e-02
4.173737168312072754e-01 9.163253754377365112e-02 1.460336297750473022e-01
9.469804167747497559e-02 1.163934171199798584e-02 -1.592311263084411621e-01
2.039942592382431030e-01 1.675001680850982666e-01 -2.020279876887798309e-02
9.765555709600448608e-02 1.149836778640747070e-01 1.293136626482009888e-01
1.614455878734588623e-02 -8.353933691978454590e-02 -1.743237487971782684e-02
-2.394191026687622070e-01 -6.384912878274917603e-02 -7.816294580698013306e-02
4.144064188003540039e-01 -1.672565937042236328e-02 9.571464359760284424e-02
-2.157793343067169189e-01 -1.908099651336669922e-02 1.037863790988922119e-01
6.384934186935424805e-01 1.718098074197769165e-01 -1.140913693234324455e-03
3.443822860717773438e-01 -6.250485777854919434e-02 -1.091080345213413239e-02
4.364430904388427734e-01 1.779244095087051392e-01 -7.585865445435047150e-03
4.401607513427734375e-01 -4.333520680665969849e-02 -7.164482772350311279e-02
5.935226678848266602e-01 1.561252772808074951e-01 8.574362099170684814e-02
4.312560558319091797e-01 5.231375247240066528e-02 -1.518535166978836060e-01
-2.386999130249023438e-02 1.385331004858016968e-01 6.875500082969665527e-02
-5.172362923622131348e-02 1.372228264808654785e-01 -3.782447054982185364e-02
1.021711081266403198e-01 -2.959381043910980225e-02 1.126601397991180420e-01
1.885331571102142334e-01 9.024276584386825562e-02 -1.442301124334335327e-01
3.296919465065002441e-01 1.754779964685440063e-01 3.902991488575935364e-02
2.868279218673706055e-01 1.691156923770904541e-01 6.258999556303024292e-02
1.865416914224624634e-01 7.479573786258697510e-02 1.534170806407928467e-01
6.857005357742309570e-01 3.495874255895614624e-02 8.562479168176651001e-02
-6.957396864891052246e-02 1.947660371661186218e-02 -1.498501896858215332e-01
-1.508249044418334961e-01 1.272763609886169434e-01 2.630469202995300293e-02
-1.031690835952758789e-01 1.204523816704750061e-01 8.122780919075012207e-02
2.120684534311294556e-01 1.393180489540100098e-01 1.151655465364456177e-01
-4.387441277503967285e-01 6.829984486103057861e-03 4.807830974459648132e-02
6.910065412521362305e-01 1.133185029029846191e-01 -9.905239939689636230e-02
6.640318632125854492e-01 -7.914025336503982544e-03 1.488778647035360336e-02
-9.568277001380920410e-02 6.605327129364013672e-02 1.331403851509094238e-01
-2.030499577522277832e-01 -5.448237061500549316e-05 1.159214228391647339e-01
1.750814616680145264e-01 1.251929700374603271e-01 1.275366395711898804e-01
-9.284123778343200684e-02 -4.909429699182510376e-02 -1.190344318747520447e-01
-6.463235616683959961e-02 -7.033921033143997192e-02 4.984989762306213379e-02
6.171303987503051758e-01 3.305955603718757629e-02 1.036578416824340820e-01
-2.905408442020416260e-01 7.679462432861328125e-04 1.001308634877204895e-01
-2.793159782886505127e-01 3.188366442918777466e-02 1.060671284794807434e-01
2.180879116058349609e-01 3.420529142022132874e-02 1.504413783550262451e-01
1.789434105157852173e-01 1.072951033711433411e-01 1.413531452417373657e-01
-1.692540943622589111e-01 5.831319093704223633e-02 1.234999671578407288e-01
4.576321244239807129e-01 1.711545735597610474e-01 6.671591848134994507e-02
2.621100842952728271e-01 4.403522610664367676e-02 -1.608907282352447510e-01
3.084506988525390625e-01 -4.028847068548202515e-02 -1.135475784540176392e-01
4.263094067573547363e-01 2.038135379552841187e-02 -1.471683382987976074e-01
3.923335373401641846e-01 -5.715440958738327026e-02 -1.404561288654804230e-02
7.951861619949340820e-02 -7.467026263475418091e-02 3.165260329842567444e-02
2.086605727672576904e-01 -4.790680855512619019e-02 8.060984313488006592e-02
5.455762147903442383e-02 -5.282054096460342407e-02 -1.188261136412620544e-01
-2.088065743446350098e-01 7.010624557733535767e-02 1.092435121536254883e-01
2.101796716451644897e-01 -3.168914467096328735e-02 -1.349192261695861816e-01
4.383833706378936768e-01 -1.884933561086654663e-02 -1.175496354699134827e-01
-2.589668631553649902e-01 -1.735218614339828491e-02 9.770232439041137695e-02
1.451617479324340820e-01 -7.780861854553222656e-02 -1.335698645561933517e-03
-2.262113988399505615e-01 6.175134703516960144e-02 -1.075322329998016357e-01
-2.940008342266082764e-01 -6.313002854585647583e-02 2.953785657882690430e-02
3.059251606464385986e-02 -8.309431374073028564e-02 -3.048037365078926086e-02
-2.750403583049774170e-01 -7.345862686634063721e-02 -1.833611540496349335e-02
1.879711151123046875e-01 -2.213732153177261353e-02 1.165762841701507568e-01
-1.673932969570159912e-01 -3.880541026592254639e-02 -1.210460662841796875e-01
2.274659126996994019e-01 -6.447008997201919556e-02 3.884448856115341187e-02
-3.299323320388793945e-01 7.329236716032028198e-03 9.208734333515167236e-02
3.861016035079956055e-02 1.548335552215576172e-01 -9.084157645702362061e-04
5.050998926162719727e-01 2.475530654191970825e-02 -1.382018029689788818e-01
4.981450438499450684e-01 1.565246284008026123e-01 -7.473065704107284546e-02
-3.803334236145019531e-01 4.051557928323745728e-02 -7.082240283489227295e-02
4.496182799339294434e-01 3.031572513282299042e-02 -1.475396156311035156e-01
2.218076437711715698e-01 1.558062732219696045e-01 -6.505590677261352539e-02
5.967967510223388672e-01 -9.227197617292404175e-03 -8.420217037200927734e-02
6.219890117645263672e-01 -1.193025335669517517e-02 -6.517245620489120483e-02
1.387158334255218506e-01 -5.885163694620132446e-02 6.760197132825851440e-02
8.584564328193664551e-01 1.084912419319152832e-01 -3.776837885379791260e-02
1.429848968982696533e-01 2.780315093696117401e-02 -1.615687012672424316e-01
-1.138223409652709961e-01 1.340688914060592651e-01 2.100996486842632294e-02
-3.138087391853332520e-01 -6.587640196084976196e-02 -4.433438181877136230e-02
2.454989105463027954e-01 6.976772099733352661e-02 1.543577611446380615e-01
2.826092839241027832e-01 1.727770864963531494e-01 4.427821934223175049e-02
1.713649928569793701e-01 -4.481699317693710327e-02 8.951514959335327148e-02
4.122109711170196533e-02 -7.093859463930130005e-02 -8.707588165998458862e-02
4.971376955509185791e-01 1.049222499132156372e-01 -1.308092027902603149e-01
-3.099499344825744629e-01 4.258070886135101318e-02 9.497316181659698486e-02
7.130653262138366699e-01 7.849130779504776001e-03 2.786256745457649231e-02
1.085382029414176941e-01 5.962911993265151978e-02 1.526358425617218018e-01
4.102458953857421875e-01 -4.890655726194381714e-02 -6.690552830696105957e-02
6.565456390380859375e-01 1.312896609306335449e-01 -9.074787050485610962e-02
2.496325522661209106e-01 9.169093519449234009e-02 -1.453488767147064209e-01
-4.425441026687622070e-01 4.094088450074195862e-02 -1.648241654038429260e-02
1.500214636325836182e-02 -5.845153331756591797e-02 -1.113518476486206055e-01
3.312186002731323242e-01 9.401406347751617432e-02 1.491592079401016235e-01
-6.492021679878234863e-02 9.066055715084075928e-02 1.255207359790802002e-01
2.627381980419158936e-01 -6.867576390504837036e-02 6.778842769563198090e-03
4.850539267063140869e-01 9.814472496509552002e-02 1.396113932132720947e-01
5.944222211837768555e-01 1.654498279094696045e-01 -4.446059092879295349e-02
3.591832518577575684e-02 1.352698355913162231e-01 -7.386855781078338623e-02
5.310505032539367676e-01 4.967470839619636536e-02 1.299407631158828735e-01
1.586857289075851440e-01 1.119894012808799744e-01 -1.248906552791595459e-01
7.067473530769348145e-01 1.942489109933376312e-02 -7.947501540184020996e-02
6.747772097587585449e-01 1.690652370452880859e-01 1.175980921834707260e-02
4.338606595993041992e-01 3.905963152647018433e-03 1.152077540755271912e-01
6.349936723709106445e-01 6.893847137689590454e-03 6.905101239681243896e-02
8.685489296913146973e-01 9.173078835010528564e-02 -3.582800179719924927e-02
5.640621483325958252e-02 6.086457893252372742e-02 1.498545110225677490e-01
6.575139164924621582e-01 5.477736890316009521e-02 1.076447591185569763e-01
-1.171718239784240723e-01 9.743660688400268555e-02 -9.814082086086273193e-02
5.602681636810302734e-01 -2.884735912084579468e-02 -5.075452104210853577e-02
1.285766214132308960e-01 1.610779762268066406e-01 5.004691705107688904e-02
6.215288043022155762e-01 -1.987691223621368408e-02 -4.372871015220880508e-03
-3.763364553451538086e-01 -4.905122518539428711e-02 2.761635556817054749e-02
1.647813320159912109e-01 -6.979919970035552979e-02 3.490687906742095947e-02
-3.021330237388610840e-01 -2.778725326061248779e-02 -1.041572913527488708e-01
5.770377516746520996e-01 1.477449387311935425e-01 -8.218169212341308594e-02
-1.067356765270233154e-01 1.324509978294372559e-01 -2.212641388177871704e-02
6.063016653060913086e-01 1.981798745691776276e-02 9.458954632282257080e-02
2.296675443649291992e-01 1.358638256788253784e-01 -1.023648530244827271e-01
-6.172060966491699219e-04 1.410840600728988647e-01 -4.802746325731277466e-02
5.483868122100830078e-01 1.587399840354919434e-02 -1.257565766572952271e-01
8.129133582115173340e-01 1.324672698974609375e-01 4.986294358968734741e-02
2.727037370204925537e-01 1.624275445938110352e-01 8.075866848230361938e-02
7.182194590568542480e-01 4.665568470954895020e-03 8.432169444859027863e-03
1.992335468530654907e-01 1.020036935806274414e-01 1.451657712459564209e-01
3.439039289951324463e-01 -5.106846988201141357e-02 -8.530346304178237915e-02
3.121065199375152588e-01 -6.200862675905227661e-02 -6.029573082923889160e-02
7.418844103813171387e-01 1.419203281402587891e-01 7.008232176303863525e-02
-1.532672345638275146e-01 -7.973897457122802734e-02 7.827879860997200012e-03
5.783875584602355957e-01 4.773835837841033936e-02 -1.329687535762786865e-01
7.173874378204345703e-01 1.152043193578720093e-01 9.800735861063003540e-02
-3.380432724952697754e-01 -5.838679522275924683e-02 -5.555885285139083862e-02
-1.078802049160003662e-01 1.305807530879974365e-01 5.122280120849609375e-02
8.723372220993041992e-01 1.146773770451545715e-01 1.754498481750488281e-02
2.378579974174499512e-01 -7.262067496776580811e-02 -1.706183515489101410e-02
1.129843071103096008e-01 -6.225057691335678101e-02 -1.012266799807548523e-01
2.651499509811401367e-01 -6.679599732160568237e-02 -5.865498259663581848e-02
4.815741479396820068e-01 -1.619099080562591553e-02 -1.110256090760231018e-01
-3.583554923534393311e-02 8.141428232192993164e-02 -1.296428143978118896e-01
-9.854677319526672363e-02 -3.073486685752868652e-02 1.072821393609046936e-01
1.971569657325744629e-01 -5.783378332853317261e-02 6.251836568117141724e-02
1.521862149238586426e-01 1.572871208190917969e-01 -4.688464105129241943e-02
5.968718528747558594e-01 2.969469502568244934e-02 -1.232689693570137024e-01
-4.453635215759277344e-01 1.627984829246997833e-02 -5.058539658784866333e-02
-3.347234129905700684e-01 6.843061000108718872e-02 6.477590650320053101e-02
4.320995211601257324e-01 6.061198562383651733e-02 1.449247896671295166e-01
1.756107062101364136e-01 1.613315641880035400e-01 -3.920238465070724487e-02
5.116344690322875977e-01 4.185370355844497681e-02 1.294615566730499268e-01
1.558246910572052002e-01 1.516646444797515869e-01 8.745634555816650391e-02
6.442885994911193848e-01 1.703874766826629639e-01 3.305716812610626221e-02
3.197251260280609131e-02 -3.880567848682403564e-03 1.334713399410247803e-01
2.980833947658538818e-01 -6.560040265321731567e-02 6.120726466178894043e-03
5.453128814697265625e-01 1.290181279182434082e-01 1.204322129487991333e-01
-5.535542964935302734e-02 -8.403252065181732178e-02 -1.544626429677009583e-02
5.497561693191528320e-01 -4.205860197544097900e-03 -1.077105775475502014e-01
1.114038228988647461e-01 -7.012406736612319946e-02 4.269431903958320618e-02
4.524538516998291016e-01 1.789340823888778687e-01 4.295627586543560028e-03
-1.941645145416259766e-02 -8.387483656406402588e-02 -2.985036000609397888e-02
5.728365778923034668e-01 -2.201341837644577026e-02 -6.683842092752456665e-02
7.412828207015991211e-01 3.858157992362976074e-02 6.790216267108917236e-02
-1.702063083648681641e-01 -7.201430946588516235e-02 -7.358698546886444092e-02
5.669639110565185547e-01 1.512019336223602295e-02 -1.211979538202285767e-01
1.489950865507125854e-01 1.177315860986709595e-01 1.319560408592224121e-01
1.899032145738601685e-01 1.507565081119537354e-01 -7.177298516035079956e-02
-2.493537664413452148e-01 7.674281299114227295e-02 -8.526309579610824585e-02
1.183478981256484985e-01 -1.947468519210815430e-02 -1.479722410440444946e-01
-9.720325469970703125e-04 -5.278191715478897095e-02 8.468695729970932007e-02
-1.989109516143798828e-01 8.644314110279083252e-02 -8.956146985292434692e-02
5.882313847541809082e-01 -2.259872108697891235e-02 2.150261960923671722e-02
-3.226681351661682129e-01 7.803425192832946777e-02 -4.815554246306419373e-02
8.300051093101501465e-03 -7.773573696613311768e-02 -6.830895692110061646e-02
6.147672235965728760e-02 1.418162733316421509e-01 8.790388703346252441e-02
2.295186519622802734e-01 4.599397629499435425e-02 -1.611232012510299683e-01
8.255560994148254395e-01 4.060035198926925659e-02 -9.713700041174888611e-03
4.319380819797515869e-01 -3.148204088211059570e-02 6.792779266834259033e-02
4.240019321441650391e-01 -4.178626835346221924e-02 4.631175100803375244e-02
-1.611412465572357178e-01 8.172070980072021484e-02 -1.055228486657142639e-01
-2.539614140987396240e-01 -3.519579768180847168e-02 -1.100141182541847229e-01
4.881833493709564209e-02 1.550722718238830566e-01 3.658159077167510986e-02
6.766580343246459961e-01 1.645757704973220825e-01 -2.424257993698120117e-02
2.043262720108032227e-01 1.704295128583908081e-01 1.760474592447280884e-02
2.020053118467330933e-01 -7.319262623786926270e-02 -5.056378245353698730e-02
2.156679779291152954e-01 6.102438643574714661e-02 -1.581562757492065430e-01
2.241910099983215332e-01 1.915141940116882324e-03 1.346711963415145874e-01
6.748872995376586914e-01 -6.422981619834899902e-03 -3.780970349907875061e-02
1.653135716915130615e-01 1.602077782154083252e-01 6.668001413345336914e-02
1.421615481376647949e-03 -3.621122986078262329e-02 -1.355728358030319214e-01
-4.090461134910583496e-02 9.093430638313293457e-02 1.291931867599487305e-01
6.586449146270751953e-01 1.495705991983413696e-01 -6.621921807527542114e-02
-2.021547257900238037e-01 1.934238895773887634e-02 1.213707700371742249e-01
-2.097443938255310059e-01 1.166998818516731262e-01 5.486631765961647034e-03
8.593564033508300781e-01 6.333711743354797363e-02 -2.498944289982318878e-02
-2.855420708656311035e-01 4.398739710450172424e-02 -1.040011718869209290e-01
4.716024398803710938e-01 2.380221709609031677e-02 1.251509338617324829e-01
4.367290735244750977e-01 1.213782429695129395e-01 -1.222676709294319153e-01
3.369255363941192627e-01 1.414979100227355957e-01 1.189998537302017212e-01
-4.213134050369262695e-01 5.299597233533859253e-02 1.398946065455675125e-02
3.680992126464843750e-01 -2.485522627830505371e-02 9.304880350828170776e-02
7.756469845771789551e-01 1.161233931779861450e-01 -7.427248358726501465e-02
2.440379261970520020e-01 1.306387186050415039e-01 1.269810199737548828e-01
5.125842690467834473e-01 5.810993537306785583e-02 -1.434203684329986572e-01
-2.177475094795227051e-01 1.029512882232666016e-01 6.714288145303726196e-02
3.003454804420471191e-01 1.664132475852966309e-01 -4.698058590292930603e-02
6.790194511413574219e-01 1.373735070228576660e-01 9.271101653575897217e-02
4.584102928638458252e-01 1.125483587384223938e-01 1.369912475347518921e-01
-3.929851055145263672e-01 -5.311151593923568726e-02 -2.764435485005378723e-02
3.734008967876434326e-01 -5.949375778436660767e-02 -1.871962286531925201e-02
4.153116345405578613e-01 1.780679225921630859e-01 -4.791676066815853119e-03
-1.396154165267944336e-01 -3.542096912860870361e-02 -1.267852485179901123e-01
3.526293933391571045e-01 -8.082259446382522583e-03 1.152696013450622559e-01
2.367997318506240845e-01 -5.639731884002685547e-02 5.924559012055397034e-02
7.283412218093872070e-01 2.378900907933712006e-02 -7.444114238023757935e-02
2.672471404075622559e-01 5.686891824007034302e-02 1.537604182958602905e-01
-1.412925124168395996e-01 1.042983308434486389e-01 9.503110498189926147e-02
3.872286975383758545e-01 -1.660013943910598755e-02 1.007316857576370239e-01
2.441885173320770264e-01 1.696526408195495605e-01 -2.240467630326747894e-02
-2.459900081157684326e-01 -1.628687232732772827e-02 -1.212216243147850037e-01
3.548705875873565674e-01 -1.378513872623443604e-03 -1.448017209768295288e-01
7.268969714641571045e-02 2.356134355068206787e-03 -1.567780077457427979e-01
9.666170924901962280e-02 1.514372676610946655e-01 7.415882498025894165e-02
-2.002979218959808350e-01 -7.959456741809844971e-02 -1.555586699396371841e-02
5.872944593429565430e-01 -2.587552368640899658e-02 -3.755895420908927917e-02
3.757212758064270020e-01 1.496368274092674255e-02 1.314993053674697876e-01
2.305645346641540527e-01 -3.832372277975082397e-02 9.335552901029586792e-02
-1.225064098834991455e-01 -1.067774742841720581e-02 -1.407623738050460815e-01
5.428050756454467773e-01 -2.663957327604293823e-02 3.720290213823318481e-02
5.321653187274932861e-02 1.413753926753997803e-01 -6.465367227792739868e-02
-3.655447363853454590e-01 -5.999191105365753174e-02 -1.075928285717964172e-02
7.405450344085693359e-01 1.580081582069396973e-01 3.419659659266471863e-02
-5.046871304512023926e-02 2.819251269102096558e-02 -1.509786397218704224e-01
2.230255603790283203e-01 -7.277332246303558350e-02 -1.047303900122642517e-03
3.733485639095306396e-01 1.778157949447631836e-01 6.094111595302820206e-04
-1.444513797760009766e-01 -7.688497751951217651e-02 -6.285619735717773438e-02
3.721692264080047607e-01 -3.054039180278778076e-02 -1.159852668642997742e-01
-5.172550678253173828e-02 -1.955837756395339966e-02 1.196044981479644775e-01
-1.727404296398162842e-01 -1.925421506166458130e-02 1.094730198383331299e-01
2.227796614170074463e-01 8.874182403087615967e-02 -1.464221030473709106e-01
2.783763408660888672e-01 1.494377255439758301e-01 1.063033491373062134e-01
1.707906872034072876e-01 8.743454515933990479e-02 1.499525606632232666e-01
4.155725836753845215e-01 -5.301527678966522217e-02 2.771985018625855446e-03
4.266614317893981934e-01 1.596225202083587646e-01 9.384740889072418213e-02
1.157012507319450378e-01 4.365753754973411560e-02 -1.596447080373764038e-01
5.395383834838867188e-01 -3.553680330514907837e-02 -2.846162579953670502e-02
-4.911285638809204102e-02 -8.256497979164123535e-02 3.036364214494824409e-03
-4.494693279266357422e-01 -3.388197720050811768e-02 -4.816605709493160248e-03
3.734802007675170898e-01 1.586841046810150146e-01 9.541139751672744751e-02
2.354693412780761719e-01 6.940043717622756958e-02 -1.557076573371887207e-01
-1.298728585243225098e-02 -6.434828788042068481e-02 6.418257206678390503e-02
5.542205572128295898e-01 6.605572998523712158e-02 1.314935535192489624e-01
1.838293373584747314e-01 -6.794378161430358887e-02 -7.829485833644866943e-02
5.810117721557617188e-02 -2.063085883855819702e-02 -1.472596377134323120e-01
-2.252081632614135742e-01 2.509376592934131622e-02 1.179131940007209778e-01
5.706036090850830078e-01 1.413587778806686401e-01 1.074076816439628601e-01
1.954243779182434082e-01 1.221140250563621521e-01 1.317824125289916992e-01
6.091533899307250977e-01 9.625127911567687988e-02 -1.225995942950248718e-01
3.373296260833740234e-01 -9.869787842035293579e-03 -1.412016600370407104e-01
-2.983531355857849121e-01 -7.448561489582061768e-03 -1.123433113098144531e-01
7.182940244674682617e-01 1.575531661510467529e-01 -3.070276789367198944e-02
-9.527954459190368652e-02 -8.316330611705780029e-02 -3.495310246944427490e-02
5.804063677787780762e-01 8.382779359817504883e-02 -1.310088187456130981e-01
7.817817926406860352e-01 1.385932117700576782e-01 5.814824253320693970e-02
3.969819545745849609e-01 9.351681917905807495e-02 1.468122452497482300e-01
7.502165436744689941e-01 2.361381426453590393e-02 -6.071972474455833435e-02
7.972931861877441406e-01 3.891754895448684692e-02 3.470729291439056396e-02
2.426009476184844971e-01 1.724212765693664551e-01 4.926125984638929367e-04
-1.836512386798858643e-01 7.382740080356597900e-02 -1.077885404229164124e-01
4.015451967716217041e-01 3.707862645387649536e-02 -1.536009460687637329e-01
6.975022554397583008e-01 1.364533901214599609e-01 -7.649444788694381714e-02
5.066560208797454834e-02 -3.938464820384979248e-02 1.026440411806106567e-01
6.623611450195312500e-01 4.287998005747795105e-02 -1.135507151484489441e-01
3.715140819549560547e-01 6.836375594139099121e-02 -1.535614281892776489e-01
6.066142320632934570e-01 1.634510606527328491e-01 6.937704235315322876e-02
8.326795697212219238e-01 1.172309890389442444e-01 5.338848754763603210e-02
-1.148784756660461426e-01 -1.988970488309860229e-02 1.149675175547599792e-01
3.118229508399963379e-01 1.558311283588409424e-01 9.799245744943618774e-02
3.360079526901245117e-01 1.216824129223823547e-01 -1.235275119543075562e-01
-2.298637032508850098e-01 9.822078049182891846e-02 -5.767896771430969238e-02
1.047686487436294556e-01 3.216469660401344299e-02 1.499583572149276733e-01
-2.031516432762145996e-01 9.628000855445861816e-02 8.528536558151245117e-02
1.897882521152496338e-01 1.686197370290756226e-01 -3.748293267562985420e-03
4.783822894096374512e-01 2.612774446606636047e-02 -1.426432281732559204e-01
8.139259368181228638e-02 -6.027648597955703735e-02 6.936739385128021240e-02
-2.182971537113189697e-01 -5.053980648517608643e-02 7.158674299716949463e-02
7.111341953277587891e-01 1.557397693395614624e-01 5.714900046586990356e-02
2.355962991714477539e-03 1.323241740465164185e-03 1.353645622730255127e-01
3.186374306678771973e-01 1.750048696994781494e-01 -1.086544711142778397e-02
2.532530128955841064e-01 1.497341692447662354e-02 -1.586153209209442139e-01
2.424955964088439941e-01 1.104742437601089478e-01 -1.314383894205093384e-01
7.930240631103515625e-01 2.832045778632164001e-02 -2.685380727052688599e-02
4.601901769638061523e-01 -3.925535827875137329e-02 -7.487709075212478638e-02
-1.635100841522216797e-01 1.256928741931915283e-01 6.474142894148826599e-03
3.171876668930053711e-01 7.408061623573303223e-02 1.527399569749832153e-01
3.048853874206542969e-01 -5.816015601158142090e-02 -7.735411822795867920e-02
4.560270309448242188e-01 1.446405202150344849e-01 1.137491017580032349e-01
4.929557740688323975e-01 -3.348001837730407715e-02 4.153486713767051697e-02
-2.774595320224761963e-01 5.842608213424682617e-02 9.730789810419082642e-02
-3.284634947776794434e-01 -3.068528324365615845e-02 7.168235629796981812e-02
-4.626400768756866455e-02 -7.755650579929351807e-02 2.852241694927215576e-02
-1.259402930736541748e-02 7.658509910106658936e-02 -1.362521052360534668e-01
6.448258459568023682e-02 1.520004868507385254e-01 -3.623997792601585388e-02
8.849413692951202393e-02 -6.594920158386230469e-02 -9.561489522457122803e-02
5.431854128837585449e-01 1.320241391658782959e-01 -1.052041128277778625e-01
-2.706944644451141357e-01 4.335012286901473999e-03 1.055231913924217224e-01
3.624179959297180176e-02 1.226575374603271484e-01 1.129936724901199341e-01
7.546939253807067871e-01 1.139828860759735107e-01 -8.255070447921752930e-02
3.455996513366699219e-03 9.537726640701293945e-02 1.326149106025695801e-01
1.920322477817535400e-01 5.415358766913414001e-02 -1.595753878355026245e-01
8.052645623683929443e-02 -5.431741476058959961e-02 -1.160933226346969604e-01
-1.311778724193572998e-01 -7.679153233766555786e-02 2.556081302464008331e-02
3.013359904289245605e-01 6.232422217726707458e-02 1.531953662633895874e-01
2.897250950336456299e-01 7.486509531736373901e-02 -1.537528932094573975e-01
6.332784891128540039e-03 1.491828858852386475e-01 -1.729558035731315613e-02
6.782693862915039062e-01 1.329100877046585083e-01 -8.482540398836135864e-02
5.666334927082061768e-02 -8.136259019374847412e-02 -4.367005079984664917e-02
-2.643603086471557617e-01 -7.329644262790679932e-02 6.631130818277597427e-04
6.480857729911804199e-03 3.996934369206428528e-02 -1.539891958236694336e-01
-1.603556871414184570e-01 1.190347298979759216e-01 -3.984957188367843628e-02
3.373032808303833008e-01 -3.119456022977828979e-02 -1.211346611380577087e-01
5.028998851776123047e-01 1.305301785469055176e-01 -1.100151687860488892e-01
7.815601825714111328e-01 2.274501696228981018e-02 -7.732032798230648041e-03
5.172367095947265625e-01 1.779088973999023438e-01 2.674636244773864746e-02
3.908180296421051025e-01 -3.258425742387771606e-02 -1.093556210398674011e-01
-2.201902866363525391e-01 2.111870981752872467e-02 -1.283548921346664429e-01
3.050100505352020264e-01 1.735275536775588989e-01 4.585534706711769104e-02
8.359199017286300659e-02 -2.813090384006500244e-02 1.145741045475006104e-01
1.357607990503311157e-01 1.215495020151138306e-01 -1.121447905898094177e-01
1.395950913429260254e-01 -1.998964697122573853e-02 -1.472864896059036255e-01
4.463996887207031250e-01 1.650135964155197144e-01 -5.864610895514488220e-02
8.271453976631164551e-01 1.044637560844421387e-01 -6.027679890394210815e-02
2.060248404741287231e-01 -6.987246870994567871e-02 2.425988018512725830e-02
6.991489529609680176e-01 1.632137149572372437e-01 3.942160680890083313e-02
3.876886963844299316e-01 -4.594818502664566040e-02 4.758606106042861938e-02
-8.999001979827880859e-02 -5.459273606538772583e-02 7.922509312629699707e-02
-1.154640018939971924e-01 7.845037430524826050e-02 1.243144497275352478e-01
-1.989681422710418701e-01 -4.017464816570281982e-03 -1.322908252477645874e-01
-2.736681997776031494e-01 8.537426590919494629e-02 7.148567587137222290e-02
6.630532741546630859e-01 1.155444458127021790e-01 1.100715696811676025e-01
2.987938821315765381e-01 1.756915897130966187e-01 2.113500982522964478e-02
1.755796968936920166e-01 -7.387340068817138672e-02 1.432372163981199265e-02
7.408927083015441895e-01 1.587532833218574524e-02 2.751909568905830383e-02
-3.701826333999633789e-01 -2.191410213708877563e-02 6.645121425390243530e-02
4.558706283569335938e-01 3.382742404937744141e-02 1.332093626260757446e-01
2.494914084672927856e-01 -1.722957938909530640e-02 -1.439439207315444946e-01
8.026684522628784180e-01 1.121792793273925781e-01 7.117463648319244385e-02
5.133090615272521973e-01 -3.402242064476013184e-02 -6.401547044515609741e-02
3.718126416206359863e-01 1.425397694110870361e-01 -9.959500283002853394e-02
6.508585214614868164e-01 9.420491009950637817e-02 1.173867434263229370e-01
9.150058031082153320e-03 1.081653162837028503e-01 -1.107943803071975708e-01
2.008178234100341797e-01 1.420187652111053467e-01 -9.002368152141571045e-02
-2.266662418842315674e-01 -3.886704146862030029e-02 -1.122590452432632446e-01
-2.960510551929473877e-02 1.076692864298820496e-01 1.176462396979331970e-01
4.832473397254943848e-01 -1.839485019445419312e-02 7.758641242980957031e-02
7.039163708686828613e-01 1.356011256575584412e-02 4.851409420371055603e-02
1.637441962957382202e-01 8.051360398530960083e-02 -1.487788558006286621e-01
-2.616961002349853516e-01 8.545638620853424072e-02 -6.741087883710861206e-02
-4.237025380134582520e-01 4.144655913114547729e-02 -4.095157608389854431e-02
-1.010265052318572998e-01 -8.058190345764160156e-02 -5.332559719681739807e-02
8.395189642906188965e-01 7.386637479066848755e-02 -5.547790974378585815e-02
-2.480181455612182617e-01 1.070353388786315918e-01 2.854412049055099487e-02
5.838160514831542969e-01 -2.773761004209518433e-02 -1.105912681668996811e-02
-7.037630677223205566e-02 -7.003399729728698730e-02 -8.884212374687194824e-02
7.952736020088195801e-01 1.468551754951477051e-01 3.088349848985671997e-02
6.711223125457763672e-01 1.547874808311462402e-01 7.197789102792739868e-02
6.033512353897094727e-01 1.735579222440719604e-01 3.262030333280563354e-02
-2.191754877567291260e-01 1.129843592643737793e-01 3.226847574114799500e-02
-4.177477955818176270e-01 1.593079045414924622e-02 5.957238748669624329e-02
-1.377494931221008301e-01 3.432674705982208252e-02 1.321917474269866943e-01
4.119469225406646729e-02 1.046471297740936279e-01 1.309972703456878662e-01
1.618565618991851807e-01 5.243960767984390259e-03 -1.582429111003875732e-01
6.467285156250000000e-01 5.145388469099998474e-02 -1.201552078127861023e-01
-4.671596884727478027e-01 1.989595405757427216e-02 -2.224230580031871796e-02
6.903645396232604980e-01 1.800824701786041260e-02 6.323463469743728638e-02
7.493829727172851562e-01 3.034514561295509338e-02 5.267861858010292053e-02
1.179702356457710266e-01 -7.949474453926086426e-02 -4.711695481091737747e-03
-2.329392433166503906e-01 7.900391519069671631e-02 9.538780152797698975e-02
4.659887850284576416e-01 1.249808743596076965e-01 -1.176596209406852722e-01
3.061928153038024902e-01 2.602569386363029480e-02 1.435920894145965576e-01
-1.483313441276550293e-01 1.206911280751228333e-01 6.013930216431617737e-02
-3.428228497505187988e-01 -6.042058765888214111e-02 1.410440448671579361e-02
6.805459856986999512e-01 5.081377550959587097e-02 -1.116642206907272339e-01
7.516384124755859375e-02 1.094441190361976624e-01 -1.188960894942283630e-01
-1.914788186550140381e-01 -5.316721647977828979e-02 -1.036849170923233032e-01
-3.430562019348144531e-01 -6.380809843540191650e-02 -2.702536061406135559e-02
8.335273265838623047e-01 6.649911403656005859e-02 4.618232697248458862e-02
5.634478330612182617e-01 1.334924846887588501e-01 -1.016359403729438782e-01
2.199967503547668457e-01 8.624257147312164307e-02 1.516269296407699585e-01
6.152763366699218750e-01 -1.090613007545471191e-02 4.220870509743690491e-02
-4.752599596977233887e-01 1.516307145357131958e-02 -4.336205311119556427e-03
1.808867007493972778e-01 -5.454131960868835449e-02 7.164771854877471924e-02
1.941373944282531738e-02 1.341347396373748779e-01 9.246157109737396240e-02
-3.678934574127197266e-01 -1.258698105812072754e-02 -9.131894260644912720e-02
-2.342186868190765381e-02 -5.777475237846374512e-02 -1.118654087185859680e-01
2.378301173448562622e-01 1.720860302448272705e-01 2.908545359969139099e-02
-1.192159950733184814e-01 -5.495329201221466064e-02 7.666701078414916992e-02
3.003245592117309570e-02 1.502173095941543579e-01 -2.728352509438991547e-02
4.678188264369964600e-01 1.536494046449661255e-01 -8.131826668977737427e-02
-2.798114717006683350e-01 -6.040030717849731445e-02 -7.411488890647888184e-02
5.874969959259033203e-01 3.269374370574951172e-03 -1.052555292844772339e-01
2.357594817876815796e-01 -6.778465211391448975e-02 -6.539036333560943604e-02
-1.222279667854309082e-02 9.664286673069000244e-02 -1.198378950357437134e-01
1.835056543350219727e-01 -3.532707691192626953e-02 -1.332323402166366577e-01
1.721161007881164551e-01 1.677504926919937134e-01 2.451749285683035851e-03
4.401303529739379883e-01 -4.881677031517028809e-02 -4.843173176050186157e-02
4.078847765922546387e-01 9.934031963348388672e-02 -1.393827199935913086e-01
-1.180397570133209229e-01 1.102191358804702759e-01 9.375290572643280029e-02
3.814959526062011719e-01 1.701642274856567383e-01 6.911663711071014404e-02
-6.013682484626770020e-02 -5.211915075778961182e-02 8.440462499856948853e-02
-2.579441666603088379e-01 -7.234182953834533691e-02 -4.721882194280624390e-02
1.036765128374099731e-01 6.625857204198837280e-02 -1.524008363485336304e-01
-8.456915616989135742e-03 1.448688507080078125e-01 5.427946522831916809e-02
2.606906890869140625e-01 -4.332627356052398682e-02 -1.162799447774887085e-01
1.745283901691436768e-01 6.399571150541305542e-02 -1.564103811979293823e-01
-3.120702505111694336e-01 -5.552650988101959229e-02 4.152672365307807922e-02
6.884535551071166992e-01 -4.258304834365844727e-04 2.168675512075424194e-02
1.584245711565017700e-01 1.597106829285621643e-02 1.446316540241241455e-01
4.318765103816986084e-01 1.065154075622558594e-01 -1.338956207036972046e-01
3.830131292343139648e-01 8.898478746414184570e-02 -1.457607448101043701e-01
1.148879081010818481e-01 -8.027075231075286865e-02 -2.814603783190250397e-02
7.687927484512329102e-01 7.627311348915100098e-02 8.390130847692489624e-02
8.508309721946716309e-01 5.739901959896087646e-02 1.391642820090055466e-02
4.274931848049163818e-01 1.715163588523864746e-01 6.605499237775802612e-02
4.616547524929046631e-01 1.723214238882064819e-01 -3.666203841567039490e-02
7.821309566497802734e-01 1.078528016805648804e-01 8.072176575660705566e-02
2.563928067684173584e-01 1.253698468208312988e-01 -1.173475459218025208e-01
4.727491438388824463e-01 5.176473408937454224e-02 1.385304927825927734e-01
3.544485867023468018e-01 4.325520247220993042e-02 -1.573576331138610840e-01
6.212645769119262695e-02 1.567624211311340332e-01 -8.240856230258941650e-03
1.170537397265434265e-01 1.402486264705657959e-01 -8.104353398084640503e-02
3.740912973880767822e-01 -5.728633701801300049e-02 8.623240515589714050e-03
-4.186957478523254395e-01 -4.658874869346618652e-02 -1.093959435820579529e-02
1.722099483013153076e-01 9.982431679964065552e-02 -1.365974247455596924e-01
-2.612572610378265381e-01 4.234964773058891296e-02 -1.116244941949844360e-01
-4.008267521858215332e-01 5.130030587315559387e-02 4.519848898053169250e-02
-3.523728847503662109e-01 6.678696721792221069e-03 8.535658568143844604e-02
4.062901735305786133e-01 1.729319691658020020e-01 -3.380501270294189453e-02
8.443062901496887207e-01 1.307417154312133789e-01 -1.640910841524600983e-02
-3.510289192199707031e-01 7.298147678375244141e-02 4.552705958485603333e-02
6.945152580738067627e-02 -8.040432631969451904e-02 4.847791045904159546e-03
-1.089320480823516846e-01 1.082914173603057861e-01 -8.468843996524810791e-02
4.840484261512756348e-01 1.337857395410537720e-01 1.223299279808998108e-01
3.288069963455200195e-01 -4.161790758371353149e-02 7.283986359834671021e-02
1.389667391777038574e-01 7.199744880199432373e-02 -1.518107056617736816e-01
-3.410703539848327637e-01 -6.238855421543121338e-03 -1.011223718523979187e-01
1.143210008740425110e-01 1.212059706449508667e-01 -1.100651919841766357e-01
3.404155373573303223e-02 -5.688846856355667114e-02 -1.135290041565895081e-01
-1.960991919040679932e-01 -2.927237749099731445e-02 9.867759793996810913e-02
2.140691280364990234e-01 -6.751169264316558838e-02 -7.279372215270996094e-02
-2.232665419578552246e-01 4.987188428640365601e-02 1.152418181300163269e-01
-1.556242406368255615e-01 2.336876280605792999e-02 1.288994997739791870e-01
1.417670845985412598e-01 1.653066575527191162e-01 2.864880254492163658e-03
-4.148775935173034668e-01 2.605111896991729736e-02 -6.424458324909210205e-02
6.284180879592895508e-01 1.472886204719543457e-01 -7.554317265748977661e-02
1.931102573871612549e-02 -1.880872249603271484e-02 -1.473221033811569214e-01
8.634236454963684082e-02 5.423522740602493286e-02 -1.557557731866836548e-01
1.579911112785339355e-01 -6.279558688402175903e-02 5.643140524625778198e-02
-5.229446291923522949e-02 -8.046512305736541748e-02 -5.760973691940307617e-02
7.178837656974792480e-01 1.136759519577026367e-01 -9.270328283309936523e-02
2.015793472528457642e-01 -7.451529800891876221e-02 -3.180797444656491280e-03
2.755793333053588867e-01 1.744876354932785034e-01 2.390400506556034088e-02
7.041648626327514648e-01 9.429438412189483643e-02 -1.054816246032714844e-01
-1.900095641613006592e-01 1.173061579465866089e-01 -2.415343932807445526e-02
6.037187576293945312e-02 1.263549029827117920e-01 -9.489096701145172119e-02
-3.476727008819580078e-01 -4.974083602428436279e-02 3.989914432168006897e-02
-2.739925980567932129e-01 -5.638634413480758667e-02 5.090964213013648987e-02
4.180996119976043701e-01 1.283129751682281494e-01 1.300417482852935791e-01
4.555767178535461426e-01 7.121179997920989990e-02 1.441303342580795288e-01
4.513853788375854492e-01 1.103097870945930481e-01 -1.303369104862213135e-01
3.532551527023315430e-01 1.602754592895507812e-01 -6.787179410457611084e-02
6.924821734428405762e-01 3.864884376525878906e-03 -5.881195142865180969e-02
2.175386101007461548e-01 -7.383557409048080444e-02 -3.395191952586174011e-02
5.371748208999633789e-01 1.738113313913345337e-01 -2.444679662585258484e-02
9.846085309982299805e-02 -7.605918496847152710e-02 2.314483001828193665e-02
2.532432973384857178e-02 -2.029980719089508057e-02 1.217098161578178406e-01
7.143288254737854004e-01 6.873504072427749634e-02 9.877366572618484497e-02
-8.143094182014465332e-02 -4.210349172353744507e-02 9.651187807321548462e-02
-1.680872738361358643e-01 -1.188635826110839844e-03 -1.372857242822647095e-01
-2.757060229778289795e-01 1.013070493936538696e-01 -5.935064982622861862e-03
-3.827485442161560059e-01 6.468708068132400513e-02 3.512781858444213867e-02
3.768012523651123047e-01 1.467492133378982544e-01 1.131839007139205933e-01
3.856214880943298340e-02 -3.547205775976181030e-02 -1.368958801031112671e-01
4.558219015598297119e-01 1.038623228669166565e-02 1.174562647938728333e-01
5.062620043754577637e-01 -5.526319146156311035e-04 9.690891206264495850e-02
6.189638376235961914e-01 -2.057790756225585938e-02 -2.548698894679546356e-02
8.404732346534729004e-01 9.083209931850433350e-02 5.483053624629974365e-02
4.893268644809722900e-01 1.470446884632110596e-01 1.091200858354568481e-01
-3.909559249877929688e-01 -8.206740021705627441e-03 6.733987480401992798e-02
5.613901019096374512e-01 -3.197991102933883667e-02 -2.056205645203590393e-02
7.345864772796630859e-01 1.192243099212646484e-01 9.158249199390411377e-02
2.026594877243041992e-01 3.139057382941246033e-02 -1.619209051132202148e-01
3.230328857898712158e-01 9.024813771247863770e-04 1.266135722398757935e-01
2.856029868125915527e-01 8.473513275384902954e-02 1.521209180355072021e-01
6.758265495300292969e-01 2.453656494617462158e-02 -9.784045815467834473e-02
2.883148193359375000e-01 -5.973865091800689697e-02 3.769640997052192688e-02
1.978039294481277466e-01 1.982568204402923584e-02 1.456226259469985962e-01
1.048116907477378845e-01 1.441000699996948242e-01 9.299674630165100098e-02
3.005911707878112793e-01 -3.271068632602691650e-02 9.257922321557998657e-02
5.227249860763549805e-01 1.409523189067840576e-01 1.129266917705535889e-01
-1.389650702476501465e-01 9.816656261682510376e-02 -9.141401201486587524e-02
-1.673713624477386475e-01 -6.352505832910537720e-02 5.672872811555862427e-02
