-1.051828026771545410e+00 2.967709675431251526e-03 1.354368962347507477e-02
-3.339259624481201172e-01 -9.440697729587554932e-02 -2.740737982094287872e-02
4.156125187873840332e-01 3.541386127471923828e-02 -6.947006285190582275e-02
3.736259937286376953e-01 7.613375037908554077e-02 5.825017765164375305e-02
3.589676022529602051e-01 6.141143292188644409e-02 6.772950291633605957e-02
-1.035287737846374512e+00 3.332648798823356628e-02 2.987929247319698334e-02
-2.218346297740936279e-01 5.862679332494735718e-03 9.852144122123718262e-02
1.647025346755981445e-04 1.855432614684104919e-02 9.552431851625442505e-02
-2.096094340085983276e-01 9.236726909875869751e-02 9.076014161109924316e-02
-5.051203370094299316e-01 1.010964140295982361e-01 7.619617879390716553e-02
-7.754358053207397461e-01 -6.440918147563934326e-02 -2.852793596684932709e-02
-7.728562355041503906e-01 -3.591056168079376221e-02 -5.699929222464561462e-02
1.975355595350265503e-01 -7.805024832487106323e-02 -5.473181605339050293e-02
-3.881116807460784912e-01 4.486443847417831421e-02 1.048696786165237427e-01
-3.404864668846130371e-02 -5.465437471866607666e-02 5.636903271079063416e-02
-7.230552434921264648e-01 9.722376614809036255e-02 2.027570083737373352e-02
-1.279768645763397217e-01 -9.511874616146087646e-02 -3.089003823697566986e-02
-1.967305243015289307e-01 -6.863430142402648926e-02 -8.201938867568969727e-02
2.975701093673706055e-01 5.991536378860473633e-02 -6.380725651979446411e-02
-5.102486014366149902e-01 -1.538238860666751862e-02 8.820588141679763794e-02
-2.307878136634826660e-01 6.976301968097686768e-02 1.012573987245559692e-01
2.513605952262878418e-01 6.358132511377334595e-02 7.898373156785964966e-02
4.587166905403137207e-01 5.642504245042800903e-02 -5.068045854568481445e-02
-2.376093417406082153e-01 -9.121371805667877197e-02 4.669014830142259598e-03
-1.803521066904067993e-01 1.221169903874397278e-01 4.344179108738899231e-02
-4.784569144248962402e-03 -2.085970155894756317e-02 -9.905366599559783936e-02
-4.113711416721343994e-01 1.253704354166984558e-02 -8.757526427507400513e-02
-7.460102438926696777e-01 -4.078600555658340454e-02 -5.864938721060752869e-02
-8.332902193069458008e-01 -1.609746366739273071e-03 7.458265870809555054e-02
2.534159421920776367e-01 2.275829389691352844e-02 8.030392974615097046e-02
-2.697355151176452637e-01 -8.393801003694534302e-02 2.298369258642196655e-02
-4.054292440414428711e-01 -7.291920483112335205e-02 -7.024307548999786377e-02
-9.674978852272033691e-01 -3.435400128364562988e-02 1.645836606621742249e-02
-3.427684307098388672e-03 -8.695673942565917969e-02 -5.655624344944953918e-02
-3.318006098270416260e-01 -6.239444017410278320e-03 -9.409907460212707520e-02
-2.618511319160461426e-01 -5.212774127721786499e-02 -9.000638872385025024e-02
-9.779797792434692383e-01 -1.187718100845813751e-02 4.483957588672637939e-02
-1.094756871461868286e-01 -8.682100474834442139e-02 -6.095964834094047546e-02
-3.218554258346557617e-01 -8.000019192695617676e-02 -6.708504259586334229e-02
-1.237064301967620850e-01 -6.045130640268325806e-02 -8.817617595195770264e-02
1.473064869642257690e-01 2.873682230710983276e-02 -8.809883147478103638e-02
4.497262835502624512e-01 2.140118554234504700e-02 -7.175369560718536377e-02
-8.859646320343017578e-01 1.115947961807250977e-03 6.928206235170364380e-02
-1.142869815230369568e-01 -9.359836578369140625e-02 -9.696895256638526917e-03
1.555257886648178101e-01 1.054101511836051941e-01 -1.780278421938419342e-02
-1.021287441253662109e+00 -8.293256163597106934e-03 3.248742967844009399e-02
-5.361031889915466309e-01 1.086530685424804688e-01 5.957878753542900085e-02
-5.540073513984680176e-01 1.503365673124790192e-02 -7.854877412319183350e-02
-7.452675104141235352e-01 3.797810152173042297e-02 9.016225486993789673e-02
-1.359375715255737305e-01 -4.197157919406890869e-02 -9.573612362146377563e-02
-3.297191858291625977e-01 8.566389977931976318e-02 -4.775491729378700256e-02
2.716882824897766113e-01 2.920800074934959412e-02 -8.274316042661666870e-02
-2.161510288715362549e-01 -8.689539134502410889e-02 -6.049451604485511780e-02
-4.947110414505004883e-01 9.384404867887496948e-02 -2.721529640257358551e-02
-3.547254204750061035e-01 -4.761346429586410522e-02 6.908085942268371582e-02
-2.620626688003540039e-01 -7.413654774427413940e-02 3.964663296937942505e-02
6.697449088096618652e-01 9.321365505456924438e-03 -1.790782250463962555e-02
-6.784099936485290527e-01 -5.804153531789779663e-02 4.379572346806526184e-02
-6.249467730522155762e-01 -1.216212101280689240e-02 -7.708316296339035034e-02
-4.269347786903381348e-01 -8.674465864896774292e-02 -4.798230528831481934e-02
-1.313462704420089722e-01 -2.596815861761569977e-02 8.219638466835021973e-02
-3.024755120277404785e-01 1.161182448267936707e-01 -3.104684874415397644e-04
-5.052812099456787109e-01 3.365345299243927002e-02 -7.517642527818679810e-02
2.098083496093750000e-04 5.187219381332397461e-02 9.792498499155044556e-02
6.116373538970947266e-01 2.885148487985134125e-02 2.604414336383342743e-02
1.671798974275588989e-01 1.130446568131446838e-01 3.477516025304794312e-02
-4.223719239234924316e-02 3.616375476121902466e-02 -8.798480778932571411e-02
7.841348648071289062e-03 -4.406184703111648560e-02 6.395003199577331543e-02
-1.258747428655624390e-01 3.059942275285720825e-02 -8.995081484317779541e-02
1.914308816194534302e-01 2.372263744473457336e-02 8.541646599769592285e-02
1.065023988485336304e-01 1.018811687827110291e-01 -2.811589837074279785e-02
-4.616628885269165039e-01 -7.222639396786689758e-03 -8.822381496429443359e-02
-1.010207891464233398e+00 5.372475832700729370e-03 -1.475120894610881805e-02
5.852897763252258301e-01 4.949841648340225220e-02 2.799032442271709442e-02
-3.614695072174072266e-01 8.770883083343505859e-02 9.345605224370956421e-02
2.101811915636062622e-01 -2.552353776991367340e-02 -9.272024035453796387e-02
4.088286161422729492e-01 8.932793140411376953e-02 -1.229541562497615814e-02
-2.439044415950775146e-02 -3.318400681018829346e-02 -9.776573628187179565e-02
1.004934161901473999e-01 6.813899427652359009e-02 8.960539847612380981e-02
-5.875040590763092041e-02 7.770073600113391876e-03 9.504516422748565674e-02
6.391257047653198242e-04 7.068239152431488037e-02 9.438849240541458130e-02
-8.808043003082275391e-01 7.320735603570938110e-02 5.193597078323364258e-02
-6.913781762123107910e-01 9.315043687820434570e-02 6.583233922719955444e-02
-5.731801390647888184e-01 -5.924062803387641907e-03 -8.091071248054504395e-02
8.759273588657379150e-02 -6.619688868522644043e-02 -8.024966716766357422e-02
2.209885567426681519e-01 4.987007379531860352e-02 -7.503755390644073486e-02
2.096636444330215454e-01 3.661954402923583984e-02 -8.255450427532196045e-02
3.911761045455932617e-01 1.555931940674781799e-02 -7.904411107301712036e-02
2.694852352142333984e-01 -7.603404670953750610e-02 -4.356184601783752441e-02
-7.066192626953125000e-01 -2.348762564361095428e-02 -6.851643323898315430e-02
6.436952352523803711e-01 2.819592878222465515e-02 1.364090200513601303e-02
1.942144334316253662e-02 8.678127825260162354e-02 8.650939911603927612e-02
-1.783178746700286865e-01 3.433177620172500610e-02 -8.773290365934371948e-02
-1.623977124691009521e-01 1.161800995469093323e-01 6.248051673173904419e-02
4.665711522102355957e-02 6.601432804018259048e-03 -9.655858576297760010e-02
2.392683923244476318e-02 4.828301817178726196e-02 -8.153736591339111328e-02
2.743439674377441406e-01 5.859109759330749512e-02 -6.633865833282470703e-02
-8.428121805191040039e-01 7.125911116600036621e-02 6.538700312376022339e-02
3.095750808715820312e-01 -4.200707376003265381e-02 -8.126749098300933838e-02
-5.421759486198425293e-01 -1.607524231076240540e-02 8.686638623476028442e-02
1.406547874212265015e-01 8.105197548866271973e-02 -5.369696393609046936e-02
-9.552060961723327637e-01 5.646800249814987183e-02 4.935202747583389282e-02
-4.753236770629882812e-01 1.022069156169891357e-01 -1.591061614453792572e-02
-7.448706030845642090e-01 1.048528589308261871e-02 8.679357916116714478e-02
2.342110127210617065e-01 9.539989382028579712e-02 -2.917493693530559540e-02
-4.087503254413604736e-02 1.210601925849914551e-01 3.881151229143142700e-02
-4.989757537841796875e-01 -5.996568500995635986e-02 5.359301716089248657e-02
9.712620079517364502e-02 2.984080649912357330e-02 9.251073747873306274e-02
-3.864656090736389160e-01 -4.237851500511169434e-02 7.314497977495193481e-02
3.627753853797912598e-01 -6.807509064674377441e-02 -3.769045695662498474e-02
6.855879724025726318e-02 8.739416301250457764e-02 -4.945424199104309082e-02
2.692000269889831543e-01 -5.538082867860794067e-02 3.068218566477298737e-02
-5.244873762130737305e-01 5.850437283515930176e-02 1.003862395882606506e-01
-9.428109526634216309e-01 -9.168375283479690552e-03 5.484874546527862549e-02
1.777450293302536011e-01 2.713030204176902771e-03 8.081688731908798218e-02
1.790757030248641968e-01 -7.132076472043991089e-02 -6.876485794782638550e-02
4.706585407257080078e-02 9.963978081941604614e-04 8.819399029016494751e-02
-4.564478993415832520e-03 -7.209042459726333618e-02 3.385271131992340088e-02
-5.288833379745483398e-02 -9.352973848581314087e-02 -3.530695289373397827e-02
-5.886151194572448730e-01 -2.641193382441997528e-02 7.904987782239913940e-02
-3.329976201057434082e-01 1.190152615308761597e-01 5.169283598661422729e-02
-1.462086141109466553e-01 9.146612882614135742e-02 -4.663002118468284607e-02
-4.344548881053924561e-01 -1.011295244097709656e-02 -8.986595273017883301e-02
-1.288284361362457275e-01 1.193347945809364319e-01 3.599126124754548073e-03
-6.249813437461853027e-01 9.859511256217956543e-02 6.734783947467803955e-02
3.658899664878845215e-01 9.067857265472412109e-02 4.411822929978370667e-02
-4.637991189956665039e-01 6.601804494857788086e-02 1.005190983414649963e-01
-9.008340239524841309e-01 1.452512107789516449e-02 7.136166840791702271e-02
1.121804863214492798e-01 1.296396646648645401e-02 -9.393056482076644897e-02
-4.604197144508361816e-01 -9.519580751657485962e-03 9.219498187303543091e-02
-8.505286574363708496e-01 -4.533869028091430664e-02 3.657479584217071533e-02
2.026972919702529907e-01 1.112614497542381287e-01 3.159815445542335510e-02
-1.003142118453979492e+00 -2.406886406242847443e-02 -1.426975941285490990e-03
-3.655390143394470215e-01 -2.496477775275707245e-02 8.534105122089385986e-02
-9.264079928398132324e-01 -1.661629043519496918e-02 -3.584969416260719299e-02
-4.478168487548828125e-02 5.766926705837249756e-02 -7.638199627399444580e-02
-2.533816099166870117e-01 -6.731534004211425781e-02 -8.174595981836318970e-02
-2.729720473289489746e-01 1.152167394757270813e-01 6.475926190614700317e-02
-8.115408420562744141e-01 -4.698139429092407227e-02 -4.395505040884017944e-02
2.403583675622940063e-01 4.250456020236015320e-02 -7.825867086648941040e-02
-2.322492003440856934e-02 1.211107894778251648e-01 3.470595926046371460e-02
-7.753809690475463867e-01 5.393040180206298828e-02 8.499823510646820068e-02
-6.770965456962585449e-01 5.039075016975402832e-02 9.405107051134109497e-02
-6.362191438674926758e-01 6.825917214155197144e-02 9.189786761999130249e-02
7.713235914707183838e-02 -8.782256394624710083e-02 -4.480335488915443420e-02
4.359349608421325684e-01 3.061474673449993134e-02 6.133996322751045227e-02
-5.641554594039916992e-01 -2.227071672677993774e-03 9.240425378084182739e-02
3.245264291763305664e-01 5.155917257070541382e-03 -8.619037270545959473e-02
-1.454784423112869263e-01 2.437096089124679565e-02 -9.201130270957946777e-02
-1.369074136018753052e-01 -9.259283542633056641e-02 -3.262165235355496407e-03
3.479097485542297363e-01 -4.451347887516021729e-02 3.289899975061416626e-02
-1.102206930518150330e-01 1.216280013322830200e-01 1.433805003762245178e-02
8.827166259288787842e-02 9.525088965892791748e-02 7.604886591434478760e-02
-2.203946709632873535e-01 1.938301697373390198e-02 -9.232199192047119141e-02
-4.761233329772949219e-01 -3.863099962472915649e-02 -8.484483510255813599e-02
1.952725797891616821e-01 -5.230399966239929199e-02 -8.428416401147842407e-02
6.562335789203643799e-02 -7.478378713130950928e-02 -7.265202701091766357e-02
-7.470564246177673340e-01 8.710611611604690552e-02 -1.911634812131524086e-03
-8.423454165458679199e-01 -5.975817143917083740e-02 -1.130122924223542213e-03
4.250779747962951660e-01 -5.285607278347015381e-02 -5.632729083299636841e-02
-7.895421236753463745e-02 4.194956645369529724e-02 1.012975424528121948e-01
-2.282625585794448853e-01 -2.087472565472126007e-02 8.711419999599456787e-02
-4.941431879997253418e-01 -8.010450005531311035e-02 2.282220870256423950e-02
-9.347757697105407715e-01 -3.531241416931152344e-02 -2.239893563091754913e-02
6.143893003463745117e-01 4.952517896890640259e-02 -2.052816003561019897e-02
-3.009568452835083008e-01 1.641863211989402771e-02 -9.098098427057266235e-02
4.036075472831726074e-01 1.963366195559501648e-02 6.409085541963577271e-02
-8.261577039957046509e-02 -9.416976571083068848e-02 -1.806205324828624725e-02
-2.707205414772033691e-01 -7.442912459373474121e-02 -7.526676356792449951e-02
-6.630035638809204102e-01 -3.733117878437042236e-02 6.693772226572036743e-02
2.092745155096054077e-01 7.252100110054016113e-02 -5.868959054350852966e-02
-1.203010976314544678e-02 -6.717433780431747437e-02 -8.276770263910293579e-02
-2.476784735918045044e-01 -9.546177089214324951e-02 -2.919281087815761566e-02
-7.876729965209960938e-01 6.386291235685348511e-02 -2.692274004220962524e-02
-5.348520874977111816e-01 1.153070107102394104e-02 9.787727892398834229e-02
5.495665669441223145e-01 3.363008052110671997e-02 4.189031943678855896e-02
-1.152935773134231567e-01 5.362844467163085938e-02 -7.868207991123199463e-02
4.615151882171630859e-01 -3.979010507464408875e-03 -7.474978268146514893e-02
-1.802330911159515381e-01 -9.531693905591964722e-02 -3.292292729020118713e-02
-4.948856234550476074e-01 5.805980414152145386e-02 1.014494597911834717e-01
4.790492653846740723e-01 -7.632259279489517212e-03 4.319862648844718933e-02
1.143622249364852905e-01 -6.177522242069244385e-03 -9.686350822448730469e-02
-2.208381891250610352e-02 4.801099002361297607e-02 -8.207101374864578247e-02
-2.745158672332763672e-01 -1.024875603616237640e-02 9.291494637727737427e-02
-6.544879674911499023e-01 2.322483807802200317e-02 9.529992192983627319e-02
1.003950089216232300e-01 -7.741347700357437134e-02 1.597096025943756104e-02
1.297614127397537231e-01 -5.903071165084838867e-02 4.099676012992858887e-02
-2.157860696315765381e-01 4.614923149347305298e-02 1.044880300760269165e-01
-1.301227509975433350e-02 -1.297246292233467102e-02 8.507072180509567261e-02
3.015751838684082031e-01 -7.471940666437149048e-02 -2.356883510947227478e-02
7.386462390422821045e-02 3.400569409132003784e-02 9.424313902854919434e-02
-4.645518660545349121e-01 -7.167843729257583618e-02 -6.721498072147369385e-02
1.037310510873794556e-01 4.700729250907897949e-02 9.279651194810867310e-02
2.472611814737319946e-01 1.088083833456039429e-01 2.529050782322883606e-02
2.479086369276046753e-01 -7.926838845014572144e-02 -3.283072635531425476e-02
9.195880591869354248e-02 7.083651423454284668e-02 -6.482504308223724365e-02
-6.370119452476501465e-01 -7.473275065422058105e-02 -4.178533703088760376e-02
-4.837877154350280762e-01 -6.359625607728958130e-02 -7.266484946012496948e-02
-4.565343260765075684e-01 1.001548990607261658e-01 8.033473044633865356e-02
-2.810656130313873291e-01 1.222850456833839417e-01 3.052997589111328125e-02
6.163126826286315918e-01 -2.274747379124164581e-02 -2.430352568626403809e-02
-9.196941554546356201e-02 -7.864107191562652588e-02 -7.296580076217651367e-02
2.902058362960815430e-01 -4.757601767778396606e-02 -7.998596131801605225e-02
-4.324710369110107422e-02 1.212370544672012329e-01 1.703454181551933289e-02
1.322281360626220703e-02 1.034066081047058105e-01 7.340374588966369629e-02
-8.128523081541061401e-02 -3.489244729280471802e-02 -9.764244407415390015e-02
-4.478233456611633301e-01 -8.433543890714645386e-02 1.637640222907066345e-02
-5.599220395088195801e-01 -1.808019541203975677e-02 8.516854047775268555e-02
-3.074150085449218750e-01 4.972819983959197998e-02 -7.678844034671783447e-02
7.110373675823211670e-02 8.901501446962356567e-02 8.198075741529464722e-02
4.085970520973205566e-01 8.589604496955871582e-02 4.114141315221786499e-02
5.407951772212982178e-02 -5.114282667636871338e-02 -9.092543274164199829e-02
-8.321828246116638184e-01 1.577127911150455475e-02 -5.015413090586662292e-02
-1.320640742778778076e-01 1.087383832782506943e-02 -9.600058197975158691e-02
-4.141906797885894775e-01 9.750502556562423706e-02 8.483166247606277466e-02
-8.323132991790771484e-03 -8.952847868204116821e-02 -3.319595707580447197e-03
-4.376508295536041260e-01 -4.738684743642807007e-02 6.812162697315216064e-02
-6.430115103721618652e-01 4.040375351905822754e-02 -6.136346980929374695e-02
3.994218707084655762e-01 6.201421469449996948e-02 -5.306009203195571899e-02
-5.318805575370788574e-03 1.210201457142829895e-01 2.759043686091899872e-02
-3.995254039764404297e-01 -5.428756773471832275e-02 6.241092830896377563e-02
2.531284689903259277e-01 -4.896875470876693726e-02 -8.222839981317520142e-02
-5.818617939949035645e-01 1.355037745088338852e-02 -7.691725343465805054e-02
-4.428024291992187500e-01 1.128169298171997070e-01 4.343864507973194122e-03
-6.645459532737731934e-01 5.509080737829208374e-02 -5.014069378376007080e-02
1.093804836273193359e-02 3.733521699905395508e-02 9.762052446603775024e-02
2.709140181541442871e-01 -7.253026217222213745e-02 -5.987184122204780579e-04
3.629665970802307129e-01 1.126599591225385666e-02 6.682723760604858398e-02
-4.520893692970275879e-01 3.479471430182456970e-02 -7.782604545354843140e-02
1.242768913507461548e-01 2.390043996274471283e-02 9.001415222883224487e-02
-5.467879772186279297e-01 9.390846639871597290e-02 -2.196255698800086975e-02
-2.531712651252746582e-01 1.088874712586402893e-01 7.539066672325134277e-02
-6.644427776336669922e-01 7.694168388843536377e-02 -3.035797365009784698e-02
-5.874421000480651855e-01 1.005163714289665222e-01 6.916257739067077637e-02
5.127206444740295410e-01 5.853408575057983398e-02 4.286881536245346069e-02
-4.227969050407409668e-01 -5.885833501815795898e-02 -7.985073328018188477e-02
-6.671255230903625488e-01 9.901112318038940430e-02 7.172935642302036285e-03
-3.117038011550903320e-01 1.210704594850540161e-01 2.154397405683994293e-02
-1.167618185281753540e-01 9.344398230314254761e-02 8.807155489921569824e-02
5.029501318931579590e-01 -4.003751277923583984e-02 -5.346707627177238464e-02
3.003457188606262207e-02 -7.315471023321151733e-02 2.985730767250061035e-02
-3.342853188514709473e-01 -3.670162707567214966e-02 -9.237325936555862427e-02
-7.207382321357727051e-01 -7.219199836254119873e-02 6.706786341965198517e-03
3.639909029006958008e-01 -2.164843492209911346e-02 5.089025571942329407e-02
-3.590403199195861816e-01 1.472039334475994110e-02 -8.932218700647354126e-02
-1.780657619237899780e-01 -3.089910559356212616e-02 -9.753904491662979126e-02
-6.342518925666809082e-01 1.666565053164958954e-02 -7.184497267007827759e-02
-8.225295543670654297e-01 -4.362344741821289062e-02 4.399941489100456238e-02
2.134590595960617065e-01 1.103501915931701660e-01 7.533510215580463409e-03
-6.567182540893554688e-01 5.092854052782058716e-02 9.528987854719161987e-02
-3.872262835502624512e-01 -9.277629852294921875e-02 -1.057109609246253967e-02
1.556608527898788452e-01 -8.291958272457122803e-02 -4.840878397226333618e-02
5.176186561584472656e-01 7.305469363927841187e-02 2.670015580952167511e-02
4.818972349166870117e-01 1.719452440738677979e-03 -7.205537706613540649e-02
3.315456509590148926e-01 1.711199060082435608e-03 6.697028130292892456e-02
-1.806613355875015259e-01 8.192043751478195190e-02 9.612344205379486084e-02
-1.035737872123718262e+00 1.567089557647705078e-02 3.861343860626220703e-02
5.345972776412963867e-01 1.263530366122722626e-02 4.214472323656082153e-02
-1.059510856866836548e-01 9.106866270303726196e-02 -4.741865769028663635e-02
-1.531194299459457397e-01 9.904523938894271851e-02 8.471711724996566772e-02
6.117799282073974609e-01 5.315327644348144531e-02 1.139609981328248978e-02
3.401985764503479004e-02 1.003769040107727051e-01 7.522603869438171387e-02
-8.526343703269958496e-01 -6.145132705569267273e-03 7.029753923416137695e-02
-2.675672173500061035e-01 8.825337886810302734e-02 -4.742398113012313843e-02
3.339490890502929688e-01 8.762764930725097656e-02 -3.029263950884342194e-02
-1.612817943096160889e-01 7.084941118955612183e-02 9.983596205711364746e-02
3.400928378105163574e-01 -2.246309258043766022e-02 -8.498425036668777466e-02
-5.143576860427856445e-01 -8.381339907646179199e-02 -4.337413609027862549e-02
6.822447478771209717e-02 -8.051133155822753906e-02 1.301769632846117020e-02
-8.257445096969604492e-01 -5.534370243549346924e-02 -3.072259388864040375e-02
-6.034473776817321777e-01 4.582194983959197998e-02 -6.182037666440010071e-02
3.415288329124450684e-01 -2.761316485702991486e-02 4.933055117726325989e-02
-5.867686867713928223e-02 -7.864286005496978760e-02 2.664719708263874054e-02
-6.381736397743225098e-01 9.376311302185058594e-02 -1.020612660795450211e-02
4.886373877525329590e-03 -5.909822136163711548e-02 4.972345381975173950e-02
1.834164410829544067e-01 6.977052241563796997e-02 -6.240576133131980896e-02
1.954882889986038208e-01 -1.337639056146144867e-03 7.796190679073333740e-02
-3.675068616867065430e-01 1.042262911796569824e-01 -2.130131237208843231e-02
-9.333221912384033203e-01 3.946380317211151123e-02 -2.043017931282520294e-02
3.102775216102600098e-01 -7.242070883512496948e-02 -4.325965046882629395e-02
-1.868910044431686401e-01 -2.967909164726734161e-02 8.120567351579666138e-02
-1.446951627731323242e-01 -4.750721901655197144e-02 6.700814515352249146e-02
-7.506340146064758301e-01 7.964126765727996826e-02 7.339836657047271729e-02
-5.695866346359252930e-01 1.110653206706047058e-01 3.652510792016983032e-02
4.873073101043701172e-01 -1.580618694424629211e-02 -7.025663554668426514e-02
-5.454469919204711914e-01 9.896179288625717163e-02 7.569720596075057983e-02
1.213080734014511108e-01 1.127487421035766602e-01 4.669819399714469910e-02
5.912899374961853027e-01 2.449498698115348816e-02 -4.889929667115211487e-02
3.325457572937011719e-01 9.986988455057144165e-02 -1.817879965528845787e-03
-4.604060947895050049e-02 -6.746402382850646973e-02 4.253533482551574707e-02
-5.082181692123413086e-01 -6.247491389513015747e-02 -7.155418395996093750e-02
-1.548977196216583252e-01 -6.075067073106765747e-02 5.452977120876312256e-02
-4.524109363555908203e-01 -8.990438282489776611e-02 -3.357794135808944702e-02
4.327082037925720215e-01 8.476049453020095825e-02 -1.696771942079067230e-02
2.960505485534667969e-01 7.302859425544738770e-02 7.065794616937637329e-02
-3.278589546680450439e-01 1.173248514533042908e-01 5.480704829096794128e-03
-8.195590227842330933e-02 6.698521971702575684e-02 -6.986789405345916748e-02
-2.359798848628997803e-01 1.021410003304481506e-01 -3.085966594517230988e-02
-2.548193931579589844e-02 -7.769547402858734131e-02 2.628738805651664734e-02
3.004447817802429199e-01 2.554630860686302185e-02 -8.247655630111694336e-02
1.579717248678207397e-01 -7.795592397451400757e-02 7.224217988550662994e-03
2.202706187963485718e-01 -8.091188967227935791e-02 -1.955397799611091614e-02
-2.790388762950897217e-01 1.133411098271608353e-02 1.007258296012878418e-01
-1.083003506064414978e-01 3.433310240507125854e-02 -8.858112245798110962e-02
3.267343640327453613e-01 2.587336674332618713e-02 -8.068721741437911987e-02
-4.060034155845642090e-01 1.329339947551488876e-02 1.009826734662055969e-01
-7.466118037700653076e-02 8.785131573677062988e-02 -5.105785280466079712e-02
5.639629960060119629e-01 -1.845398359000682831e-02 1.722564361989498138e-02
1.883709877729415894e-01 7.872871309518814087e-02 7.881724834442138672e-02
-4.295223355293273926e-01 1.081813499331474304e-01 -8.847382850944995880e-03
6.339096426963806152e-01 4.486842453479766846e-02 8.136825636029243469e-03
-6.769461631774902344e-01 1.027406528592109680e-01 2.901636064052581787e-02
-8.184902667999267578e-01 4.823912680149078369e-02 8.166953921318054199e-02
-1.396695077419281006e-01 -1.613033376634120941e-02 -9.906928241252899170e-02
-7.256782054901123047e-02 -5.255188792943954468e-03 -9.896979480981826782e-02
-9.480801224708557129e-01 -2.561008557677268982e-03 -3.264174982905387878e-02
-9.962438941001892090e-01 3.286499902606010437e-02 5.203019827604293823e-02
-2.228443920612335205e-01 -3.607425838708877563e-02 -9.582806378602981567e-02
-5.476220846176147461e-01 3.208973258733749390e-02 1.010082438588142395e-01
-3.391380608081817627e-02 4.697540402412414551e-02 9.963584691286087036e-02
2.218922823667526245e-01 -7.610684633255004883e-02 -5.513428151607513428e-02
2.835047245025634766e-01 -6.384809315204620361e-02 1.590929739177227020e-02
-9.879083633422851562e-01 3.215701319277286530e-03 5.142800137400627136e-02
-2.860417664051055908e-01 3.313824534416198730e-02 -8.565358072519302368e-02
-1.687023788690567017e-01 -9.528127312660217285e-02 -1.738906837999820709e-02
-5.808072686195373535e-01 8.300469070672988892e-02 8.781410753726959229e-02
-5.713861584663391113e-01 8.206520229578018188e-02 -3.485210239887237549e-02
1.457948982715606689e-02 1.193536669015884399e-01 1.216310448944568634e-02
1.525811851024627686e-02 1.337131764739751816e-02 -9.546703845262527466e-02
-1.782165169715881348e-01 -1.310365460813045502e-02 9.024737030267715454e-02
-1.619338393211364746e-01 -3.965701162815093994e-02 -9.606853127479553223e-02
-2.002235651016235352e-01 2.733997814357280731e-02 1.031115949153900146e-01
-2.781196832656860352e-01 5.099319666624069214e-02 -7.703078538179397583e-02
-2.361509948968887329e-01 -7.281195372343063354e-02 -7.775714248418807983e-02
-3.119921684265136719e-01 -4.045432060956954956e-02 7.501632720232009888e-02
3.319287896156311035e-01 -5.848108232021331787e-02 1.660575903952121735e-02
-5.877703428268432617e-01 -8.380480855703353882e-02 -2.507439069449901581e-02
-5.779363512992858887e-01 5.154344439506530762e-02 9.938428550958633423e-02
-3.279500007629394531e-01 8.446341007947921753e-02 9.567490965127944946e-02
-1.505751907825469971e-01 -9.436120092868804932e-02 -3.921652957797050476e-02
-8.868517875671386719e-01 3.764291107654571533e-02 -3.141407296061515808e-02
-8.212705254554748535e-01 8.589214086532592773e-02 4.356495290994644165e-02
1.701707392930984497e-01 -6.793939322233200073e-02 2.487810514867305756e-02
-1.498331278562545776e-01 -1.041565835475921631e-02 9.086992591619491577e-02
3.847222030162811279e-02 6.717994809150695801e-02 -6.891460716724395752e-02
-3.832774162292480469e-01 -7.973361015319824219e-02 -6.391540914773941040e-02
4.439286589622497559e-01 4.669856280088424683e-02 -5.997505411505699158e-02
3.254783153533935547e-01 -6.506856530904769897e-02 -5.812927335500717163e-02
5.634290575981140137e-01 4.333053529262542725e-02 -4.359913989901542664e-02
-2.537104189395904541e-01 -9.462742134928703308e-03 9.308429807424545288e-02
-6.548492908477783203e-01 -5.488345399498939514e-03 -7.415501028299331665e-02
-4.647217392921447754e-01 8.759265393018722534e-02 -3.766010329127311707e-02
-3.938424587249755859e-01 -9.272120147943496704e-02 -2.924700640141963959e-02
-1.768410056829452515e-01 1.167827621102333069e-01 -3.955161198973655701e-03
-6.336876153945922852e-01 -6.203289330005645752e-02 -5.913574993610382080e-02
-2.961586415767669678e-01 8.626225590705871582e-02 -4.852403700351715088e-02
-4.924092888832092285e-01 -8.599487692117691040e-02 -4.097429662942886353e-02
-5.832329392433166504e-03 2.106256037950515747e-02 -9.349623322486877441e-02
-3.861242234706878662e-01 9.339509904384613037e-02 -3.588654473423957825e-02
-4.101410806179046631e-01 -8.374845981597900391e-02 2.007977664470672607e-02
1.679801493883132935e-01 -5.957239866256713867e-02 -8.117499947547912598e-02
-5.722628831863403320e-01 -8.043199032545089722e-02 -4.168827086687088013e-02
-4.906615018844604492e-01 -7.806351780891418457e-02 -5.718287080526351929e-02
4.989802837371826172e-03 9.542372077703475952e-02 -4.132205992937088013e-02
1.631321758031845093e-01 -4.254286736249923706e-02 5.501185730099678040e-02
-8.216652274131774902e-01 -7.322886958718299866e-03 -5.528798699378967285e-02
-6.063795089721679688e-01 -7.083551585674285889e-02 3.106858953833580017e-02
-8.629789948463439941e-01 7.885035872459411621e-02 4.578596726059913635e-02
-6.561293005943298340e-01 2.139941044151782990e-02 -6.842239201068878174e-02
-9.854435920715332031e-02 6.466671079397201538e-02 9.976423531770706177e-02
-3.109456300735473633e-01 -7.535565644502639771e-02 3.782255575060844421e-02
-7.655479311943054199e-01 -7.676040753722190857e-03 7.837891578674316406e-02
3.716357052326202393e-02 1.047431454062461853e-01 -2.651146240532398224e-02
-2.589173614978790283e-01 -9.388740360736846924e-02 -6.218825466930866241e-03
-9.606723785400390625e-01 -3.335655480623245239e-02 -1.360921002924442291e-02
-3.591916859149932861e-01 -8.342871814966201782e-02 2.276355773210525513e-02
3.363520503044128418e-01 9.069864451885223389e-02 5.037307366728782654e-02
-8.589341044425964355e-01 6.244274228811264038e-02 6.970515102148056030e-02
-1.711112856864929199e-01 1.198250986635684967e-02 9.942156076431274414e-02
3.185320496559143066e-01 3.434609621763229370e-02 7.557284832000732422e-02
-6.099018454551696777e-01 6.989137828350067139e-02 9.293653070926666260e-02
4.180982708930969238e-01 -6.225189566612243652e-02 -2.630939893424510956e-02
5.997274518013000488e-01 -2.156946249306201935e-02 -4.088808596134185791e-02
-5.627949237823486328e-01 1.057122051715850830e-01 3.215492004528641701e-03
-1.824714839458465576e-01 -6.821966916322708130e-02 4.649604484438896179e-02
2.993773818016052246e-01 -6.780499964952468872e-02 -5.819538608193397522e-02
5.317165255546569824e-01 7.499990612268447876e-02 -3.503300249576568604e-04
3.037352859973907471e-02 8.279113471508026123e-02 -5.528492853045463562e-02
-6.677579879760742188e-01 -8.315602317452430725e-03 8.499326556921005249e-02
-7.302359342575073242e-01 -2.975173480808734894e-02 6.784547865390777588e-02
-6.484197974205017090e-01 -8.012594282627105713e-02 -7.669366896152496338e-03
4.672399163246154785e-01 2.966556884348392487e-02 -6.664483994245529175e-02
-2.236319780349731445e-01 1.114393770694732666e-01 7.171785831451416016e-02
-7.156801223754882812e-01 7.974950224161148071e-02 -1.975226029753684998e-02
3.438359498977661133e-01 1.633629947900772095e-02 -8.252152800559997559e-02
-8.594757318496704102e-01 4.728538542985916138e-02 -2.958278544247150421e-02
-2.520715892314910889e-01 -3.175065666437149048e-02 8.084399253129959106e-02
3.454195261001586914e-01 -6.910265982151031494e-02 -4.219534620642662048e-02
3.602100014686584473e-01 9.729266166687011719e-02 -2.124626887962222099e-03
8.542491495609283447e-02 2.789046615362167358e-03 -9.653063863515853882e-02
1.363714784383773804e-01 -4.378601908683776855e-02 5.603276565670967102e-02
5.256479382514953613e-01 -2.048508264124393463e-02 -6.251508742570877075e-02
5.971109867095947266e-01 -1.269369199872016907e-02 1.254154648631811142e-02
-1.838534027338027954e-01 8.967423439025878906e-02 -4.807442426681518555e-02
-9.155055880546569824e-01 2.618433535099029541e-02 7.060826569795608521e-02
9.144143760204315186e-02 8.769147098064422607e-02 -4.837832972407341003e-02
9.700302779674530029e-02 -4.615402966737747192e-02 -9.176678955554962158e-02
-6.075386404991149902e-01 -1.066234707832336426e-02 8.699534088373184204e-02
6.262509524822235107e-02 -7.180257886648178101e-02 2.939695678651332855e-02
-5.797244906425476074e-01 2.106196060776710510e-02 9.842352569103240967e-02
-1.040749907493591309e+00 2.848367020487785339e-02 1.328348927199840546e-02
-3.678089976310729980e-01 -9.216511994600296021e-02 -3.845585742965340614e-03
1.272074431180953979e-01 -8.470635861158370972e-02 -7.912572473287582397e-03
4.293357729911804199e-01 7.396332174539566040e-02 -3.612936660647392273e-02
-8.330195546150207520e-01 5.953355133533477783e-02 -2.347538620233535767e-02
-3.434885144233703613e-01 9.938514977693557739e-02 -3.025958873331546783e-02
4.080988466739654541e-02 5.703941732645034790e-02 9.539898484945297241e-02
-8.610818386077880859e-01 3.261082619428634644e-02 7.843638211488723755e-02
2.169979661703109741e-01 9.900992363691329956e-02 5.880225077271461487e-02
-3.148952722549438477e-01 -5.911094695329666138e-02 5.826596543192863464e-02
-2.959111630916595459e-01 -7.703816145658493042e-02 -7.169376313686370850e-02
5.279811024665832520e-01 1.388119906187057495e-02 -6.390904635190963745e-02
-1.114146187901496887e-01 1.066952943801879883e-01 -2.579560130834579468e-02
-5.343590676784515381e-02 -1.792043261229991913e-02 8.419922739267349243e-02
-5.543446540832519531e-01 -8.372932672500610352e-02 -3.597187995910644531e-02
-2.954169213771820068e-01 9.692110866308212280e-02 8.769819140434265137e-02
-4.049198031425476074e-01 -3.506770730018615723e-02 7.841604202985763550e-02
1.794281601905822754e-02 -6.966117769479751587e-02 -7.990480214357376099e-02
-6.372302770614624023e-02 1.194874495267868042e-01 5.795607343316078186e-03
2.323871999979019165e-01 8.394870162010192871e-02 7.141577452421188354e-02
-9.698787927627563477e-01 4.458994418382644653e-02 5.505253374576568604e-02
2.355506271123886108e-01 -7.530269026756286621e-02 -2.368218265473842621e-04
-5.835172533988952637e-01 -4.531389474868774414e-02 6.473981589078903198e-02
5.693263411521911621e-01 3.950395435094833374e-02 3.655372932553291321e-02
-2.111268192529678345e-01 -8.941079676151275635e-02 9.764420799911022186e-03
-6.964761018753051758e-01 -7.515782862901687622e-02 2.270668977871537209e-03
-4.125152230262756348e-01 4.132014885544776917e-02 1.046076193451881409e-01
1.307606846094131470e-01 5.898223817348480225e-02 8.975760638713836670e-02
-4.974287748336791992e-01 1.131543368101119995e-01 5.187969282269477844e-02
-2.401602119207382202e-01 7.851802557706832886e-02 -5.797099322080612183e-02
-8.091300725936889648e-01 8.832687139511108398e-02 2.769915945827960968e-02
-7.721928954124450684e-01 -2.901886217296123505e-02 6.456100940704345703e-02
-1.340312212705612183e-01 1.027495414018630981e-01 8.081450313329696655e-02
-2.802594602108001709e-01 1.344724185764789581e-02 -9.241546690464019775e-02
-3.599212169647216797e-01 1.969652436673641205e-02 1.027840748429298401e-01
-9.068320393562316895e-01 -4.480441659688949585e-02 2.162646688520908356e-02
1.762195080518722534e-01 1.062102317810058594e-01 -1.381530426442623138e-02
-3.609111309051513672e-01 -2.231877855956554413e-02 -9.323648363351821899e-02
-2.897523641586303711e-01 -9.240186959505081177e-02 -4.425108805298805237e-02
-4.642230868339538574e-01 4.553962498903274536e-02 1.036183610558509827e-01
-7.234891653060913086e-01 9.325303882360458374e-02 5.903429538011550903e-02
3.482443690299987793e-01 5.502337962388992310e-02 -6.358557194471359253e-02
-4.973058700561523438e-01 -4.047288000583648682e-02 -8.297146111726760864e-02
-7.928648591041564941e-01 -5.145008116960525513e-02 -4.364719241857528687e-02
-8.145526051521301270e-03 -2.913979627192020416e-02 7.572460174560546875e-02
-3.526810705661773682e-01 7.244636863470077515e-02 1.005610302090644836e-01
-2.054031044244766235e-01 -5.430713295936584473e-02 6.220301985740661621e-02
1.595209389925003052e-01 3.488101065158843994e-03 -9.446027874946594238e-02
-4.281453490257263184e-01 -3.237458318471908569e-02 7.994075864553451538e-02
-5.289909243583679199e-02 1.487319171428680420e-02 -9.542250633239746094e-02
-6.964735984802246094e-01 2.607191726565361023e-02 9.318446367979049683e-02
-1.016001850366592407e-01 -8.465868234634399414e-02 1.736246980726718903e-02
-7.842384576797485352e-01 8.779885247349739075e-03 -5.834260582923889160e-02
-6.104655265808105469e-01 1.024537831544876099e-01 3.681622678413987160e-03
-7.565776109695434570e-01 2.656519785523414612e-02 -5.611393228173255920e-02
-8.796916604042053223e-01 7.297436147928237915e-02 7.904319092631340027e-03
-3.059740960597991943e-01 1.115221679210662842e-01 7.087159901857376099e-02
-4.929156601428985596e-02 7.816628366708755493e-02 -6.060830131173133850e-02
2.883034348487854004e-01 1.049690470099449158e-01 5.756437778472900391e-03
2.820656299591064453e-01 -7.639422267675399780e-02 -2.297787740826606750e-02
-4.471903443336486816e-01 1.149045377969741821e-01 5.396303534507751465e-02
5.166745185852050781e-02 -9.022490680217742920e-02 -3.654640913009643555e-02
-9.336097836494445801e-01 6.713213026523590088e-02 2.286844141781330109e-02
-6.153861284255981445e-01 -4.780609160661697388e-02 6.056800857186317444e-02
-7.386511564254760742e-01 6.465046852827072144e-02 -3.346446156501770020e-02
-8.282958269119262695e-01 -2.761448733508586884e-02 -5.148846656084060669e-02
-9.440061450004577637e-02 -1.718941703438758850e-02 -9.939186275005340576e-02
3.725117444992065430e-01 8.499903976917266846e-02 -2.889578975737094879e-02
-5.151903033256530762e-01 1.136502102017402649e-01 4.430419579148292542e-02
-2.845421433448791504e-02 2.108351141214370728e-02 -9.360382705926895142e-02
-4.863290786743164062e-01 8.327036350965499878e-02 -4.091022908687591553e-02
9.436027705669403076e-02 -4.500407725572586060e-02 5.799045786261558533e-02
-8.055467009544372559e-01 2.354349009692668915e-02 8.416390419006347656e-02
-1.857609003782272339e-01 1.150441356003284454e-03 -9.711305797100067139e-02
-7.001701593399047852e-01 -5.044424533843994141e-02 5.115661770105361938e-02
-3.897203803062438965e-01 -4.116639494895935059e-02 -8.891112357378005981e-02
-6.447369456291198730e-01 1.025330796837806702e-01 5.489401519298553467e-02
-8.742477893829345703e-01 -1.843998022377490997e-02 6.017374247312545776e-02
-4.914056062698364258e-01 6.813976913690567017e-02 -5.484082922339439392e-02
-7.123025655746459961e-01 -2.165971323847770691e-03 -6.826408952474594116e-02
-6.201634407043457031e-01 8.300690352916717529e-02 8.492874354124069214e-02
2.816522717475891113e-01 -6.372309476137161255e-02 -6.700213253498077393e-02
3.872912526130676270e-01 -5.844880640506744385e-02 4.658428486436605453e-03
-9.501596093177795410e-01 4.281898960471153259e-02 6.131767481565475464e-02
4.068888425827026367e-01 9.412110596895217896e-02 1.185911893844604492e-02
-3.102767169475555420e-01 -1.115630008280277252e-02 -9.518920630216598511e-02
-1.520214974880218506e-02 -4.435507208108901978e-02 6.484727561473846436e-02
1.556059867143630981e-01 9.435887634754180908e-02 7.100617140531539917e-02
-1.003470569849014282e-01 6.445351988077163696e-02 -7.165034860372543335e-02
2.283085137605667114e-01 4.334282130002975464e-02 8.402230590581893921e-02
-1.010439872741699219e+00 4.565874487161636353e-02 2.043699286878108978e-02
-2.024627625942230225e-01 -1.492849364876747131e-02 -9.813834726810455322e-02
5.204790234565734863e-01 4.590760916471481323e-02 -4.983654245734214783e-02
-3.304248452186584473e-01 -9.088130295276641846e-02 4.063974134624004364e-03
4.141874611377716064e-02 -7.750428467988967896e-02 -7.046803086996078491e-02
-6.126645207405090332e-01 1.066541597247123718e-01 4.895199462771415710e-02
-5.062277913093566895e-01 -7.359929382801055908e-02 3.437426313757896423e-02
4.070984721183776855e-01 -1.589456573128700256e-02 4.906529560685157776e-02
-5.869001150131225586e-02 4.700268805027008057e-02 -8.270141482353210449e-02
-7.327221632003784180e-01 3.198463469743728638e-02 -5.648208409547805786e-02
-4.925620555877685547e-01 3.541598469018936157e-02 1.028723418712615967e-01
6.682617962360382080e-02 1.123480200767517090e-01 5.530910193920135498e-02
-9.794004559516906738e-01 1.153266057372093201e-04 -2.470456063747406006e-02
2.328093498945236206e-01 -3.272273391485214233e-02 5.698554217815399170e-02
3.706029057502746582e-01 4.527654498815536499e-02 -6.815706193447113037e-02
3.226093947887420654e-02 2.776451781392097473e-02 -9.086711704730987549e-02
-7.336735129356384277e-01 -6.688962131738662720e-02 2.005757763981819153e-02
-6.132597923278808594e-01 8.054025471210479736e-03 -7.575923204421997070e-02
-3.008849620819091797e-01 7.274768501520156860e-02 1.007122322916984558e-01
-3.922988176345825195e-01 7.352720201015472412e-02 9.968641400337219238e-02
-5.479082465171813965e-01 -1.281461678445339203e-02 -8.307682722806930542e-02
3.191339969635009766e-02 2.029777877032756805e-02 9.443230926990509033e-02
8.644603192806243896e-02 1.145486682653427124e-01 -2.104444429278373718e-04
1.452365517616271973e-02 -1.953479833900928497e-02 -9.891749918460845947e-02
-2.624809741973876953e-01 7.122839242219924927e-02 -6.357885897159576416e-02
1.342011541128158569e-01 -2.253810875117778778e-02 -9.611564129590988159e-02
-5.293195247650146484e-01 -7.708128541707992554e-02 -5.431394279003143311e-02
-5.845896005630493164e-01 1.080151870846748352e-01 5.176787450909614563e-02
-7.983577847480773926e-01 -3.565910458564758301e-02 -5.325998738408088684e-02
5.970512330532073975e-02 -3.084298409521579742e-02 -9.697829186916351318e-02
-3.452633917331695557e-01 -2.579030953347682953e-02 8.493856340646743774e-02
-6.058247089385986328e-01 9.544566273689270020e-02 7.430255413055419922e-02
1.029133349657058716e-01 -6.554599851369857788e-02 3.504635766148567200e-02
-4.839837551116943359e-02 1.090555265545845032e-01 -2.109001763164997101e-02
-7.254983782768249512e-01 -2.505283989012241364e-02 -6.614601612091064453e-02
5.005843639373779297e-01 4.408261179924011230e-02 -5.430293083190917969e-02
-7.133766412734985352e-01 -3.505309671163558960e-02 6.504517793655395508e-02
4.453489184379577637e-01 5.964390188455581665e-02 5.564923211932182312e-02
-8.952686935663223267e-02 2.667294442653656006e-02 -9.168875962495803833e-02
5.746076107025146484e-01 -6.098782643675804138e-03 2.458365261554718018e-02
-7.151767015457153320e-01 -6.189861148595809937e-02 3.349950164556503296e-02
4.928362965583801270e-01 3.859892487525939941e-02 5.253385752439498901e-02
-5.138481855392456055e-01 -2.304334379732608795e-02 -8.506052941083908081e-02
2.439564913511276245e-01 -2.002727426588535309e-02 6.464193761348724365e-02
-3.727867901325225830e-01 7.806364446878433228e-02 -5.324040725827217102e-02
-1.971488445997238159e-01 -9.385965764522552490e-03 9.232611209154129028e-02
2.110896259546279907e-01 -9.910359978675842285e-03 7.294306159019470215e-02
-1.368784010410308838e-01 6.098261475563049316e-02 1.015421822667121887e-01
1.805193871259689331e-01 -3.473982214927673340e-02 5.999195575714111328e-02
-6.247522830963134766e-01 -7.824967801570892334e-02 1.101960893720388412e-02
-4.463008046150207520e-01 -2.090272866189479828e-02 8.671850711107254028e-02
1.061312407255172729e-01 7.886552065610885620e-02 -5.718351900577545166e-02
-7.435566186904907227e-01 9.381799399852752686e-02 1.477657258510589600e-02
2.789106369018554688e-01 -4.618961364030838013e-03 -9.004994481801986694e-02
-9.323825836181640625e-01 6.081156432628631592e-02 5.261332914233207703e-02
-5.491177439689636230e-01 1.123511493206024170e-01 3.603636473417282104e-02
6.433622539043426514e-02 -4.545383900403976440e-02 5.955192446708679199e-02
4.967482089996337891e-01 6.880619376897811890e-02 -3.030795417726039886e-02
4.919216036796569824e-01 5.784347653388977051e-02 -4.432244226336479187e-02
-6.386961340904235840e-01 -1.542127132415771484e-02 8.307175338268280029e-02
-3.636251091957092285e-01 -9.374763071537017822e-02 -2.722693793475627899e-02
1.052847951650619507e-01 -2.386890351772308350e-03 8.365894109010696411e-02
-3.079992532730102539e-01 -8.725742250680923462e-02 -5.642101541161537170e-02
-2.269460707902908325e-01 4.694104939699172974e-02 -8.069536089897155762e-02
-7.647197842597961426e-01 7.407423108816146851e-02 -1.909351721405982971e-02
-9.863416552543640137e-01 -3.094936721026897430e-02 4.244932904839515686e-03
-3.868790268898010254e-01 -2.177358232438564301e-02 8.702665567398071289e-02
-6.114911437034606934e-01 5.925389379262924194e-02 -5.222048982977867126e-02
-5.116103291511535645e-01 1.403356436640024185e-02 9.918449819087982178e-02
6.327162683010101318e-02 4.024785012006759644e-02 -8.512671291828155518e-02
1.763095408678054810e-01 9.468034654855728149e-02 6.861337274312973022e-02
-1.022593975067138672e+00 3.038344904780387878e-02 4.244322702288627625e-02
-3.021354079246520996e-01 -1.178374513983726501e-02 9.236285090446472168e-02
-3.934738039970397949e-01 1.107354164123535156e-01 -6.618132814764976501e-03
2.695503830909729004e-01 9.028515219688415527e-02 6.167301163077354431e-02
2.081176489591598511e-01 1.019482612609863281e-01 -1.973515190184116364e-02
-2.525545954704284668e-01 4.860285669565200806e-02 -7.913355529308319092e-02
-6.195509433746337891e-01 1.074297428131103516e-01 2.904582954943180084e-02
1.228828281164169312e-01 -7.212397456169128418e-02 -7.232757657766342163e-02
-2.133599668741226196e-01 -5.673180520534515381e-02 -8.907608687877655029e-02
-6.726175546646118164e-01 9.965323656797409058e-02 5.609083920717239380e-02
1.264378577470779419e-01 1.148335114121437073e-01 7.718569599092006683e-03
4.953926205635070801e-01 6.374188512563705444e-02 4.360528290271759033e-02
-7.661504745483398438e-01 1.071726530790328979e-02 -6.010443344712257385e-02
2.487390190362930298e-01 9.993579238653182983e-02 -1.900941319763660431e-02
1.671397835016250610e-01 8.615324646234512329e-02 -4.682633280754089355e-02
-9.163854718208312988e-01 6.874805688858032227e-02 4.514070972800254822e-02
-6.081889867782592773e-01 3.436756506562232971e-02 9.871368855237960815e-02
-4.215827584266662598e-01 9.733711928129196167e-02 -2.822194620966911316e-02
1.387209743261337280e-01 -5.489805713295936584e-03 8.025248348712921143e-02
-6.955512762069702148e-01 1.058182306587696075e-02 -6.779930740594863892e-02
-1.715244650840759277e-01 -7.447947561740875244e-02 -7.736087590456008911e-02
-7.122078537940979004e-01 4.546403884887695312e-02 -5.148918926715850830e-02
-3.771860003471374512e-01 -8.317315950989723206e-04 -9.168913215398788452e-02
-4.402743875980377197e-01 -9.170797467231750488e-02 -1.891399919986724854e-02
-2.657793760299682617e-01 2.128744497895240784e-03 -9.517075121402740479e-02
4.965673089027404785e-01 -1.544124074280261993e-02 3.509589284658432007e-02
-8.107286691665649414e-02 1.663965731859207153e-02 9.818668663501739502e-02
2.172622531652450562e-01 -8.113037794828414917e-02 -3.746854513883590698e-02
-7.940429449081420898e-01 -6.434071809053421021e-02 -2.100320719182491302e-02
4.722310304641723633e-01 -4.329702258110046387e-02 1.041722390800714493e-02
-1.011226624250411987e-01 1.120231896638870239e-01 6.810086220502853394e-02
2.746096253395080566e-01 7.688783109188079834e-02 -5.015205591917037964e-02
-5.352513194084167480e-01 -3.423262387514114380e-02 -8.191972970962524414e-02
4.372313618659973145e-02 -4.441191256046295166e-02 6.169053539633750916e-02
-3.819923102855682373e-02 9.399676322937011719e-02 -4.376823827624320984e-02
1.091595441102981567e-01 -5.944966524839401245e-02 -8.437720686197280884e-02
-8.397474288940429688e-01 -2.334415726363658905e-02 6.127766892313957214e-02
-8.821521699428558350e-02 1.215495541691780090e-01 1.494778506457805634e-02
-2.824713885784149170e-01 -7.322239875793457031e-02 4.103316366672515869e-02
5.157222151756286621e-01 6.168255209922790527e-02 -3.560591489076614380e-02
-2.238203883171081543e-01 6.364618986845016479e-02 -7.038220018148422241e-02
-2.005625963211059570e-01 -8.260561525821685791e-02 2.490854449570178986e-02
-3.527489900588989258e-01 1.194800585508346558e-01 1.779418438673019409e-02
-4.549515843391418457e-01 -3.142835199832916260e-02 -8.763212710618972778e-02
-4.195669889450073242e-01 9.333072230219841003e-04 9.706204384565353394e-02
-9.299811124801635742e-01 -4.206410795450210571e-02 1.767849735915660858e-02
4.263212084770202637e-01 5.775139480829238892e-02 -5.368746817111968994e-02
-2.022385746240615845e-01 1.173385083675384521e-01 -1.781954662874341011e-03
-2.046417146921157837e-01 -9.462057054042816162e-02 -3.823210671544075012e-02
4.548810124397277832e-01 -2.867465279996395111e-02 -7.087337225675582886e-02
-2.572107315063476562e-01 8.489700406789779663e-02 9.555912762880325317e-02
5.969306230545043945e-01 -5.694944411516189575e-03 -5.114912986755371094e-02
-1.536498665809631348e-01 -5.924598872661590576e-02 -8.865126222372055054e-02
6.341221332550048828e-01 4.852157086133956909e-03 -4.111836478114128113e-02
-2.110754400491714478e-01 8.237404376268386841e-02 -5.508388951420783997e-02
