-1.454191207885742188e-01 -2.709912881255149841e-02 4.092223048210144043e-01
2.078274339437484741e-01 -3.466023877263069153e-02 1.395840644836425781e-01
6.849253922700881958e-02 -2.781695127487182617e-02 8.127120137214660645e-02
-1.624878644943237305e-01 -3.802811354398727417e-02 5.036270022392272949e-01
-3.892647847533226013e-02 -4.068108648061752319e-02 4.226840138435363770e-01
5.813749507069587708e-02 -3.528327122330665588e-02 3.518554568290710449e-01
1.212493777275085449e-01 -5.736929178237915039e-02 7.940447330474853516e-02
4.198072105646133423e-02 -6.153042614459991455e-02 6.145927309989929199e-02
-1.751941740512847900e-01 -4.206191003322601318e-02 4.663296639919281006e-01
-1.583306193351745605e-01 -2.622702904045581818e-02 4.584927558898925781e-01
1.198654323816299438e-01 -3.238464519381523132e-02 2.868286967277526855e-01
-1.125001162290573120e-01 -1.902116835117340088e-02 4.406246840953826904e-01
-1.571993529796600342e-01 -4.867879673838615417e-02 4.027091860771179199e-01
-5.986107513308525085e-02 -1.476192846894264221e-02 3.968546092510223389e-01
-2.745591476559638977e-02 -5.141700059175491333e-02 9.954596310853958130e-02
-1.018067598342895508e-01 -5.542507767677307129e-02 2.375865280628204346e-01
-2.002926543354988098e-02 -1.273688301444053650e-02 3.617661595344543457e-01
1.015108376741409302e-01 -4.672085493803024292e-02 2.246917337179183960e-01
-4.968893155455589294e-02 -3.260423243045806885e-02 1.979787945747375488e-01
1.966615319252014160e-01 -5.238812789320945740e-02 8.024260401725769043e-03
1.065116524696350098e-01 -1.618483476340770721e-02 1.516800075769424438e-01
5.687017738819122314e-02 -1.666418462991714478e-02 1.954216659069061279e-01
8.231780678033828735e-02 -1.196722872555255890e-02 3.400037884712219238e-01
1.495006382465362549e-01 -5.510824173688888550e-02 6.489609181880950928e-02
1.079018861055374146e-01 -2.261167205870151520e-02 8.274435997009277344e-02
-1.860678568482398987e-02 -2.906885743141174316e-02 1.777342408895492554e-01
1.838622689247131348e-01 -5.169196054339408875e-02 -1.015604734420776367e-01
1.196898967027664185e-01 -4.106409102678298950e-02 2.406493574380874634e-01
-4.277272149920463562e-02 -2.783944457769393921e-02 2.202103734016418457e-01
2.023539394140243530e-01 -2.715700678527355194e-02 -2.378448843955993652e-02
7.595244795083999634e-03 -2.993056923151016235e-02 4.303174912929534912e-01
-3.948875889182090759e-02 -4.978279024362564087e-02 3.549718856811523438e-01
9.235259890556335449e-02 -6.094025820493698120e-02 1.909458637237548828e-02
5.694032832980155945e-02 -3.943053260445594788e-02 3.308295309543609619e-01
1.619007736444473267e-01 -5.215949192643165588e-02 8.157648146152496338e-02
4.183731973171234131e-02 -2.229439094662666321e-02 1.549966186285018921e-01
-2.152317389845848083e-02 -4.035561159253120422e-02 4.087798595428466797e-01
1.668386906385421753e-01 -2.942640520632266998e-02 -1.920299232006072998e-02
8.480636775493621826e-02 -5.712435021996498108e-02 1.393667161464691162e-01
3.514245525002479553e-02 -4.891005158424377441e-02 2.885004878044128418e-01
1.569418162107467651e-01 -5.676143616437911987e-02 2.038863301277160645e-02
-7.596635818481445312e-02 -3.865635395050048828e-02 4.646840393543243408e-01
1.793955266475677490e-01 -5.017448216676712036e-02 7.271467149257659912e-02
-1.429146975278854370e-01 -2.918357402086257935e-02 5.353320837020874023e-01
2.914048358798027039e-02 -1.090939715504646301e-02 3.303708434104919434e-01
-1.138797774910926819e-02 -1.393415033817291260e-02 3.224590420722961426e-01
1.812629401683807373e-01 -5.605401843786239624e-02 -3.827202320098876953e-02
-3.492273762822151184e-02 -5.130220577120780945e-02 3.368112444877624512e-01
-1.332844495773315430e-01 -2.105152979493141174e-02 4.668164849281311035e-01
1.735412478446960449e-01 -2.399287931621074677e-02 1.866210997104644775e-02
-8.043448626995086670e-02 -5.739899724721908569e-02 2.808566689491271973e-01
7.027407735586166382e-02 -3.787707909941673279e-02 2.049830555915832520e-02
-6.234205886721611023e-02 -3.324109315872192383e-02 4.809630215167999268e-01
4.699538648128509521e-02 -5.441841483116149902e-02 2.214486151933670044e-01
1.039225161075592041e-01 -3.421236947178840637e-02 4.978448152542114258e-03
2.103932388126850128e-02 -5.664002150297164917e-02 2.239818125963211060e-01
6.196836382150650024e-02 -2.461151033639907837e-02 1.126239374279975891e-01
5.773042142391204834e-02 -6.129705905914306641e-02 4.045176506042480469e-02
1.921944916248321533e-01 -5.390485376119613647e-02 -8.368492126464843750e-03
1.073997318744659424e-01 -3.772713616490364075e-02 2.773182988166809082e-01
-1.033204793930053711e-02 -6.104443967342376709e-02 1.237101480364799500e-01
-3.633999451994895935e-02 -1.841855794191360474e-02 2.981344461441040039e-01
2.113216966390609741e-01 -2.063806168735027313e-02 4.026161134243011475e-02
5.272736027836799622e-02 -5.635751038789749146e-02 1.914733201265335083e-01
1.131910085678100586e-01 -2.940174750983715057e-02 2.544614672660827637e-02
-4.915407672524452209e-02 -1.306676492094993591e-02 4.316884279251098633e-01
8.978083729743957520e-02 -3.281471133232116699e-02 2.682568132877349854e-02
1.184999197721481323e-01 -5.871268734335899353e-02 5.860771238803863525e-02
-7.466614246368408203e-03 -3.350501134991645813e-02 1.348505169153213501e-01
-6.370383501052856445e-02 -1.942910626530647278e-02 3.305985629558563232e-01
9.830319881439208984e-02 -5.052693560719490051e-02 1.959867328405380249e-01
-1.284243464469909668e-01 -2.846282348036766052e-02 3.587253987789154053e-01
1.874242722988128662e-01 -1.868537999689579010e-02 6.975875794887542725e-02
1.125224530696868896e-01 -2.506023272871971130e-02 5.785974860191345215e-02
-1.395265907049179077e-01 -4.930609092116355896e-02 4.085463881492614746e-01
2.004222273826599121e-01 -1.732389070093631744e-02 9.482944011688232422e-02
-9.593562781810760498e-02 -5.516351386904716492e-02 3.255443572998046875e-01
-4.387340322136878967e-02 -4.651370644569396973e-02 3.863005936145782471e-01
1.377219855785369873e-01 -5.829716473817825317e-02 2.825465798377990723e-02
6.035140901803970337e-02 -3.194906190037727356e-02 6.295497715473175049e-02
1.472811102867126465e-01 -1.554000563919544220e-02 1.315164268016815186e-01
1.391317397356033325e-01 -1.689537428319454193e-02 2.843198478221893311e-01
-9.718145430088043213e-02 -2.977202832698822021e-02 2.909280359745025635e-01
-4.858868196606636047e-02 -3.287511318922042847e-02 4.713352024555206299e-01
-2.122653648257255554e-02 -1.359062269330024719e-02 4.554728269577026367e-01
1.360452920198440552e-01 -1.834276877343654633e-02 1.015891581773757935e-01
1.656767725944519043e-01 -1.444954797625541687e-02 1.485322713851928711e-01
2.044805884361267090e-01 -3.865689784288406372e-02 1.234714984893798828e-01
-9.527648985385894775e-02 -1.639223471283912659e-02 4.799139499664306641e-01
-1.655484884977340698e-01 -4.633942246437072754e-02 3.667713403701782227e-01
2.359453439712524414e-01 -2.899731323122978210e-02 -4.788938164710998535e-02
-3.528397157788276672e-02 -5.462078750133514404e-02 3.015220165252685547e-01
-5.387263894081115723e-01 -3.709139674901962280e-02 -2.790772616863250732e-01
-9.902557730674743652e-01 2.801289260387420654e-01 1.513382643461227417e-01
-5.776017904281616211e-02 1.577436327934265137e-01 -2.280491739511489868e-01
8.129388093948364258e-03 1.814480870962142944e-01 5.788557603955268860e-02
-9.979510903358459473e-01 8.783388137817382812e-02 4.839893803000450134e-02
-3.944922089576721191e-01 -4.440896213054656982e-03 -3.433426320552825928e-01
-7.692603468894958496e-01 1.280261874198913574e-01 -2.462104111909866333e-01
-2.274304181337356567e-01 -3.381492942571640015e-02 9.131827950477600098e-02
-4.079036414623260498e-01 -5.547710508108139038e-02 4.240381345152854919e-02
-8.808995485305786133e-01 2.045466005802154541e-02 -6.038475036621093750e-02
-3.948957622051239014e-01 2.647243142127990723e-01 -1.030811965465545654e-01
-1.284527480602264404e-01 -1.034379377961158752e-01 -3.099541068077087402e-01
-9.528389573097229004e-01 2.802742719650268555e-01 1.704787015914916992e-01
-9.991568922996520996e-01 2.247069776058197021e-01 -9.192119538784027100e-02
-7.423723340034484863e-01 2.066607773303985596e-02 -2.368800342082977295e-01
-7.004594802856445312e-01 3.151766359806060791e-01 1.106972247362136841e-01
-1.303291916847229004e-01 3.906640037894248962e-02 -3.550233244895935059e-01
-2.831522822380065918e-01 2.324747145175933838e-01 -1.539605259895324707e-01
-8.006904125213623047e-01 1.949614286422729492e-01 2.356658279895782471e-01
-5.793228745460510254e-01 2.546700537204742432e-01 -1.500405222177505493e-01
-9.003327488899230957e-01 6.319499760866165161e-02 -1.689713150262832642e-01
-7.950377464294433594e-01 -6.605423986911773682e-03 -3.396570309996604919e-02
-5.002760887145996094e-01 -7.904104143381118774e-02 -6.743530184030532837e-02
-4.390415549278259277e-02 -1.257793009281158447e-01 -1.173569336533546448e-01
-1.718909889459609985e-01 8.132460713386535645e-02 -3.350611925125122070e-01
3.173022866249084473e-01 -6.594661623239517212e-02 -1.660283207893371582e-01
-1.005594611167907715e+00 2.824550867080688477e-01 1.826238259673118591e-02
-5.420932769775390625e-01 -5.961167067289352417e-02 -2.384118288755416870e-01
-6.479843854904174805e-01 3.876000642776489258e-03 -2.707488834857940674e-01
-6.622868180274963379e-01 1.576627194881439209e-01 -2.573842108249664307e-01
-4.321524798870086670e-01 1.063408255577087402e-01 -3.191645741462707520e-01
-1.630724221467971802e-01 2.128343284130096436e-01 1.320094019174575806e-01
-9.216085672378540039e-01 8.995995670557022095e-02 -1.734918951988220215e-01
-3.571893572807312012e-01 2.069467008113861084e-01 2.114505767822265625e-01
-1.068468809127807617e+00 2.294978797435760498e-01 1.419371664524078369e-01
-8.395726084709167480e-01 3.136638104915618896e-01 1.121915131807327271e-01
-2.065394967794418335e-01 2.549683451652526855e-01 1.045302674174308777e-02
2.143909335136413574e-01 -4.390078037977218628e-02 -3.073490262031555176e-01
-6.542878150939941406e-01 -7.955610752105712891e-03 7.023482024669647217e-02
-2.471039146184921265e-01 2.621876895427703857e-01 5.007292702794075012e-02
-7.099399566650390625e-01 3.174292147159576416e-01 7.734079658985137939e-02
-7.895717620849609375e-01 2.671566307544708252e-01 -1.076764687895774841e-01
-8.320616483688354492e-01 2.486614882946014404e-02 -1.770029067993164062e-01
-5.053472518920898438e-01 2.080016434192657471e-01 -2.233251333236694336e-01
-5.734413266181945801e-01 3.035914003849029541e-01 -9.384617209434509277e-03
3.919807076454162598e-02 5.307445675134658813e-02 1.106545031070709229e-01
9.737783670425415039e-02 -1.261096298694610596e-01 -1.585839539766311646e-01
-3.760767579078674316e-01 4.232450574636459351e-02 -3.478756248950958252e-01
-1.064801812171936035e-01 2.105931043624877930e-01 -1.313380599021911621e-01
5.348005890846252441e-02 -5.455148965120315552e-02 2.473627403378486633e-02
-5.933185219764709473e-01 2.351819574832916260e-01 -1.826125681400299072e-01
-5.554795265197753906e-01 -6.268265098333358765e-02 -2.195863276720046997e-01
-8.041671514511108398e-01 1.040149480104446411e-02 -1.762738376855850220e-01
-1.962513178586959839e-01 2.353461086750030518e-01 -1.076492220163345337e-01
-7.727633714675903320e-01 3.174324333667755127e-01 6.788778305053710938e-02
-5.415441989898681641e-01 1.771543920040130615e-01 -2.568470835685729980e-01
-3.780393302440643311e-01 2.651993334293365479e-01 -9.611614793539047241e-02
-6.191313266754150391e-01 7.840058207511901855e-02 -2.997525930404663086e-01
1.752309799194335938e-01 -9.441571682691574097e-02 -8.606601506471633911e-02
9.380707144737243652e-02 -1.130860969424247742e-01 -1.003144681453704834e-01
-5.532521009445190430e-01 2.693228125572204590e-01 2.010428309440612793e-01
7.167342305183410645e-02 -8.912991732358932495e-02 -3.252448737621307373e-01
-3.484003543853759766e-01 1.308122575283050537e-01 -3.051207959651947021e-01
-7.624132633209228516e-01 8.659426867961883545e-02 1.784266531467437744e-01
-5.138710737228393555e-01 1.161796301603317261e-01 2.275367081165313721e-01
-6.364108920097351074e-01 3.140681684017181396e-01 4.882393404841423035e-02
-7.327411770820617676e-01 2.876985371112823486e-01 1.960724890232086182e-01
-7.042110562324523926e-01 3.125737607479095459e-01 1.286316663026809692e-01
-7.273992896080017090e-02 2.059716582298278809e-01 -1.215726584196090698e-01
-3.018621802330017090e-01 2.711510956287384033e-01 -2.121559530496597290e-02
2.107888460159301758e-02 3.136742860078811646e-02 -3.402461707592010498e-01
-1.009803056716918945e+00 8.865902572870254517e-02 3.053336217999458313e-02
1.944077610969543457e-01 6.248303502798080444e-02 3.110803291201591492e-02
-1.053432226181030273e+00 2.609956562519073486e-01 5.422223359346389771e-03
-1.310562491416931152e-01 1.518548727035522461e-01 1.684633642435073853e-01
-4.978978633880615234e-02 -1.156033650040626526e-01 -7.792158424854278564e-02
-3.755777478218078613e-01 2.537145912647247314e-01 1.719531565904617310e-01
-1.229141056537628174e-01 2.348238229751586914e-01 9.214650839567184448e-03
4.920244216918945312e-02 8.537987619638442993e-02 -2.909921109676361084e-01
-3.644290864467620850e-01 2.594422996044158936e-01 -1.090374588966369629e-01
-5.556492209434509277e-01 2.021455764770507812e-01 -2.289466112852096558e-01
1.475487947463989258e-01 -2.457281947135925293e-02 2.565856650471687317e-02
-9.116715788841247559e-01 9.943369030952453613e-02 1.395877450704574585e-01
3.195816874504089355e-01 7.508158683776855469e-03 -2.079529315233230591e-01
-3.170492053031921387e-01 -1.905559748411178589e-02 1.117036640644073486e-01
-4.753500819206237793e-01 1.270502358675003052e-01 -3.029873967170715332e-01
-8.060868978500366211e-01 3.089699149131774902e-02 7.905587553977966309e-02
-6.567674875259399414e-02 -8.554867655038833618e-02 -3.368897140026092529e-01
2.288937568664550781e-03 -1.263394653797149658e-01 -2.639472484588623047e-01
-4.349975585937500000e-01 -8.840920776128768921e-02 -6.480072438716888428e-02
-4.429146051406860352e-01 -2.174308151006698608e-02 9.847520291805267334e-02
-3.350852131843566895e-01 -9.494257718324661255e-02 -2.702586948871612549e-01
-5.508531332015991211e-01 -1.381664723157882690e-02 9.160770475864410400e-02
-6.111302971839904785e-02 2.034817337989807129e-01 7.381889224052429199e-02
-6.551637649536132812e-01 1.638403385877609253e-01 2.423744201660156250e-01
-1.057354450225830078e+00 1.980417370796203613e-01 -7.310471683740615845e-02
-1.449660360813140869e-01 1.087150052189826965e-01 1.780905574560165405e-01
-7.904171943664550781e-04 -6.035634130239486694e-02 2.943840250372886658e-02
-8.441190719604492188e-01 3.123575150966644287e-01 4.247757419943809509e-02
2.979658842086791992e-01 -5.104803293943405151e-02 -9.763851761817932129e-02
-5.209988355636596680e-02 2.228073030710220337e-02 1.231678426265716553e-01
-8.752355575561523438e-01 2.191674709320068359e-01 -1.522070467472076416e-01
-4.879303872585296631e-01 -8.803380280733108521e-02 -1.623077690601348877e-01
-7.624804973602294922e-03 -4.926342517137527466e-02 4.589218273758888245e-02
-3.451031446456909180e-01 1.944609582424163818e-01 -2.346017211675643921e-01
-8.089138269424438477e-01 2.519194781780242920e-01 -1.290851831436157227e-01
1.619138121604919434e-01 7.661905139684677124e-02 -2.536742091178894043e-01
-1.694557070732116699e-02 2.040829956531524658e-01 -5.221555754542350769e-02
-3.642392158508300781e-02 8.060532063245773315e-02 -3.174003362655639648e-01
-4.948529601097106934e-01 -1.979161053895950317e-02 -3.117007911205291748e-01
2.970335483551025391e-01 4.952763766050338745e-02 -1.670986562967300415e-01
1.206957697868347168e-01 -4.079491645097732544e-02 -3.378307521343231201e-01
-9.847795367240905762e-01 2.480641007423400879e-01 -7.063338905572891235e-02
-3.938882052898406982e-01 -7.880356162786483765e-02 -1.178165152668952942e-02
-6.672598719596862793e-01 2.924625575542449951e-01 1.834503561258316040e-01
-4.360978007316589355e-01 -4.531849175691604614e-02 -3.094819784164428711e-01
-2.198812216520309448e-01 6.559662520885467529e-03 1.371066123247146606e-01
3.779116272926330566e-02 2.215498685836791992e-02 -3.415882885456085205e-01
-1.433694511651992798e-01 5.032483488321304321e-02 -3.508664965629577637e-01
1.303681731224060059e-02 1.670267879962921143e-01 8.079312741756439209e-02
-1.581748127937316895e-01 2.193499207496643066e-01 -1.362751424312591553e-01
-4.328896701335906982e-01 2.151470482349395752e-01 2.234740555286407471e-01
-5.538455247879028320e-01 3.018448352813720703e-01 1.274677813053131104e-01
-7.991284728050231934e-01 2.841860353946685791e-01 1.991384327411651611e-01
-9.013107419013977051e-01 1.899126470088958740e-01 -1.682762354612350464e-01
-1.327054798603057861e-01 -1.316797435283660889e-01 -1.919411718845367432e-01
-7.174896597862243652e-01 3.141673505306243896e-01 2.694972977042198181e-02
-1.039115905761718750e+00 9.982046484947204590e-02 -1.240015402436256409e-02
-1.703039556741714478e-01 9.621467441320419312e-02 -3.240614533424377441e-01
3.253023624420166016e-01 -5.390489846467971802e-02 -1.471823751926422119e-01
8.420452475547790527e-02 9.004908055067062378e-02 9.281706809997558594e-02
-7.473762631416320801e-01 2.932608127593994141e-01 -5.601694062352180481e-02
-5.117794275283813477e-01 -8.295955508947372437e-02 -1.660685241222381592e-01
-8.922168612480163574e-01 2.639278024435043335e-02 -8.830907940864562988e-02
-4.755847156047821045e-01 4.383556544780731201e-02 1.771859377622604370e-01
7.198053598403930664e-02 -6.760146468877792358e-02 -3.400870263576507568e-01
-7.116427421569824219e-01 2.266816198825836182e-01 -1.826754957437515259e-01
-6.297786235809326172e-01 2.762851417064666748e-01 2.042832672595977783e-01
-3.134164214134216309e-02 2.014346271753311157e-01 -9.814646840095520020e-02
-6.785765290260314941e-02 -9.597904235124588013e-02 -2.419420331716537476e-02
1.501507163047790527e-01 -4.574153572320938110e-02 3.307569772005081177e-03
-1.553430557250976562e-01 -1.186128631234169006e-01 -9.103685617446899414e-02
-5.039711594581604004e-01 -2.533957362174987793e-02 8.169007301330566406e-02
2.311927676200866699e-01 -1.060335710644721985e-01 -1.781633198261260986e-01
-4.834896922111511230e-01 9.064398705959320068e-03 1.376799643039703369e-01
-5.756384134292602539e-01 5.365579202771186829e-02 -3.121304810047149658e-01
-5.868752598762512207e-01 -5.946023017168045044e-02 -2.005600929260253906e-01
-5.497102737426757812e-01 3.073410093784332275e-01 3.357473388314247131e-02
2.363710999488830566e-01 3.166551887989044189e-02 -2.621538937091827393e-01
-4.812136888504028320e-01 8.170884847640991211e-02 -3.250489830970764160e-01
-3.388271927833557129e-01 2.629445791244506836e-01 1.366126835346221924e-01
-2.620714902877807617e-01 2.664658725261688232e-01 3.146235272288322449e-02
-4.724085330963134766e-03 -1.193630769848823547e-01 -9.579601883888244629e-02
9.453850984573364258e-02 -8.598939329385757446e-02 -3.598571568727493286e-02
-7.594099044799804688e-01 2.415317595005035400e-01 -1.546460837125778198e-01
-5.279853940010070801e-02 -2.788539975881576538e-02 7.994793355464935303e-02
-4.548299312591552734e-01 -7.009468227624893188e-02 -2.674600183963775635e-01
-8.046715855598449707e-01 2.088087201118469238e-01 -1.836154162883758545e-01
3.323674201965332031e-02 1.345512866973876953e-01 -2.299987673759460449e-01
-3.727150857448577881e-01 -1.057253852486610413e-01 -1.222308278083801270e-01
-1.172927021980285645e-01 -1.329120993614196777e-02 1.057857125997543335e-01
-8.022302389144897461e-01 3.026193380355834961e-01 1.654755175113677979e-01
-2.354224473237991333e-01 9.387316554784774780e-02 -3.303523063659667969e-01
-7.410066127777099609e-01 3.148719966411590576e-01 1.196777522563934326e-01
-7.270889282226562500e-01 3.087858855724334717e-01 -3.541730344295501709e-03
9.385436773300170898e-03 1.742178648710250854e-01 -1.573183685541152954e-01
-2.554144561290740967e-01 6.522205471992492676e-02 1.847740411758422852e-01
-5.302742719650268555e-01 -6.651104241609573364e-02 -2.286692410707473755e-01
-6.473937630653381348e-01 2.762931883335113525e-01 -1.050139516592025757e-01
1.914871335029602051e-01 -4.747464507818222046e-02 -1.729563623666763306e-02
-4.428287744522094727e-01 -7.778777927160263062e-02 -2.669355273246765137e-02
1.895118355751037598e-01 -5.826682597398757935e-02 -2.972771972417831421e-02
-6.287645697593688965e-01 2.971465513110160828e-02 1.414554715156555176e-01
-5.294989943504333496e-01 2.482496201992034912e-01 -1.609403789043426514e-01
2.092601656913757324e-01 7.038737088441848755e-02 1.593179628252983093e-02
-2.465532124042510986e-01 2.527051568031311035e-01 1.006975173950195312e-01
-1.650089472532272339e-01 2.454061210155487061e-01 -1.517109572887420654e-03
-8.925275206565856934e-01 7.391779124736785889e-02 1.112870723009109497e-01
-2.047827392816543579e-01 2.052249610424041748e-01 -1.893087476491928101e-01
-1.263148188591003418e-01 -6.144269555807113647e-02 4.532979056239128113e-02
-1.086469650268554688e+00 1.575123220682144165e-01 7.902216911315917969e-02
3.948411345481872559e-02 1.621342450380325317e-02 9.434399008750915527e-02
1.492235064506530762e-01 1.393043547868728638e-01 -1.171799600124359131e-01
-6.101913452148437500e-01 2.203549742698669434e-01 -2.025666385889053345e-01
-1.614049077033996582e-02 8.605670183897018433e-02 -3.081721067428588867e-01
-8.549132943153381348e-01 3.131573200225830078e-01 5.736270174384117126e-02
-6.841977834701538086e-01 3.102878034114837646e-01 1.359257549047470093e-01
1.840710639953613281e-01 -9.006016701459884644e-02 -2.947015762329101562e-01
-7.626878023147583008e-01 7.405440509319305420e-02 1.644323617219924927e-01
-9.623336195945739746e-01 2.464624643325805664e-01 1.954147517681121826e-01
-6.211880445480346680e-01 2.947590053081512451e-01 1.711384654045104980e-01
-1.018766760826110840e+00 2.873617112636566162e-01 7.242812216281890869e-02
-2.598071098327636719e-01 -1.199707165360450745e-01 -2.112928479909896851e-01
-3.895761966705322266e-01 2.460681498050689697e-01 -1.494926810264587402e-01
-1.320067346096038818e-01 1.515876352787017822e-01 -2.593987286090850830e-01
-1.018093526363372803e-01 2.045151293277740479e-01 -1.465927958488464355e-01
5.250909924507141113e-02 -1.152283325791358948e-01 -9.406995773315429688e-02
-6.736524105072021484e-01 -1.421195268630981445e-02 -2.372308671474456787e-01
-4.440679848194122314e-01 6.708896160125732422e-02 -3.344103395938873291e-01
-5.528823137283325195e-01 2.961762249469757080e-01 1.480906903743743896e-01
3.336101770401000977e-01 -4.846625775098800659e-02 -1.905953437089920044e-01
-3.031537532806396484e-01 -7.868153601884841919e-02 -3.108912706375122070e-01
-2.850295007228851318e-01 -6.280084699392318726e-02 4.395615682005882263e-02
-3.757101297378540039e-01 -5.858277529478073120e-02 4.169468209147453308e-02
-6.572982668876647949e-02 -4.922889918088912964e-02 5.617171898484230042e-02
-7.105641365051269531e-01 2.984958291053771973e-01 -4.356049746274948120e-02
1.031607389450073242e-02 2.171912789344787598e-02 -3.467276394367218018e-01
-6.158173084259033203e-02 1.841122210025787354e-01 1.104028820991516113e-01
-2.629738450050354004e-01 -1.049258187413215637e-01 -2.747533023357391357e-01
-9.411206841468811035e-02 1.742845177650451660e-01 -2.118653804063796997e-01
2.074254155158996582e-01 -9.523386508226394653e-02 -1.076526492834091187e-01
-6.108313798904418945e-03 -1.297682225704193115e-01 -2.490374445915222168e-01
1.042403876781463623e-01 8.552674949169158936e-02 8.298446238040924072e-02
1.412906646728515625e-01 1.451757848262786865e-01 -9.950169920921325684e-02
-6.806472539901733398e-01 2.078255712985992432e-01 -2.097154706716537476e-01
1.109769940376281738e-02 1.927931606769561768e-01 1.269729807972908020e-02
-4.525647759437561035e-01 -8.163007348775863647e-02 -4.578225314617156982e-02
-1.497582942247390747e-01 -1.204665377736091614e-01 -2.659824788570404053e-01
-8.494045734405517578e-01 2.749155461788177490e-01 -7.862529903650283813e-02
-5.650069713592529297e-01 2.887359261512756348e-01 -6.776043772697448730e-02
-9.868887662887573242e-01 1.422013640403747559e-01 -1.418641060590744019e-01
-4.812300205230712891e-03 1.889640092849731445e-01 5.261772498488426208e-02
1.039628684520721436e-01 1.279365718364715576e-01 -2.022534310817718506e-01
-4.949832856655120850e-01 -5.713253468275070190e-02 1.461074128746986389e-02
-2.223971933126449585e-01 2.583770453929901123e-01 9.155098348855972290e-03
7.707169651985168457e-02 1.159365922212600708e-01 8.676800131797790527e-02
-6.335899829864501953e-01 -3.553471714258193970e-02 -2.271254360675811768e-01
-4.635607600212097168e-01 2.972055375576019287e-01 1.262484118342399597e-02
-1.056225299835205078e-01 -7.773809880018234253e-02 -3.423913419246673584e-01
-7.147170901298522949e-01 -3.485775738954544067e-02 -1.203606873750686646e-01
-7.796950340270996094e-01 2.176495492458343506e-01 -1.804210692644119263e-01
-3.462797403335571289e-01 1.184611469507217407e-01 -3.148355185985565186e-01
-6.023016571998596191e-02 -6.012625992298126221e-03 1.030575633049011230e-01
-2.392908781766891479e-01 5.791771784424781799e-02 1.785737276077270508e-01
-2.867742776870727539e-01 -1.074864789843559265e-01 -2.570339441299438477e-01
-4.827488660812377930e-01 1.140215247869491577e-01 -3.102957606315612793e-01
-8.644793629646301270e-01 2.952511906623840332e-01 1.725119948387145996e-01
-7.659672498703002930e-01 3.144527673721313477e-01 3.203377500176429749e-02
-4.301123023033142090e-01 8.831831067800521851e-02 -3.283785581588745117e-01
-1.082354307174682617e+00 2.168873846530914307e-01 1.300673633813858032e-01
-9.684387445449829102e-01 6.553046405315399170e-02 1.685353741049766541e-02
-1.022639632225036621e+00 2.453204989433288574e-01 -5.120963603258132935e-02
-4.858319163322448730e-01 3.016472756862640381e-01 6.091791018843650818e-02
1.352325677871704102e-01 -9.799236804246902466e-02 -3.018956482410430908e-01
-3.969946205615997314e-01 1.508128345012664795e-01 -2.875945568084716797e-01
-1.103454828262329102e+00 1.858164966106414795e-01 8.883287012577056885e-02
-1.632351726293563843e-01 -1.213706657290458679e-01 -1.048064827919006348e-01
-7.711710929870605469e-01 2.533024847507476807e-01 2.284379303455352783e-01
-1.014535546302795410e+00 2.876311838626861572e-01 1.004533767700195312e-01
-9.156997203826904297e-01 2.066288888454437256e-01 2.138633430004119873e-01
-5.833660960197448730e-01 1.343299448490142822e-02 -3.016059100627899170e-01
-1.103269159793853760e-01 -1.327222585678100586e-01 -1.919772922992706299e-01
-4.778904914855957031e-01 6.693432480096817017e-02 1.971598863601684570e-01
-6.986558437347412109e-01 3.812787309288978577e-02 -2.695360481739044189e-01
-8.648928403854370117e-01 1.679792404174804688e-01 2.149549722671508789e-01
-6.827434897422790527e-01 3.108449578285217285e-01 7.734816521406173706e-03
9.848693013191223145e-02 -4.905731230974197388e-02 1.834795251488685608e-02
-6.290602087974548340e-01 1.620902866125106812e-02 1.218168139457702637e-01
-2.643042802810668945e-02 7.642135024070739746e-04 1.015397608280181885e-01
-3.139700889587402344e-01 -6.927648931741714478e-02 2.812527492642402649e-02
-7.044520378112792969e-01 2.448288798332214355e-01 2.350423336029052734e-01
-6.448611021041870117e-01 -1.236813515424728394e-02 -2.564510405063629150e-01
-4.702891111373901367e-01 2.399061918258666992e-01 2.147032320499420166e-01
-7.073873281478881836e-01 3.032096028327941895e-01 -2.735889330506324768e-02
-8.211919665336608887e-01 2.573871314525604248e-01 -1.175559908151626587e-01
-2.718254327774047852e-01 -9.572332352399826050e-02 -3.129373490810394287e-02
-1.047029256820678711e+00 1.124571338295936584e-01 4.019516333937644958e-02
-2.624295949935913086e-01 2.845481038093566895e-03 1.363838613033294678e-01
-6.352354288101196289e-01 6.504312157630920410e-03 1.043459326028823853e-01
2.122890353202819824e-01 8.653322607278823853e-02 1.646950840950012207e-05
-1.622647047042846680e-01 4.947286471724510193e-02 -3.523134589195251465e-01
-2.552071809768676758e-01 7.679559290409088135e-02 -3.414281904697418213e-01
-5.066747665405273438e-01 1.551285386085510254e-02 1.432404071092605591e-01
-4.284669160842895508e-01 2.771585881710052490e-01 1.481206715106964111e-01
-6.271316409111022949e-01 -5.601591616868972778e-02 -7.790078967809677124e-02
-1.016397476196289062e+00 2.851225733757019043e-01 4.433010891079902649e-02
-9.447824954986572266e-02 2.235069572925567627e-01 4.126596078276634216e-02
1.423366665840148926e-01 1.349983662366867065e-01 -1.475280076265335083e-01
2.558504939079284668e-01 -7.370620220899581909e-02 -9.548605978488922119e-02
-9.670755267143249512e-01 2.640440762042999268e-01 -5.364575237035751343e-02
-9.140372276306152344e-04 1.804179251194000244e-01 -1.470771282911300659e-01
-9.224381446838378906e-01 1.823999136686325073e-01 -1.643446534872055054e-01
6.390443444252014160e-02 -8.348210901021957397e-02 -2.250111103057861328e-02
-8.723642826080322266e-01 2.098457664251327515e-01 2.247746288776397705e-01
-1.441472768783569336e-02 2.001689076423645020e-01 -7.961089164018630981e-02
-9.353827238082885742e-01 2.998182177543640137e-01 2.796819433569908142e-02
-4.610606431961059570e-01 -9.182424098253250122e-02 -1.819797605276107788e-01
-1.043935298919677734e+00 1.560798585414886475e-01 1.255494803190231323e-01
-3.493055701255798340e-01 -1.089824065566062927e-01 -1.248900592327117920e-01
-6.346524953842163086e-01 -1.132651418447494507e-02 7.080633938312530518e-02
-2.992407381534576416e-01 -5.430904775857925415e-02 5.854165926575660706e-02
-7.255386114120483398e-01 1.627740710973739624e-01 2.367241382598876953e-01
-3.144167065620422363e-01 3.598461672663688660e-02 -3.545952141284942627e-01
-5.550339818000793457e-01 -7.154846936464309692e-02 -8.207108080387115479e-02
-9.027084112167358398e-01 2.437498867511749268e-01 -1.133164912462234497e-01
2.237814664840698242e-01 -4.138786345720291138e-02 -2.797308936715126038e-02
-3.800611793994903564e-01 2.026508152484893799e-01 -2.260839641094207764e-01
-7.226327657699584961e-01 3.157590627670288086e-01 1.106680929660797119e-01
-4.783700704574584961e-01 9.725061058998107910e-02 -3.192853331565856934e-01
-8.851375579833984375e-01 1.207316070795059204e-01 -2.017567008733749390e-01
2.934530377388000488e-02 -5.092642456293106079e-02 -3.519017994403839111e-01
-3.305852115154266357e-01 2.172763347625732422e-01 -1.961709111928939819e-01
-1.880012005567550659e-01 6.465148925781250000e-02 1.744775623083114624e-01
-9.261054396629333496e-01 3.069319128990173340e-01 8.379855751991271973e-02
-1.774128228425979614e-01 2.469803690910339355e-01 3.744321689009666443e-02
-1.052832126617431641e+00 2.743504643440246582e-01 9.192116558551788330e-02
-9.774106740951538086e-01 2.016837000846862793e-01 -1.246590167284011841e-01
-7.121443748474121094e-01 2.525551021099090576e-01 -1.453424096107482910e-01
-7.138750553131103516e-01 2.927140519022941589e-02 1.173139810562133789e-01
-3.184597492218017578e-01 5.222839862108230591e-02 -3.503406345844268799e-01
-2.747558355331420898e-01 -5.547010153532028198e-02 5.786981806159019470e-02
-6.063647866249084473e-01 2.838751375675201416e-01 -8.584277331829071045e-02
-8.643962144851684570e-01 3.133122920989990234e-01 7.150022685527801514e-02
1.706387996673583984e-01 -1.032593324780464172e-01 -2.808527648448944092e-01
-9.641767740249633789e-01 2.713252305984497070e-01 1.771143674850463867e-01
-3.236092925071716309e-01 2.646002173423767090e-01 -7.412026077508926392e-02
-3.834450542926788330e-01 1.643685698509216309e-01 2.283056676387786865e-01
1.724332571029663086e-01 8.432818949222564697e-02 -2.360461205244064331e-01
1.372226476669311523e-01 1.161004006862640381e-01 -2.029567360877990723e-01
-7.288943529129028320e-01 3.049905300140380859e-01 -1.952969282865524292e-02
-6.981506943702697754e-02 1.755016744136810303e-01 -1.996853500604629517e-01
-1.948560774326324463e-01 2.471291422843933105e-01 -5.366954952478408813e-02
-6.154135465621948242e-01 2.035366892814636230e-01 -2.226187139749526978e-01
-2.620019614696502686e-01 -7.840811461210250854e-02 -3.212847411632537842e-01
-4.085759222507476807e-01 1.359644681215286255e-01 2.289076447486877441e-01
-4.756790399551391602e-02 2.142165899276733398e-01 -2.976694703102111816e-02
-4.927545785903930664e-02 -1.000724807381629944e-01 -3.208052217960357666e-01
-9.434720277786254883e-01 9.046833962202072144e-02 1.072566211223602295e-01
-7.852967977523803711e-01 2.037287056446075439e-01 -1.934770047664642334e-01
-4.997609257698059082e-01 2.824354171752929688e-01 -7.606973499059677124e-02
-2.805163264274597168e-01 2.611627578735351562e-01 -6.088112294673919678e-02
6.646946072578430176e-02 -1.213839277625083923e-01 -1.203400492668151855e-01
-5.958627462387084961e-01 -6.031874567270278931e-02 -6.082056462764739990e-02
-8.145731687545776367e-02 1.549025177955627441e-01 -2.408009916543960571e-01
-5.919134616851806641e-01 3.039226531982421875e-01 1.353370845317840576e-01
-1.209561824798583984e-01 7.379055023193359375e-02 -3.354233801364898682e-01
-5.057872533798217773e-01 6.450916081666946411e-02 -3.257070481777191162e-01
-1.122465133666992188e-01 1.466034799814224243e-01 -2.615261375904083252e-01
-5.820319056510925293e-02 2.142300903797149658e-01 2.812437340617179871e-02
-1.034865677356719971e-01 3.355937823653221130e-02 1.415454149246215820e-01
-1.227709949016571045e-01 7.172502577304840088e-03 -3.638535737991333008e-01
3.045141696929931641e-03 6.870463490486145020e-03 9.880556166172027588e-02
-9.378781318664550781e-01 3.013872802257537842e-01 1.247629523277282715e-01
-9.271392822265625000e-01 3.039271533489227295e-01 4.459763690829277039e-02
-5.059347152709960938e-01 2.059677690267562866e-01 2.379775643348693848e-01
8.338215947151184082e-02 6.711347401142120361e-02 9.491610527038574219e-02
-6.056587696075439453e-01 -5.107369273900985718e-02 -2.530925348401069641e-02
-3.501999378204345703e-01 7.783526927232742310e-02 2.012282609939575195e-01
-1.929696798324584961e-01 1.273220181465148926e-01 -2.986395061016082764e-01
-3.718712627887725830e-01 2.433103322982788086e-01 -1.520295888185501099e-01
-4.129496216773986816e-01 6.121417135000228882e-02 1.931143403053283691e-01
-5.130867958068847656e-01 1.184740588068962097e-01 -3.044297397136688232e-01
-3.013408780097961426e-01 2.741169333457946777e-01 2.696237340569496155e-02
-7.848123311996459961e-01 2.459811866283416748e-01 2.311566472053527832e-01
-1.622038930654525757e-01 2.326466441154479980e-01 -9.336777776479721069e-02
-9.700680375099182129e-01 2.995016872882843018e-01 7.858043909072875977e-02
-2.129235118627548218e-01 2.413843572139739990e-01 -9.653642773628234863e-02
-4.498050212860107422e-01 8.377659320831298828e-02 -3.282141387462615967e-01
-4.647886753082275391e-01 7.208365201950073242e-02 -3.302866518497467041e-01
-5.863405466079711914e-01 3.113525211811065674e-01 6.033034995198249817e-02
-5.120709538459777832e-02 -6.563364714384078979e-02 -3.513855040073394775e-01
-1.073592901229858398e+00 1.840893626213073730e-01 1.251652985811233521e-01
-4.116817712783813477e-01 2.909574210643768311e-01 1.354027912020683289e-02
2.481309771537780762e-01 -9.182535111904144287e-03 -1.733623817563056946e-02
-7.419999837875366211e-01 -2.697246521711349487e-02 -1.125400066375732422e-01
1.055147945880889893e-01 -1.080710366368293762e-01 -8.970074355602264404e-02
-9.347647428512573242e-03 -6.570117920637130737e-02 -3.496739566326141357e-01
-4.720801115036010742e-01 -2.431361377239227295e-02 -3.156143426895141602e-01
-6.550047993659973145e-01 2.652740478515625000e-02 1.306994259357452393e-01
-9.090913534164428711e-01 3.071639835834503174e-01 1.148862987756729126e-01
-5.811821222305297852e-01 -2.879966050386428833e-02 5.269428715109825134e-02
-9.295540452003479004e-01 4.975770413875579834e-02 1.922148093581199646e-02
-9.757987260818481445e-01 6.551352143287658691e-02 -1.950811594724655151e-03
6.531444191932678223e-02 -1.160205826163291931e-01 -2.866393923759460449e-01
-6.022018790245056152e-01 1.839871406555175781e-01 -2.445112168788909912e-01
-2.339667826890945435e-01 2.632763981819152832e-02 -3.605465292930603027e-01
-7.211098670959472656e-01 4.066670313477516174e-02 -2.610677480697631836e-01
2.356154322624206543e-01 -1.013890430331230164e-01 -1.555081903934478760e-01
4.421296715736389160e-02 1.393848806619644165e-01 -2.157613486051559448e-01
-7.755701541900634766e-01 2.645345330238342285e-01 -1.151080280542373657e-01
-2.155220061540603638e-01 1.175546571612358093e-01 -3.103090524673461914e-01
-1.018926382064819336e+00 1.338941454887390137e-01 -1.147320792078971863e-01
-3.997370004653930664e-01 2.814301848411560059e-01 -4.319896921515464783e-02
-1.407160460948944092e-01 7.049545645713806152e-03 -3.643476665019989014e-01
2.394288182258605957e-01 8.923858404159545898e-03 -2.993784844875335693e-03
2.153242230415344238e-01 7.089694589376449585e-02 -2.264613807201385498e-01
-3.733144402503967285e-01 5.177081376314163208e-02 1.850328296422958374e-01
-6.074459552764892578e-01 2.996469438076019287e-01 -3.527088835835456848e-02
-3.050458133220672607e-01 6.927624344825744629e-04 -3.572604656219482422e-01
2.650552988052368164e-02 -2.320218086242675781e-02 -3.551587760448455811e-01
-6.503636837005615234e-01 -2.065943926572799683e-02 -2.422622442245483398e-01
-8.448693752288818359e-01 2.314046025276184082e-01 -1.478233337402343750e-01
-6.810768842697143555e-01 1.035560742020606995e-01 2.092460095882415771e-01
-5.221302509307861328e-01 2.435752153396606445e-01 2.213559746742248535e-01
-5.520879626274108887e-01 1.630649566650390625e-01 2.431184947490692139e-01
-2.250594347715377808e-01 -1.129976734519004822e-01 -8.121136575937271118e-02
-7.016569375991821289e-01 2.203459292650222778e-02 1.094860583543777466e-01
-3.265784978866577148e-01 2.781371772289276123e-01 5.048904940485954285e-02
-4.088276326656341553e-01 7.233268767595291138e-02 -3.367329239845275879e-01
8.802604675292968750e-02 9.535244107246398926e-02 -2.647902369499206543e-01
1.263234019279479980e-01 -1.249242797493934631e-01 -2.297937721014022827e-01
-6.948112249374389648e-01 1.515686362981796265e-01 -2.547975480556488037e-01
-4.555566906929016113e-01 -9.405245631933212280e-02 -1.338559687137603760e-01
-1.956254243850708008e-03 1.495311409235000610e-01 -2.196439206600189209e-01
-2.755596339702606201e-01 -9.278406947851181030e-02 -2.967445254325866699e-01
-8.341124057769775391e-01 1.635572165250778198e-01 2.199816405773162842e-01
-6.658380627632141113e-01 2.214854955673217773e-01 2.435813844203948975e-01
-2.086516916751861572e-01 1.349338293075561523e-01 1.950014829635620117e-01
1.482737064361572266e-01 7.236129045486450195e-02 -2.663432657718658447e-01
-8.910921812057495117e-01 3.101045191287994385e-01 1.068663895130157471e-01
-7.086168527603149414e-01 2.744475305080413818e-01 -1.053363084793090820e-01
-1.858914196491241455e-01 1.158767566084861755e-01 -3.088746368885040283e-01
-9.167997241020202637e-01 3.616390377283096313e-02 -3.261414915323257446e-02
-1.614425778388977051e-01 1.344544738531112671e-01 -2.865418791770935059e-01
-4.256880581378936768e-01 1.468970775604248047e-01 -2.906404435634613037e-01
-4.320355355739593506e-01 2.947520315647125244e-01 5.921429768204689026e-02
2.195868492126464844e-01 -1.046113297343254089e-01 -1.500613093376159668e-01
-8.730860948562622070e-01 4.219436645507812500e-02 -1.664422154426574707e-01
-6.324537992477416992e-01 1.476501971483230591e-01 2.383114695549011230e-01
2.998809814453125000e-01 5.428259819746017456e-02 -1.149061620235443115e-01
-1.019020318984985352e+00 2.172891497611999512e-01 -8.709347248077392578e-02
-6.177839040756225586e-01 -3.447864204645156860e-02 2.240869775414466858e-02
2.208921313285827637e-01 -9.855607897043228149e-02 -1.280328333377838135e-01
-2.402766793966293335e-01 7.291325926780700684e-02 1.867130249738693237e-01
-3.077285885810852051e-01 -3.813060373067855835e-02 -3.454923927783966064e-01
-9.460223317146301270e-01 2.839588820934295654e-01 -2.075626701116561890e-02
-2.269387096166610718e-01 -1.000401601195335388e-01 -3.681744635105133057e-02
-7.558720111846923828e-01 1.561609804630279541e-01 2.304040491580963135e-01
6.495320796966552734e-02 1.776727437973022461e-01 -4.322857409715652466e-02
8.037340641021728516e-02 3.249401226639747620e-02 -3.263313472270965576e-01
-7.499387264251708984e-01 3.088200986385345459e-01 1.488985866308212280e-01
-3.041813671588897705e-01 -1.144461259245872498e-01 -2.110671848058700562e-01
1.107505559921264648e-01 1.594795286655426025e-01 -3.738594055175781250e-02
-5.570774078369140625e-01 2.560567259788513184e-01 -1.470467597246170044e-01
-8.461154699325561523e-01 5.666954442858695984e-02 -2.034756541252136230e-01
-8.191410303115844727e-01 6.728127598762512207e-03 -1.994259655475616455e-03
-1.545948237180709839e-01 -5.546510964632034302e-02 -3.543486893177032471e-01
-1.146669685840606689e-01 2.276554107666015625e-01 -6.764823198318481445e-02
-5.629594326019287109e-01 -4.671899229288101196e-02 -2.521229684352874756e-01
-5.023014545440673828e-01 2.564904987812042236e-01 2.057728171348571777e-01
-1.055043935775756836e+00 2.308620810508728027e-01 1.524581462144851685e-01
1.715242862701416016e-01 1.001493781805038452e-01 -2.087147384881973267e-01
1.312011480331420898e-01 1.389660537242889404e-01 1.154113933444023132e-02
-8.134697675704956055e-01 2.727743089199066162e-01 -9.194695949554443359e-02
-2.307276278734207153e-01 1.166781485080718994e-01 1.989226937294006348e-01
-3.853636384010314941e-01 2.249660193920135498e-01 -1.907412111759185791e-01
-7.417466640472412109e-01 2.627893984317779541e-01 -1.238241046667098999e-01
-3.996150493621826172e-01 -1.894836127758026123e-02 1.075520068407058716e-01
-8.388605117797851562e-01 3.867337480187416077e-02 7.571968436241149902e-02
-2.424897253513336182e-01 -6.451357156038284302e-02 4.299394413828849792e-02
-5.146334171295166016e-01 -8.328080922365188599e-02 -1.354295760393142700e-01
9.804126620292663574e-02 1.425295770168304443e-01 4.342509433627128601e-02
-2.786523103713989258e-02 1.653149724006652832e-01 -2.011966556310653687e-01
-3.325755298137664795e-01 2.050506770610809326e-01 -2.171467393636703491e-01
-9.399566054344177246e-02 2.217009663581848145e-01 -7.418605685234069824e-02
-1.023516654968261719e+00 2.354527711868286133e-01 -6.420011818408966064e-02
-5.372585654258728027e-01 1.554536074399948120e-01 -2.765445709228515625e-01
2.325308322906494141e-02 -8.433779329061508179e-02 -3.351125717163085938e-01
-5.683892965316772461e-01 2.243430614471435547e-01 -1.995374113321304321e-01
-1.248013973236083984e-02 -9.270314127206802368e-02 -2.408237382769584656e-02
-1.002730369567871094e+00 2.651869356632232666e-01 -3.003466315567493439e-02
-3.500118851661682129e-01 -3.771580755710601807e-03 1.303822100162506104e-01
1.095249950885772705e-01 1.116176769137382507e-01 6.815004348754882812e-02
1.665163636207580566e-01 -2.946680039167404175e-02 -3.249878585338592529e-01
-9.142681956291198730e-02 -1.047542020678520203e-01 -4.394177719950675964e-02
-8.759221434593200684e-01 3.055607378482818604e-01 1.416481882333755493e-01
-6.772603988647460938e-01 2.318834513425827026e-02 -2.710615396499633789e-01
-7.559660673141479492e-01 1.741884797811508179e-01 2.369276583194732666e-01
-4.248365461826324463e-01 -5.602718144655227661e-02 3.765377774834632874e-02
-7.067402601242065430e-01 1.676598191261291504e-01 2.400673627853393555e-01
-6.049851179122924805e-01 8.487053215503692627e-02 -3.019400537014007568e-01
-1.187157630920410156e-01 5.955582857131958008e-02 -3.440987169742584229e-01
-1.079871535301208496e+00 2.556433379650115967e-01 3.085999563336372375e-02
-3.187097907066345215e-01 2.676915526390075684e-01 -5.763843655586242676e-02
-9.988844394683837891e-01 8.799420297145843506e-02 -9.274924546480178833e-02
-1.649969816207885742e-02 1.610378921031951904e-01 1.088299602270126343e-01
-6.369963288307189941e-02 -1.334013342857360840e-01 -1.723690778017044067e-01
2.270281314849853516e-02 1.845013052225112915e-01 3.053591027855873108e-02
-8.316957950592041016e-02 1.559808850288391113e-02 -3.598810136318206787e-01
-9.609786272048950195e-01 2.886061966419219971e-01 2.021603286266326904e-03
-5.772999525070190430e-01 -3.616219013929367065e-02 3.674548491835594177e-02
2.238800525665283203e-01 8.466684073209762573e-02 -1.158063858747482300e-02
2.486672997474670410e-01 2.861212939023971558e-02 -6.588514894247055054e-03
-1.588136702775955200e-01 2.420025765895843506e-01 3.952550515532493591e-02
2.247590422630310059e-01 -8.154384046792984009e-02 -2.844923138618469238e-01
-7.478564977645874023e-01 2.226014733314514160e-01 -1.814067661762237549e-01
-4.589984714984893799e-01 2.890673577785491943e-01 -3.733704239130020142e-02
-1.038844347000122070e+00 1.223374381661415100e-01 -8.508080989122390747e-02
9.737181663513183594e-02 1.125604808330535889e-01 -2.349500209093093872e-01
-1.498892158269882202e-01 -2.355404198169708252e-02 -3.646306097507476807e-01
7.964351773262023926e-02 1.080484017729759216e-01 -2.508049011230468750e-01
-5.811681151390075684e-01 -6.567203253507614136e-02 -1.773366481065750122e-01
-8.992617726325988770e-01 3.028037846088409424e-01 1.422746330499649048e-01
-2.081788927316665649e-01 -9.609528630971908569e-02 -3.082993924617767334e-01
2.129803895950317383e-01 -1.157294213771820068e-02 3.566432744264602661e-03
-1.109427213668823242e-02 -1.190484538674354553e-01 -2.866103649139404297e-01
2.179939746856689453e-01 -3.228952735662460327e-02 -1.561027020215988159e-02
-7.186985015869140625e-01 1.149174422025680542e-01 -2.654935419559478760e-01
-8.067884445190429688e-01 7.005756348371505737e-02 1.451401263475418091e-01
-2.956641614437103271e-01 -9.994836896657943726e-02 -2.746742665767669678e-01
-1.014631092548370361e-01 -1.260837018489837646e-01 -2.564765214920043945e-01
-6.578272581100463867e-02 1.958316862583160400e-01 9.477162361145019531e-02
-8.849771022796630859e-01 3.074404299259185791e-01 3.327958658337593079e-02
-1.042793512344360352e+00 1.275289803743362427e-01 8.518512547016143799e-02
-3.953279554843902588e-01 -3.732245415449142456e-02 -3.277421593666076660e-01
-8.061500787734985352e-01 4.321612790226936340e-02 -2.184041291475296021e-01
-3.825535476207733154e-01 2.857663929462432861e-01 7.763174176216125488e-02
-7.328060269355773926e-01 3.177334666252136230e-01 8.110903203487396240e-02
-8.326268196105957031e-02 2.147743701934814453e-01 6.381765007972717285e-02
-4.703509509563446045e-01 -7.549648731946945190e-02 -3.178143501281738281e-02
-7.787129878997802734e-01 2.835542261600494385e-01 2.012260258197784424e-01
1.688210368156433105e-01 5.630389600992202759e-02 -2.746823132038116455e-01
-6.839541196823120117e-01 2.510691583156585693e-01 2.313269972801208496e-01
-3.064407408237457275e-01 -1.129472628235816956e-01 -1.170174106955528259e-01
1.367443799972534180e-02 -2.713862806558609009e-02 6.660345196723937988e-02
-2.889425754547119141e-01 1.236814484000205994e-01 -3.097053766250610352e-01
-7.737935781478881836e-01 2.672899961471557617e-01 2.185385227203369141e-01
-9.521931409835815430e-01 2.245018780231475830e-01 2.036928832530975342e-01
-1.467429548501968384e-01 2.334985435009002686e-01 6.924915313720703125e-02
-9.352167844772338867e-01 1.717247813940048218e-01 1.958544254302978516e-01
-1.083573400974273682e-01 8.176139742136001587e-02 -3.282033503055572510e-01
-4.688855409622192383e-01 -5.083715170621871948e-02 -2.915972769260406494e-01
-1.031692624092102051e+00 1.290760487318038940e-01 9.999105334281921387e-02
-4.936756491661071777e-01 5.429621413350105286e-02 -3.293635845184326172e-01
3.757327795028686523e-02 8.515913039445877075e-02 1.154871881008148193e-01
3.006111979484558105e-01 -7.920978218317031860e-02 -1.934335380792617798e-01
-8.206153512001037598e-01 3.101547062397003174e-01 1.891187205910682678e-02
3.465884923934936523e-02 -1.314467191696166992e-02 7.431989908218383789e-02
-7.226563692092895508e-01 2.226969003677368164e-01 2.422596216201782227e-01
-5.439389348030090332e-01 1.238553449511528015e-01 2.310042381286621094e-01
-4.461434781551361084e-01 -1.749500632286071777e-03 -3.336061835289001465e-01
-7.416740655899047852e-01 7.439185678958892822e-02 -2.620727419853210449e-01
-6.462799310684204102e-01 2.672176957130432129e-01 2.163673043251037598e-01
-1.008602142333984375e+00 2.864466309547424316e-01 1.180523186922073364e-01
