6.186133623123168945e-02 -9.877023100852966309e-02 4.826005920767784119e-02
3.257149159908294678e-01 -1.233682706952095032e-01 1.889378204941749573e-02
5.727248191833496094e-01 -1.319302320480346680e-01 1.083029210567474365e-01
5.452456474304199219e-01 1.748388260602951050e-02 5.033539608120918274e-02
2.186657041311264038e-01 4.723621532320976257e-03 -1.426092833280563354e-01
6.445440053939819336e-01 -1.148372814059257507e-01 -4.909271374344825745e-04
2.831672430038452148e-01 2.922972291707992554e-02 4.482700675725936890e-02
5.657420754432678223e-01 -1.338614821434020996e-01 4.121977090835571289e-02
7.108775377273559570e-01 2.790484577417373657e-02 -4.988091811537742615e-02
5.141598582267761230e-01 4.855407774448394775e-02 -4.318336490541696548e-03
3.203914165496826172e-01 7.597928494215011597e-02 -5.259077996015548706e-02
-4.286494851112365723e-02 -6.785514205694198608e-02 -4.726685583591461182e-02
6.758068799972534180e-01 1.307306438684463501e-02 3.784364461898803711e-02
1.219803988933563232e-01 -6.272491812705993652e-02 -8.224689960479736328e-02
3.744232654571533203e-02 -7.695816457271575928e-02 -4.800620302557945251e-02
-6.264612078666687012e-02 8.066894859075546265e-02 -1.247882097959518433e-01
5.520775318145751953e-01 6.732951849699020386e-03 6.451590359210968018e-02
3.361074626445770264e-01 -1.025491207838058472e-02 8.735961467027664185e-02
-8.366140723228454590e-02 6.049303710460662842e-02 -2.904361486434936523e-02
5.143859386444091797e-01 6.015244871377944946e-02 -7.613112777471542358e-02
4.863408803939819336e-01 -4.892920702695846558e-02 1.166145429015159607e-01
7.643133401870727539e-03 -8.839316666126251221e-02 -7.124785799533128738e-03
3.762321770191192627e-01 1.354702934622764587e-02 6.398323178291320801e-02
-4.990062117576599121e-02 -8.125621080398559570e-02 8.849804289638996124e-03
4.236112833023071289e-01 7.091152667999267578e-02 -7.871307432651519775e-02
9.910118579864501953e-02 5.946992337703704834e-02 -1.519070416688919067e-01
-1.376369893550872803e-01 7.537505030632019043e-02 -8.079601824283599854e-02
3.080416023731231689e-01 6.840079277753829956e-02 -1.284173578023910522e-01
-2.061890065670013428e-01 -2.416624315083026886e-02 -7.477897405624389648e-02
7.527437210083007812e-01 -2.825537137687206268e-02 -6.779114902019500732e-02
6.946263313293457031e-01 -3.285221382975578308e-02 9.467130899429321289e-02
1.216281950473785400e-01 -1.025436669588088989e-01 7.050953060388565063e-02
-8.258283138275146484e-02 8.115883171558380127e-02 -8.425028622150421143e-02
-1.882396042346954346e-01 6.870049238204956055e-02 -8.200369775295257568e-02
4.780607223510742188e-01 -1.041613444685935974e-01 1.275441795587539673e-01
3.320431411266326904e-01 1.892902702093124390e-02 5.785243585705757141e-02
7.499957084655761719e-01 1.569595187902450562e-02 -5.288795754313468933e-02
3.822840750217437744e-01 -1.321214139461517334e-01 7.840394228696823120e-02
2.387633025646209717e-01 -8.156430721282958984e-02 -6.310761719942092896e-02
-5.210819840431213379e-02 4.759240895509719849e-02 -1.497548967599868774e-01
4.611762166023254395e-01 6.459747999906539917e-02 -4.443251714110374451e-02
-2.117118537425994873e-01 -2.623409032821655273e-03 4.309856332838535309e-03
2.247930169105529785e-01 -7.003014534711837769e-02 -7.862669974565505981e-02
5.594229102134704590e-01 -1.384937167167663574e-01 7.442785054445266724e-02
-1.725180745124816895e-01 -2.874691411852836609e-02 2.225495874881744385e-02
7.421824932098388672e-01 1.694633811712265015e-02 6.818532012403011322e-03
9.532491862773895264e-02 5.228535830974578857e-02 5.481732077896595001e-03
8.426216840744018555e-01 -1.154298186302185059e-01 4.619335383176803589e-02
8.083760142326354980e-01 -1.248717680573463440e-01 8.561299741268157959e-02
-1.746345460414886475e-01 -1.431323122233152390e-02 -9.873929619789123535e-02
-1.025592386722564697e-01 -6.494204699993133545e-02 2.758121863007545471e-02
2.545392811298370361e-01 -1.223037093877792358e-01 6.959451735019683838e-02
1.802344918251037598e-01 -9.637030214071273804e-02 -3.197047859430313110e-02
8.588217496871948242e-01 -5.081346258521080017e-02 -2.869616448879241943e-02
6.960045099258422852e-01 -3.456820547580718994e-02 -7.761012762784957886e-02
3.784932494163513184e-01 -8.441058918833732605e-03 8.650054782629013062e-02
-1.409980654716491699e-01 3.927999734878540039e-02 -9.476043283939361572e-03
-9.018456935882568359e-02 -7.227875292301177979e-02 1.414792519062757492e-02
6.466817855834960938e-01 -4.993660748004913330e-02 -7.660833001136779785e-02
5.955532789230346680e-01 -1.342838108539581299e-01 4.483057931065559387e-02
2.649569511413574219e-02 -2.361686341464519501e-02 -1.188940256834030151e-01
2.528948187828063965e-01 -1.939365081489086151e-02 -1.280999928712844849e-01
6.514214277267456055e-01 2.934540435671806335e-02 -8.232864737510681152e-02
-2.830925583839416504e-02 8.559455722570419312e-02 -1.106106713414192200e-01
-5.123019218444824219e-03 5.781840533018112183e-02 -1.511268764734268188e-01
3.864592909812927246e-01 7.404800504446029663e-02 -6.798298656940460205e-02
1.896798610687255859e-03 7.962359488010406494e-02 -5.884718894958496094e-02
5.823728442192077637e-01 -3.508971631526947021e-02 1.052281036972999573e-01
2.294861078262329102e-01 7.502458989620208740e-02 -3.803574666380882263e-02
7.403316497802734375e-01 -5.198301374912261963e-02 -5.927994847297668457e-02
-4.123792052268981934e-02 2.055413648486137390e-02 -1.442547589540481567e-01
7.375535964965820312e-01 -1.008121445775032043e-01 -1.023328211158514023e-02
9.778583049774169922e-02 -7.595163583755493164e-02 8.819965273141860962e-02
1.096348464488983154e-01 2.256265282630920410e-02 4.445913806557655334e-02
5.840439796447753906e-01 -1.026583164930343628e-01 -2.680313028395175934e-02
4.206371307373046875e-01 -2.567853592336177826e-02 -1.164820268750190735e-01
4.133078455924987793e-01 -8.918690681457519531e-02 -5.470497161149978638e-02
2.638997137546539307e-01 -1.012447252869606018e-01 1.072688028216362000e-01
3.838416039943695068e-01 -1.264434307813644409e-01 9.887196868658065796e-02
2.018138170242309570e-01 8.581270277500152588e-02 -1.001274585723876953e-01
5.455486178398132324e-01 5.347758531570434570e-02 -3.027410432696342468e-02
2.064383029937744141e-02 -8.615688234567642212e-02 5.752882733941078186e-02
6.820396780967712402e-01 -1.273011267185211182e-01 1.125316321849822998e-01
3.129686117172241211e-01 7.124960422515869141e-02 -3.405233100056648254e-02
-2.612549960613250732e-01 -1.605094596743583679e-02 -5.134070664644241333e-02
3.883353471755981445e-01 -4.809598624706268311e-02 1.143868789076805115e-01
7.039694786071777344e-01 -1.659216359257698059e-03 5.645484104752540588e-02
1.036542505025863647e-01 -7.939431071281433105e-02 -5.456111580133438110e-02
3.441140353679656982e-01 6.336208432912826538e-02 -1.281756013631820679e-01
6.230791807174682617e-01 -1.366541981697082520e-01 9.327948838472366333e-02
-1.154550909996032715e-01 -1.844607293605804443e-03 3.195358067750930786e-02
5.648719072341918945e-01 -7.994351908564567566e-03 8.100713044404983521e-02
6.099804639816284180e-01 3.071597218513488770e-02 1.717764511704444885e-02
-9.689730405807495117e-02 -2.834478393197059631e-03 3.660260513424873352e-02
1.738952100276947021e-01 6.326470524072647095e-02 -9.887395426630973816e-03
5.387653112411499023e-01 -5.211020633578300476e-02 1.179999187588691711e-01
2.703287005424499512e-01 8.268480002880096436e-02 -8.257134258747100830e-02
-6.042179465293884277e-02 2.574953064322471619e-02 2.079758420586585999e-02
4.547284543514251709e-01 6.604975461959838867e-02 -8.949618786573410034e-02
7.427645921707153320e-01 -1.202380359172821045e-01 2.602339163422584534e-02
1.730057001113891602e-01 -4.787493497133255005e-02 9.856624901294708252e-02
1.505770683288574219e-01 -9.056518226861953735e-02 -3.988964110612869263e-02
-4.073286056518554688e-02 -7.919041812419891357e-02 -1.584928855299949646e-02
4.988118112087249756e-01 -1.195822730660438538e-01 -6.917258724570274353e-04
4.835883975028991699e-01 4.933139681816101074e-02 -1.132898256182670593e-01
9.338728189468383789e-01 -5.724534019827842712e-02 5.480987951159477234e-02
-1.235499382019042969e-01 7.851453870534896851e-02 -1.108628213405609131e-01
1.365791410207748413e-01 5.763983726501464844e-02 -8.439980447292327881e-04
8.453569412231445312e-01 -1.366568077355623245e-02 3.339997306466102600e-02
1.448631882667541504e-01 7.870717346668243408e-02 -4.670359194278717041e-02
5.189697146415710449e-01 -5.695119872689247131e-02 1.207618787884712219e-01
2.067480236291885376e-01 6.732463836669921875e-02 -1.807080209255218506e-02
7.752859592437744141e-01 -8.218456804752349854e-02 -2.648129872977733612e-02
1.172444373369216919e-01 -8.841307461261749268e-02 8.635434508323669434e-02
-1.802650988101959229e-01 5.121691524982452393e-02 -3.627066314220428467e-02
-2.032673656940460205e-01 4.277495294809341431e-02 -3.093456104397773743e-02
5.984545946121215820e-01 4.925917088985443115e-02 -5.007196590304374695e-02
7.945212721824645996e-01 -5.632791295647621155e-02 1.006671860814094543e-01
4.912969470024108887e-02 2.224504947662353516e-02 3.902359306812286377e-02
-9.828811883926391602e-02 6.906264275312423706e-02 -4.917157813906669617e-02
-1.540145277976989746e-02 -6.626980006694793701e-02 6.379334628582000732e-02
4.723634719848632812e-01 6.435772776603698730e-02 -8.619855344295501709e-02
3.425945043563842773e-01 6.511999666690826416e-02 -2.013701945543289185e-02
3.734579682350158691e-01 7.551696896553039551e-02 -8.283977210521697998e-02
3.439445793628692627e-01 -1.689798757433891296e-02 -1.265113651752471924e-01
6.353455781936645508e-01 -3.570491075515747070e-02 -8.727839589118957520e-02
4.002678394317626953e-02 -9.173584729433059692e-02 5.613320693373680115e-02
1.802192777395248413e-01 8.600997924804687500e-02 -1.071227788925170898e-01
2.736048698425292969e-01 -2.882421575486660004e-02 -1.208832636475563049e-01
5.900533199310302734e-01 -2.800270542502403259e-02 -9.786588698625564575e-02
5.687117576599121094e-03 -6.953017786145210266e-03 -1.312552094459533691e-01
8.998176455497741699e-02 -5.121137946844100952e-02 8.817376196384429932e-02
1.738575845956802368e-01 -1.019658595323562622e-01 8.825314790010452271e-02
4.316034913063049316e-01 2.799993380904197693e-02 -1.319915205240249634e-01
6.990277767181396484e-01 -1.179906502366065979e-01 1.299980189651250839e-02
4.529920220375061035e-01 -7.876945659518241882e-03 8.562148362398147583e-02
4.445580840110778809e-01 2.262640371918678284e-02 5.049822479486465454e-02
3.938424289226531982e-01 3.514383360743522644e-02 -1.359740644693374634e-01
1.134926080703735352e-01 -2.590690925717353821e-02 -1.218261867761611938e-01
6.170340776443481445e-01 4.633410274982452393e-02 -4.666602239012718201e-02
7.990849614143371582e-01 -8.452506363391876221e-02 1.140447631478309631e-01
4.866377413272857666e-01 -6.488993763923645020e-02 -8.034851402044296265e-02
7.147390246391296387e-01 -2.664117328822612762e-02 -7.703059911727905273e-02
6.286944746971130371e-01 3.247878700494766235e-02 8.224396966397762299e-03
4.948913156986236572e-01 4.669973254203796387e-02 3.819842822849750519e-03
6.630406379699707031e-01 -1.347321271896362305e-01 5.638761445879936218e-02
4.640170931816101074e-02 8.750366419553756714e-02 -8.922863751649856567e-02
-1.408846676349639893e-01 -1.727512292563915253e-02 3.205301240086555481e-02
6.215293407440185547e-01 -1.120915263891220093e-01 -7.930837571620941162e-03
5.660526752471923828e-01 -1.373627781867980957e-01 5.919655784964561462e-02
4.636365771293640137e-01 3.908176720142364502e-02 2.323196828365325928e-02
2.517912089824676514e-01 -9.109865128993988037e-02 -4.867919161915779114e-02
5.969890952110290527e-01 3.718991950154304504e-02 5.090664140880107880e-03
3.111016750335693359e-01 2.324548736214637756e-02 5.256870016455650330e-02
2.199894189834594727e-01 -2.373443916440010071e-02 9.149517863988876343e-02
4.875753521919250488e-01 1.108981296420097351e-02 6.340779364109039307e-02
7.732491493225097656e-01 -4.169405996799468994e-02 9.215483814477920532e-02
3.363652527332305908e-01 -9.226215630769729614e-02 -5.016398802399635315e-02
4.219907820224761963e-01 -9.459505975246429443e-02 1.262951940298080444e-01
4.773966073989868164e-01 5.324970185756683350e-02 -9.150456637144088745e-03
-1.326938569545745850e-01 -5.371508747339248657e-02 -4.659146443009376526e-02
4.319378137588500977e-01 -1.353662014007568359e-01 7.312581688165664673e-02
9.152266979217529297e-01 -4.954525828361511230e-02 5.849071964621543884e-02
1.482827067375183105e-01 5.722573399543762207e-02 -1.513182222843170166e-01
3.854209780693054199e-01 4.452926665544509888e-02 1.975793391466140747e-02
1.468624919652938843e-01 4.613883048295974731e-02 1.774062961339950562e-02
1.595112681388854980e-02 1.239553838968276978e-02 4.435319826006889343e-02
4.845342040061950684e-02 -4.570544511079788208e-02 -9.744308143854141235e-02
-7.456478476524353027e-02 3.650632128119468689e-02 6.818388588726520538e-03
-1.418742239475250244e-01 2.552810311317443848e-02 5.250616930425167084e-03
8.873349428176879883e-01 -1.089622154831886292e-01 5.633700266480445862e-02
-5.704164505004882812e-03 8.360987901687622070e-02 -1.248419061303138733e-01
4.400742053985595703e-01 -6.066980212926864624e-02 -8.729127794504165649e-02
1.963958293199539185e-01 -1.070010736584663391e-01 -8.915429934859275818e-03
5.512563586235046387e-01 -1.005233079195022583e-01 1.303970515727996826e-01
1.295763701200485229e-01 8.268021047115325928e-02 -6.005474925041198730e-02
2.723131775856018066e-01 -1.163110416382551193e-02 -1.325653344392776489e-01
4.484482407569885254e-01 6.058047711849212646e-02 -2.432518079876899719e-02
3.717091679573059082e-01 -1.074850410223007202e-01 -2.470415458083152771e-02
5.169988870620727539e-01 -3.773872554302215576e-02 1.093236729502677917e-01
5.777224898338317871e-02 -5.588684603571891785e-02 -8.544187247753143311e-02
2.165199220180511475e-01 8.388993889093399048e-02 -1.100157052278518677e-01
8.297642469406127930e-01 -8.155226707458496094e-02 -1.423090323805809021e-02
6.845239996910095215e-01 2.395165339112281799e-02 1.214784104377031326e-02
-1.684147119522094727e-02 3.394289687275886536e-02 1.848490908741950989e-02
3.123873472213745117e-02 6.633019447326660156e-02 -1.487807929515838623e-01
1.118930876255035400e-01 -9.079152718186378479e-03 7.222400605678558350e-02
1.784294694662094116e-01 -8.747715502977371216e-02 -4.902360588312149048e-02
2.236578911542892456e-01 6.978929787874221802e-02 -1.383159905672073364e-01
1.914038211107254028e-01 1.531578227877616882e-02 5.766249075531959534e-02
5.990217328071594238e-01 -1.382884532213211060e-01 8.102253079414367676e-02
1.207307875156402588e-01 -9.925839304924011230e-02 -1.370500307530164719e-02
-9.777647256851196289e-02 1.924271881580352783e-02 -1.383072733879089355e-01
-2.360861003398895264e-01 1.520943269133567810e-02 -1.449587941169738770e-02
-2.756947576999664307e-01 -5.389636382460594177e-03 -6.207836046814918518e-02
-1.969170868396759033e-01 2.206992357969284058e-02 -1.236162781715393066e-01
-1.948215663433074951e-01 -8.256852626800537109e-03 1.235418859869241714e-02
6.074277162551879883e-01 -4.510755836963653564e-02 -8.534086495637893677e-02
7.226458191871643066e-01 -1.247254200279712677e-02 6.822904944419860840e-02
3.219996392726898193e-01 -1.291080415248870850e-01 6.151066347956657410e-02
3.996613621711730957e-02 -9.659034013748168945e-02 1.438039075583219528e-02
5.077605247497558594e-01 -1.305162012577056885e-01 1.076146140694618225e-01
4.230529367923736572e-01 -5.923801660537719727e-02 1.205297783017158508e-01
8.215227127075195312e-01 -7.826143503189086914e-02 1.083107739686965942e-01
6.457404494285583496e-01 -1.933508552610874176e-02 8.643755316734313965e-02
9.198253154754638672e-01 -8.861419558525085449e-02 3.075870871543884277e-02
4.927591681480407715e-01 -1.341574788093566895e-01 4.252178221940994263e-02
6.070901751518249512e-01 2.715537324547767639e-03 -1.042991355061531067e-01
8.633600473403930664e-01 -6.532352417707443237e-02 9.263730794191360474e-02
2.143324315547943115e-01 8.470731973648071289e-02 -7.798127830028533936e-02
6.902996301651000977e-01 -1.322468556463718414e-02 7.427936047315597534e-02
1.506310701370239258e-01 3.253339603543281555e-02 3.604336827993392944e-02
5.785769224166870117e-01 -6.944082677364349365e-02 1.254985481500625610e-01
6.711472868919372559e-01 -6.647463887929916382e-02 -5.982334539294242859e-02
6.861890554428100586e-01 -5.507634580135345459e-02 -6.685304641723632812e-02
6.388221979141235352e-01 -1.288175284862518311e-01 1.130263879895210266e-01
3.478324115276336670e-01 -6.495831161737442017e-02 -8.599707484245300293e-02
4.985610544681549072e-01 5.054125562310218811e-03 -1.217641308903694153e-01
3.779665529727935791e-01 4.191456735134124756e-02 -1.364676505327224731e-01
-5.002191662788391113e-02 -5.652714148163795471e-02 5.755377188324928284e-02
5.484830141067504883e-01 -1.298854053020477295e-01 2.687006443738937378e-02
8.085044622421264648e-01 -6.872452795505523682e-03 -4.730527848005294800e-02
5.315244793891906738e-01 5.870763212442398071e-02 -5.886412784457206726e-02
7.364891171455383301e-01 -2.126099541783332825e-02 7.681061327457427979e-02
6.105073690414428711e-01 4.627970606088638306e-02 -6.503880023956298828e-02
1.638674437999725342e-01 -2.558948844671249390e-02 8.779259026050567627e-02
5.148189663887023926e-01 -4.293782636523246765e-02 -9.708529710769653320e-02
7.474896907806396484e-01 -1.303252726793289185e-01 9.405624121427536011e-02
3.434660136699676514e-01 4.762679338455200195e-02 1.651968061923980713e-02
2.042233049869537354e-01 -1.186791583895683289e-01 4.766066744923591614e-02
7.331475019454956055e-01 -7.755450904369354248e-03 -7.522979378700256348e-02
9.483405351638793945e-01 -7.220949232578277588e-02 4.446467757225036621e-02
-1.450797617435455322e-01 7.566877454519271851e-02 -1.122102737426757812e-01
2.392773926258087158e-01 -2.931930497288703918e-02 -1.209309771656990051e-01
-1.823745071887969971e-01 5.277078598737716675e-02 -1.313208341598510742e-01
3.344472348690032959e-01 -3.607924655079841614e-02 -1.136208176612854004e-01
4.760816991329193115e-01 -1.195245385169982910e-01 1.192771270871162415e-01
5.092092752456665039e-01 -2.297787368297576904e-02 -1.102279201149940491e-01
-1.064137220382690430e-01 8.065077662467956543e-02 -9.644061326980590820e-02
8.238494396209716797e-02 -6.637097895145416260e-02 8.724682033061981201e-02
6.528228521347045898e-02 -6.960524246096611023e-03 6.551679968833923340e-02
-2.309050261974334717e-01 5.068700760602951050e-02 -5.483544617891311646e-02
1.682591438293457031e-01 1.677872613072395325e-02 5.476743355393409729e-02
-5.820456147193908691e-02 8.028751611709594727e-02 -7.230397313833236694e-02
6.964759826660156250e-01 -1.067407354712486267e-01 -7.789625786244869232e-03
4.952650666236877441e-01 1.978350058197975159e-02 5.132399126887321472e-02
2.682404220104217529e-01 -7.796386629343032837e-02 -6.945744156837463379e-02
-2.838619649410247803e-01 3.585804998874664307e-02 -8.919646590948104858e-02
1.978872567415237427e-01 -4.659515619277954102e-02 -1.049497574567794800e-01
5.895455479621887207e-01 -1.267656534910202026e-01 2.040728181600570679e-02
3.486013710498809814e-01 -8.060103654861450195e-02 -6.703624874353408813e-02
4.880008101463317871e-02 -7.651096582412719727e-02 7.645513862371444702e-02
6.691756248474121094e-01 -1.128045283257961273e-02 7.476661354303359985e-02
6.386932134628295898e-01 -6.752217561006546021e-02 1.226243451237678528e-01
8.054298758506774902e-01 -1.181619334965944290e-02 4.714113473892211914e-02
1.919133961200714111e-01 3.821253776550292969e-02 -1.521498262882232666e-01
9.017361402511596680e-01 -5.315687134861946106e-02 6.974048912525177002e-02
7.960275411605834961e-01 -3.226088359951972961e-03 3.398161754012107849e-02
5.375565886497497559e-01 -7.411181926727294922e-02 1.275420039892196655e-01
6.707339286804199219e-01 -3.902810439467430115e-02 -7.980316877365112305e-02
5.218381881713867188e-01 3.957187384366989136e-02 1.499339099973440170e-02
9.269071817398071289e-01 -5.874659866094589233e-02 7.855926640331745148e-03
-3.934639692306518555e-02 -8.299760520458221436e-02 2.215127274394035339e-02
3.906906843185424805e-01 5.173479020595550537e-02 5.808426998555660248e-03
5.919226408004760742e-01 4.418480396270751953e-02 -1.382389664649963379e-02
6.957876682281494141e-02 -7.069852948188781738e-02 -6.480357795953750610e-02
-1.602587401866912842e-01 4.291625320911407471e-02 -1.368264406919479370e-01
5.991424322128295898e-01 -9.504054486751556396e-02 1.305868476629257202e-01
5.714381337165832520e-01 1.292721927165985107e-02 5.425643548369407654e-02
8.282473087310791016e-01 -1.005246266722679138e-01 9.850933216512203217e-03
7.571099996566772461e-01 -1.024319231510162354e-01 -4.171472974121570587e-03
-8.962890505790710449e-02 5.119431763887405396e-02 -1.462767720222473145e-01
3.682217895984649658e-01 4.706210643053054810e-02 1.627950370311737061e-02
4.378137290477752686e-01 -8.716564625501632690e-02 1.274725049734115601e-01
3.652110397815704346e-01 6.738511472940444946e-02 -2.949749678373336792e-02
8.108010292053222656e-01 -6.330888718366622925e-02 1.026135087013244629e-01
9.024857282638549805e-01 -9.655614942312240601e-02 3.339016810059547424e-02
8.726397752761840820e-01 -2.562788873910903931e-02 4.362095519900321960e-02
8.542100191116333008e-01 -3.306037932634353638e-02 6.358416378498077393e-02
-1.084143221378326416e-01 1.381171867251396179e-03 -1.258559525012969971e-01
5.676141381263732910e-01 -1.091849133372306824e-01 1.286211311817169189e-01
3.863993883132934570e-01 -8.522196114063262939e-02 -6.058774888515472412e-02
-1.262370944023132324e-01 -2.092343196272850037e-02 -1.020376011729240417e-01
-7.713735103607177734e-04 7.007798552513122559e-02 -3.503779321908950806e-02
9.248700141906738281e-01 -6.317970156669616699e-02 6.764657050371170044e-02
5.087983608245849609e-01 -6.069792062044143677e-02 -8.280073106288909912e-02
5.720310211181640625e-01 -1.253394484519958496e-01 1.559669617563486099e-02
2.731627821922302246e-01 -1.085894852876663208e-01 -1.608008146286010742e-02
7.227181196212768555e-01 -5.640706419944763184e-02 -5.959727615118026733e-02
5.107885599136352539e-02 7.611735165119171143e-02 -4.379325732588768005e-02
8.318367004394531250e-01 -1.218058466911315918e-01 8.056522905826568604e-02
8.534848690032958984e-03 -3.445581346750259399e-02 -1.063819974660873413e-01
-1.425389945507049561e-01 4.398092627525329590e-02 -1.397740393877029419e-01
1.379260122776031494e-01 -9.720617532730102539e-02 -2.309904620051383972e-02
6.647164225578308105e-01 3.057145699858665466e-02 1.118648797273635864e-03
2.869339585304260254e-01 8.178643137216567993e-02 -9.074075520038604736e-02
-6.708356738090515137e-02 7.216008752584457397e-02 -4.995819926261901855e-02
-1.150046288967132568e-01 -3.495387360453605652e-02 4.186072200536727905e-02
7.263637781143188477e-01 -9.262020140886306763e-02 1.241403296589851379e-01
3.213294744491577148e-01 -1.614678651094436646e-02 -1.280377954244613647e-01
2.231489121913909912e-01 -7.505768537521362305e-02 1.087999492883682251e-01
4.463666975498199463e-01 -2.610208280384540558e-02 -1.142795905470848083e-01
1.285272091627120972e-01 1.100000739097595215e-02 -1.463566720485687256e-01
3.912060558795928955e-01 -1.401885040104389191e-02 -1.252677440643310547e-01
5.669951438903808594e-01 -3.841873630881309509e-02 -9.476312994956970215e-02
8.719335794448852539e-01 -5.028688162565231323e-02 7.792867720127105713e-02
7.805895805358886719e-01 -6.668300926685333252e-02 -4.004886746406555176e-02
3.829846680164337158e-01 6.796568632125854492e-02 -3.459863364696502686e-02
3.636254668235778809e-01 4.497626796364784241e-03 -1.353531032800674438e-01
7.245293855667114258e-01 -1.333042085170745850e-01 6.957723200321197510e-02
1.282960176467895508e-03 5.572915822267532349e-02 -8.569623343646526337e-03
6.628755927085876465e-01 -1.332524865865707397e-01 1.023639589548110962e-01
1.491851359605789185e-01 -7.155020534992218018e-02 -7.205089926719665527e-02
-1.565548479557037354e-01 4.205259680747985840e-02 -1.663691364228725433e-02
3.150786161422729492e-01 -6.831760704517364502e-02 1.174296364188194275e-01
-2.379378676414489746e-02 -2.520907297730445862e-02 -1.126817092299461365e-01
6.657037138938903809e-01 3.647900372743606567e-02 -2.316154167056083679e-02
-1.810054481029510498e-01 -4.924425482749938965e-02 -1.460031885653734207e-02
-2.192771732807159424e-01 1.204849034547805786e-02 -1.118012741208076477e-01
1.174411773681640625e-01 5.397776514291763306e-02 4.229563288390636444e-03
7.080515027046203613e-01 -2.536324411630630493e-02 8.562691509723663330e-02
2.958003580570220947e-01 8.042842149734497070e-02 -7.144974172115325928e-02
4.986079931259155273e-01 -1.370264142751693726e-01 6.002290919423103333e-02
3.673811554908752441e-01 -7.789633423089981079e-02 -7.042069733142852783e-02
-1.585932970046997070e-01 2.075490355491638184e-02 -1.305043697357177734e-01
6.716122627258300781e-01 2.015738934278488159e-02 -8.371235430240631104e-02
7.635232210159301758e-01 1.787201315164566040e-02 -2.224651724100112915e-02
2.393098324537277222e-01 8.434557169675827026e-02 -8.597543090581893921e-02
7.891852855682373047e-01 -3.636070340871810913e-02 8.411717414855957031e-02
2.502146363258361816e-01 -7.823541760444641113e-02 1.120039820671081543e-01
4.656230509281158447e-01 -5.888404324650764465e-03 -1.224922314286231995e-01
6.125625371932983398e-01 -1.352446675300598145e-01 5.073844268918037415e-02
5.611266493797302246e-01 -8.446098864078521729e-02 1.299296021461486816e-01
6.413373947143554688e-01 3.774963319301605225e-02 -1.262695994228124619e-02
-1.208403408527374268e-01 3.397526964545249939e-02 1.059194095432758331e-03
7.728088498115539551e-01 -1.160279661417007446e-01 2.352927625179290771e-02
-1.359730958938598633e-03 8.701024949550628662e-02 -1.001485511660575867e-01
2.416699826717376709e-01 -1.028229370713233948e-01 1.023429334163665771e-01
1.442515850067138672e-01 -3.328317031264305115e-02 -1.163489669561386108e-01
4.995093047618865967e-01 5.835842341184616089e-02 -3.148102015256881714e-02
3.159973919391632080e-01 -6.563112139701843262e-03 8.364067971706390381e-02
3.793928325176239014e-01 -1.325375735759735107e-01 5.574804171919822693e-02
8.379998207092285156e-01 -4.808232188224792480e-03 -2.370104193687438965e-02
7.514478564262390137e-01 -3.474484384059906006e-02 8.900478482246398926e-02
5.295885801315307617e-01 -9.199584275484085083e-02 1.305195987224578857e-01
4.076226651668548584e-01 7.165690511465072632e-02 -6.099119409918785095e-02
1.394075602293014526e-01 6.928496807813644409e-02 -2.306362241506576538e-02
6.480433940887451172e-01 -1.365307532250881195e-02 -9.410920739173889160e-02
7.548946142196655273e-02 8.289551734924316406e-02 -6.249115988612174988e-02
7.761180400848388672e-01 -1.064119338989257812e-01 6.128069944679737091e-03
2.061850875616073608e-01 4.737546294927597046e-02 1.810574531555175781e-02
-1.063473224639892578e-01 6.513495743274688721e-02 -1.394220292568206787e-01
2.934197783470153809e-01 2.033030614256858826e-03 7.515417039394378662e-02
5.498075485229492188e-01 5.534739047288894653e-02 -7.279895246028900146e-02
6.334193348884582520e-01 -1.366902291774749756e-01 6.217845901846885681e-02
-3.165876865386962891e-02 -7.392691075801849365e-02 -3.641479462385177612e-02
6.593728065490722656e-01 5.592327564954757690e-03 5.334543809294700623e-02
4.486237764358520508e-01 -3.566189110279083252e-02 1.083475574851036072e-01
6.751617789268493652e-02 1.022814214229583740e-02 5.236744508147239685e-02
-1.558123826980590820e-01 -4.009810835123062134e-02 2.566508203744888306e-02
8.002435564994812012e-01 -8.980757743120193481e-02 -1.221200916916131973e-02
3.317796885967254639e-01 -1.131254509091377258e-01 -1.082204747945070267e-02
3.663912415504455566e-02 -6.461641192436218262e-02 7.796631753444671631e-02
4.132260084152221680e-01 5.498159676790237427e-02 -3.482204861938953400e-03
4.904496669769287109e-01 -1.041372939944267273e-01 -3.001181781291961670e-02
-2.562581002712249756e-01 1.608538255095481873e-02 -2.433525957167148590e-02
-6.442329287528991699e-02 3.336937725543975830e-02 -1.469201296567916870e-01
7.171768546104431152e-01 1.528064161539077759e-02 -7.058813422918319702e-02
7.269370555877685547e-01 -8.681973814964294434e-02 -3.034548461437225342e-02
2.261924743652343750e-02 -5.794702842831611633e-02 -7.818217575550079346e-02
2.622970342636108398e-01 8.206407725811004639e-02 -1.047295555472373962e-01
2.852324843406677246e-01 -6.956124305725097656e-02 1.151225790381431580e-01
2.157250642776489258e-01 3.597514331340789795e-02 3.461613878607749939e-02
3.826025128364562988e-02 -9.644235670566558838e-02 3.660248592495918274e-02
1.926030665636062622e-01 -1.058447435498237610e-01 8.839516341686248779e-02
3.596298992633819580e-01 -5.437852814793586731e-03 8.356279879808425903e-02
4.318052530288696289e-01 3.533655405044555664e-02 3.226288780570030212e-02
6.631749868392944336e-01 8.088383823633193970e-03 -9.163572639226913452e-02
3.083887994289398193e-01 -8.920547366142272949e-02 1.174630448222160339e-01
2.863121032714843750e-01 -1.259555369615554810e-01 4.636277258396148682e-02
8.087873458862304688e-03 -3.833162039518356323e-02 7.156193256378173828e-02
5.158007740974426270e-01 -8.155072480440139771e-02 1.292151063680648804e-01
7.710674405097961426e-01 -4.584267735481262207e-03 -6.221384927630424500e-02
5.600745081901550293e-01 -1.366077959537506104e-01 9.425279498100280762e-02
1.575514078140258789e-01 6.604497879743576050e-02 -1.577225513756275177e-02
5.519830584526062012e-01 2.683954313397407532e-02 3.467951714992523193e-02
-1.503055691719055176e-01 -4.987274855375289917e-02 -4.751030728220939636e-02
8.791242837905883789e-01 -1.048835515975952148e-01 3.745407611131668091e-02
3.207451105117797852e-01 -1.278786063194274902e-01 4.237110912799835205e-02
2.944355607032775879e-01 -2.676863782107830048e-02 -1.219375282526016235e-01
6.390388011932373047e-01 2.089493721723556519e-02 3.102902323007583618e-02
6.234813928604125977e-01 -1.021880879998207092e-01 -2.387218736112117767e-02
4.584785997867584229e-01 -1.184014976024627686e-01 -3.666023723781108856e-03
2.266503274440765381e-01 -3.867647796869277954e-02 1.002190560102462769e-01
7.445455789566040039e-01 -8.072104305028915405e-03 5.776203051209449768e-02
3.983235359191894531e-01 -7.581204175949096680e-02 -7.242380827665328979e-02
4.801837205886840820e-01 8.912809193134307861e-03 -1.248275116086006165e-01
-1.538501679897308350e-01 -2.560825832188129425e-02 -9.001827239990234375e-02
2.084601819515228271e-01 4.031836986541748047e-02 -1.514310836791992188e-01
7.554625272750854492e-01 -5.598954111337661743e-02 -5.350634828209877014e-02
6.904114484786987305e-01 3.008466213941574097e-02 -1.037162169814109802e-02
1.762608587741851807e-01 5.297316610813140869e-02 8.450715802609920502e-03
5.207958221435546875e-01 -1.376466304063796997e-01 8.340453356504440308e-02
3.226420283317565918e-02 -4.231054708361625671e-02 -9.988594055175781250e-02
1.465282738208770752e-01 -2.287757582962512970e-02 8.453713357448577881e-02
5.913341045379638672e-01 2.234595268964767456e-02 -1.049689948558807373e-01
1.339925080537796021e-01 -9.814535081386566162e-02 8.172601461410522461e-02
-7.060515880584716797e-02 5.035538971424102783e-02 -1.481581628322601318e-01
4.289171993732452393e-01 6.700978428125381470e-02 -9.918397665023803711e-02
7.003769874572753906e-01 -5.058433488011360168e-02 1.085295155644416809e-01
-1.487362384796142578e-02 -8.300337940454483032e-02 -1.600462384521961212e-02
-2.144165933132171631e-01 6.036487966775894165e-02 -1.149020418524742126e-01
6.113854646682739258e-01 -1.377928256988525391e-01 6.760972738265991211e-02
-8.797684311866760254e-02 -4.065592586994171143e-02 -8.438159525394439697e-02
1.966582685708999634e-01 8.578895777463912964e-02 -8.333282172679901123e-02
7.494618892669677734e-01 -8.746147155761718750e-02 -2.560788393020629883e-02
6.638779044151306152e-01 -6.536450982093811035e-02 1.202066317200660706e-01
2.055433392524719238e-01 -9.698307514190673828e-02 9.969121217727661133e-02
2.563080787658691406e-01 -1.599548757076263428e-02 8.863200247287750244e-02
5.378752946853637695e-01 -8.166901767253875732e-02 -5.852699279785156250e-02
5.296078920364379883e-01 2.939231321215629578e-02 3.309402987360954285e-02
7.336865663528442383e-01 -1.288022100925445557e-01 4.850554466247558594e-02
2.643594145774841309e-02 1.266736537218093872e-02 -1.446420848369598389e-01
5.569510459899902344e-01 -5.790842324495315552e-02 -8.108940720558166504e-02
4.088165760040283203e-01 -1.397682912647724152e-02 9.156095236539840698e-02
8.690004348754882812e-01 -3.371236100792884827e-02 -2.805156260728836060e-02
3.373638689517974854e-01 -1.299470812082290649e-01 5.300855264067649841e-02
1.235263794660568237e-01 7.552908360958099365e-02 -1.398558467626571655e-01
6.336390972137451172e-03 -5.926277115941047668e-02 -7.372885197401046753e-02
5.346014499664306641e-01 -1.216365396976470947e-01 1.206989809870719910e-01
1.233059614896774292e-01 5.539063364267349243e-02 -1.526625454425811768e-01
4.989215731620788574e-02 4.097425937652587891e-02 -1.539565771818161011e-01
7.733320593833923340e-01 -8.025896549224853516e-02 1.163957044482231140e-01
-9.470415115356445312e-02 1.641699671745300293e-02 2.333625033497810364e-02
7.053648233413696289e-01 -1.283432543277740479e-01 3.996538743376731873e-02
-1.754656732082366943e-01 -4.699508845806121826e-02 6.442892365157604218e-03
2.807163000106811523e-01 -7.134167477488517761e-03 8.287798613309860229e-02
4.062271118164062500e-01 -1.218790262937545776e-01 1.098538637161254883e-01
1.083158850669860840e-01 -5.570350587368011475e-02 -9.031148254871368408e-02
1.281762123107910156e-02 -8.121865987777709961e-02 -3.223566710948944092e-02
2.894031107425689697e-01 7.446743547916412354e-02 -1.220872923731803894e-01
7.396188378334045410e-02 3.001098707318305969e-02 3.318332508206367493e-02
4.132807254791259766e-02 -4.566641896963119507e-02 7.908281683921813965e-02
6.427074670791625977e-01 4.404639825224876404e-03 -9.700881689786911011e-02
5.854953527450561523e-01 -1.381845325231552124e-01 6.834109127521514893e-02
7.182022929191589355e-02 -1.655864529311656952e-02 -1.277799308300018311e-01
6.561862826347351074e-01 -3.614684939384460449e-02 1.013000309467315674e-01
3.140146434307098389e-01 -7.301393896341323853e-02 -7.673426717519760132e-02
5.250775218009948730e-01 2.399514988064765930e-02 -1.180462688207626343e-01
4.828416705131530762e-01 -5.059819668531417847e-03 8.202179521322250366e-02
6.449720859527587891e-01 3.849095851182937622e-02 -6.834270060062408447e-02
6.264626383781433105e-01 1.684217154979705811e-02 -9.844978898763656616e-02
-2.514201402664184570e-02 -8.462023735046386719e-02 -1.309640705585479736e-03
8.326207101345062256e-02 -9.399016201496124268e-02 -1.856634020805358887e-02
-7.593622803688049316e-02 -6.848670542240142822e-02 -3.331283852458000183e-02
-1.797923743724822998e-01 2.835065871477127075e-02 -7.014896254986524582e-03
3.656044602394104004e-02 4.955545067787170410e-02 4.595321603119373322e-03
4.234497547149658203e-01 -1.108369603753089905e-01 -1.915905997157096863e-02
-1.152273118495941162e-01 -6.702812016010284424e-02 -2.273087389767169952e-03
2.251025438308715820e-01 4.113625735044479370e-02 -1.505274176597595215e-01
3.943882286548614502e-01 -1.278233230113983154e-01 2.529001235961914062e-02
5.963505506515502930e-01 1.658523827791213989e-02 4.569825530052185059e-02
-5.617824196815490723e-02 -7.318241894245147705e-02 -2.853283658623695374e-02
8.143477439880371094e-01 -5.559114739298820496e-03 3.095248714089393616e-02
5.042446851730346680e-01 -7.487647235393524170e-02 -6.866813451051712036e-02
9.415876865386962891e-01 -6.606476008892059326e-02 2.443962171673774719e-02
4.099003374576568604e-01 -7.726995646953582764e-02 1.251220554113388062e-01
2.495507001876831055e-01 7.643096894025802612e-02 -4.383142292499542236e-02
2.591469883918762207e-01 -1.011128053069114685e-01 -3.083303198218345642e-02
4.702501595020294189e-01 -7.193134725093841553e-02 -7.397867739200592041e-02
6.182005405426025391e-01 -3.883639350533485413e-03 7.168232649564743042e-02
-2.021085321903228760e-01 -3.835473209619522095e-02 -1.521172933280467987e-03
2.116857618093490601e-01 -5.797105282545089722e-02 1.056019589304924011e-01
3.723084032535552979e-01 -1.169517263770103455e-01 -4.482225980609655380e-03
5.510666370391845703e-01 3.516174480319023132e-02 -1.082145199179649353e-01
-6.202650070190429688e-02 8.356466144323348999e-02 -9.125999361276626587e-02
1.464861631393432617e-01 -1.118856817483901978e-01 3.351008147001266479e-02
3.932541012763977051e-01 -1.201675757765769958e-01 2.292908728122711182e-03
-2.573533952236175537e-01 4.753129929304122925e-02 -6.491593271493911743e-02
-8.441418409347534180e-03 -3.790494799613952637e-02 6.828147172927856445e-02
3.603124916553497314e-01 -1.271428316831588745e-01 9.199976176023483276e-02
6.586501002311706543e-02 1.308139041066169739e-02 -1.462993025779724121e-01
6.873430013656616211e-01 7.536292076110839844e-03 -8.527432382106781006e-02
7.603920698165893555e-01 -1.250655651092529297e-01 4.352566227316856384e-02
5.623414516448974609e-01 4.470669478178024292e-02 -9.551027417182922363e-02
-2.847451865673065186e-01 1.504920795559883118e-02 -8.393146097660064697e-02
4.991765022277832031e-01 5.589915812015533447e-02 -9.933395683765411377e-02
4.359730482101440430e-01 -2.414972893893718719e-02 9.997059404850006104e-02
-2.210706174373626709e-01 9.131465107202529907e-03 -4.725338891148567200e-03
5.283722281455993652e-01 5.383418500423431396e-02 -2.445239573717117310e-02
7.062609791755676270e-01 -9.496936947107315063e-02 -2.351459488272666931e-02
-7.729214429855346680e-02 -7.517305761575698853e-02 -2.468478865921497345e-03
-2.782827615737915039e-02 7.123246788978576660e-03 -1.382681578397750854e-01
1.893165409564971924e-01 -4.674119874835014343e-03 7.569738477468490601e-02
2.625264227390289307e-01 6.725662201642990112e-02 -1.939832046627998352e-02
-1.858748495578765869e-01 7.067724317312240601e-02 -1.012117639183998108e-01
8.440277576446533203e-01 -7.074367254972457886e-02 -2.051150426268577576e-02
-1.706272363662719727e-01 6.804053485393524170e-02 -6.908116489648818970e-02
-8.270382881164550781e-03 5.548223853111267090e-03 4.661930352449417114e-02
6.348000764846801758e-01 -6.992453336715698242e-02 -6.149721518158912659e-02
-2.056510746479034424e-01 2.189574763178825378e-02 -8.673205971717834473e-03
4.000152349472045898e-01 6.840132921934127808e-02 -1.063407436013221741e-01
6.766350269317626953e-01 -1.238812804222106934e-01 2.273454144597053528e-02
8.322424888610839844e-01 -6.375899910926818848e-02 9.881671518087387085e-02
-8.807203173637390137e-02 7.493681460618972778e-02 -1.320105642080307007e-01
8.723863363265991211e-01 -7.333718240261077881e-02 -9.087218903005123138e-03
4.806098341941833496e-02 3.428910300135612488e-02 2.571364864706993103e-02
1.082565784454345703e-01 2.167252078652381897e-02 -1.504363417625427246e-01
1.822799444198608398e-02 7.091756165027618408e-02 -3.467738255858421326e-02
7.844901084899902344e-01 -1.986584067344665527e-02 6.547985970973968506e-02
3.886659741401672363e-01 -4.959934204816818237e-02 -1.001219600439071655e-01
-4.191485047340393066e-02 1.138376444578170776e-02 3.681876510381698608e-02
-1.884805858135223389e-01 -3.376504033803939819e-02 -6.516080349683761597e-02
-1.074890792369842529e-01 7.824429124593734741e-02 -1.201387494802474976e-01
-1.654107570648193359e-01 1.381828263401985168e-02 9.508310817182064056e-03
7.485008239746093750e-01 7.191196084022521973e-03 2.949432283639907837e-02
3.419433832168579102e-01 -1.280732303857803345e-01 8.341123908758163452e-02
6.464549899101257324e-01 -1.129369363188743591e-01 1.262466013431549072e-01
7.067549228668212891e-01 -6.428491324186325073e-02 1.164337173104286194e-01
3.276605308055877686e-01 7.812790572643280029e-02 -6.744591146707534790e-02
-2.379741370677947998e-01 2.873276919126510620e-02 -2.683405950665473938e-02
1.178583502769470215e-02 -9.123922139406204224e-02 3.807228803634643555e-02
-2.538697421550750732e-01 1.436201110482215881e-02 -1.015660688281059265e-01
2.641419172286987305e-01 -4.360086470842361450e-02 1.054623052477836609e-01
7.407101988792419434e-02 2.767047658562660217e-02 -1.519119888544082642e-01
5.951783061027526855e-01 -7.930947840213775635e-02 -5.621669813990592957e-02
4.443013668060302734e-01 -1.136734709143638611e-01 1.212241873145103455e-01
3.624356985092163086e-01 -9.299204498529434204e-02 -4.939213395118713379e-02
6.462538242340087891e-01 -5.819557234644889832e-03 7.091070711612701416e-02
4.820569753646850586e-01 3.590215742588043213e-02 2.704994007945060730e-02
-2.672827541828155518e-01 4.560655355453491211e-02 -9.797944873571395874e-02
-9.021329879760742188e-02 4.972264170646667480e-03 -1.307866275310516357e-01
8.475885391235351562e-01 -4.501511156558990479e-02 7.973765581846237183e-02
-6.303393840789794922e-02 -7.657488435506820679e-02 -1.099833194166421890e-02
8.454861640930175781e-01 -7.427720725536346436e-02 1.018674373626708984e-01
4.275842905044555664e-01 4.795613139867782593e-02 9.964763186872005463e-03
1.453020721673965454e-01 -4.227677732706069946e-02 9.346058219671249390e-02
4.593487381935119629e-01 -1.365170776844024658e-01 6.833805888891220093e-02
1.924384832382202148e-01 1.349945366382598877e-02 -1.468473672866821289e-01
1.271301060914993286e-01 3.112833574414253235e-02 -1.529008746147155762e-01
5.110855102539062500e-01 2.906613051891326904e-02 3.572832792997360229e-02
3.868428468704223633e-01 -1.091619431972503662e-01 1.187221929430961609e-01
7.829110622406005859e-01 -2.752432599663734436e-02 -5.994732677936553955e-02
5.589600205421447754e-01 -5.565056949853897095e-02 1.195525303483009338e-01
7.121226191520690918e-02 5.819819867610931396e-02 -5.789694376289844513e-03
6.049907207489013672e-02 -3.883710503578186035e-02 8.068060874938964844e-02
3.037165701389312744e-01 2.714477851986885071e-02 -1.449782699346542358e-01
3.097586631774902344e-01 -5.471524223685264587e-02 -9.736732393503189087e-02
1.714972257614135742e-01 -2.566648647189140320e-03 -1.394979655742645264e-01
2.912116348743438721e-01 -8.532660454511642456e-02 1.161361858248710632e-01
-1.200367808341979980e-01 5.471257865428924561e-02 -2.652077190577983856e-02
1.914311200380325317e-01 -4.046680033206939697e-02 9.779505431652069092e-02
7.913279533386230469e-02 -2.207478694617748260e-02 7.637403160333633423e-02
-9.120556712150573730e-02 -1.773340627551078796e-02 -1.115103363990783691e-01
1.309016793966293335e-01 -1.088758483529090881e-01 2.119730040431022644e-02
5.865112543106079102e-01 4.985547810792922974e-02 -6.925074756145477295e-02
-2.886677682399749756e-01 2.828397974371910095e-02 -5.922282487154006958e-02
2.883647978305816650e-01 -1.182119622826576233e-01 9.387970715761184692e-02
3.995688855648040771e-01 6.204074621200561523e-02 -1.931970939040184021e-02
3.238451480865478516e-01 -2.930036000907421112e-02 1.011329814791679382e-01
3.608311116695404053e-01 7.434890419244766235e-02 -1.017446517944335938e-01
1.969810277223587036e-01 -2.404214255511760712e-02 8.986845612525939941e-02
2.493672668933868408e-01 8.061174303293228149e-03 6.776378303766250610e-02
2.322863042354583740e-01 8.299874514341354370e-02 -6.982948631048202515e-02
4.520426988601684570e-01 4.301084205508232117e-03 7.296074926853179932e-02
1.607739329338073730e-01 -6.068667396903038025e-02 -8.754039555788040161e-02
-4.564955830574035645e-02 -4.990846663713455200e-02 -7.907935976982116699e-02
4.657921195030212402e-01 5.892787128686904907e-02 -1.051567494869232178e-01
-1.146132647991180420e-01 6.474306434392929077e-02 -4.351618885993957520e-02
-1.604282259941101074e-01 6.279468536376953125e-02 -5.183608084917068481e-02
6.178988218307495117e-01 -1.687882095575332642e-02 8.642030507326126099e-02
5.769580602645874023e-01 -8.152966201305389404e-02 -5.544822663068771362e-02
7.370575070381164551e-01 2.356623113155364990e-02 -3.703683987259864807e-02
4.024797976016998291e-01 -1.030997112393379211e-01 1.229409798979759216e-01
1.980138123035430908e-01 6.449213624000549316e-02 -1.449900120496749878e-01
1.695002764463424683e-01 7.859414815902709961e-02 -4.653172194957733154e-02
-1.493899822235107422e-01 5.773532390594482422e-02 -3.865848481655120850e-02
-1.530553102493286133e-01 -1.433446165174245834e-02 -1.038215160369873047e-01
4.339830577373504639e-01 -1.284879148006439209e-01 1.031656041741371155e-01
4.801383614540100098e-01 -1.362452059984207153e-01 5.616632476449012756e-02
6.842461228370666504e-02 5.412781238555908203e-02 -1.535616368055343628e-01
3.049593567848205566e-01 -9.246579557657241821e-02 -4.898563399910926819e-02
8.397209644317626953e-01 -1.075208559632301331e-01 2.579793706536293030e-02
7.722471952438354492e-01 8.593559265136718750e-03 1.588438823819160461e-02
2.840576469898223877e-01 6.933996826410293579e-02 -2.586372382938861847e-02
7.322760820388793945e-01 -1.147913038730621338e-01 1.194630637764930725e-01
1.780527830123901367e-02 -5.758374556899070740e-02 7.487760484218597412e-02
6.219329833984375000e-01 -1.259033381938934326e-01 2.100013568997383118e-02
2.990011870861053467e-01 4.210732877254486084e-03 -1.393405199050903320e-01
-4.180222749710083008e-02 6.109803915023803711e-02 -2.319034188985824585e-02
2.875766754150390625e-01 6.214272230863571167e-02 -1.377393007278442383e-01
-1.507565975189208984e-01 -5.570869147777557373e-02 -2.777221798896789551e-02
3.509993255138397217e-01 1.360626146197319031e-02 6.404034048318862915e-02
4.710254073143005371e-02 6.062153726816177368e-02 -1.194267533719539642e-02
1.157758086919784546e-01 7.883457094430923462e-02 -4.755125567317008972e-02
7.913374900817871094e-01 9.224377572536468506e-03 -3.359244763851165771e-02
4.802607297897338867e-01 -1.371078938245773315e-01 7.576483488082885742e-02
6.669926643371582031e-02 -8.682574331760406494e-02 -3.283611685037612915e-02
6.248563528060913086e-01 -5.076122283935546875e-02 -7.903026789426803589e-02
8.616069555282592773e-01 -1.154189929366111755e-01 8.295047283172607422e-02
5.109990239143371582e-01 -1.338031589984893799e-01 4.027819633483886719e-02
4.933341443538665771e-01 3.151978179812431335e-02 -1.218828037381172180e-01
4.322194457054138184e-01 -1.299017667770385742e-01 2.919038385152816772e-02
2.348661422729492188e-03 6.762530654668807983e-03 -1.401541084051132202e-01
-1.574497222900390625e-01 -4.008034244179725647e-02 -6.595939397811889648e-02
6.659771203994750977e-01 -9.560595452785491943e-02 -2.832256630063056946e-02
2.405415773391723633e-01 -1.221468225121498108e-01 5.770545080304145813e-02
8.279397487640380859e-01 7.744431495666503906e-04 -1.112324092537164688e-02
2.368530631065368652e-02 -3.269040957093238831e-02 7.276259362697601318e-02
6.087064743041992188e-01 -2.588725462555885315e-02 -9.624502062797546387e-02
8.376918733119964600e-02 9.119011461734771729e-03 -1.448477804660797119e-01
-1.237379014492034912e-01 5.806301534175872803e-02 -1.405369490385055542e-01
-1.650414764881134033e-01 -9.813550859689712524e-04 -1.143622249364852905e-01
-1.549468934535980225e-01 6.718780845403671265e-02 -1.280615627765655518e-01
5.917114019393920898e-02 -6.102299690246582031e-02 8.324857056140899658e-02
1.992556750774383545e-01 2.549667283892631531e-02 4.697581008076667786e-02
3.596795797348022461e-01 6.104180961847305298e-02 -1.173693221062421799e-02
6.826260089874267578e-01 -8.522982150316238403e-02 1.262154132127761841e-01
-4.529216885566711426e-02 1.797376200556755066e-03 -1.333602070808410645e-01
5.595923662185668945e-01 1.370733976364135742e-02 -1.130775064229965210e-01
-1.755903661251068115e-01 -2.183713018894195557e-03 1.639213413000106812e-02
3.637122809886932373e-01 3.869403898715972900e-02 3.047484904527664185e-02
7.730033993721008301e-02 -1.027388945221900940e-01 3.798420354723930359e-02
3.870613873004913330e-01 6.332252919673919678e-02 -1.196033954620361328e-01
1.510589569807052612e-01 3.399885073304176331e-02 -1.530241370201110840e-01
4.693856537342071533e-01 2.461730316281318665e-02 4.619790613651275635e-02
6.070050001144409180e-01 -5.618785694241523743e-02 1.183241531252861023e-01
6.405432820320129395e-01 -1.293046176433563232e-01 3.235184401273727417e-02
