-4.723118618130683899e-02 1.129691898822784424e-01 -7.618147879838943481e-03
-6.124819517135620117e-01 -7.201394438743591309e-02 3.762065991759300232e-02
-5.431671142578125000e-01 -2.749463543295860291e-02 -4.073382169008255005e-02
-3.334174156188964844e-01 1.152977347373962402e-06 -5.842362344264984131e-02
-7.030119299888610840e-01 -1.326286979019641876e-02 -2.415178343653678894e-02
3.829470276832580566e-01 -5.283201485872268677e-02 3.945056349039077759e-02
-5.407811999320983887e-01 6.156777217984199524e-02 8.471515774726867676e-02
-4.498831927776336670e-02 4.245057702064514160e-02 -5.866344273090362549e-02
4.670217037200927734e-01 9.720697253942489624e-02 2.025124803185462952e-02
1.942528039216995239e-01 6.862041354179382324e-02 1.101064980030059814e-01
5.959124565124511719e-01 8.473692461848258972e-03 1.034978590905666351e-02
3.504157066345214844e-02 -7.543729990720748901e-02 6.999711692333221436e-02
-4.829152822494506836e-01 -8.296208828687667847e-02 1.264781318604946136e-02
1.760183721780776978e-01 -7.493957132101058960e-02 1.645682565867900848e-02
-2.056160867214202881e-01 1.130996793508529663e-01 6.190851330757141113e-02
4.022412896156311035e-01 -2.592881023883819580e-02 8.320077508687973022e-02
5.977128446102142334e-02 4.075077921152114868e-02 -5.705573409795761108e-02
-6.776394248008728027e-01 5.058886110782623291e-02 6.593273580074310303e-02
-5.371105670928955078e-01 8.547929674386978149e-02 5.419681221246719360e-02
-1.570977568626403809e-01 1.009749919176101685e-01 8.642454445362091064e-02
-1.953041404485702515e-01 -3.251514956355094910e-02 -5.358875542879104614e-02
3.377988338470458984e-01 -3.805153816938400269e-02 -1.720599085092544556e-02
-3.388261795043945312e-01 -8.805622905492782593e-02 4.848441481590270996e-02
4.614461958408355713e-02 3.901042044162750244e-02 1.225684732198715210e-01
3.422291278839111328e-01 1.156815327703952789e-02 -4.050756990909576416e-02
-4.348922371864318848e-01 2.037383243441581726e-02 -5.277340859174728394e-02
4.475054144859313965e-01 2.375191450119018555e-02 -2.880560979247093201e-02
-4.583849310874938965e-01 8.755901455879211426e-02 7.039177417755126953e-02
3.115350008010864258e-01 -6.273167580366134644e-02 3.361956775188446045e-02
1.747915148735046387e-02 3.220336139202117920e-02 1.237631067633628845e-01
-2.204375416040420532e-01 -3.404777497053146362e-02 1.120118275284767151e-01
6.571419537067413330e-03 6.107319146394729614e-02 -5.220837891101837158e-02
-1.844666898250579834e-01 2.074554003775119781e-02 1.233272105455398560e-01
-6.896224021911621094e-01 -6.129052489995956421e-02 3.511052578687667847e-02
2.979372739791870117e-01 -4.470865428447723389e-02 8.163644373416900635e-02
-9.557025134563446045e-02 -5.367854237556457520e-02 1.007241904735565186e-01
-4.776337146759033203e-01 4.988373443484306335e-02 9.974834322929382324e-02
4.778019785881042480e-01 2.903533726930618286e-02 -2.432340383529663086e-02
1.925826072692871094e-04 1.238386556506156921e-01 2.558061107993125916e-02
3.438421487808227539e-01 4.136758297681808472e-02 -4.002638906240463257e-02
3.461834788322448730e-01 4.527555778622627258e-02 1.075102761387825012e-01
4.431660175323486328e-01 4.389247857034206390e-03 9.411513805389404297e-02
2.952276468276977539e-01 -2.682314440608024597e-02 -3.188148885965347290e-02
1.505667865276336670e-01 9.661659598350524902e-02 9.342386573553085327e-02
-3.949372768402099609e-01 -3.536644577980041504e-02 1.048265546560287476e-01
-3.207283020019531250e-01 -5.644076317548751831e-02 -3.840945661067962646e-02
-1.727720201015472412e-01 6.913995742797851562e-02 -4.771714657545089722e-02
2.770722657442092896e-02 -3.998146206140518188e-02 1.071487292647361755e-01
5.055104494094848633e-01 4.854319244623184204e-02 -1.709593087434768677e-02
-6.494462490081787109e-03 4.605616629123687744e-02 -5.731841176748275757e-02
1.766916662454605103e-01 -6.932729482650756836e-02 -7.990002632141113281e-04
-4.124258160591125488e-01 -2.368545532226562500e-02 -5.094437301158905029e-02
-7.663414478302001953e-01 1.674730516970157623e-02 6.263446062803268433e-02
-2.046352624893188477e-01 -4.059743136167526245e-02 1.090370789170265198e-01
1.546164751052856445e-01 1.092544719576835632e-01 7.837331295013427734e-02
-2.171351462602615356e-01 8.308662474155426025e-02 -3.696538507938385010e-02
-5.291396975517272949e-01 4.139124602079391479e-02 -3.924810141324996948e-02
-3.949650526046752930e-01 1.058113053441047668e-01 3.045800700783729553e-02
4.245010018348693848e-01 3.590416163206100464e-04 -2.759059891104698181e-02
-4.804329574108123779e-02 -3.945875912904739380e-03 -6.031024456024169922e-02
1.509525924921035767e-01 -2.682165801525115967e-02 1.087784990668296814e-01
-2.106987386941909790e-01 3.296489268541336060e-02 1.214682534337043762e-01
-3.777869939804077148e-01 2.264428697526454926e-02 -5.572314560413360596e-02
-1.910586655139923096e-02 -1.172534562647342682e-02 1.204016879200935364e-01
5.585709214210510254e-02 -6.202904134988784790e-02 8.748130500316619873e-02
-5.168748497962951660e-01 -7.150670140981674194e-02 6.384798139333724976e-02
1.924975067377090454e-01 4.241434857249259949e-02 1.177678778767585754e-01
4.741558432579040527e-01 8.611036837100982666e-02 1.405168324708938599e-03
-1.968488246202468872e-01 -8.981321007013320923e-02 9.137049317359924316e-03
2.977724075317382812e-01 -5.989986658096313477e-02 5.669217556715011597e-02
2.591302394866943359e-01 1.126247718930244446e-01 6.389223039150238037e-02
-7.931573987007141113e-01 -3.203878924250602722e-02 4.010529816150665283e-02
-3.144990801811218262e-01 6.487622112035751343e-02 -4.456678032875061035e-02
-7.621826529502868652e-01 -4.187681153416633606e-02 4.331363737583160400e-02
-1.172854006290435791e-02 4.588759504258632660e-03 1.235789805650711060e-01
1.305583268404006958e-01 -7.797951996326446533e-02 1.376937888562679291e-02
1.457451879978179932e-01 1.228177472949028015e-01 3.993644937872886658e-02
-6.382738351821899414e-01 -9.153988212347030640e-04 9.087122976779937744e-02
-3.462346196174621582e-01 1.009397655725479126e-01 -5.026292055845260620e-03
-7.681323885917663574e-01 4.093362390995025635e-02 3.735728934407234192e-02
-6.409742236137390137e-01 2.231005206704139709e-02 -3.200343251228332520e-02
-4.736797213554382324e-01 9.256199002265930176e-02 3.453511744737625122e-03
3.266664743423461914e-01 5.790482088923454285e-02 1.060642376542091370e-01
-3.594397753477096558e-02 9.315181523561477661e-02 9.839470684528350830e-02
-6.723923087120056152e-01 6.656309962272644043e-02 3.911024332046508789e-02
1.753069460391998291e-02 7.735402882099151611e-02 1.097967252135276794e-01
4.755113124847412109e-01 9.134881943464279175e-02 6.192161887884140015e-02
-3.337421417236328125e-01 6.846159696578979492e-02 -4.125320911407470703e-02
-1.802757978439331055e-01 1.114290431141853333e-01 6.857419013977050781e-02
-4.156046509742736816e-01 -6.147480010986328125e-02 -3.018606826663017273e-02
4.979618787765502930e-01 3.042733669281005859e-02 -2.091364935040473938e-02
1.726354211568832397e-01 1.297980733215808868e-02 -5.404412001371383667e-02
2.959977388381958008e-01 1.133750602602958679e-01 1.453506760299205780e-02
1.501068323850631714e-01 7.204988971352577209e-03 -5.476607382297515869e-02
2.941309809684753418e-01 -1.692919433116912842e-02 1.028643772006034851e-01
4.373578727245330811e-02 1.177826076745986938e-01 6.575489044189453125e-02
-6.519252061843872070e-01 2.979871258139610291e-02 8.435122668743133545e-02
-2.866733968257904053e-01 3.553489595651626587e-02 -5.720800906419754028e-02
-1.021239906549453735e-01 -7.600751519203186035e-02 7.705669105052947998e-02
-1.787298172712326050e-02 -8.202486485242843628e-02 -1.178804785013198853e-03
-2.177423685789108276e-01 -6.878448277711868286e-02 8.703570067882537842e-02
-5.307381153106689453e-01 -3.861636295914649963e-02 -3.720758855342864990e-02
-7.715741395950317383e-01 3.888919204473495483e-02 1.593833789229393005e-02
-3.161883354187011719e-01 -5.145816504955291748e-02 9.950511157512664795e-02
-3.027119636535644531e-01 -3.586658835411071777e-02 -5.071578919887542725e-02
1.056512594223022461e-01 2.074437588453292847e-02 1.223827153444290161e-01
1.679413169622421265e-01 3.045427054166793823e-02 -5.415221303701400757e-02
3.832435607910156250e-02 -8.103397488594055176e-02 3.585783764719963074e-03
1.674757152795791626e-01 -7.455731183290481567e-02 5.051607266068458557e-02
-5.049047470092773438e-01 4.695409536361694336e-02 -3.925780951976776123e-02
-3.770459294319152832e-01 1.071561127901077271e-01 2.532695978879928589e-02
-4.252039790153503418e-01 9.053003042936325073e-02 -1.061949506402015686e-02
-6.735920906066894531e-01 6.274034827947616577e-02 7.468493655323982239e-03
4.362096190452575684e-01 -4.453941807150840759e-02 2.995363064110279083e-02
-6.249635219573974609e-01 -5.590389668941497803e-02 -1.297054067254066467e-02
-6.543714404106140137e-01 -5.494002997875213623e-02 -8.266214281320571899e-03
7.308633625507354736e-02 1.241850256919860840e-01 3.330248221755027771e-02
1.390139758586883545e-01 -7.505198568105697632e-02 5.616629868745803833e-02
-1.103654503822326660e-04 3.913705796003341675e-02 1.230482310056686401e-01
-2.975907027721405029e-01 -9.136854112148284912e-02 2.122667059302330017e-02
-1.338468492031097412e-01 5.291248485445976257e-02 1.188546642661094666e-01
-1.736325174570083618e-01 1.022765487432479858e-01 8.380935341119766235e-02
1.615363806486129761e-01 -2.969417721033096313e-03 1.170842051506042480e-01
4.274222254753112793e-02 -6.778550893068313599e-02 -2.033948525786399841e-02
-6.664907932281494141e-01 -6.569225341081619263e-02 2.289472892880439758e-02
-5.136981010437011719e-01 7.256491482257843018e-02 -1.964713633060455322e-02
2.455178648233413696e-01 9.098239988088607788e-02 9.367667883634567261e-02
1.947593241930007935e-01 -4.415486007928848267e-03 -4.999407380819320679e-02
-4.683827161788940430e-01 7.851065695285797119e-02 8.030140399932861328e-02
-2.500064671039581299e-03 1.195994094014167786e-01 6.065790355205535889e-02
-6.414619088172912598e-01 -3.547269105911254883e-02 8.049561083316802979e-02
4.537978768348693848e-01 8.860938251018524170e-02 7.129283249378204346e-02
-5.848743319511413574e-01 8.323415368795394897e-02 3.058055788278579712e-02
-1.075505167245864868e-01 7.026515901088714600e-02 -4.820904135704040527e-02
-5.056785345077514648e-01 -3.423874825239181519e-02 -4.131220281124114990e-02
-1.731275022029876709e-01 -7.670249789953231812e-02 7.723098248243331909e-02
5.718564391136169434e-01 1.200331468135118484e-02 7.064346969127655029e-02
4.535201191902160645e-01 4.518073052167892456e-03 -2.439995482563972473e-02
-2.967736124992370605e-02 -8.205594494938850403e-03 -5.916270613670349121e-02
-7.316146790981292725e-02 2.295453287661075592e-02 -6.181449443101882935e-02
2.639819383621215820e-01 -1.235089264810085297e-02 1.075426638126373291e-01
9.565015137195587158e-02 -6.358646601438522339e-02 -2.092767506837844849e-02
3.234587311744689941e-01 9.756470471620559692e-02 -1.053330302238464355e-02
4.710277915000915527e-02 -9.361695498228073120e-03 -5.659214407205581665e-02
2.485008686780929565e-01 2.648583799600601196e-02 -4.941807687282562256e-02
-4.396159052848815918e-01 4.861528798937797546e-02 1.040316745638847351e-01
-9.715892374515533447e-03 8.194775879383087158e-02 1.070082560181617737e-01
-3.160938620567321777e-02 7.161742448806762695e-02 -4.767875373363494873e-02
1.072380393743515015e-01 1.200682744383811951e-01 1.022227294743061066e-02
1.950423866510391235e-01 -2.281247079372406006e-02 -4.370012879371643066e-02
4.745092391967773438e-01 9.841741621494293213e-02 3.694824874401092529e-02
-6.797091960906982422e-01 -9.829400107264518738e-03 8.345453441143035889e-02
2.241429686546325684e-02 8.203080296516418457e-02 -4.091171175241470337e-02
-5.131516456604003906e-01 3.279216587543487549e-02 -4.397353529930114746e-02
6.959669291973114014e-03 -1.823046058416366577e-02 -5.560321360826492310e-02
-4.369494915008544922e-01 -3.616342321038246155e-02 -4.513967037200927734e-02
-4.242574572563171387e-01 5.546507611870765686e-02 1.023600399494171143e-01
-6.773486733436584473e-02 7.021632045507431030e-02 1.130966991186141968e-01
5.818307995796203613e-01 7.587578892707824707e-02 3.476700931787490845e-02
-2.532704472541809082e-01 -1.175555586814880371e-02 1.186630353331565857e-01
-9.242898970842361450e-02 1.093111187219619751e-01 7.829575240612030029e-02
2.647506445646286011e-02 1.239705905318260193e-01 2.600403688848018646e-02
-4.407203793525695801e-01 -6.500113010406494141e-02 8.073607832193374634e-02
-4.988116621971130371e-01 9.119251742959022522e-03 -4.931750893592834473e-02
-3.462886810302734375e-01 -6.237156689167022705e-02 -3.273924440145492554e-02
1.142239719629287720e-01 -7.802030444145202637e-02 9.242665022611618042e-03
3.809969425201416016e-01 7.799445651471614838e-03 -3.548368066549301147e-02
-3.160540759563446045e-01 9.039068222045898438e-02 -2.383193001151084900e-02
2.966639995574951172e-01 8.657318353652954102e-02 -2.418136969208717346e-02
-3.467933535575866699e-01 3.033763915300369263e-02 -5.589944869279861450e-02
1.067199558019638062e-01 -2.467461302876472473e-02 -4.885240644216537476e-02
2.140780836343765259e-01 -2.636891230940818787e-02 -4.041106253862380981e-02
4.596114158630371094e-01 -3.006970509886741638e-03 8.850564062595367432e-02
-2.559555768966674805e-01 1.145216226577758789e-01 1.662721112370491028e-02
-2.916375100612640381e-01 -3.357922285795211792e-02 1.103321164846420288e-01
-5.663266777992248535e-01 5.902261659502983093e-02 8.255414664745330811e-02
4.311378598213195801e-01 6.201879680156707764e-02 -2.405679225921630859e-02
1.830506175756454468e-01 -6.850963830947875977e-02 6.386749446392059326e-02
-3.247157931327819824e-01 -3.019145503640174866e-02 -5.235999822616577148e-02
6.168860197067260742e-02 4.977333359420299530e-03 1.222860589623451233e-01
-2.281259745359420776e-02 -3.463631495833396912e-02 1.115684509277343750e-01
-8.268849849700927734e-01 9.199954569339752197e-03 3.052125312387943268e-02
-5.334210395812988281e-01 1.817154884338378906e-02 -4.544259607791900635e-02
-5.495929718017578125e-01 3.261683881282806396e-02 -4.036692529916763306e-02
-4.582854509353637695e-01 9.917952120304107666e-02 2.308512851595878601e-02
-6.045787781476974487e-02 -5.667958408594131470e-02 9.764338284730911255e-02
-2.447054833173751831e-01 1.111859977245330811e-01 6.124912202358245850e-02
-3.918529748916625977e-01 5.850736051797866821e-04 -5.600205063819885254e-02
-1.233940273523330688e-01 -8.559639006853103638e-02 5.936791002750396729e-02
2.575944662094116211e-01 -6.699186563491821289e-02 1.570812426507472992e-02
7.885710895061492920e-02 -3.991769254207611084e-02 -4.269052296876907349e-02
1.760869473218917847e-01 1.091170832514762878e-01 7.748140394687652588e-02
5.079817175865173340e-01 -1.978555694222450256e-02 6.412380933761596680e-02
-2.985054850578308105e-01 -5.027078092098236084e-02 1.009611710906028748e-01
-4.146968722343444824e-01 -8.791589736938476562e-02 3.388005495071411133e-02
-3.176083788275718689e-02 1.238891854882240295e-01 3.113113902509212494e-02
-4.895419478416442871e-01 8.040932565927505493e-02 -1.436815038323402405e-02
-7.840286493301391602e-01 -2.375668287277221680e-02 -1.978650689125061035e-04
-5.091929435729980469e-01 4.695734381675720215e-02 9.759642183780670166e-02
3.075345158576965332e-01 6.662277877330780029e-02 -3.557147085666656494e-02
-9.732872992753982544e-02 1.786962151527404785e-03 1.235614866018295288e-01
-4.154362678527832031e-01 -8.958730846643447876e-03 1.117661446332931519e-01
-3.701808452606201172e-01 -4.340887814760208130e-02 1.020789071917533875e-01
-1.369203478097915649e-01 2.237177081406116486e-02 1.241475269198417664e-01
4.954857826232910156e-01 8.971578627824783325e-02 5.840592831373214722e-02
-3.935809135437011719e-01 7.861912995576858521e-02 -2.868844196200370789e-02
4.690920114517211914e-01 1.319301966577768326e-02 9.279289841651916504e-02
5.934422612190246582e-01 -4.557795822620391846e-03 2.900979481637477875e-02
-6.493726372718811035e-01 -5.049584060907363892e-02 6.783431023359298706e-02
-4.544401168823242188e-01 -5.344405770301818848e-02 9.003952145576477051e-02
-2.809951901435852051e-01 -9.154823422431945801e-02 3.578950464725494385e-02
-1.356950253248214722e-01 1.058122664690017700e-01 8.129563927650451660e-02
1.073994189500808716e-01 1.095821484923362732e-01 -1.162283867597579956e-02
-1.537603735923767090e-01 5.671897530555725098e-02 -5.392725020647048950e-02
1.361477971076965332e-01 1.164631918072700500e-01 6.619773805141448975e-02
-1.790024638175964355e-01 -8.765954524278640747e-03 -6.041808426380157471e-02
5.745656788349151611e-02 1.222647503018379211e-01 1.600441709160804749e-02
-7.416360080242156982e-03 8.049669861793518066e-02 -4.226284474134445190e-02
4.390306472778320312e-01 9.563146531581878662e-02 6.958387792110443115e-03
-2.543024420738220215e-01 -7.660773396492004395e-02 -1.932200044393539429e-02
5.560094118118286133e-01 -1.781564205884933472e-02 3.544472157955169678e-02
1.172768771648406982e-01 -4.691918939352035522e-02 -3.529869019985198975e-02
-3.090934455394744873e-01 -9.072460979223251343e-02 3.889760002493858337e-02
-2.323132455348968506e-01 1.114123538136482239e-01 1.698527485132217407e-03
3.771982192993164062e-01 -4.679308831691741943e-02 6.230711936950683594e-02
1.455655395984649658e-01 8.264102786779403687e-02 1.044634357094764709e-01
-6.342375278472900391e-01 -6.573261320590972900e-02 4.332873970270156860e-03
-2.054430544376373291e-01 1.165345907211303711e-01 1.382720097899436951e-02
-2.782146632671356201e-02 1.154552176594734192e-01 -3.179255872964859009e-03
3.059238940477371216e-02 6.294970959424972534e-02 1.165038719773292542e-01
5.556550025939941406e-01 1.774464920163154602e-02 7.720378786325454712e-02
4.675502777099609375e-01 3.505389764904975891e-02 9.515996277332305908e-02
4.630602002143859863e-01 5.267065018415451050e-02 9.299899637699127197e-02
6.350628733634948730e-01 3.565185517072677612e-02 4.973489046096801758e-02
-4.854965209960937500e-01 4.596507549285888672e-02 -4.161294549703598022e-02
2.523955702781677246e-01 -1.784697175025939941e-02 -4.097048193216323853e-02
-3.665711283683776855e-01 -9.000952541828155518e-02 2.636888623237609863e-02
5.069864988327026367e-01 2.910889685153961182e-02 8.897118270397186279e-02
-4.910600781440734863e-01 9.030806273221969604e-02 5.758897215127944946e-02
-4.654307365417480469e-01 -2.223781496286392212e-02 1.051248759031295776e-01
-1.429487019777297974e-01 1.192250922322273254e-01 1.465263590216636658e-02
7.591345906257629395e-02 -5.682302638888359070e-03 -5.625252425670623779e-02
-7.327956557273864746e-01 -5.331254005432128906e-02 3.117091953754425049e-02
2.701590657234191895e-01 7.346199452877044678e-02 1.037340983748435974e-01
-3.961297869682312012e-01 -8.896196633577346802e-02 2.678399160504341125e-02
-7.564388215541839600e-02 -6.774615496397018433e-02 -2.745559439063072205e-02
-4.425494670867919922e-01 7.591173797845840454e-02 -2.595909312367439270e-02
-6.301658153533935547e-01 -2.550728619098663330e-03 -3.625001758337020874e-02
-3.717728257179260254e-01 7.779239118099212646e-02 9.288894385099411011e-02
8.043824136257171631e-02 4.709757119417190552e-02 -5.501607805490493774e-02
4.691480398178100586e-01 -3.700174391269683838e-02 2.084431611001491547e-02
-7.953860759735107422e-01 6.170503795146942139e-03 -1.167211681604385376e-03
2.415604442358016968e-01 1.167454123497009277e-01 1.479781605303287506e-02
5.403454899787902832e-01 -1.278309524059295654e-02 6.115486472845077515e-02
-4.687020778656005859e-01 3.242138773202896118e-02 -4.790040105581283569e-02
-3.711705803871154785e-01 4.909935593605041504e-02 1.093969121575355530e-01
4.275773763656616211e-01 1.042385101318359375e-01 2.840879186987876892e-02
-9.234778583049774170e-02 -1.108462736010551453e-02 -5.964930355548858643e-02
-6.818886846303939819e-02 9.095646440982818604e-02 9.969691187143325806e-02
3.907714486122131348e-01 -4.798489809036254883e-02 1.076894626021385193e-02
-6.628558635711669922e-01 1.407008618116378784e-03 8.725339919328689575e-02
7.058621942996978760e-02 9.780935943126678467e-02 -2.707093581557273865e-02
-3.514389395713806152e-01 8.481372892856597900e-02 8.857955038547515869e-02
-4.613453745841979980e-01 -8.266749233007431030e-02 4.833880811929702759e-02
2.795516848564147949e-01 1.149795576930046082e-01 1.632104814052581787e-02
-1.419882774353027344e-01 -2.669749781489372253e-02 1.160492897033691406e-01
-2.811457216739654541e-01 6.594087183475494385e-02 1.077162623405456543e-01
-2.910798490047454834e-01 1.035676077008247375e-01 -7.634028792381286621e-03
-7.805445045232772827e-02 -4.263837262988090515e-02 -4.753690212965011597e-02
8.481739461421966553e-02 -8.096336573362350464e-02 1.302239485085010529e-02
1.191715896129608154e-01 -7.228267937898635864e-02 6.633415073156356812e-02
-4.362187385559082031e-01 -6.910973787307739258e-02 -2.093773335218429565e-02
1.328807920217514038e-01 -4.840267822146415710e-03 -5.368388444185256958e-02
5.346711874008178711e-01 3.434933722019195557e-02 8.390645682811737061e-02
-2.005272805690765381e-01 1.001936942338943481e-01 -2.048360183835029602e-02
-5.571804642677307129e-01 7.773626595735549927e-03 -4.427836090326309204e-02
-2.048901915550231934e-01 -5.785908550024032593e-02 9.752473235130310059e-02
-1.661908328533172607e-01 1.193537563085556030e-01 1.970307156443595886e-02
-3.022210001945495605e-01 -7.723732292652130127e-02 7.416720688343048096e-02
-4.369403123855590820e-01 -3.967629745602607727e-02 1.000550091266632080e-01
-3.829196095466613770e-01 3.084280528128147125e-03 1.151973307132720947e-01
5.082395076751708984e-01 -1.098825596272945404e-02 -5.023635923862457275e-03
-3.329117000102996826e-01 2.106589265167713165e-02 1.178323701024055481e-01
-3.027516603469848633e-02 1.218355000019073486e-01 5.188217014074325562e-02
-2.222914248704910278e-01 8.538294583559036255e-02 9.823423624038696289e-02
1.233045011758804321e-02 9.700384736061096191e-02 -2.882665768265724182e-02
-4.721867442131042480e-01 3.208193928003311157e-03 1.090391948819160461e-01
2.208079248666763306e-01 1.034322008490562439e-01 -1.346597820520401001e-02
-3.614410161972045898e-01 8.547773584723472595e-03 -5.756337940692901611e-02
1.828253418207168579e-01 2.123170718550682068e-02 1.194695308804512024e-01
-2.137843966484069824e-01 1.053848862648010254e-01 -1.211309805512428284e-02
5.873154997825622559e-01 1.278859563171863556e-03 5.694478750228881836e-02
-4.757689833641052246e-01 -3.392734378576278687e-02 9.993536025285720825e-02
5.468347668647766113e-01 -1.914743334054946899e-04 7.098665088415145874e-02
-4.670877456665039062e-01 -9.282527491450309753e-03 -5.080686509609222412e-02
6.172198057174682617e-01 4.888745024800300598e-02 5.687372386455535889e-02
-2.976862788200378418e-01 3.158162534236907959e-02 1.183048784732818604e-01
4.366628527641296387e-01 3.936579823493957520e-02 9.894577413797378540e-02
-2.772679626941680908e-01 6.245397403836250305e-02 -4.773202538490295410e-02
-4.684967398643493652e-01 -8.539827913045883179e-02 2.731547318398952484e-02
-4.227281808853149414e-01 4.175178706645965576e-02 -4.839482903480529785e-02
-7.880313992500305176e-01 1.069728285074234009e-03 5.867224186658859253e-02
-3.293844461441040039e-01 8.566305786371231079e-02 8.992886543273925781e-02
-2.055297046899795532e-01 -7.609826326370239258e-02 7.806856185197830200e-02
1.161667704582214355e-02 -6.036107242107391357e-02 9.171944856643676758e-02
-3.607859015464782715e-01 -2.494141086935997009e-02 1.107909530401229858e-01
-2.816362977027893066e-01 9.651436656713485718e-02 8.250349760055541992e-02
-4.460249543190002441e-01 9.448317438364028931e-02 7.858201861381530762e-04
-3.064033389091491699e-01 1.028901264071464539e-01 7.003149390220642090e-02
-6.465744376182556152e-01 7.254175841808319092e-02 2.459526993334293365e-02
-1.963375508785247803e-01 5.791546776890754700e-02 1.153248697519302368e-01
3.910292685031890869e-02 1.168652474880218506e-01 -3.503337502479553223e-04
1.552454084157943726e-01 1.149249821901321411e-01 2.824272960424423218e-04
4.691454768180847168e-01 -1.398704200983047485e-02 -1.230755075812339783e-02
7.019615173339843750e-02 -5.028007924556732178e-02 9.794165939092636108e-02
-1.741751730442047119e-01 -5.925318598747253418e-02 -3.776653110980987549e-02
2.237522453069686890e-01 7.215811312198638916e-02 1.070784777402877808e-01
-3.725624084472656250e-01 -4.406936839222908020e-02 -4.446948319673538208e-02
-2.970082759857177734e-01 -7.316261529922485352e-02 -2.303684502840042114e-02
-1.469542831182479858e-01 -7.754588872194290161e-02 -1.722577214241027832e-02
-1.936573088169097900e-01 5.747371353209018707e-03 -6.190600991249084473e-02
-5.112955346703529358e-02 1.206918135285377502e-01 5.506882444024085999e-02
8.389583230018615723e-02 -8.113503456115722656e-03 1.189300566911697388e-01
-1.004016697406768799e-01 -9.054285287857055664e-02 3.568760305643081665e-02
-1.841946244239807129e-01 -4.374796152114868164e-02 -4.826357215642929077e-02
-8.542571961879730225e-02 7.564613223075866699e-02 1.099402233958244324e-01
-8.539585024118423462e-02 6.396686285734176636e-02 -5.149073898792266846e-02
-2.377079725265502930e-01 1.032225415110588074e-01 7.745626568794250488e-02
4.854685664176940918e-01 6.254227831959724426e-03 8.798538148403167725e-02
-2.564714550971984863e-01 3.110618889331817627e-02 1.201551705598831177e-01
-5.867266058921813965e-01 1.602769829332828522e-02 -4.031444340944290161e-02
-2.390882819890975952e-01 1.158673241734504700e-01 1.891614496707916260e-02
-1.384997814893722534e-01 3.246591985225677490e-02 -6.077816337347030640e-02
-1.201604604721069336e-01 -7.545278221368789673e-02 -1.947251334786415100e-02
6.164704561233520508e-01 7.451843470335006714e-03 2.595508657395839691e-02
-2.826279401779174805e-01 -7.474949210882186890e-02 7.840315997600555420e-02
-8.174714446067810059e-01 -7.642593234777450562e-03 4.449489340186119080e-02
-2.621056437492370605e-01 7.158297300338745117e-02 -4.318261891603469849e-02
-5.277246236801147461e-01 9.067793190479278564e-02 2.065949141979217529e-02
-6.282767653465270996e-01 -2.301670610904693604e-02 8.796074986457824707e-02
-4.710329174995422363e-01 -5.066655576229095459e-02 9.073176980018615723e-02
-2.174209654331207275e-01 -3.468189015984535217e-02 -5.257535725831985474e-02
3.979442715644836426e-01 -2.991755679249763489e-02 -1.398110762238502502e-02
-5.071198940277099609e-01 8.775793015956878662e-02 1.631308346986770630e-03
5.877727270126342773e-01 6.730297952890396118e-02 1.635369472205638885e-02
-3.284954726696014404e-01 4.344751313328742981e-02 -5.331178754568099976e-02
2.784136533737182617e-01 9.411589801311492920e-02 -1.908733695745468140e-02
5.492668151855468750e-01 7.068181037902832031e-02 6.685124337673187256e-02
1.455764472484588623e-01 6.433449685573577881e-02 -4.686322808265686035e-02
1.380322575569152832e-01 8.096435666084289551e-02 -3.840806335210800171e-02
-2.143255323171615601e-01 -2.335395663976669312e-03 1.214241534471511841e-01
-6.508325338363647461e-01 -1.740184426307678223e-02 8.640755712985992432e-02
3.984997272491455078e-01 6.739947944879531860e-02 9.557046741247177124e-02
-5.122324228286743164e-01 7.620987482368946075e-03 1.056628078222274780e-01
3.192354738712310791e-02 -1.959019154310226440e-02 1.168541535735130310e-01
-2.617995142936706543e-01 -4.241281375288963318e-02 -4.844052344560623169e-02
3.971991539001464844e-01 -4.710916429758071899e-03 9.695614874362945557e-02
-1.779937446117401123e-01 -2.848412841558456421e-02 -5.517011880874633789e-02
6.343626976013183594e-02 -8.416558802127838135e-02 3.131092339754104614e-02
-2.451272159814834595e-01 2.950225397944450378e-02 -5.964078009128570557e-02
1.359713971614837646e-01 -7.890171557664871216e-02 4.019321873784065247e-02
1.199944019317626953e-01 1.153653115034103394e-01 -9.393654763698577881e-04
-7.004348039627075195e-01 6.113241612911224365e-02 3.386682271957397461e-02
-4.220177531242370605e-01 5.970940738916397095e-02 -4.014074057340621948e-02
5.186845660209655762e-01 8.368957787752151489e-02 1.091190986335277557e-02
-2.403544336557388306e-01 8.976662904024124146e-02 9.323528409004211426e-02
3.534951806068420410e-01 -5.585123598575592041e-02 4.649012908339500427e-02
3.463647365570068359e-01 1.006975322961807251e-01 -3.223292529582977295e-03
-4.131123423576354980e-03 -8.735172450542449951e-02 2.414632216095924377e-02
-4.738405942916870117e-01 9.160108119249343872e-02 5.953754112124443054e-02
2.964221835136413574e-01 4.374808073043823242e-02 1.116437092423439026e-01
2.300225347280502319e-01 5.435418337583541870e-02 1.134254187345504761e-01
2.570865154266357422e-01 5.643206089735031128e-02 1.113301590085029602e-01
-2.501589059829711914e-01 -9.119049459695816040e-02 4.104009643197059631e-02
1.586087793111801147e-01 2.803356945514678955e-02 1.205125898122787476e-01
6.217715144157409668e-02 3.188099712133407593e-02 1.231111064553260803e-01
-1.190756335854530334e-01 -1.884899288415908813e-02 1.188959926366806030e-01
-1.529563367366790771e-01 -2.917709201574325562e-02 -5.486039072275161743e-02
2.223074883222579956e-01 -6.188811361789703369e-02 -6.522234529256820679e-03
1.537051796913146973e-01 4.488130286335945129e-02 -5.266214162111282349e-02
2.909874320030212402e-01 9.575967490673065186e-02 8.578085899353027344e-02
4.599584341049194336e-01 4.252031445503234863e-02 -2.590835094451904297e-02
1.555827707052230835e-01 -8.189857006072998047e-03 -5.157250165939331055e-02
2.918803095817565918e-01 1.532005891203880310e-02 1.124814823269844055e-01
-5.550991296768188477e-01 -5.070476233959197998e-02 8.217996358871459961e-02
3.407772779464721680e-01 7.277773320674896240e-02 9.867060184478759766e-02
-2.600626051425933838e-01 1.079039499163627625e-01 6.665161252021789551e-02
-7.109938263893127441e-01 5.738081410527229309e-02 1.680698990821838379e-02
6.301193237304687500e-01 1.637469604611396790e-02 4.326684400439262390e-02
-3.154310584068298340e-01 1.121829301118850708e-01 3.044359013438224792e-02
3.304703235626220703e-01 -5.714378505945205688e-02 5.300723388791084290e-02
-6.189672350883483887e-01 -1.661434769630432129e-02 -3.583194315433502197e-02
4.902492165565490723e-01 -3.410355374217033386e-02 3.041989542543888092e-02
2.016120702028274536e-01 -6.915201991796493530e-02 5.846066772937774658e-02
2.832295298576354980e-01 -4.512903094291687012e-02 -1.878734305500984192e-02
1.719797104597091675e-01 6.000041589140892029e-02 1.143319159746170044e-01
2.536006569862365723e-01 7.583212852478027344e-02 -3.504839539527893066e-02
4.941448569297790527e-03 -9.083362296223640442e-03 1.207086294889450073e-01
-7.482838630676269531e-01 -3.588662669062614441e-02 5.675865709781646729e-02
4.201627969741821289e-01 -2.450509741902351379e-02 -1.437051221728324890e-02
-2.723756730556488037e-01 4.552958905696868896e-02 1.163700595498085022e-01
-2.299079149961471558e-01 -8.897086977958679199e-02 5.714906379580497742e-03
-5.594147443771362305e-01 -4.099870473146438599e-02 -3.321487456560134888e-02
-4.254751205444335938e-01 -8.080825954675674438e-02 -3.563564270734786987e-03
4.041637778282165527e-01 1.467680092900991440e-02 1.018084138631820679e-01
3.742897510528564453e-01 1.021947935223579407e-01 4.087500274181365967e-03
-4.050894379615783691e-01 -8.134777843952178955e-02 5.991218984127044678e-02
4.834542274475097656e-01 -1.977066695690155029e-02 -3.872442990541458130e-03
-6.442221403121948242e-01 -4.548572748899459839e-02 -1.931744441390037537e-02
3.491371273994445801e-01 7.354639470577239990e-02 -2.802050113677978516e-02
-6.087113022804260254e-01 6.033924221992492676e-02 7.334142923355102539e-02
-6.740344762802124023e-01 -3.926945850253105164e-02 -1.862684637308120728e-02
-3.587053418159484863e-01 1.073578521609306335e-01 1.596966385841369629e-02
3.268760442733764648e-01 -6.150081753730773926e-04 -3.960627317428588867e-02
-4.134603738784790039e-01 7.643163204193115234e-02 8.959889411926269531e-02
-2.563173323869705200e-02 8.643398433923721313e-02 -3.817091137170791626e-02
-2.821289300918579102e-01 -7.853075116872787476e-02 -1.603220030665397644e-02
-4.563812017440795898e-01 -7.320883125066757202e-02 6.893355399370193481e-02
3.523140549659729004e-01 1.086409091949462891e-01 1.378135941922664642e-02
3.426531553268432617e-01 2.698751166462898254e-03 1.056463420391082764e-01
-5.466399192810058594e-01 7.419929653406143188e-02 7.121033966541290283e-02
-1.571173071861267090e-01 1.041150763630867004e-01 -1.759323850274085999e-02
4.583041071891784668e-01 7.466796040534973145e-02 8.342199027538299561e-02
-1.777253150939941406e-01 9.081050753593444824e-02 -3.186546266078948975e-02
3.154985904693603516e-01 -4.346901178359985352e-02 8.031286299228668213e-02
-2.549325823783874512e-01 -6.325435638427734375e-02 -3.419515490531921387e-02
-6.262527406215667725e-02 1.425615604966878891e-02 -6.200097501277923584e-02
3.767142295837402344e-01 8.041451126337051392e-02 9.039096534252166748e-02
-3.753463029861450195e-01 4.937622323632240295e-02 -4.860410839319229126e-02
7.783311605453491211e-02 1.184952910989522934e-02 -5.847169458866119385e-02
3.060417771339416504e-01 8.451980352401733398e-02 9.429589658975601196e-02
-9.568682312965393066e-02 -8.453483879566192627e-02 6.066697835922241211e-02
3.207435011863708496e-01 1.451173983514308929e-02 1.100749820470809937e-01
2.858121991157531738e-01 6.385652720928192139e-02 1.069978550076484680e-01
6.969968974590301514e-02 5.754472687840461731e-02 1.179152652621269226e-01
5.638670921325683594e-02 1.220878139138221741e-01 5.265469849109649658e-02
5.587595105171203613e-01 1.340641640126705170e-03 8.833426982164382935e-04
-2.211032956838607788e-01 -8.345725387334823608e-02 6.563064455986022949e-02
-6.284210830926895142e-02 -8.794073760509490967e-02 1.241602376103401184e-02
-2.077021002769470215e-01 -6.907087564468383789e-02 -2.873473241925239563e-02
-7.771907746791839600e-02 1.189848631620407104e-01 5.885754525661468506e-02
-1.513132452964782715e-01 7.114113867282867432e-02 1.107695847749710083e-01
3.296014070510864258e-01 -5.617684870958328247e-02 8.520197123289108276e-03
9.569548070430755615e-02 -5.167340487241744995e-02 -3.309093415737152100e-02
-2.690273225307464600e-01 1.103370413184165955e-01 4.276044666767120361e-03
-1.106446683406829834e-01 2.359237335622310638e-02 1.244171187281608582e-01
-6.438527703285217285e-01 -6.862907856702804565e-02 1.958267018198966980e-02
3.213734626770019531e-01 2.244243212044239044e-02 -4.345991462469100952e-02
-3.836768269538879395e-01 1.048925668001174927e-01 4.805498197674751282e-02
-4.506813883781433105e-01 -1.267026737332344055e-02 1.086613908410072327e-01
-1.290322542190551758e-01 1.214751899242401123e-01 2.659188583493232727e-02
-2.301955819129943848e-01 1.933183707296848297e-02 1.221557259559631348e-01
-9.910339117050170898e-02 1.074398308992385864e-01 -1.522169262170791626e-02
5.050438642501831055e-02 -2.918302267789840698e-02 1.122364029288291931e-01
3.655484318733215332e-01 7.584109902381896973e-02 -2.483323961496353149e-02
1.950145810842514038e-01 1.205843612551689148e-01 2.282714098691940308e-02
1.082238107919692993e-01 4.097807221114635468e-03 1.207556948065757751e-01
-5.888593792915344238e-01 -2.279195934534072876e-02 9.311306476593017578e-02
-1.073245629668235779e-01 5.427717417478561401e-02 1.189255714416503906e-01
2.721170186996459961e-01 -2.452675253152847290e-02 -3.579095005989074707e-02
2.795656025409698486e-02 -2.476404979825019836e-02 -5.258998274803161621e-02
3.674564957618713379e-01 4.604316502809524536e-02 -3.676259517669677734e-02
-3.479015231132507324e-01 1.348180137574672699e-02 1.174097806215286255e-01
5.646296143531799316e-01 5.949548259377479553e-02 7.063114643096923828e-02
3.651584982872009277e-01 9.600458294153213501e-02 7.726666331291198730e-02
2.493011504411697388e-01 1.945922337472438812e-02 1.157895475625991821e-01
1.080074757337570190e-01 3.480500727891921997e-02 -5.640404671430587769e-02
-4.720223546028137207e-01 9.699283540248870850e-02 4.277745261788368225e-02
-1.176306307315826416e-01 6.732706725597381592e-02 1.135853156447410583e-01
-1.045632511377334595e-01 1.011197790503501892e-01 8.871060609817504883e-02
-7.559429407119750977e-01 -4.792720824480056763e-02 2.638785541057586670e-02
4.849001169204711914e-01 -3.367588669061660767e-02 4.649839177727699280e-02
-6.483408212661743164e-01 3.585173934698104858e-02 -2.568408101797103882e-02
-1.356149017810821533e-01 1.367818564176559448e-03 1.232527717947959900e-01
-3.359856009483337402e-01 -4.292702302336692810e-02 -4.641845077276229858e-02
-1.285902261734008789e-01 -5.754536390304565430e-02 -3.855002671480178833e-02
-2.238372266292572021e-01 5.008180812001228333e-02 1.170640960335731506e-01
-5.961008071899414062e-01 -7.479206472635269165e-02 3.027828969061374664e-02
-1.195723563432693481e-01 -9.043569117784500122e-02 4.049137979745864868e-02
-3.211363032460212708e-02 -6.506752222776412964e-02 -2.841452509164810181e-02
-3.150838017463684082e-01 -3.035636246204376221e-02 1.108262911438941956e-01
-1.804247945547103882e-01 1.653160899877548218e-02 -6.207296997308731079e-02
-3.914304971694946289e-01 -7.186532765626907349e-02 7.654770463705062866e-02
-6.860983967781066895e-01 3.570233285427093506e-02 7.496706396341323853e-02
-3.556807041168212891e-01 7.023097574710845947e-02 9.993913024663925171e-02
3.618573546409606934e-01 5.662028864026069641e-02 1.034349203109741211e-01
-1.871094107627868652e-02 -3.994365781545639038e-02 -4.727607220411300659e-02
5.143460631370544434e-01 7.154739648103713989e-02 -3.848731517791748047e-03
4.589319229125976562e-01 -3.841222450137138367e-02 4.828219860792160034e-02
-5.246851444244384766e-01 -8.149591088294982910e-02 2.916151471436023712e-02
-3.756549954414367676e-01 7.882670313119888306e-02 -3.019475936889648438e-02
-1.077740788459777832e-01 2.650699764490127563e-02 -6.165651977062225342e-02
3.202942013740539551e-01 1.129251047968864441e-01 5.117705091834068298e-02
9.716548025608062744e-03 1.237262561917304993e-01 4.328612610697746277e-02
-1.348078250885009766e-01 -7.510717958211898804e-02 7.910981774330139160e-02
-5.162186622619628906e-01 -2.240066975355148315e-02 1.008338481187820435e-01
-4.802824184298515320e-02 -6.968708336353302002e-02 8.383859694004058838e-02
4.170046448707580566e-01 3.195376321673393250e-02 -3.294660151004791260e-02
1.365852802991867065e-01 -1.186750829219818115e-02 1.157097816467285156e-01
-5.957748368382453918e-02 -4.288974776864051819e-02 1.076194941997528076e-01
5.089709162712097168e-01 5.032988265156745911e-02 8.640620112419128418e-02
-1.212649047374725342e-03 -6.799585372209548950e-02 -2.330470830202102661e-02
-2.008907794952392578e-01 -2.034733444452285767e-02 1.175958439707756042e-01
2.609034180641174316e-01 3.576394170522689819e-02 1.149460151791572571e-01
-2.997051477432250977e-01 1.127687767148017883e-01 4.069031029939651489e-02
-1.139428839087486267e-01 1.122848913073539734e-01 -6.510879844427108765e-03
3.865859508514404297e-01 4.843609407544136047e-02 1.031453311443328857e-01
-2.473141700029373169e-01 -9.089921414852142334e-02 1.400632970035076141e-02
-7.099568247795104980e-01 6.023182533681392670e-03 -2.371552586555480957e-02
-4.835876822471618652e-01 7.039994001388549805e-02 8.592762053012847900e-02
2.416405826807022095e-02 9.814894199371337891e-02 9.421469271183013916e-02
-5.662755370140075684e-01 4.364783316850662231e-02 9.189691394567489624e-02
5.412870049476623535e-01 8.391582965850830078e-02 2.193493396043777466e-02
-3.479823470115661621e-01 4.839497804641723633e-02 -5.057573318481445312e-02
2.495646327733993530e-01 -6.357824057340621948e-02 6.084275245666503906e-02
-5.624700784683227539e-01 1.984794065356254578e-02 9.950740635395050049e-02
1.723033189773559570e-02 2.275189384818077087e-02 -6.037476658821105957e-02
-4.665353894233703613e-01 8.404600620269775391e-02 -1.335193216800689697e-02
-3.305888175964355469e-01 4.182873666286468506e-02 1.143531277775764465e-01
7.960368692874908447e-02 9.878204762935638428e-02 9.315867722034454346e-02
-3.078209757804870605e-01 5.581733211874961853e-02 1.109063774347305298e-01
1.456190049648284912e-01 -2.367505058646202087e-02 -4.689040780067443848e-02
-3.970803618431091309e-01 2.649886906147003174e-02 1.133907958865165710e-01
-5.127478837966918945e-01 9.103790670633316040e-02 4.735239595174789429e-02
-1.636558026075363159e-01 8.651939779520034790e-02 1.002578809857368469e-01
-1.473626941442489624e-01 8.949807845056056976e-03 -6.231098622083663940e-02
-5.689294338226318359e-01 2.597871236503124237e-03 9.979699552059173584e-02
-7.396131753921508789e-01 -4.469320178031921387e-02 3.207977861166000366e-03
3.050279617309570312e-01 -4.393290728330612183e-03 1.069900318980216980e-01
-2.360262721776962280e-02 5.022667348384857178e-02 -5.639170855283737183e-02
5.974635481834411621e-01 6.636558473110198975e-02 5.125428736209869385e-02
1.114554703235626221e-01 -4.328981786966323853e-02 1.010130196809768677e-01
-5.356584787368774414e-01 -1.405384391546249390e-02 1.011925414204597473e-01
-8.302847743034362793e-01 -8.702265098690986633e-03 2.325027063488960266e-02
-8.513184636831283569e-02 -8.788969367742538452e-02 9.247144684195518494e-03
-1.839844733476638794e-01 -8.632670342922210693e-02 -1.408744603395462036e-03
2.315570265054702759e-01 2.066132985055446625e-02 1.169241592288017273e-01
-1.642967164516448975e-01 -8.497353643178939819e-02 6.215114146471023560e-02
1.839684695005416870e-01 2.609017118811607361e-02 -5.356442928314208984e-02
-3.822828531265258789e-01 -8.831783384084701538e-02 1.446902565658092499e-02
-1.015853807330131531e-01 -8.868248015642166138e-02 1.067589782178401947e-02
9.634099900722503662e-02 9.676418453454971313e-02 9.480392187833786011e-02
-6.526692509651184082e-01 -6.502877920866012573e-02 4.379695653915405273e-02
-4.239425063133239746e-01 2.511978521943092346e-02 1.116848662495613098e-01
-5.739196389913558960e-02 1.302882377058267593e-02 1.246361583471298218e-01
-4.384599924087524414e-01 3.798259422183036804e-03 -5.357812345027923584e-02
2.587338089942932129e-01 -3.891624882817268372e-02 -2.776521444320678711e-02
2.671734690666198730e-01 -6.326925009489059448e-02 5.692300945520401001e-02
3.950428962707519531e-01 1.029587909579277039e-01 6.068726629018783569e-02
-2.714049816131591797e-01 8.446286618709564209e-02 -3.301138430833816528e-02
2.573670148849487305e-01 1.184111461043357849e-01 2.799591794610023499e-02
-4.164991155266761780e-02 3.612069785594940186e-02 1.236194893717765808e-01
-3.624140024185180664e-01 -2.414202317595481873e-02 -5.304735898971557617e-02
-4.980306327342987061e-02 -2.175122871994972229e-02 1.176201179623603821e-01
-6.101862192153930664e-01 7.823857665061950684e-02 3.984527662396430969e-02
-3.437574505805969238e-01 -8.713945001363754272e-02 4.767984151840209961e-03
5.101096630096435547e-02 -2.544869855046272278e-02 -5.135459452867507935e-02
2.492878288030624390e-01 -6.117285043001174927e-02 -2.462048083543777466e-03
-1.700586229562759399e-01 1.201129332184791565e-01 3.694234043359756470e-02
-1.838926970958709717e-01 -5.770711600780487061e-02 9.783529490232467651e-02
-3.447044491767883301e-01 8.600148558616638184e-02 -2.605256065726280212e-02
-7.878332734107971191e-01 2.734426036477088928e-02 8.192768320441246033e-03
1.461899578571319580e-01 -6.356156617403030396e-02 7.772952318191528320e-02
2.326935976743698120e-01 -1.517085358500480652e-02 1.087999045848846436e-01
4.296886920928955078e-02 1.030025035142898560e-01 8.905453979969024658e-02
3.659039735794067383e-02 -8.543906360864639282e-02 2.463293075561523438e-02
-3.187992572784423828e-01 -8.485540747642517090e-02 5.929374694824218750e-02
-4.524199962615966797e-01 4.941639676690101624e-02 -4.298266023397445679e-02
5.572151541709899902e-01 7.545822858810424805e-02 1.330978423357009888e-02
-1.234192624688148499e-01 9.668479114770889282e-02 9.277254343032836914e-02
2.485477924346923828e-02 -7.253233343362808228e-02 -1.516833901405334473e-02
5.122370123863220215e-01 1.565727218985557556e-02 -1.674786582589149475e-02
-2.063502669334411621e-01 6.690622866153717041e-02 -4.802648723125457764e-02
4.346939921379089355e-02 3.346903622150421143e-02 -5.871391296386718750e-02
-3.332985043525695801e-01 -4.616047069430351257e-02 1.022228598594665527e-01
3.635458946228027344e-01 -3.425168618559837341e-02 8.219218254089355469e-02
-2.440901845693588257e-01 1.028483510017395020e-01 -1.363515853881835938e-02
-8.153201341629028320e-01 9.158885106444358826e-03 9.988790377974510193e-03
-1.413653194904327393e-01 -9.143243730068206787e-02 2.348890341818332672e-02
-2.505989968776702881e-01 -8.208852261304855347e-02 6.779204308986663818e-02
-3.018614649772644043e-01 2.717320621013641357e-02 -5.830618739128112793e-02
-4.016637206077575684e-01 4.150160402059555054e-02 -4.989740997552871704e-02
-3.607723712921142578e-01 7.364850491285324097e-02 -3.572796285152435303e-02
4.108031988143920898e-01 1.045827269554138184e-01 2.011427469551563263e-02
1.365645676851272583e-01 -6.479579210281372070e-02 -1.486846804618835449e-02
1.350206583738327026e-01 2.265479043126106262e-02 -5.621305108070373535e-02
-3.942896723747253418e-01 -4.490423947572708130e-02 -4.305175691843032837e-02
3.583378791809082031e-01 -4.986459016799926758e-02 3.452209755778312683e-03
-1.075191572308540344e-01 1.138411536812782288e-01 6.945949792861938477e-02
-5.805615782737731934e-01 7.995963096618652344e-02 5.133234709501266479e-02
2.621877193450927734e-01 9.980535507202148438e-02 8.381511270999908447e-02
-6.041232347488403320e-01 1.858133822679519653e-02 -3.781577199697494507e-02
-6.001319885253906250e-01 -7.225922495126724243e-02 1.070467010140419006e-02
4.212046861648559570e-01 6.611920893192291260e-02 9.350030124187469482e-02
3.528122305870056152e-01 -7.890878245234489441e-03 -3.430135548114776611e-02
-5.901291370391845703e-01 -4.564663022756576538e-02 8.149641752243041992e-02
5.296491980552673340e-01 5.876444280147552490e-02 -8.468933403491973877e-03
3.390791416168212891e-01 5.839567258954048157e-02 -3.606687486171722412e-02
-7.057121992111206055e-01 5.493601039052009583e-02 4.985875636339187622e-02
-1.072350442409515381e-01 8.338415622711181641e-02 1.045477539300918579e-01
-1.661065220832824707e-01 -3.731174394488334656e-02 1.111753731966018677e-01
-1.708965003490447998e-02 -7.862347364425659180e-02 6.835339963436126709e-02
-9.921505302190780640e-02 8.920203894376754761e-02 -3.544401377439498901e-02
-6.011589765548706055e-01 -2.826768904924392700e-02 -3.452954441308975220e-02
1.843208819627761841e-02 4.523930139839649200e-03 1.231375783681869507e-01
-3.686472773551940918e-01 9.450571984052658081e-02 -1.282994821667671204e-02
-7.528081536293029785e-02 1.227102428674697876e-01 2.457591146230697632e-02
4.197009205818176270e-01 -5.639921873807907104e-03 9.348139166831970215e-02
5.293649435043334961e-01 -6.564553827047348022e-03 -2.526972442865371704e-03
2.622227668762207031e-01 -6.968975067138671875e-04 -4.571910202503204346e-02
-8.171387910842895508e-01 -2.351484447717666626e-02 2.488715946674346924e-02
-5.103256925940513611e-02 -8.535872399806976318e-02 5.498594790697097778e-02
-7.748621702194213867e-01 -1.889622956514358521e-02 5.927856266498565674e-02
2.487780898809432983e-02 6.408902816474437714e-03 -5.986139923334121704e-02
-9.621061384677886963e-02 1.207826584577560425e-01 1.554846204817295074e-02
-6.035366058349609375e-01 5.777511373162269592e-02 -1.867578551173210144e-02
5.803065896034240723e-01 5.247927829623222351e-02 1.824438571929931641e-03
2.133599966764450073e-01 -4.238194227218627930e-02 -3.013262152671813965e-02
9.850740432739257812e-02 1.238798052072525024e-01 3.205205872654914856e-02
2.288182824850082397e-02 -4.270801320672035217e-02 -4.394908249378204346e-02
-5.173228681087493896e-03 -6.891240924596786499e-02 8.282861113548278809e-02
-1.105971857905387878e-01 -4.094209149479866028e-02 -4.911739379167556763e-02
-4.067681431770324707e-01 -7.154759764671325684e-02 -2.006504684686660767e-02
-4.631428122520446777e-01 2.262512221932411194e-02 1.089406982064247131e-01
1.508199516683816910e-02 -6.109429895877838135e-02 -1.120114028453826904e-01
3.383354842662811279e-02 -7.726053893566131592e-02 -1.165531873703002930e-01
3.845972940325737000e-02 -9.589810669422149658e-02 -1.249789223074913025e-01
5.806469917297363281e-01 -4.813381284475326538e-02 -9.718014299869537354e-02
