3.080537021160125732e-01 -6.479480862617492676e-02 1.271572262048721313e-01
2.495101392269134521e-01 -4.448208957910537720e-02 -1.576591730117797852e-01
2.322528958320617676e-01 -7.215851545333862305e-02 1.115905195474624634e-01
1.405902206897735596e-01 -2.003112882375717163e-01 -2.404404133558273315e-01
3.197477161884307861e-01 -3.843040764331817627e-02 -2.302903980016708374e-01
4.990421235561370850e-01 -1.455204337835311890e-01 1.235101819038391113e-01
5.519269704818725586e-01 -1.373812854290008545e-01 -2.608053386211395264e-03
5.376518964767456055e-01 -1.326517462730407715e-01 -2.152320295572280884e-01
5.101692676544189453e-01 -4.284624755382537842e-02 -1.818090975284576416e-01
5.909959673881530762e-01 -9.785598516464233398e-02 -1.087159290909767151e-01
3.544890284538269043e-01 -2.023807168006896973e-01 -8.792717754840850830e-02
3.867036104202270508e-01 -1.936447024345397949e-01 -1.381787806749343872e-01
1.354690194129943848e-01 -2.144184112548828125e-01 1.193106174468994141e-02
1.790876388549804688e-01 -7.099214941263198853e-02 -3.129558265209197998e-01
2.140474766492843628e-01 -1.444459110498428345e-01 2.499655038118362427e-01
9.955482184886932373e-02 -9.098275750875473022e-02 -2.676215767860412598e-01
2.707827389240264893e-01 -1.658436059951782227e-01 -3.815126419067382812e-01
1.977976858615875244e-01 -1.639850735664367676e-01 -3.859274387359619141e-01
4.439921379089355469e-01 -1.829759180545806885e-01 -7.189765572547912598e-03
4.487166404724121094e-01 -1.312860548496246338e-01 2.095114141702651978e-01
2.795734107494354248e-01 -6.976564228534698486e-02 1.346674710512161255e-01
2.488118112087249756e-01 -9.861236065626144409e-02 -4.357805848121643066e-01
2.467038184404373169e-01 -8.844432234764099121e-02 1.824335604906082153e-01
4.727503061294555664e-01 -1.441457420587539673e-01 -2.993721365928649902e-01
6.371617317199707031e-02 -2.030904144048690796e-01 -1.180066615343093872e-01
5.164563655853271484e-01 -4.275654256343841553e-02 -1.204303726553916931e-01
4.964645206928253174e-01 -1.612095385789871216e-01 4.939110577106475830e-02
2.863021492958068848e-01 -1.967985481023788452e-01 1.566451489925384521e-01
4.820722341537475586e-01 -5.442935973405838013e-02 -3.073576986789703369e-01
3.747440874576568604e-01 -1.794097721576690674e-01 -2.713265120983123779e-01
4.849991500377655029e-01 -1.127826794981956482e-01 1.824834495782852173e-01
3.461580872535705566e-01 -2.042679488658905029e-01 -1.071490347385406494e-03
3.899481892585754395e-01 -1.885430514812469482e-01 -1.870317459106445312e-01
4.017690122127532959e-01 -3.235426545143127441e-02 -1.484279334545135498e-01
1.341785788536071777e-01 -8.919596672058105469e-02 7.202190160751342773e-02
4.541251063346862793e-02 -1.057202741503715515e-01 -1.361725032329559326e-01
3.661053776741027832e-01 -1.732140481472015381e-01 1.994759887456893921e-01
1.748899966478347778e-01 -7.920259237289428711e-02 8.265291154384613037e-02
2.774103283882141113e-01 -1.341814249753952026e-01 -4.371039271354675293e-01
3.918823003768920898e-01 -3.342828899621963501e-02 -9.199365228414535522e-02
1.645280867815017700e-01 -6.492221355438232422e-02 -2.323612272739410400e-01
3.406533896923065186e-01 -1.824695616960525513e-01 -2.882415950298309326e-01
1.934954971075057983e-01 -1.905686855316162109e-01 1.893166154623031616e-01
5.270996689796447754e-01 -1.351214796304702759e-01 -2.320923507213592529e-01
4.483075141906738281e-01 -1.535349786281585693e-01 -2.994493842124938965e-01
1.944554001092910767e-01 -1.759631931781768799e-01 -3.551667928695678711e-01
4.961803555488586426e-02 -1.219382062554359436e-01 -2.688642740249633789e-01
4.455146491527557373e-01 -7.039582729339599609e-02 1.447625309228897095e-01
1.142732948064804077e-01 -2.135166823863983154e-01 -7.529119402170181274e-02
2.136765569448471069e-01 -6.756009161472320557e-02 -3.399223089218139648e-01
4.455795884132385254e-01 -1.535099595785140991e-01 1.796054691076278687e-01
2.824203372001647949e-01 -2.125441581010818481e-01 -1.775249838829040527e-04
3.289611935615539551e-01 -2.073155343532562256e-01 -2.739395201206207275e-02
9.974569082260131836e-02 -1.995958983898162842e-01 9.710623323917388916e-02
2.851366698741912842e-01 -1.684549748897552490e-01 -3.708263635635375977e-01
5.750699043273925781e-01 -1.152373403310775757e-01 3.146238625049591064e-03
2.803398370742797852e-01 -2.044555842876434326e-01 -1.948168575763702393e-01
4.943954348564147949e-01 -1.668711900711059570e-01 -7.470357418060302734e-02
4.669317603111267090e-02 -1.290282756090164185e-01 5.941516160964965820e-02
1.824067234992980957e-01 -6.072514504194259644e-02 -4.916776344180107117e-02
3.823100924491882324e-01 -5.656851083040237427e-02 1.064087301492691040e-01
1.181516051292419434e-02 -1.331546902656555176e-01 -5.840740725398063660e-02
1.466255635023117065e-01 -2.164295911788940430e-01 -2.645760029554367065e-02
1.382158547639846802e-01 -1.135175004601478577e-01 1.629501432180404663e-01
2.935427725315093994e-01 -3.860522061586380005e-02 -1.368716657161712646e-01
4.614235460758209229e-01 -1.611442863941192627e-01 1.337300091981887817e-01
2.948052585124969482e-01 -1.407801061868667603e-01 -4.274234175682067871e-01
1.491524726152420044e-01 -6.569522619247436523e-02 -1.411547958850860596e-01
4.125599861145019531e-01 -1.807519793510437012e-01 -2.089892327785491943e-01
3.677234053611755371e-01 -4.321404546499252319e-02 -3.032144010066986084e-01
3.001629710197448730e-01 -9.315040707588195801e-02 -4.402781128883361816e-01
3.394068181514739990e-01 -1.424911022186279297e-01 -4.126718640327453613e-01
4.091597795486450195e-01 -1.901806890964508057e-01 3.491406142711639404e-02
3.323099017143249512e-02 -1.866793781518936157e-01 -1.728858053684234619e-01
3.742879629135131836e-02 -1.366305798292160034e-01 -2.658345103263854980e-01
4.054050445556640625e-01 -1.889146864414215088e-01 6.386493146419525146e-02
1.781554967164993286e-01 -1.987885236740112305e-01 -2.615408301353454590e-01
5.021231174468994141e-01 -7.093945890665054321e-02 1.065684258937835693e-01
2.566991746425628662e-01 -4.836545139551162720e-02 -2.625920176506042480e-01
4.302682876586914062e-01 -5.891708284616470337e-02 1.093826442956924438e-01
5.005826354026794434e-01 -4.236019402742385864e-02 -2.037642151117324829e-01
7.195118069648742676e-02 -9.877950698137283325e-02 -2.325489521026611328e-01
1.703478395938873291e-01 -1.840560883283615112e-01 -3.241207301616668701e-01
5.399140119552612305e-01 -1.438961923122406006e-01 -1.301050782203674316e-01
6.937131285667419434e-02 -9.524125605821609497e-02 -1.834944784641265869e-01
6.285843253135681152e-02 -1.919709742069244385e-01 -2.083876281976699829e-01
4.548758864402770996e-01 -5.283114314079284668e-02 7.022699713706970215e-02
4.611866474151611328e-01 -4.735448956489562988e-02 3.445506095886230469e-02
5.717647075653076172e-01 -6.925427913665771484e-02 -1.848475039005279541e-01
5.321428179740905762e-01 -1.207263842225074768e-01 1.156170815229415894e-01
2.808525860309600830e-01 -2.091377824544906616e-01 6.753727793693542480e-02
1.439872384071350098e-01 -6.783945858478546143e-02 -1.827708482742309570e-01
3.557056188583374023e-01 -6.636109203100204468e-02 1.461361199617385864e-01
2.873563766479492188e-01 -1.822241842746734619e-01 -3.220132589340209961e-01
1.431851834058761597e-01 -1.327698975801467896e-01 2.012300640344619751e-01
2.661520242691040039e-02 -1.213394924998283386e-01 -1.819089204072952271e-01
4.815796017646789551e-01 -1.375912874937057495e-01 1.686416715383529663e-01
2.808638811111450195e-01 -4.952749609947204590e-02 1.702079921960830688e-02
5.659231543540954590e-01 -7.749064266681671143e-02 -2.280909717082977295e-01
9.244078397750854492e-02 -8.711645752191543579e-02 -5.371600389480590820e-02
5.842796564102172852e-01 -7.369185984134674072e-02 -8.423960953950881958e-02
2.657202482223510742e-01 -2.133231908082962036e-01 2.102323621511459351e-02
1.400033533573150635e-01 -1.359951794147491455e-01 -3.957533240318298340e-01
3.105759918689727783e-01 -2.039535045623779297e-01 -1.662079542875289917e-01
4.581367373466491699e-01 -3.468176722526550293e-02 -1.203200072050094604e-01
9.185168147087097168e-02 -1.472505182027816772e-01 -3.498231768608093262e-01
2.915627062320709229e-01 -1.054537296295166016e-01 2.368473559617996216e-01
5.001294612884521484e-01 -1.469560563564300537e-01 -2.403445094823837280e-01
5.525963306427001953e-01 -1.283555775880813599e-01 -1.883486658334732056e-01
4.470477402210235596e-01 -1.604020595550537109e-01 1.581116765737533569e-01
3.871854543685913086e-01 -3.249007463455200195e-02 -1.357116997241973877e-01
4.725857675075531006e-01 -1.584871709346771240e-01 -2.379591017961502075e-01
7.112751901149749756e-02 -1.654675453901290894e-01 1.395374834537506104e-01
1.863533407449722290e-01 -7.854947447776794434e-02 -3.560968041419982910e-01
3.994863033294677734e-01 -1.734749376773834229e-01 1.690873950719833374e-01
4.373282492160797119e-01 -6.261409819126129150e-02 -3.657195568084716797e-01
5.417220592498779297e-01 -7.512871921062469482e-02 6.751611828804016113e-02
1.305325478315353394e-01 -2.085591554641723633e-01 7.466554641723632812e-02
2.224107384681701660e-01 -4.987966269254684448e-02 -9.937176108360290527e-02
2.061804533004760742e-01 -5.636689811944961548e-02 -3.869574889540672302e-02
3.191544413566589355e-01 -3.666169941425323486e-02 -1.913487911224365234e-01
3.250115811824798584e-01 -2.032741010189056396e-01 -1.514687836170196533e-01
7.300236821174621582e-02 -1.754181534051895142e-01 -2.852344512939453125e-01
2.225674092769622803e-01 -1.753105223178863525e-01 -3.593752384185791016e-01
5.346499085426330566e-01 -1.444379836320877075e-01 -1.526808589696884155e-01
3.527761101722717285e-01 -3.452027589082717896e-02 -1.963270604610443115e-01
1.424065232276916504e-02 -1.279467940330505371e-01 -1.277681142091751099e-01
2.650257945060729980e-01 -4.325409233570098877e-02 -2.037182450294494629e-01
5.826703906059265137e-01 -9.523110091686248779e-02 -1.535303890705108643e-03
2.307544201612472534e-01 -2.166638821363449097e-01 -5.174598842859268188e-02
1.367775350809097290e-01 -6.933286786079406738e-02 -1.238601058721542358e-01
2.248131483793258667e-01 -5.843365192413330078e-02 1.888854801654815674e-02
4.793583154678344727e-01 -3.927435725927352905e-02 -5.823672935366630554e-02
3.720530867576599121e-02 -1.956434547901153564e-01 -2.658177167177200317e-02
4.672917127609252930e-01 -1.328694373369216919e-01 -3.383533358573913574e-01
5.946536362171173096e-02 -1.758553087711334229e-01 1.125937253236770630e-01
5.770058035850524902e-01 -1.185079589486122131e-01 -2.721935510635375977e-02
2.062514424324035645e-01 -1.114691719412803650e-01 2.139454931020736694e-01
5.775012075901031494e-02 -1.810999363660812378e-01 -2.475777268409729004e-01
4.545976817607879639e-01 -1.793484389781951904e-01 -9.494324028491973877e-02
3.760124742984771729e-01 -4.649870842695236206e-02 4.904772341251373291e-02
1.057957112789154053e-01 -1.852168291807174683e-01 -2.867329120635986328e-01
1.999475359916687012e-01 -2.176535725593566895e-01 -4.099453613162040710e-02
1.366769671440124512e-01 -1.185247302055358887e-01 -3.896360397338867188e-01
1.065389215946197510e-01 -2.074508816003799438e-01 5.495899915695190430e-02
2.197308987379074097e-01 -2.136916220188140869e-01 -1.369385123252868652e-01
4.446703195571899414e-01 -4.031436145305633545e-02 -1.036948710680007935e-02
2.532452642917633057e-01 -7.686499506235122681e-02 -4.012017846107482910e-01
4.431335330009460449e-01 -4.484638571739196777e-02 2.775264531373977661e-02
1.124622523784637451e-01 -1.954877972602844238e-01 1.282833516597747803e-01
5.533833801746368408e-02 -1.333039700984954834e-01 8.910642564296722412e-02
1.476979851722717285e-01 -1.552325934171676636e-01 2.164358049631118774e-01
5.384534001350402832e-01 -4.841516911983489990e-02 -1.322408616542816162e-01
5.009319782257080078e-01 -5.188018828630447388e-02 2.594151347875595093e-02
9.262146055698394775e-02 -2.106393873691558838e-01 -7.562077045440673828e-02
2.316220104694366455e-01 -5.478681623935699463e-02 -2.833080589771270752e-01
3.714402616024017334e-01 -1.329495757818222046e-01 -4.140708446502685547e-01
1.652342528104782104e-01 -2.093879431486129761e-01 -1.860977411270141602e-01
5.822749137878417969e-01 -9.725578874349594116e-02 -1.766039878129959106e-01
2.236042171716690063e-01 -4.935427755117416382e-02 -1.850056648254394531e-01
4.687143564224243164e-01 -4.218856245279312134e-02 -1.147556304931640625e-02
3.513494431972503662e-01 -1.905586421489715576e-01 1.405213475227355957e-01
1.420070976018905640e-01 -7.333455234766006470e-02 -2.264422178268432617e-02
3.725953102111816406e-01 -8.518423140048980713e-02 2.025164812803268433e-01
5.225883424282073975e-02 -1.822510659694671631e-01 8.804056048393249512e-02
1.192856281995773315e-01 -7.462933659553527832e-02 -1.442632973194122314e-01
2.990387082099914551e-01 -2.039587348699569702e-01 -1.807986795902252197e-01
3.551527857780456543e-01 -1.493067890405654907e-01 -3.920188546180725098e-01
2.775425016880035400e-01 -4.438270628452301025e-02 -4.204402863979339600e-02
1.863352954387664795e-01 -9.137346595525741577e-02 1.470381766557693481e-01
1.707831025123596191e-02 -1.393989920616149902e-01 -2.095449417829513550e-01
2.267007976770401001e-01 -2.088323533535003662e-01 1.038260310888290405e-01
1.573601067066192627e-01 -2.161766886711120605e-01 4.621975123882293701e-03
4.600719809532165527e-01 -1.087660789489746094e-01 -3.821502923965454102e-01
2.613719999790191650e-01 -5.505843460559844971e-02 3.991267085075378418e-02
3.571063876152038574e-01 -3.560098260641098022e-02 -2.233259230852127075e-01
4.468601942062377930e-01 -1.802293509244918823e-01 -1.209374442696571350e-01
4.780520200729370117e-01 -1.723423898220062256e-01 -8.521451801061630249e-02
1.648593693971633911e-01 -2.123130261898040771e-01 -1.566659212112426758e-01
5.570273399353027344e-01 -7.312417775392532349e-02 -2.433164268732070923e-01
2.788477241992950439e-01 -8.331343531608581543e-02 1.826875656843185425e-01
1.288458257913589478e-01 -7.282634079456329346e-02 -1.928346306085586548e-01
4.595457911491394043e-01 -1.595524549484252930e-01 -2.563746869564056396e-01
4.043068885803222656e-01 -4.988566040992736816e-02 -3.364636898040771484e-01
5.461894273757934570e-01 -1.378429830074310303e-01 2.571354806423187256e-02
3.562479317188262939e-01 -1.622579544782638550e-01 -3.568899631500244141e-01
2.354964613914489746e-02 -1.898879706859588623e-01 -9.530079364776611328e-02
5.613863468170166016e-01 -1.303187757730484009e-01 -1.339316070079803467e-01
1.675831228494644165e-01 -6.736601144075393677e-02 -1.307774335145950317e-02
3.141137063503265381e-01 -7.679983973503112793e-02 1.744858473539352417e-01
5.274201035499572754e-01 -6.554670631885528564e-02 5.791167914867401123e-02
4.444179832935333252e-01 -3.934171050786972046e-02 -2.535409331321716309e-01
2.657022774219512939e-01 -1.035055071115493774e-01 2.265911251306533813e-01
1.288976967334747314e-01 -7.441380620002746582e-02 -2.191509455442428589e-01
1.688769459724426270e-01 -6.059511005878448486e-02 -1.332032978534698486e-01
3.480101823806762695e-01 -2.001587152481079102e-01 -1.465038061141967773e-01
9.100925922393798828e-02 -8.618986606597900391e-02 -7.645841687917709351e-02
4.201748669147491455e-01 -1.889627575874328613e-01 4.202976822853088379e-03
2.697126865386962891e-01 -2.030770033597946167e-01 1.288348585367202759e-01
1.137134432792663574e-02 -1.429888308048248291e-01 -1.921388208866119385e-01
1.007633656263351440e-01 -9.879074245691299438e-02 -3.066666126251220703e-01
5.381460189819335938e-01 -5.832676589488983154e-02 -2.387737035751342773e-01
2.109565585851669312e-01 -5.431129783391952515e-02 -2.358109503984451294e-01
1.588184386491775513e-01 -2.144983410835266113e-01 3.714548051357269287e-02
2.772132456302642822e-01 -2.134862244129180908e-01 -3.524999320507049561e-02
1.581046879291534424e-01 -2.042588144540786743e-01 1.219717562198638916e-01
4.132286906242370605e-01 -1.877222061157226562e-01 -1.389889866113662720e-01
4.579874873161315918e-01 -3.600043058395385742e-02 -7.890404760837554932e-02
5.248211622238159180e-01 -5.003940314054489136e-02 -2.712843567132949829e-02
3.807494044303894043e-02 -1.774868071079254150e-01 7.007372379302978516e-02
1.332376152276992798e-01 -2.103468179702758789e-01 -1.591458916664123535e-01
4.019094705581665039e-01 -5.625317245721817017e-02 -3.617463707923889160e-01
2.299091070890426636e-01 -5.131811648607254028e-02 -2.446483224630355835e-01
5.160761475563049316e-01 -1.497823745012283325e-01 6.477376818656921387e-02
1.858407557010650635e-01 -6.563904136419296265e-02 1.147037744522094727e-02
5.714461803436279297e-01 -6.394112110137939453e-02 -1.478332281112670898e-01
4.969032108783721924e-02 -1.908051073551177979e-01 5.416738986968994141e-02
2.452088594436645508e-01 -2.013523280620574951e-01 1.479766815900802612e-01
5.888142585754394531e-01 -8.045220375061035156e-02 -1.188805550336837769e-01
4.223505258560180664e-01 -1.891425400972366333e-01 -2.810481935739517212e-02
4.853408932685852051e-01 -6.171832978725433350e-02 8.973172307014465332e-02
4.387581944465637207e-01 -1.727681159973144531e-01 -2.167419493198394775e-01
3.390902280807495117e-01 -2.043563127517700195e-01 2.744682878255844116e-02
4.801458716392517090e-01 -9.182967245578765869e-02 -3.696240186691284180e-01
3.008705973625183105e-01 -2.080579698085784912e-01 5.368988215923309326e-02
3.677603006362915039e-01 -4.081491380929946899e-02 -2.855044603347778320e-01
2.248129844665527344e-01 -1.964644491672515869e-01 -2.741924524307250977e-01
1.133744865655899048e-01 -1.490103453397750854e-01 1.874488145112991333e-01
2.255873978137969971e-01 -4.853914678096771240e-02 -1.607740223407745361e-01
2.915585935115814209e-01 -2.065210640430450439e-01 8.461681008338928223e-02
2.607694268226623535e-01 -2.111398875713348389e-01 6.367583572864532471e-02
4.632701575756072998e-01 -1.777635514736175537e-01 -5.336246639490127563e-02
5.098849534988403320e-01 -5.141948908567428589e-02 -2.583876550197601318e-01
4.202153980731964111e-01 -3.316365182399749756e-02 -1.040774285793304443e-01
4.045001268386840820e-01 -1.884488612413406372e-01 -1.552508175373077393e-01
2.006466090679168701e-01 -5.358373373746871948e-02 -1.726713925600051880e-01
1.610309928655624390e-01 -1.078866720199584961e-01 1.720243245363235474e-01
4.937116205692291260e-01 -3.907720744609832764e-02 -1.010918468236923218e-01
1.343881487846374512e-01 -1.035659909248352051e-01 1.306709796190261841e-01
4.406126737594604492e-01 -4.490028321743011475e-02 -2.960804104804992676e-01
1.316822469234466553e-01 -1.523502022027969360e-01 -3.780971169471740723e-01
3.815300464630126953e-01 -3.893424570560455322e-02 -2.711717784404754639e-01
6.367312371730804443e-02 -2.042859494686126709e-01 -2.049350738525390625e-02
1.711978912353515625e-01 -1.948754787445068359e-01 -2.800588309764862061e-01
3.005307614803314209e-01 -1.170063689351081848e-01 2.532447576522827148e-01
2.238738536834716797e-01 -2.144206762313842773e-01 4.550355672836303711e-02
4.792735278606414795e-01 -1.663868725299835205e-01 -1.657455861568450928e-01
4.244924485683441162e-01 -1.810624599456787109e-01 -1.815468817949295044e-01
4.033813774585723877e-01 -4.522556066513061523e-02 -3.134061694145202637e-01
2.107408046722412109e-01 -2.168568372726440430e-01 2.013102173805236816e-03
3.653943240642547607e-01 -1.910659074783325195e-01 -2.072855234146118164e-01
4.828879833221435547e-01 -1.276378631591796875e-01 -3.310507535934448242e-01
3.333217501640319824e-01 -7.758706063032150269e-02 -4.215303659439086914e-01
5.005961656570434570e-01 -1.613063514232635498e-01 3.134566545486450195e-02
2.683819532394409180e-01 -4.753620922565460205e-02 -1.827805489301681519e-02
2.236563861370086670e-01 -8.734473586082458496e-02 1.644506007432937622e-01
4.896667599678039551e-02 -1.118868887424468994e-01 -2.294644713401794434e-01
4.249688088893890381e-01 -1.500212401151657104e-01 -3.383594155311584473e-01
1.789186298847198486e-01 -2.138490974903106689e-01 5.598458647727966309e-02
2.706285417079925537e-01 -4.806391149759292603e-02 -2.795511484146118164e-01
3.452138602733612061e-01 -4.665512591600418091e-02 4.139360785484313965e-02
3.076652288436889648e-01 -3.755699098110198975e-02 -1.111943647265434265e-01
1.891447007656097412e-01 -1.712484061717987061e-01 2.272370606660842896e-01
4.523470997810363770e-01 -3.414094448089599609e-02 -1.494373381137847900e-01
5.410596728324890137e-01 -4.964925348758697510e-02 -9.525401890277862549e-02
5.753393173217773438e-01 -7.920090854167938232e-02 -2.005777359008789062e-01
5.429621338844299316e-01 -5.944872647523880005e-02 8.470565080642700195e-04
2.920121252536773682e-01 -4.417874664068222046e-02 -2.262490987777709961e-02
3.010143935680389404e-01 -3.886616975069046021e-02 -2.045142054557800293e-01
5.094756186008453369e-02 -1.965364813804626465e-01 2.390159666538238525e-02
1.527422219514846802e-01 -2.105537950992584229e-01 -1.701077818870544434e-01
4.933371841907501221e-01 -5.380297452211380005e-02 -2.925477027893066406e-01
2.799319922924041748e-01 -7.506974041461944580e-02 1.557019948959350586e-01
4.906458258628845215e-01 -5.311025679111480713e-02 4.454994201660156250e-02
3.713540732860565186e-01 -1.077593490481376648e-01 -4.353113174438476562e-01
2.683433592319488525e-01 -2.023280262947082520e-01 -2.211704105138778687e-01
5.775862932205200195e-01 -1.162016540765762329e-01 -1.353863179683685303e-01
5.289466381072998047e-01 -4.651997238397598267e-02 -1.637360900640487671e-01
4.815881252288818359e-01 -1.496625244617462158e-01 -2.641255259513854980e-01
2.845318913459777832e-01 -5.858063697814941406e-02 -3.559228777885437012e-01
5.647301673889160156e-01 -1.211863309144973755e-01 2.927225828170776367e-02
2.125917375087738037e-01 -8.453583717346191406e-02 1.461554020643234253e-01
1.883435398340225220e-01 -6.986418366432189941e-02 4.734465479850769043e-02
7.314296066761016846e-02 -1.185475215315818787e-01 8.363217115402221680e-02
3.779490590095520020e-01 -3.438622504472732544e-02 -2.137795388698577881e-01
9.921696782112121582e-02 -1.630661636590957642e-01 1.738038510084152222e-01
4.825079143047332764e-01 -6.401112675666809082e-02 -3.360186219215393066e-01
4.293060302734375000e-02 -1.407588124275207520e-01 7.837727665901184082e-02
5.656064748764038086e-01 -8.488715440034866333e-02 4.184764623641967773e-02
3.900773823261260986e-01 -1.413494199514389038e-01 -3.887184858322143555e-01
7.812349498271942139e-02 -2.066208124160766602e-01 1.758903264999389648e-03
2.950998544692993164e-01 -4.397396743297576904e-02 -2.694759964942932129e-01
3.351451456546783447e-01 -1.781264096498489380e-01 -3.125903606414794922e-01
3.534250259399414062e-01 -4.677552729845046997e-02 -3.231724500656127930e-01
4.158931672573089600e-01 -1.840114742517471313e-01 8.588397502899169922e-02
5.199277997016906738e-01 -1.564036607742309570e-01 -7.883214205503463745e-02
1.451032906770706177e-01 -7.941590994596481323e-02 3.498327732086181641e-02
3.863154351711273193e-01 -1.928941607475280762e-01 6.807653605937957764e-02
3.474565744400024414e-01 -3.874549269676208496e-02 -3.013173490762710571e-02
4.272833466529846191e-01 -9.160561114549636841e-02 2.016306966543197632e-01
4.993344843387603760e-01 -1.158555448055267334e-01 -3.316096067428588867e-01
1.109270006418228149e-01 -1.648525595664978027e-01 -3.447068333625793457e-01
1.332802474498748779e-01 -2.109204530715942383e-01 5.638830363750457764e-02
4.004928469657897949e-01 -3.629492223262786865e-02 -4.079131409525871277e-02
4.230731129646301270e-01 -8.570799976587295532e-02 -4.083082675933837891e-01
1.506661474704742432e-01 -7.763932645320892334e-02 -3.025493919849395752e-01
5.764428377151489258e-01 -9.359974414110183716e-02 2.195713669061660767e-02
4.677856266498565674e-01 -7.921116054058074951e-02 1.559395492076873779e-01
1.247653812170028687e-01 -2.137934863567352295e-01 -9.815540164709091187e-02
5.400759577751159668e-01 -8.425310999155044556e-02 9.110642969608306885e-02
1.508679240942001343e-01 -8.332608640193939209e-02 -3.299698829650878906e-01
5.080661773681640625e-01 -1.065984666347503662e-01 1.564409136772155762e-01
3.823394179344177246e-01 -1.556158214807510376e-01 2.283296734094619751e-01
4.567824602127075195e-01 -1.716117709875106812e-01 -1.848160028457641602e-01
3.137698173522949219e-01 -2.090983688831329346e-01 -5.402587354183197021e-03
2.820922434329986572e-01 -1.981492638587951660e-01 -2.419177740812301636e-01
4.029799997806549072e-01 -1.775790601968765259e-01 1.475471109151840210e-01
3.597696721553802490e-01 -1.649801433086395264e-01 2.239634841680526733e-01
2.481553852558135986e-01 -5.862812697887420654e-02 -3.293052613735198975e-01
4.829317033290863037e-01 -8.938351273536682129e-02 1.646355241537094116e-01
8.700971305370330811e-02 -8.633118122816085815e-02 -1.157374009490013123e-01
5.507381558418273926e-01 -1.141107007861137390e-01 8.505353331565856934e-02
2.778320908546447754e-01 -5.341131240129470825e-02 -3.252247571945190430e-01
2.339420616626739502e-01 -5.118890851736068726e-02 -3.847648575901985168e-02
2.623434662818908691e-01 -1.872361004352569580e-01 2.022675126791000366e-01
1.610588431358337402e-01 -6.325529515743255615e-02 -1.859945356845855713e-01
4.261851310729980469e-01 -1.855677068233489990e-01 -1.241239085793495178e-01
3.082000315189361572e-01 -1.567716449499130249e-01 -3.945247530937194824e-01
1.743606477975845337e-01 -2.035150825977325439e-01 1.328827440738677979e-01
2.711482644081115723e-01 -2.096783667802810669e-01 -1.482684910297393799e-01
5.100131034851074219e-01 -1.570459902286529541e-01 -1.413730531930923462e-01
1.634965837001800537e-01 -6.277729570865631104e-02 -9.581641852855682373e-02
2.514333128929138184e-01 -9.655870497226715088e-02 2.062786370515823364e-01
4.420573115348815918e-01 -5.594174563884735107e-02 -3.437728285789489746e-01
5.874370932579040527e-01 -8.519314974546432495e-02 -1.504640877246856689e-01
9.696164727210998535e-02 -8.497813344001770020e-02 -2.075251042842864990e-01
3.837328553199768066e-01 -3.324674069881439209e-02 -1.899610757827758789e-01
3.481239378452301025e-01 -6.234168261289596558e-02 1.287766098976135254e-01
3.611787557601928711e-01 -1.924495995044708252e-01 1.167877465486526489e-01
4.391551017761230469e-01 -1.407465487718582153e-01 -3.498178720474243164e-01
8.449546992778778076e-02 -1.139141395688056946e-01 -3.207589089870452881e-01
4.824455380439758301e-01 -1.712260693311691284e-01 -2.308207750320434570e-02
3.598651587963104248e-01 -1.975923776626586914e-01 7.446739077568054199e-02
3.169851303100585938e-01 -3.619915992021560669e-02 -1.523421108722686768e-01
3.676424026489257812e-01 -4.375146329402923584e-02 2.725183218717575073e-02
6.842446327209472656e-02 -9.429948031902313232e-02 -1.083154007792472839e-01
3.630420565605163574e-01 -5.215039849281311035e-02 -3.509414792060852051e-01
3.589327931404113770e-01 -2.012630254030227661e-01 2.265191078186035156e-02
3.907765746116638184e-01 -1.026313677430152893e-01 2.299245148897171021e-01
3.154257237911224365e-01 -5.544508248567581177e-02 8.378712832927703857e-02
3.657568693161010742e-01 -1.985694468021392822e-01 4.846350848674774170e-02
5.434952974319458008e-01 -5.225554108619689941e-02 -1.795662343502044678e-01
5.298690795898437500e-01 -1.032059937715530396e-01 1.264551579952239990e-01
2.936514317989349365e-01 -7.306110858917236328e-02 -4.070490598678588867e-01
3.512578904628753662e-01 -3.543758392333984375e-02 -7.761975377798080444e-02
5.474908351898193359e-01 -1.418507844209671021e-01 -2.494467049837112427e-02
2.202267646789550781e-01 -2.085801213979721069e-01 -1.930580139160156250e-01
1.023200005292892456e-01 -1.226464286446571350e-01 -3.582865595817565918e-01
3.000119328498840332e-02 -1.431102603673934937e-01 5.184359848499298096e-02
1.223680377006530762e-01 -7.395640760660171509e-02 -1.112008020281791687e-01
1.895675361156463623e-01 -2.018934339284896851e-01 1.453527361154556274e-01
4.402982592582702637e-01 -1.814604401588439941e-01 4.235434532165527344e-02
3.353218436241149902e-01 -3.506402671337127686e-02 -1.788038462400436401e-01
3.126001060009002686e-01 -7.024657726287841797e-02 -4.044448733329772949e-01
4.717843532562255859e-01 -1.634529978036880493e-01 1.031180471181869507e-01
2.044663876295089722e-01 -5.435182899236679077e-02 -7.560617476701736450e-02
2.876316308975219727e-01 -2.075399160385131836e-01 -1.552765071392059326e-01
1.805811524391174316e-01 -6.315983831882476807e-02 -2.588759064674377441e-01
3.058572411537170410e-01 -1.929499506950378418e-01 1.648452728986740112e-01
5.396403074264526367e-01 -7.539309561252593994e-02 -2.831225395202636719e-01
2.957035005092620850e-01 -7.609453052282333374e-02 1.661615222692489624e-01
2.452698200941085815e-01 -2.083032429218292236e-01 -1.847143769264221191e-01
2.457931190729141235e-01 -4.747254401445388794e-02 -2.289032340049743652e-01
5.012584924697875977e-01 -7.203559577465057373e-02 -3.324331045150756836e-01
3.341082632541656494e-01 -7.108618319034576416e-02 1.599941402673721313e-01
3.324460089206695557e-01 -1.979625672101974487e-01 -1.955965757369995117e-01
1.975807249546051025e-01 -1.933687329292297363e-01 -2.909751534461975098e-01
1.157282441854476929e-01 -1.051680147647857666e-01 -3.484058380126953125e-01
5.622512102127075195e-01 -1.330418288707733154e-01 -8.457060903310775757e-02
1.812299042940139771e-01 -2.171430289745330811e-01 -2.834334969520568848e-03
2.247522175312042236e-01 -5.042905360460281372e-02 -2.167070358991622925e-01
1.910148859024047852e-01 -2.106663286685943604e-01 9.033174812793731689e-02
1.985898613929748535e-02 -1.678321808576583862e-01 -2.085869461297988892e-01
4.319650530815124512e-01 -1.848891973495483398e-01 2.583977580070495605e-02
1.634388566017150879e-01 -1.601864248514175415e-01 2.247734814882278442e-01
4.020172357559204102e-01 -9.373804181814193726e-02 -4.226187467575073242e-01
3.624921441078186035e-01 -1.798374652862548828e-01 1.800087243318557739e-01
3.586639463901519775e-01 -1.998504996299743652e-01 -1.249333173036575317e-01
4.722012877464294434e-01 -3.655695170164108276e-02 -1.766310930252075195e-01
4.925661683082580566e-01 -4.647408425807952881e-02 -2.551774382591247559e-01
9.460541605949401855e-02 -9.853861480951309204e-02 4.351317882537841797e-02
3.101229667663574219e-04 -1.517579406499862671e-01 -1.366678178310394287e-01
2.893853485584259033e-01 -3.915838897228240967e-02 -1.679852902889251709e-01
5.802641510963439941e-01 -1.177100315690040588e-01 -7.757740467786788940e-02
1.321918070316314697e-01 -1.994014382362365723e-01 1.292374432086944580e-01
2.921355664730072021e-01 -4.003673791885375977e-02 -8.684650808572769165e-02
7.300056517124176025e-02 -2.061325013637542725e-01 -1.018294617533683777e-01
4.326942265033721924e-01 -7.501277327537536621e-02 -3.919695615768432617e-01
1.364101916551589966e-01 -7.506294548511505127e-02 -2.524676322937011719e-01
3.748606145381927490e-01 -5.762531608343124390e-02 -3.713313937187194824e-01
8.241426944732666016e-02 -2.047597765922546387e-01 -1.480218023061752319e-01
5.028626918792724609e-01 -6.146696954965591431e-02 -3.076034784317016602e-01
3.838673830032348633e-01 -6.931664049625396729e-02 1.573076695203781128e-01
2.387134432792663574e-01 -2.147657722234725952e-01 -1.036783009767532349e-01
2.856235802173614502e-01 -2.033040523529052734e-01 1.174334436655044556e-01
1.715691387653350830e-01 -8.415393531322479248e-02 1.023819148540496826e-01
5.113795399665832520e-01 -5.667121708393096924e-02 -2.802651524543762207e-01
2.062890827655792236e-01 -6.104078143835067749e-02 1.029320061206817627e-02
2.080710828304290771e-01 -8.129516988992691040e-02 -3.846057653427124023e-01
3.004354238510131836e-01 -1.867688745260238647e-01 -2.951776087284088135e-01
9.807416796684265137e-02 -1.141116842627525330e-01 -3.418198227882385254e-01
1.554393023252487183e-01 -2.115990221500396729e-01 6.840901076793670654e-02
4.237226247787475586e-01 -1.662435680627822876e-01 -2.780568003654479980e-01
5.166183710098266602e-01 -4.831257462501525879e-02 -2.255364805459976196e-01
4.012040495872497559e-01 -1.849582046270370483e-01 1.076348274946212769e-01
3.542770445346832275e-01 -1.859697103500366211e-01 1.613418608903884888e-01
3.112164735794067383e-01 -5.759258568286895752e-02 -3.636608123779296875e-01
1.649454385042190552e-01 -7.824911177158355713e-02 6.283281743526458740e-02
2.437926530838012695e-01 -4.701820015907287598e-02 -7.927421480417251587e-02
5.391454696655273438e-01 -5.521976202726364136e-02 -2.193415462970733643e-01
2.042018175125122070e-01 -1.477100104093551636e-01 -4.149928689002990723e-01
3.316715061664581299e-01 -3.794605284929275513e-02 -5.571073293685913086e-02
2.056818902492523193e-01 -2.001392245292663574e-01 1.562194973230361938e-01
4.823345839977264404e-01 -1.690754294395446777e-01 -1.217465475201606750e-01
2.690717875957489014e-01 -4.194786399602890015e-02 -1.169204860925674438e-01
4.919070601463317871e-01 -1.583608984947204590e-01 8.375363051891326904e-02
1.930673122406005859e-01 -5.513954907655715942e-02 -1.225277185440063477e-01
4.676063358783721924e-01 -9.244493395090103149e-02 1.807654350996017456e-01
2.630216479301452637e-01 -6.341718137264251709e-02 -3.635336160659790039e-01
3.492736816406250000e-02 -1.220125705003738403e-01 -3.251053392887115479e-03
3.188627362251281738e-01 -4.778150469064712524e-02 3.556606173515319824e-02
2.534961402416229248e-01 -4.771319776773452759e-02 -4.257061332464218140e-02
3.093569278717041016e-01 -1.780187189579010010e-01 -3.286688625812530518e-01
2.346564680337905884e-01 -1.884146332740783691e-01 -3.112030625343322754e-01
4.989458322525024414e-01 -1.366879194974899292e-01 1.459274291992187500e-01
5.175458192825317383e-01 -1.461831927299499512e-01 -2.014364600181579590e-01
4.239162802696228027e-01 -5.071429908275604248e-02 -3.332828283309936523e-01
9.448976814746856689e-02 -2.008380442857742310e-01 -1.995290219783782959e-01
4.654327034950256348e-01 -1.420177966356277466e-01 -3.162215650081634521e-01
5.685843229293823242e-01 -1.251067519187927246e-01 -1.049850136041641235e-02
2.654406130313873291e-01 -2.076808661222457886e-01 -1.766468584537506104e-01
5.307716131210327148e-02 -1.065940856933593750e-01 -2.124806046485900879e-01
4.203998446464538574e-01 -3.291676938533782959e-02 -1.717969626188278198e-01
4.127385914325714111e-01 -6.353326141834259033e-02 -3.792660236358642578e-01
8.220829069614410400e-02 -1.991098970174789429e-01 7.522286474704742432e-02
5.320755839347839355e-01 -4.774330556392669678e-02 -7.884397357702255249e-02
3.373499810695648193e-01 -2.017713487148284912e-01 7.057893276214599609e-02
5.633986592292785645e-01 -6.344259530305862427e-02 -3.374395146965980530e-02
2.761321067810058594e-01 -2.124904692173004150e-01 -9.184771031141281128e-02
1.328804343938827515e-01 -1.799923777580261230e-01 -3.220909237861633301e-01
4.194547235965728760e-01 -3.753447532653808594e-02 -2.823077887296676636e-02
5.706489086151123047e-03 -1.564209461212158203e-01 -1.306422799825668335e-02
2.309751808643341064e-01 -8.098964393138885498e-02 -3.993820548057556152e-01
5.023744702339172363e-01 -1.294808387756347656e-01 -2.989751696586608887e-01
2.650236189365386963e-01 -1.421664804220199585e-01 2.620450258255004883e-01
2.663621604442596436e-01 -5.697529762983322144e-02 5.830363929271697998e-02
4.337081909179687500e-01 -1.712592393159866333e-01 -2.359085679054260254e-01
5.867472887039184570e-01 -8.031654357910156250e-02 -5.460538715124130249e-02
2.249777168035507202e-01 -2.169726490974426270e-01 -2.976549044251441956e-02
3.052842617034912109e-02 -1.923283338546752930e-01 -1.130419149994850159e-01
4.238166809082031250e-01 -1.179093718528747559e-01 -4.022133946418762207e-01
4.522542357444763184e-01 -3.465267270803451538e-02 -1.024885401129722595e-01
1.133635640144348145e-02 -1.316357553005218506e-01 -7.968249917030334473e-02
2.525741755962371826e-01 -2.106699943542480469e-01 -1.541255414485931396e-01
1.176655590534210205e-01 -8.305016905069351196e-02 -2.664990723133087158e-03
1.156155318021774292e-01 -1.274142712354660034e-01 -3.755409121513366699e-01
4.135625362396240234e-01 -1.767442375421524048e-01 -2.351628541946411133e-01
4.341603219509124756e-01 -1.497867107391357422e-01 1.992887705564498901e-01
4.517029225826263428e-01 -9.166966378688812256e-02 -3.933624625205993652e-01
4.464665055274963379e-02 -1.080993711948394775e-01 -1.779606640338897705e-01
2.282833755016326904e-01 -1.817828863859176636e-01 -3.379164338111877441e-01
4.602255821228027344e-01 -1.081567332148551941e-01 2.017344087362289429e-01
1.957667768001556396e-01 -1.059966236352920532e-01 1.959093660116195679e-01
3.887619376182556152e-01 -1.967114806175231934e-01 -1.817829161882400513e-02
4.545247256755828857e-01 -4.876311123371124268e-02 -3.070783019065856934e-01
1.013447791337966919e-01 -8.075508475303649902e-02 -1.366738229990005493e-01
1.255711913108825684e-01 -2.149555385112762451e-01 -3.654547780752182007e-02
5.392616987228393555e-01 -5.102485418319702148e-02 -5.995943024754524231e-02
2.713502347469329834e-01 -1.925980150699615479e-01 -2.805513143539428711e-01
1.806126981973648071e-01 -6.914393603801727295e-02 2.943755686283111572e-02
3.642829358577728271e-01 -9.886242449283599854e-02 2.295947223901748657e-01
4.435810446739196777e-01 -1.835677623748779297e-01 -3.338293358683586121e-02
5.108764171600341797e-01 -5.880258232355117798e-02 5.114965140819549561e-02
4.094829559326171875e-01 -1.572922021150588989e-01 -3.303220272064208984e-01
2.978963255882263184e-01 -2.112761735916137695e-01 -4.928919672966003418e-02
5.050752758979797363e-01 -9.429407864809036255e-02 -3.427687883377075195e-01
1.257480382919311523e-01 -1.701410710811614990e-01 1.928949803113937378e-01
2.130472660064697266e-02 -1.318411529064178467e-01 -1.021778583526611328e-02
4.115882515907287598e-01 -8.367300033569335938e-02 1.918381005525588989e-01
5.460160970687866211e-01 -6.679772585630416870e-02 3.117204457521438599e-02
6.606516242027282715e-02 -2.056058198213577271e-01 -6.716410070657730103e-02
3.053374886512756348e-01 -5.061337351799011230e-02 -3.272549808025360107e-01
2.955693900585174561e-01 -2.009064555168151855e-01 -2.114812582731246948e-01
4.390975832939147949e-02 -1.476821452379226685e-01 -2.836082577705383301e-01
3.894802331924438477e-01 -1.864998787641525269e-01 -2.053279578685760498e-01
3.153600096702575684e-01 -1.877813339233398438e-01 1.817779093980789185e-01
4.030433893203735352e-01 -6.442751735448837280e-02 1.378494501113891602e-01
3.296862542629241943e-01 -2.044169306755065918e-01 5.126750469207763672e-02
5.116724967956542969e-01 -1.423614025115966797e-01 1.085156202316284180e-01
5.124895572662353516e-01 -1.167721152305603027e-01 -3.114371299743652344e-01
3.805521130561828613e-01 -5.137033760547637939e-02 -3.470975756645202637e-01
4.099109172821044922e-01 -7.633896172046661377e-02 1.743398457765579224e-01
5.090724229812622070e-01 -4.160548001527786255e-02 -1.578813791275024414e-01
2.337513267993927002e-01 -7.410356402397155762e-02 -3.821773529052734375e-01
3.788633942604064941e-01 -1.988501250743865967e-01 -4.073452204465866089e-02
3.790131807327270508e-01 -4.697711765766143799e-02 -3.262118697166442871e-01
4.816786944866180420e-02 -1.987282931804656982e-01 -7.958143949508666992e-03
4.830878973007202148e-01 -4.120993614196777344e-02 -2.261532545089721680e-01
2.649279832839965820e-01 -4.223570227622985840e-02 -1.348320841789245605e-01
4.262650609016418457e-01 -1.777391433715820312e-01 1.107479929924011230e-01
7.786396145820617676e-02 -8.991770446300506592e-02 -1.308119595050811768e-01
5.362366437911987305e-01 -1.482249498367309570e-01 -9.163022041320800781e-02
1.819330155849456787e-01 -1.143825799226760864e-01 -4.189962148666381836e-01
6.830622255802154541e-02 -2.060880661010742188e-01 -4.242255538702011108e-02
5.127570629119873047e-01 -1.441654264926910400e-01 -2.251990139484405518e-01
1.157093793153762817e-01 -9.380960464477539062e-02 -3.152343630790710449e-01
3.532037138938903809e-01 -2.034568637609481812e-01 -5.153156816959381104e-02
5.654550790786743164e-01 -7.260408997535705566e-02 8.130401372909545898e-03
4.028893709182739258e-01 -1.755295991897583008e-01 -2.581328153610229492e-01
5.788534879684448242e-01 -6.792013347148895264e-02 -1.089098379015922546e-01
2.001023888587951660e-01 -9.204794466495513916e-02 -4.035759568214416504e-01
1.759589016437530518e-01 -1.404856145381927490e-01 -4.131059050559997559e-01
2.030188888311386108e-01 -5.355647951364517212e-02 -1.018871963024139404e-01
2.372711151838302612e-01 -2.157289981842041016e-01 6.790652871131896973e-03
1.720555275678634644e-01 -2.175177037715911865e-01 -3.372133523225784302e-02
4.370862841606140137e-01 -3.482656180858612061e-02 -2.038406878709793091e-01
4.612096250057220459e-01 -6.168191134929656982e-02 1.065332591533660889e-01
9.387227892875671387e-02 -1.632839441299438477e-01 -3.331316113471984863e-01
3.684467673301696777e-01 -7.465025037527084351e-02 -4.137728214263916016e-01
4.268609881401062012e-01 -4.188469797372817993e-02 -2.844309210777282715e-01
1.052566841244697571e-01 -3.419890254735946655e-02 1.890411972999572754e-01
1.351791322231292725e-01 -1.943834684789180756e-02 2.135843038558959961e-01
2.121955528855323792e-02 -3.877219930291175842e-02 2.245843261480331421e-01
1.956630200147628784e-01 -2.123020589351654053e-02 2.000684142112731934e-01
1.746872365474700928e-01 -4.424407333135604858e-02 1.924526542425155640e-01
3.524626046419143677e-02 -5.353881418704986572e-02 1.922764927148818970e-01
1.208657622337341309e-01 -3.639012947678565979e-02 2.270082086324691772e-01
3.858425840735435486e-02 -4.048884660005569458e-02 2.306733131408691406e-01
-4.044967144727706909e-02 -7.215578854084014893e-02 2.143401205539703369e-01
-2.081743627786636353e-02 -6.748868525028228760e-02 2.039247453212738037e-01
3.145286068320274353e-02 -6.435282528400421143e-02 2.300563454627990723e-01
5.393014475703239441e-02 -3.449752926826477051e-02 2.005477994680404663e-01
1.838370412588119507e-02 -7.528355717658996582e-02 2.192122936248779297e-01
1.091521680355072021e-01 -5.881131440401077271e-02 1.899603903293609619e-01
1.821033209562301636e-01 -2.722150459885597229e-02 2.133903056383132935e-01
9.197340160608291626e-02 -2.894674427807331085e-02 2.255769371986389160e-01
8.504714071750640869e-02 -6.668502837419509888e-02 1.958915889263153076e-01
1.053881496191024780e-01 -6.459429860115051270e-02 2.088241428136825562e-01
1.041217148303985596e-01 -2.165057882666587830e-02 2.115084677934646606e-01
4.990401118993759155e-02 -7.384922355413436890e-02 2.114125341176986694e-01
1.273310929536819458e-01 -5.984298512339591980e-02 2.068384736776351929e-01
1.422555446624755859e-01 -3.890059143304824829e-02 1.850726306438446045e-01
7.710748910903930664e-02 -6.303371489048004150e-02 2.233572602272033691e-01
-3.138504922389984131e-02 -5.513643845915794373e-02 2.203871458768844604e-01
2.031332999467849731e-02 -6.662958115339279175e-02 1.953481137752532959e-01
1.499373316764831543e-01 -3.039960190653800964e-02 2.217780500650405884e-01
1.175362765789031982e-01 -2.297045290470123291e-02 1.986240595579147339e-01
7.342261075973510742e-02 -3.190664947032928467e-02 2.271697521209716797e-01
1.549743264913558960e-01 -4.840051755309104919e-02 2.128833830356597900e-01
1.206217408180236816e-01 -1.757383942604064941e-01 3.213915824890136719e-01
6.192930787801742554e-02 -1.020089462399482727e-01 5.125913023948669434e-02
7.413309067487716675e-02 -1.057813689112663269e-01 2.031500935554504395e-01
2.649435102939605713e-01 -4.357885569334030151e-02 3.123154044151306152e-01
1.341365575790405273e-01 -1.039399728178977966e-01 -2.496661692857742310e-01
1.611323207616806030e-01 -1.603100150823593140e-01 3.553757071495056152e-01
1.313692778348922729e-01 -7.045672833919525146e-02 -2.119444310665130615e-03
9.697362780570983887e-03 -1.357521563768386841e-01 -9.945575892925262451e-02
2.770079374313354492e-01 -1.297855675220489502e-01 2.248968034982681274e-01
2.026571631431579590e-01 -4.443615674972534180e-02 4.557199776172637939e-03
7.186455279588699341e-02 -1.239515990018844604e-01 3.034406602382659912e-01
1.287349611520767212e-01 -7.364251464605331421e-02 1.190051734447479248e-01
1.560632735490798950e-01 -1.709875166416168213e-01 2.884917259216308594e-01
1.248731166124343872e-01 -8.250217139720916748e-02 -1.512526124715805054e-01
8.309576660394668579e-02 -1.066704615950584412e-01 -1.869167536497116089e-01
1.560696363449096680e-01 -6.227994337677955627e-02 -4.985949397087097168e-02
2.224991321563720703e-01 -6.934809684753417969e-02 3.753834962844848633e-01
2.399419844150543213e-01 -1.468070745468139648e-01 1.277705579996109009e-01
9.729715436697006226e-02 -1.104399114847183228e-01 -2.273632735013961792e-01
2.472076117992401123e-01 -3.152395039796829224e-02 -5.390807986259460449e-03
-5.547285079956054688e-03 -1.453145444393157959e-01 -8.821569383144378662e-02
3.784066140651702881e-01 -9.291991591453552246e-03 1.496295928955078125e-01
2.969807088375091553e-01 -1.118579506874084473e-01 3.305801153182983398e-01
1.164601147174835205e-01 -1.679406464099884033e-01 3.621510863304138184e-01
3.934339284896850586e-01 -4.710797220468521118e-02 2.916835546493530273e-01
3.867539167404174805e-01 -1.834351569414138794e-02 8.855909109115600586e-04
5.005002021789550781e-04 -2.078229486942291260e-01 -9.819209575653076172e-03
-4.643853008747100830e-02 -2.013884484767913818e-01 7.320159673690795898e-02
5.665564537048339844e-02 -1.918714642524719238e-01 2.781319022178649902e-01
8.650773018598556519e-02 -1.972906887531280518e-01 1.072907224297523499e-01
-1.828210055828094482e-02 -1.511806696653366089e-01 -4.037344455718994141e-02
2.694323658943176270e-01 -1.099650561809539795e-01 4.038315415382385254e-01
9.054894745349884033e-02 -8.903683722019195557e-02 8.240804821252822876e-02
2.942380309104919434e-01 -3.274045139551162720e-02 -1.202783286571502686e-01
1.799791753292083740e-01 -6.043639779090881348e-02 2.211868762969970703e-01
1.281951218843460083e-01 -1.051926687359809875e-01 3.564493060111999512e-01
1.529367715120315552e-01 -6.295250356197357178e-02 9.819594025611877441e-02
1.805833131074905396e-01 -1.591710448265075684e-01 -5.983175337314605713e-02
3.749825954437255859e-01 -1.762530207633972168e-02 -1.649761199951171875e-02
2.360549569129943848e-01 -1.485989540815353394e-01 1.651826798915863037e-01
3.885925412178039551e-01 -1.767735928297042847e-02 2.418900579214096069e-01
8.886575698852539062e-02 -1.962672770023345947e-01 1.557336151599884033e-01
1.655579060316085815e-01 -1.731142401695251465e-01 2.153421342372894287e-01
4.120037555694580078e-01 -4.257311671972274780e-02 1.609074622392654419e-01
1.065510734915733337e-01 -1.250069439411163330e-01 3.756205439567565918e-01
2.148450464010238647e-01 -1.569248437881469727e-01 1.312236636877059937e-01
-2.732454240322113037e-02 -1.610992550849914551e-01 9.583329409360885620e-02
-4.626195132732391357e-02 -1.870593130588531494e-01 -4.389938712120056152e-02
1.384619176387786865e-01 -7.184881716966629028e-02 -9.856639802455902100e-02
2.980979979038238525e-01 -4.082744568586349487e-02 3.409290909767150879e-01
3.132029175758361816e-01 -1.109907999634742737e-01 8.145970106124877930e-02
-9.879842400550842285e-03 -1.456322669982910156e-01 7.795185595750808716e-02
4.052451252937316895e-01 -4.950714483857154846e-02 1.215075477957725525e-01
1.092280596494674683e-01 -1.679247021675109863e-01 -1.639795154333114624e-01
3.737720847129821777e-02 -2.051850259304046631e-01 1.849391311407089233e-02
2.558689415454864502e-01 -1.217267215251922607e-01 -9.813353419303894043e-02
1.984213888645172119e-01 -1.563750803470611572e-01 -1.774521172046661377e-02
2.385582923889160156e-01 -1.301317363977432251e-01 -9.761770069599151611e-02
4.007820785045623779e-01 -5.537448450922966003e-02 1.512730419635772705e-01
1.691395193338394165e-01 -5.638577416539192200e-02 -1.794039458036422729e-02
2.521582245826721191e-01 -5.064958333969116211e-02 3.324594199657440186e-01
2.332623004913330078e-01 -1.417841166257858276e-01 -2.097584307193756104e-02
3.333447575569152832e-01 -1.351805776357650757e-02 1.609870493412017822e-01
9.648437052965164185e-02 -1.220101714134216309e-01 3.509999513626098633e-01
1.845582276582717896e-01 -1.551173329353332520e-01 -8.189567923545837402e-02
1.125164404511451721e-01 -9.094080328941345215e-02 2.390381991863250732e-01
2.230548262596130371e-01 -4.298035055398941040e-02 1.939066350460052490e-01
