6.413191556930541992e-01 5.696106702089309692e-03 2.215213328599929810e-02
2.710063457489013672e-01 -1.077901571989059448e-03 -5.176041275262832642e-02
3.262698650360107422e-02 9.142242372035980225e-02 -6.305836886167526245e-02
8.655614405870437622e-02 -4.379217699170112610e-02 -2.338762022554874420e-02
-1.207774505019187927e-01 1.089776903390884399e-01 -5.217374861240386963e-02
-2.341663241386413574e-01 1.586622744798660278e-02 -7.359551638364791870e-02
-2.940877974033355713e-01 7.879841327667236328e-02 7.019143551588058472e-02
3.040920495986938477e-01 6.317717581987380981e-02 1.252262890338897705e-01
1.987037956714630127e-01 6.916461884975433350e-02 1.226168870925903320e-01
3.693791478872299194e-02 1.081030815839767456e-02 1.057399287819862366e-01
1.396387815475463867e-01 8.884404599666595459e-02 -5.851519852876663208e-02
-3.249437808990478516e-01 -4.018601030111312866e-03 4.165790230035781860e-02
3.081576824188232422e-01 3.800762817263603210e-02 -5.653513967990875244e-02
-1.547686755657196045e-01 -1.611813902854919434e-02 -5.843457579612731934e-02
5.900387465953826904e-02 -4.798354580998420715e-02 3.939937800168991089e-02
5.723130702972412109e-01 9.895116090774536133e-02 8.536564558744430542e-02
3.403070867061614990e-01 1.322834491729736328e-01 1.866337843239307404e-02
8.034279197454452515e-02 -3.031967207789421082e-02 7.620055228471755981e-02
2.960754334926605225e-01 -1.525312662124633789e-02 -4.028124362230300903e-02
-6.984073668718338013e-02 7.157990336418151855e-02 1.043374165892601013e-01
3.331505060195922852e-01 9.394094347953796387e-02 -3.577414155006408691e-02
2.239399403333663940e-01 9.674597531557083130e-03 1.149098649621009827e-01
-4.279990196228027344e-01 6.997324526309967041e-02 -5.147977918386459351e-02
-7.847886532545089722e-02 1.401627361774444580e-01 3.356276452541351318e-02
5.282734632492065430e-01 6.234604120254516602e-02 1.161473244428634644e-01
2.188357114791870117e-01 1.240759640932083130e-01 9.067534655332565308e-02
5.985034704208374023e-01 2.311212569475173950e-02 1.035078465938568115e-01
1.948335617780685425e-01 1.057209223508834839e-01 1.077369973063468933e-01
4.971186220645904541e-01 -8.272048085927963257e-03 9.493058919906616211e-02
-1.516974717378616333e-02 6.807359308004379272e-02 -7.479426264762878418e-02
2.805674076080322266e-01 1.259900778532028198e-01 -8.529858663678169250e-03
-3.313269913196563721e-01 1.187188774347305298e-01 2.662070095539093018e-03
-4.365974664688110352e-01 9.488811343908309937e-02 1.060705538839101791e-02
1.167415305972099304e-01 1.364118605852127075e-01 6.872840225696563721e-02
3.893549740314483643e-01 1.261962503194808960e-01 7.560910284519195557e-02
-1.762256026268005371e-01 7.496263831853866577e-02 9.082701057195663452e-02
2.659462392330169678e-01 6.266207993030548096e-02 1.250004172325134277e-01
-3.844972252845764160e-01 7.305674999952316284e-02 5.136360228061676025e-02
-4.728755950927734375e-01 7.359094917774200439e-02 1.815022900700569153e-02
3.948558270931243896e-01 5.529388040304183960e-02 1.247456446290016174e-01
-1.933129727840423584e-01 1.315940916538238525e-01 3.287531435489654541e-02
-1.359469443559646606e-02 -4.039083048701286316e-02 -3.115833736956119537e-02
-1.641820371150970459e-01 -4.104389622807502747e-02 6.345428526401519775e-03
-3.443856239318847656e-01 6.570942699909210205e-02 6.315086036920547485e-02
1.272540539503097534e-01 1.256299912929534912e-01 -2.646631933748722076e-02
-3.700118660926818848e-01 -2.153944224119186401e-03 2.949299477040767670e-02
-2.812261283397674561e-01 2.104800008237361908e-02 6.972930580377578735e-02
-4.164993166923522949e-01 2.334017492830753326e-02 3.747254610061645508e-02
-1.587209999561309814e-01 -3.415409848093986511e-02 3.685985133051872253e-02
-1.172607466578483582e-01 -2.681818976998329163e-02 -4.871663451194763184e-02
5.012478828430175781e-01 1.188571155071258545e-01 4.407994449138641357e-02
1.717943847179412842e-01 1.185282468795776367e-01 -3.188655525445938110e-02
2.360065579414367676e-01 9.836064279079437256e-02 -4.420228302478790283e-02
-4.828600883483886719e-01 2.009188756346702576e-02 -2.638900466263294220e-02
-2.256368696689605713e-01 3.662079572677612305e-03 7.012010365724563599e-02
-2.503998577594757080e-03 4.248240217566490173e-02 -7.855154573917388916e-02
1.700442731380462646e-01 -3.162919357419013977e-02 -3.746256977319717407e-02
-5.955681949853897095e-02 -4.712033644318580627e-02 -5.381051450967788696e-03
1.260060369968414307e-01 -5.179348960518836975e-02 8.650188334286212921e-03
-2.072569131851196289e-01 -2.800726518034934998e-02 -3.878748416900634766e-02
-1.579903364181518555e-01 1.707068085670471191e-02 -7.673957198858261108e-02
-6.039857119321823120e-02 9.924381971359252930e-02 9.519627690315246582e-02
-2.231239676475524902e-01 6.451709568500518799e-02 8.587804436683654785e-02
5.797606706619262695e-02 6.737751513719558716e-02 -7.221051305532455444e-02
4.426995515823364258e-01 1.209724098443984985e-01 7.720047980546951294e-02
-4.011956453323364258e-01 7.684584707021713257e-03 2.994384057819843292e-02
1.666018366813659668e-02 9.495657682418823242e-02 1.045529097318649292e-01
3.893769532442092896e-02 2.719316631555557251e-03 -6.991176307201385498e-02
-1.851058900356292725e-01 7.544273883104324341e-02 -7.269974052906036377e-02
4.519917964935302734e-01 -3.045529499650001526e-02 6.757725775241851807e-02
5.539770126342773438e-01 1.089562922716140747e-01 3.777509927749633789e-02
3.246643543243408203e-01 -4.542594030499458313e-02 4.323402047157287598e-02
1.000361666083335876e-01 1.322642713785171509e-01 -1.770524866878986359e-02
-4.922692179679870605e-01 5.987076461315155029e-02 -3.544647991657257080e-02
4.341433942317962646e-01 1.271146237850189209e-01 5.536155402660369873e-02
-1.675425171852111816e-01 1.356141120195388794e-01 2.383649349212646484e-02
3.671997785568237305e-01 1.182569861412048340e-01 -5.554275587201118469e-03
-4.719475656747817993e-02 -1.709066703915596008e-02 -5.996998399496078491e-02
5.098169445991516113e-01 8.507896959781646729e-02 1.096217930316925049e-01
9.540031850337982178e-02 -5.058312043547630310e-02 -1.510329544544219971e-03
-2.360778152942657471e-01 1.225214749574661255e-01 4.343501105904579163e-02
2.257981300354003906e-01 1.300765573978424072e-01 -9.249368682503700256e-03
3.154731988906860352e-01 -1.140154525637626648e-02 1.023968532681465149e-01
-4.750211238861083984e-01 5.610081553459167480e-02 -4.409290850162506104e-02
-3.779855966567993164e-01 9.194648265838623047e-02 4.220432788133621216e-02
-2.849314212799072266e-01 -1.151151955127716064e-03 5.459848046302795410e-02
2.582333981990814209e-01 4.483108222484588623e-02 1.250977367162704468e-01
3.598667979240417480e-01 -9.414859116077423096e-03 -3.598821908235549927e-02
-4.035595655441284180e-01 8.153292536735534668e-02 4.171200841665267944e-02
-1.890669465065002441e-01 5.293688550591468811e-02 -7.857155799865722656e-02
5.595222115516662598e-01 8.670520037412643433e-03 1.012829989194869995e-01
2.623709142208099365e-01 8.480380475521087646e-02 -4.981134831905364990e-02
-1.231200024485588074e-01 2.227252162992954254e-02 -7.847496122121810913e-02
1.444276422262191772e-01 1.081839352846145630e-01 1.043919026851654053e-01
1.383347809314727783e-01 1.413232982158660889e-01 8.674620650708675385e-03
-6.914601475000381470e-02 1.278452277183532715e-01 -2.929478697478771210e-02
-4.248305559158325195e-01 8.284829556941986084e-02 3.327301144599914551e-02
-1.398348510265350342e-01 2.703884989023208618e-02 9.395274519920349121e-02
-1.195149496197700500e-01 -4.421697184443473816e-02 1.017386931926012039e-02
-3.094724714756011963e-01 -2.391012385487556458e-02 -1.944453455507755280e-02
-2.191198617219924927e-02 1.301674544811248779e-01 -2.569304592907428741e-02
5.180009603500366211e-01 4.610921069979667664e-02 1.181522309780120850e-01
3.865891098976135254e-01 1.320627033710479736e-01 4.556243866682052612e-02
-3.761967718601226807e-01 9.236767888069152832e-03 -5.514212697744369507e-02
-1.711533963680267334e-02 1.061753332614898682e-01 9.512426704168319702e-02
2.271199226379394531e-02 1.442160010337829590e-01 2.516721375286579132e-02
2.446192204952239990e-01 1.115887761116027832e-01 1.038554981350898743e-01
-2.866128385066986084e-01 -1.404226943850517273e-02 -4.790599644184112549e-02
1.176300644874572754e-02 -4.977628216147422791e-02 2.290629781782627106e-02
3.391673564910888672e-01 1.134300529956817627e-01 -1.702972315251827240e-02
7.745049893856048584e-02 1.187356561422348022e-01 -3.845442086458206177e-02
3.328571617603302002e-01 -4.303707554936408997e-02 6.413973867893218994e-03
2.750557959079742432e-01 1.393088400363922119e-01 4.887100681662559509e-02
-4.650509953498840332e-01 7.581757754087448120e-02 -3.628464043140411377e-02
1.799774914979934692e-02 1.270266026258468628e-01 7.810937613248825073e-02
1.998209953308105469e-02 4.388196766376495361e-02 -7.773201912641525269e-02
-4.103248119354248047e-01 4.655423015356063843e-02 4.730873554944992065e-02
2.591474056243896484e-01 8.773441612720489502e-02 1.185860633850097656e-01
3.368266224861145020e-01 9.418985247611999512e-02 1.150711402297019958e-01
2.650645673274993896e-01 -4.877195879817008972e-02 3.609709441661834717e-02
-7.407581061124801636e-02 -2.603857591748237610e-02 -5.113798379898071289e-02
2.160440087318420410e-01 1.184207946062088013e-01 -2.762525342404842377e-02
5.543020963668823242e-01 -1.437373086810112000e-02 7.671817392110824585e-02
1.028633564710617065e-01 1.119563579559326172e-01 -4.403827339410781860e-02
-6.837968528270721436e-02 3.280913084745407104e-02 -5.030531883239746094e-01
7.048824429512023926e-02 -2.667210996150970459e-03 -4.181547760963439941e-01
-1.591154634952545166e-01 4.429988563060760498e-02 -6.381660103797912598e-01
3.751758113503456116e-02 4.592706449329853058e-03 -3.010531961917877197e-01
-1.146667301654815674e-01 4.821247607469558716e-02 -6.426380276679992676e-01
-1.182391196489334106e-01 4.317367821931838989e-02 -7.403959035873413086e-01
-5.690827593207359314e-02 2.699831500649452209e-02 -4.626696705818176270e-01
4.136879369616508484e-02 5.987540818750858307e-03 -4.851999580860137939e-01
-1.241207420825958252e-01 2.583845704793930054e-02 -6.903203725814819336e-01
-1.442009359598159790e-01 1.562228798866271973e-02 -5.210071802139282227e-01
-1.067310124635696411e-01 4.271116107702255249e-02 -5.907548069953918457e-01
1.252780854701995850e-02 2.428343333303928375e-02 -4.186200499534606934e-01
1.077556312084197998e-01 -2.215402759611606598e-02 -2.211972475051879883e-01
-3.189885243773460388e-02 -9.386969730257987976e-03 -4.131309986114501953e-01
-3.304551914334297180e-02 -1.022468879818916321e-02 -3.811362981796264648e-01
-1.475829929113388062e-01 1.217162143439054489e-02 -5.849887132644653320e-01
1.058037877082824707e-01 -1.537851430475711823e-02 -3.100462555885314941e-01
-2.013512551784515381e-01 3.987943381071090698e-02 -6.655321121215820312e-01
-1.134637743234634399e-02 8.084851317107677460e-03 -5.402873158454895020e-01
5.580330267548561096e-02 -1.610136218369007111e-02 -3.415828943252563477e-01
-6.069473922252655029e-02 3.631978482007980347e-02 -5.235438346862792969e-01
-3.316405415534973145e-02 3.870138153433799744e-02 -5.440052151679992676e-01
-1.219899505376815796e-01 5.569447763264179230e-03 -5.142642259597778320e-01
-5.100310221314430237e-02 3.929601609706878662e-02 -5.467602610588073730e-01
8.303727209568023682e-02 1.388466823846101761e-02 -4.447927176952362061e-01
-7.134056091308593750e-02 -3.179315477609634399e-03 -4.679946899414062500e-01
1.228284537792205811e-01 4.517576657235622406e-03 -3.546307682991027832e-01
-1.342177242040634155e-01 1.230823062360286713e-02 -6.026538014411926270e-01
6.674660742282867432e-02 -1.789076067507266998e-02 -3.186862170696258545e-01
-1.350439637899398804e-01 3.897503763437271118e-02 -5.853526592254638672e-01
-5.432938784360885620e-02 3.086462616920471191e-02 -4.837376773357391357e-01
-2.257063426077365875e-02 3.119769692420959473e-02 -6.220763325691223145e-01
-4.981365054845809937e-03 -1.203887537121772766e-02 -3.923350572586059570e-01
-1.018949896097183228e-01 4.722792282700538635e-02 -6.300627589225769043e-01
-7.372289150953292847e-02 4.612854868173599243e-02 -6.239001750946044922e-01
4.709695652127265930e-02 2.128436602652072906e-02 -3.977722227573394775e-01
8.233430981636047363e-02 1.459489855915307999e-02 -3.552484214305877686e-01
5.299538373947143555e-03 3.491697460412979126e-02 -5.481160283088684082e-01
1.626811921596527100e-02 3.466150723397731781e-03 -4.967423975467681885e-01
1.141051352024078369e-01 -1.965827681124210358e-02 -2.006833255290985107e-01
1.283908188343048096e-01 -2.139376662671566010e-02 -2.132121622562408447e-01
-1.112307310104370117e-01 1.398856844753026962e-02 -4.663786888122558594e-01
1.397209614515304565e-02 -1.172090880572795868e-02 -3.966535329818725586e-01
-1.095083802938461304e-01 5.004424601793289185e-02 -6.669999361038208008e-01
-6.059265509247779846e-02 -8.009430021047592163e-04 -5.024459362030029297e-01
2.694553509354591370e-02 1.547727268189191818e-02 -3.588450253009796143e-01
-6.092328578233718872e-03 2.978060767054557800e-02 -5.984197258949279785e-01
-1.545286364853382111e-02 2.999949082732200623e-02 -4.647786617279052734e-01
-1.919372379779815674e-01 2.517684921622276306e-02 -6.765990257263183594e-01
1.176731660962104797e-02 3.344639390707015991e-02 -5.170373916625976562e-01
-3.243881464004516602e-02 3.179841861128807068e-02 -4.817159771919250488e-01
-1.407656073570251465e-01 9.752619080245494843e-03 -5.454917550086975098e-01
-6.915016472339630127e-02 4.635094106197357178e-02 -6.547555923461914062e-01
-1.201443374156951904e-01 1.359446905553340912e-02 -6.171337366104125977e-01
6.036157533526420593e-02 -2.024438418447971344e-02 -2.577360868453979492e-01
-1.006062924861907959e-01 3.016855195164680481e-02 -6.951387524604797363e-01
3.790177404880523682e-03 2.766473963856697083e-02 -4.448870420455932617e-01
6.916970014572143555e-02 -1.933151297271251678e-02 -3.009039759635925293e-01
-1.525990068912506104e-01 2.048276737332344055e-02 -5.383161902427673340e-01
1.876427978277206421e-02 -7.052104920148849487e-04 -4.729112088680267334e-01
9.239627420902252197e-02 -1.833022572100162506e-02 -2.985892891883850098e-01
-1.401923894882202148e-01 5.351065099239349365e-02 -7.314913272857666016e-01
1.208628267049789429e-01 -1.536738686263561249e-02 -2.926871180534362793e-01
-7.458116859197616577e-02 2.364941686391830444e-02 -4.586863517761230469e-01
-1.631059795618057251e-01 5.468102544546127319e-02 -7.566908597946166992e-01
-1.142887920141220093e-01 2.043984085321426392e-02 -4.852893352508544922e-01
-4.422059655189514160e-02 8.189972490072250366e-03 -3.755600452423095703e-01
-1.106749624013900757e-01 3.438538871705532074e-03 -4.857169091701507568e-01
-1.099110990762710571e-01 5.953796207904815674e-03 -5.522928833961486816e-01
-1.271277219057083130e-01 8.249006234109401703e-03 -5.629672408103942871e-01
-1.915685683488845825e-01 5.286422371864318848e-02 -7.355036735534667969e-01
-8.579418063163757324e-02 2.831915393471717834e-03 -5.318099856376647949e-01
-8.869408071041107178e-02 -9.071361273527145386e-04 -4.740249812602996826e-01
2.819838002324104309e-02 -8.646305650472640991e-03 -4.165730476379394531e-01
-1.404762566089630127e-01 5.106273293495178223e-02 -7.589720487594604492e-01
-9.160345792770385742e-02 4.798956960439682007e-02 -6.991133689880371094e-01
-2.661313489079475403e-02 3.732643090188503265e-03 -5.264256000518798828e-01
-2.030771784484386444e-02 2.605874463915824890e-02 -4.388613402843475342e-01
1.054630875587463379e-01 4.883029498159885406e-03 -2.890777289867401123e-01
5.661736801266670227e-02 5.946573801338672638e-03 -2.985302209854125977e-01
-2.191015891730785370e-02 -1.174524053931236267e-02 -3.615867495536804199e-01
-9.456735104322433472e-02 3.146991133689880371e-03 -4.390167891979217529e-01
9.387862682342529297e-02 8.077825419604778290e-03 -3.076484799385070801e-01
4.947343096137046814e-02 3.870225511491298676e-03 -4.683986008167266846e-01
-1.587966382503509521e-01 3.037874773144721985e-02 -7.234144210815429688e-01
1.513256728649139404e-01 -1.523763872683048248e-02 -2.131124138832092285e-01
1.276282966136932373e-01 -8.800154551863670349e-03 -3.186960816383361816e-01
-2.254034280776977539e-01 5.006133764982223511e-02 -7.677496671676635742e-01
-4.467993974685668945e-02 2.137695811688899994e-02 -4.260746538639068604e-01
-4.361513629555702209e-02 4.138616845011711121e-02 -5.731752514839172363e-01
-8.888649940490722656e-02 4.874953627586364746e-02 -6.646937727928161621e-01
-6.559719145298004150e-02 2.184106037020683289e-02 -4.435067176818847656e-01
7.426849007606506348e-02 3.633749671280384064e-03 -2.818045616149902344e-01
-1.958820372819900513e-01 4.132712632417678833e-02 -7.781677246093750000e-01
-1.833301782608032227e-01 3.475747257471084595e-02 -7.484574913978576660e-01
-1.782670468091964722e-01 4.992087185382843018e-02 -6.953896284103393555e-01
1.846547424793243408e-02 -1.676596514880657196e-02 -3.187143802642822266e-01
1.320605874061584473e-01 -1.607356034219264984e-02 -2.721944451332092285e-01
1.504360139369964600e-02 2.161436527967453003e-02 -5.608328580856323242e-01
-5.954939126968383789e-02 1.642587035894393921e-02 -4.164867997169494629e-01
-1.337346732616424561e-01 1.674186810851097107e-02 -6.393438577651977539e-01
1.525784283876419067e-01 -9.016526862978935242e-03 -2.488801479339599609e-01
-4.161716252565383911e-02 2.456493303179740906e-02 -6.297695040702819824e-01
-2.007013857364654541e-01 3.146950155496597290e-02 -7.241248488426208496e-01
-2.032679468393325806e-01 2.930195629596710205e-02 -7.018939256668090820e-01
6.552106142044067383e-02 -1.404435746371746063e-02 -2.324360609054565430e-01
5.778152868151664734e-02 3.737956285476684570e-05 -2.723591625690460205e-01
-7.567234337329864502e-03 4.416461102664470673e-03 -3.314382731914520264e-01
-1.450382024049758911e-01 5.249753594398498535e-02 -7.008883953094482422e-01
8.565863966941833496e-02 -2.187079750001430511e-02 -2.436608672142028809e-01
-2.008261382579803467e-01 4.640322551131248474e-02 -6.967461109161376953e-01
-1.265604794025421143e-01 2.200271561741828918e-02 -5.044840574264526367e-01
9.260377287864685059e-02 1.521650701761245728e-02 -3.795127868652343750e-01
-1.536322087049484253e-01 5.036935955286026001e-02 -6.802982687950134277e-01
4.721469059586524963e-02 2.654956839978694916e-02 -4.680816531181335449e-01
-1.376506835222244263e-01 3.021683543920516968e-02 -5.455442667007446289e-01
-1.027323603630065918e-01 3.068654611706733704e-02 -5.146305561065673828e-01
-8.221133798360824585e-02 4.041570425033569336e-02 -5.624720454216003418e-01
-5.804829299449920654e-02 4.028267413377761841e-02 -6.700659990310668945e-01
1.102874055504798889e-02 -7.166465744376182556e-03 -4.358428120613098145e-01
-2.300766669213771820e-02 2.016465365886688232e-02 -5.988067984580993652e-01
-1.194298267364501953e-03 -1.398091576993465424e-02 -3.237671554088592529e-01
1.261280775070190430e-01 -7.400382310152053833e-04 -2.608454823493957520e-01
-1.276300102472305298e-01 2.223213016986846924e-02 -6.730632781982421875e-01
3.267187252640724182e-02 -4.984028637409210205e-03 -4.381395876407623291e-01
6.786821782588958740e-02 1.065638475120067596e-02 -4.676612615585327148e-01
-2.020456045866012573e-01 3.628788143396377563e-02 -7.542910575866699219e-01
-1.410370320081710815e-01 4.192148521542549133e-02 -6.078357696533203125e-01
-4.275763779878616333e-02 1.654001697897911072e-02 -6.015542745590209961e-01
-3.604395687580108643e-02 3.551834076642990112e-02 -5.118361711502075195e-01
-1.085681915283203125e-01 3.795502707362174988e-02 -7.233650684356689453e-01
-1.630226820707321167e-01 1.590052433311939240e-02 -6.093189716339111328e-01
-6.078229844570159912e-02 1.270234584808349609e-03 -5.204405784606933594e-01
-5.823603272438049316e-02 4.443172365427017212e-02 -6.101832985877990723e-01
3.878573700785636902e-02 2.678626216948032379e-02 -4.506501853466033936e-01
7.006080448627471924e-02 1.982090994715690613e-02 -4.000939130783081055e-01
7.579681277275085449e-02 -7.883230224251747131e-03 -3.861458897590637207e-01
-8.363062143325805664e-02 1.361771672964096069e-02 -6.100835800170898438e-01
-1.934853196144104004e-01 2.415787056088447571e-02 -6.518293619155883789e-01
-1.129014343023300171e-01 3.680035844445228577e-02 -5.553677678108215332e-01
-1.717356443405151367e-01 4.912688583135604858e-02 -7.876305580139160156e-01
2.207150310277938843e-02 2.888238988816738129e-02 -4.608003497123718262e-01
-5.438564345240592957e-02 2.513754740357398987e-02 -6.428707242012023926e-01
2.340367808938026428e-02 -1.705556549131870270e-02 -2.990814447402954102e-01
4.224601760506629944e-02 -1.873987354338169098e-02 -3.066020905971527100e-01
-1.351508647203445435e-01 3.564666956663131714e-02 -5.676040053367614746e-01
-1.755842268466949463e-01 2.866514399647712708e-02 -5.901191234588623047e-01
-4.329686239361763000e-02 4.235785454511642456e-02 -6.307864785194396973e-01
-6.337163597345352173e-02 8.194039575755596161e-03 -5.700066685676574707e-01
-2.116818353533744812e-02 1.809105277061462402e-02 -3.952229022979736328e-01
5.752053484320640564e-02 2.386495471000671387e-02 -4.394860267639160156e-01
-7.412776350975036621e-03 -9.344413876533508301e-03 -4.224148392677307129e-01
-1.660879850387573242e-01 1.965082064270973206e-02 -6.510806083679199219e-01
-1.393409445881843567e-02 -7.178124040365219116e-03 -4.433861374855041504e-01
-8.904325962066650391e-02 2.309416607022285461e-02 -4.686829149723052979e-01
-1.064689457416534424e-02 -3.331786021590232849e-03 -4.729605913162231445e-01
-1.016835719347000122e-01 1.046608015894889832e-02 -5.939953327178955078e-01
-1.160207539796829224e-01 5.143065750598907471e-02 -6.925172805786132812e-01
-1.227441281080245972e-01 3.004710562527179718e-02 -7.080796957015991211e-01
-4.534517228603363037e-02 -2.096790820360183716e-03 -4.911878108978271484e-01
-6.911691278219223022e-02 1.905606687068939209e-02 -6.303715705871582031e-01
-1.074705272912979126e-03 1.885878294706344604e-02 -5.730596780776977539e-01
-1.397615969181060791e-01 3.329427912831306458e-02 -7.294499278068542480e-01
-1.269890815019607544e-01 4.552291333675384521e-02 -6.232515573501586914e-01
8.245494216680526733e-03 1.532827317714691162e-02 -3.655551671981811523e-01
-4.539132863283157349e-02 3.527868539094924927e-04 -5.109565258026123047e-01
8.597268164157867432e-02 -2.040884457528591156e-02 -2.799837589263916016e-01
-2.187435328960418701e-01 4.666315019130706787e-02 -7.936176061630249023e-01
-1.027761548757553101e-01 1.509041525423526764e-02 -6.249910593032836914e-01
-8.356337249279022217e-02 2.942070737481117249e-02 -4.934004843235015869e-01
4.759575054049491882e-02 -1.111591048538684845e-02 -3.874551951885223389e-01
4.417334124445915222e-02 1.049036066979169846e-02 -3.258171081542968750e-01
1.120659410953521729e-01 4.394799470901489258e-04 -3.753677606582641602e-01
-3.915778547525405884e-02 -2.334469929337501526e-03 -3.526809513568878174e-01
6.292530894279479980e-02 1.880138181149959564e-02 -3.822625279426574707e-01
-2.278303951025009155e-01 4.176077991724014282e-02 -7.302803397178649902e-01
7.867518067359924316e-02 -1.050661876797676086e-02 -3.680716753005981445e-01
-7.690273225307464600e-03 3.723470121622085571e-02 -5.624204277992248535e-01
-5.007987469434738159e-02 4.208142310380935669e-02 -6.509457826614379883e-01
-2.006926089525222778e-01 5.401904881000518799e-02 -7.618538737297058105e-01
-1.188367605209350586e-04 -1.458826847374439240e-02 -3.459120392799377441e-01
5.711285397410392761e-02 2.178335189819335938e-02 -4.903998672962188721e-01
-1.335325837135314941e-02 1.365548744797706604e-02 -3.699345290660858154e-01
-1.715888231992721558e-01 4.614813253283500671e-02 -6.617119312286376953e-01
-2.812313660979270935e-02 9.549895301461219788e-03 -5.591101050376892090e-01
-2.596054598689079285e-02 -4.170630127191543579e-03 -3.348782062530517578e-01
-4.477212578058242798e-02 1.182730682194232941e-02 -5.810546875000000000e-01
-4.971750080585479736e-03 4.877690225839614868e-04 -4.951214194297790527e-01
-9.304088354110717773e-02 5.869446322321891785e-03 -5.579862594604492188e-01
-1.773384585976600647e-02 3.535910695791244507e-02 -5.122361183166503906e-01
-9.163428843021392822e-02 4.824666678905487061e-02 -6.465163826942443848e-01
-1.764306426048278809e-01 2.802201732993125916e-02 -7.109700441360473633e-01
1.835307851433753967e-02 6.099940277636051178e-03 -3.183095753192901611e-01
-9.778277575969696045e-02 3.548839688301086426e-02 -5.370287895202636719e-01
-5.125325173139572144e-02 -7.270935922861099243e-03 -4.212439060211181641e-01
1.072118580341339111e-01 -2.128612436354160309e-02 -2.531201839447021484e-01
4.632312804460525513e-03 2.004315517842769623e-02 -3.929717242717742920e-01
-1.672236621379852295e-01 2.403347566723823547e-02 -6.861616373062133789e-01
-9.554303437471389771e-02 1.183444634079933167e-03 -5.036561489105224609e-01
-6.582247465848922729e-02 1.293384470045566559e-02 -5.984415411949157715e-01
3.401413932442665100e-02 2.941897138953208923e-02 -4.956113994121551514e-01
-1.995402723550796509e-01 4.674483090639114380e-02 -7.954469919204711914e-01
1.337119638919830322e-01 -1.944964937865734100e-02 -2.407959997653961182e-01
8.275735378265380859e-02 -1.550141908228397369e-02 -2.182021141052246094e-01
-5.205029249191284180e-02 -5.884822458028793335e-03 -4.482595026493072510e-01
-5.929878354072570801e-02 1.474842429161071777e-03 -3.813646733760833740e-01
-1.614326536655426025e-01 1.779046468436717987e-02 -5.562374591827392578e-01
9.645347297191619873e-02 -1.224675588309764862e-02 -3.403198122978210449e-01
3.477414324879646301e-02 -1.613718084990978241e-02 -2.683011591434478760e-01
1.382638216018676758e-01 1.718420535326004028e-04 -2.960788011550903320e-01
1.845047175884246826e-01 -1.642094254493713379e-01 1.216264441609382629e-03
3.177821338176727295e-01 -6.516747921705245972e-02 2.208164036273956299e-01
2.800785303115844727e-01 -1.449044197797775269e-01 4.850869625806808472e-02
2.637213170528411865e-01 -6.691072881221771240e-02 2.378448992967605591e-01
2.214688509702682495e-01 -1.375223398208618164e-01 -2.414080202579498291e-01
1.030257269740104675e-01 -1.633983552455902100e-01 7.061953097581863403e-02
2.695368528366088867e-01 -6.976056843996047974e-02 -3.090302944183349609e-01
3.413972258567810059e-01 -1.191731989383697510e-01 1.005715206265449524e-01
1.632823348045349121e-01 -1.550571769475936890e-01 1.766581684350967407e-01
9.060469269752502441e-02 -1.599307358264923096e-01 8.741794526576995850e-02
1.889467835426330566e-01 -5.244065821170806885e-02 -1.574589759111404419e-01
3.971910476684570312e-01 -6.587624549865722656e-02 7.535454630851745605e-02
1.460957527160644531e-01 -6.287758052349090576e-02 2.838027849793434143e-02
3.552353382110595703e-01 -3.905196487903594971e-02 5.425468087196350098e-02
3.931811451911926270e-01 -4.709413275122642517e-02 -2.662872523069381714e-02
2.780790925025939941e-01 -1.297871023416519165e-01 -2.088457643985748291e-01
2.676177322864532471e-01 -1.294031590223312378e-01 -2.281924933195114136e-01
2.768029272556304932e-01 -4.220223426818847656e-02 1.107735484838485718e-01
1.118676140904426575e-01 -7.465586811304092407e-02 -8.365257084369659424e-02
3.169155716896057129e-01 -4.205142706632614136e-02 -1.982167065143585205e-01
1.001598238945007324e-01 -1.011490672826766968e-01 -2.289502918720245361e-01
3.449327647686004639e-01 -1.194424331188201904e-01 -7.296420633792877197e-02
1.096690595149993896e-01 -9.926810115575790405e-02 1.811434626579284668e-01
2.060867846012115479e-01 -1.613661646842956543e-01 2.281079068779945374e-02
2.228081226348876953e-01 -1.459493339061737061e-01 -1.904488950967788696e-01
2.761808335781097412e-01 -1.432879120111465454e-01 -9.338538348674774170e-02
3.507973551750183105e-01 -4.503002762794494629e-02 1.118502467870712280e-01
4.039195179939270020e-01 -7.203228771686553955e-02 2.549627423286437988e-02
1.078145354986190796e-01 -1.658047437667846680e-01 2.169569209218025208e-02
1.082984283566474915e-01 -1.657095253467559814e-01 -2.606700919568538666e-02
2.557679712772369385e-01 -8.026209473609924316e-02 -3.241970539093017578e-01
3.705067038536071777e-01 -1.030291318893432617e-01 -1.004855856299400330e-01
4.453623294830322266e-02 -1.367069482803344727e-01 -5.992340669035911560e-02
1.742154359817504883e-01 -6.760460138320922852e-02 1.622894704341888428e-01
3.122297823429107666e-01 -3.337106108665466309e-02 9.822973981499671936e-03
1.893439590930938721e-01 -4.867029562592506409e-02 -2.372260950505733490e-02
8.186487853527069092e-02 -1.605618447065353394e-01 5.177731066942214966e-02
3.348622322082519531e-01 -1.238854900002479553e-01 7.946570217609405518e-02
2.567310333251953125e-01 -1.385235786437988281e-01 -1.912772357463836670e-01
2.136985659599304199e-01 -1.101891249418258667e-01 -3.227565288543701172e-01
3.309333324432373047e-01 -9.365624189376831055e-02 2.281372845172882080e-01
1.923488974571228027e-01 -4.896042868494987488e-02 -1.116168424487113953e-01
2.974832355976104736e-01 -4.021884128451347351e-02 1.022140011191368103e-01
2.421892136335372925e-01 -4.688780009746551514e-02 1.181993484497070312e-01
3.839862346649169922e-01 -9.798085689544677734e-02 -4.233653098344802856e-02
3.696292638778686523e-01 -1.053513884544372559e-01 7.472339272499084473e-02
2.800272703170776367e-01 -3.374436497688293457e-02 -3.369665518403053284e-02
2.541310489177703857e-01 -3.646809607744216919e-02 -6.758127361536026001e-02
3.365607261657714844e-01 -5.161589384078979492e-02 1.618640571832656860e-01
2.891104221343994141e-01 -1.404985040426254272e-01 8.892630785703659058e-02
5.279220640659332275e-02 -1.231249347329139709e-01 -1.196981593966484070e-01
1.433484554290771484e-01 -6.216305494308471680e-02 -7.591062784194946289e-02
3.769493103027343750e-01 -4.159629717469215393e-02 -8.848009258508682251e-02
1.862069368362426758e-01 -7.048169523477554321e-02 1.967996209859848022e-01
2.770159244537353516e-01 -1.444874703884124756e-01 -6.804347038269042969e-02
2.666143476963043213e-01 -1.205934286117553711e-01 -2.672854661941528320e-01
6.768848001956939697e-02 -1.007015034556388855e-01 -9.597449004650115967e-02
2.682256996631622314e-01 -4.783993959426879883e-02 1.498260647058486938e-01
8.182838559150695801e-02 -1.280710101127624512e-01 1.723414808511734009e-01
2.963445186614990234e-01 -1.197750121355056763e-01 2.211541235446929932e-01
2.823948264122009277e-01 -1.409361660480499268e-01 1.131421327590942383e-01
2.282095849514007568e-01 -4.031451418995857239e-02 -4.442995414137840271e-02
1.393577605485916138e-01 -6.954163312911987305e-02 8.694472163915634155e-02
1.608593314886093140e-01 -6.305019557476043701e-02 9.510916471481323242e-02
1.646087765693664551e-01 -1.406170725822448730e-01 2.405738085508346558e-01
1.124755740165710449e-01 -1.450814455747604370e-01 -2.143044024705886841e-01
3.279996514320373535e-01 -1.239708662033081055e-01 1.159935891628265381e-01
3.183188140392303467e-01 -1.289437711238861084e-01 -9.984987974166870117e-02
1.651284843683242798e-01 -5.952789634466171265e-02 7.004586607217788696e-02
2.638820707798004150e-01 -5.596803873777389526e-02 1.947125494480133057e-01
2.390316128730773926e-01 -1.518540680408477783e-01 -1.010113283991813660e-01
2.521022260189056396e-01 -3.847410157322883606e-02 -1.252720952033996582e-01
3.247439563274383545e-01 -1.111375838518142700e-01 -2.108979672193527222e-01
8.655261993408203125e-02 -8.840860426425933838e-02 2.431720867753028870e-02
6.077414751052856445e-02 -1.055898219347000122e-01 1.645629853010177612e-02
1.518928557634353638e-01 -7.335947453975677490e-02 1.525799483060836792e-01
2.863267362117767334e-01 -1.226906105875968933e-01 -2.317750602960586548e-01
2.105813473463058472e-01 -1.576888561248779297e-01 -9.132985770702362061e-02
8.678643405437469482e-02 -1.629005968570709229e-01 -2.397710829973220825e-02
1.854235529899597168e-01 -1.617838740348815918e-01 9.256327897310256958e-02
1.877717971801757812e-01 -1.580995917320251465e-01 -1.273131668567657471e-01
3.002632856369018555e-01 -1.307751238346099854e-01 1.548251211643218994e-01
2.142146229743957520e-01 -1.601207256317138672e-01 -1.746231690049171448e-03
1.946767717599868774e-01 -1.623320579528808594e-01 5.485621839761734009e-02
3.038916587829589844e-01 -1.255305260419845581e-01 1.804110109806060791e-01
1.079546883702278137e-01 -7.691609859466552734e-02 1.019782200455665588e-02
2.633221447467803955e-01 -4.201432317495346069e-02 9.699413180351257324e-02
3.013528287410736084e-01 -3.472459316253662109e-02 3.484278544783592224e-02
2.449400126934051514e-01 -1.298139989376068115e-01 -2.544983029365539551e-01
2.142786383628845215e-01 -5.070231109857559204e-02 1.082344204187393188e-01
3.009747862815856934e-01 -1.314457356929779053e-01 -1.418069899082183838e-01
1.663159877061843872e-01 -8.621119707822799683e-02 2.323320657014846802e-01
4.016928076744079590e-01 -7.551327347755432129e-02 -7.040964066982269287e-02
2.808859348297119141e-01 -1.387692093849182129e-01 -1.331045925617218018e-01
2.568334937095642090e-01 -4.018724337220191956e-02 6.656592339277267456e-02
2.318038195371627808e-01 -1.480261832475662231e-01 1.692451685667037964e-01
2.962170541286468506e-01 -3.274647146463394165e-02 -6.054437533020973206e-02
1.071531176567077637e-01 -1.535021811723709106e-01 -1.685833930969238281e-01
2.120849341154098511e-01 -1.567962616682052612e-01 1.152903288602828979e-01
2.585905790328979492e-01 -5.872771516442298889e-02 -2.810321450233459473e-01
3.722869753837585449e-01 -8.544839173555374146e-02 1.544030606746673584e-01
2.099511474370956421e-01 -5.168498307466506958e-02 -2.010732144117355347e-01
2.775571942329406738e-01 -3.682083636522293091e-02 -1.417953670024871826e-01
1.661012172698974609e-01 -1.609577834606170654e-01 1.258224844932556152e-01
1.794613748788833618e-01 -1.615345776081085205e-01 -9.350866079330444336e-02
3.249000012874603271e-01 -1.231395006179809570e-01 1.359296441078186035e-01
9.698991477489471436e-02 -9.803783148527145386e-02 1.448258608579635620e-01
3.660952448844909668e-01 -4.046135768294334412e-02 -1.179178133606910706e-01
2.689144909381866455e-01 -1.332338154315948486e-01 2.057038247585296631e-01
2.570911347866058350e-01 -1.451545804738998413e-01 1.444409042596817017e-01
1.938349902629852295e-01 -1.311923563480377197e-01 -2.811164259910583496e-01
1.893559694290161133e-01 -1.459859311580657959e-01 2.188708633184432983e-01
3.320850431919097900e-01 -4.304121434688568115e-02 1.169367730617523193e-01
1.926501989364624023e-01 -1.508963704109191895e-01 -1.868209689855575562e-01
1.114344820380210876e-01 -1.354702711105346680e-01 -2.429846078157424927e-01
3.753620386123657227e-01 -9.461971372365951538e-02 1.177971959114074707e-01
1.310509741306304932e-01 -6.712685525417327881e-02 -9.425131976604461670e-02
3.447158336639404297e-01 -1.125563904643058777e-01 1.403785198926925659e-01
3.195479512214660645e-01 -1.299515515565872192e-01 8.570834994316101074e-02
2.414043545722961426e-01 -1.373844444751739502e-01 2.213104516267776489e-01
1.994358897209167480e-01 -7.466156780719757080e-02 -3.001533746719360352e-01
8.328177034854888916e-02 -1.370038688182830811e-01 -2.013102918863296509e-01
1.014001518487930298e-01 -9.159243106842041016e-02 1.258474290370941162e-01
1.939927637577056885e-01 -1.522031426429748535e-01 1.815944761037826538e-01
1.687206476926803589e-01 -5.613214895129203796e-02 -1.297808885574340820e-01
3.370635807514190674e-01 -7.122120261192321777e-02 2.160108536481857300e-01
3.968575000762939453e-01 -8.504775911569595337e-02 -5.513254180550575256e-02
3.543767333030700684e-01 -1.130027025938034058e-01 -9.599810838699340820e-02
3.796775341033935547e-01 -4.373029991984367371e-02 3.478144109249114990e-02
1.624746322631835938e-01 -1.506364643573760986e-01 2.019294202327728271e-01
3.490153551101684570e-01 -9.149267524480819702e-02 -2.253790050745010376e-01
1.619379222393035889e-01 -6.754625588655471802e-02 1.363871693611145020e-01
3.068633377552032471e-01 -1.368622630834579468e-01 -1.477038580924272537e-02
3.585507869720458984e-01 -9.856972843408584595e-02 1.614448279142379761e-01
2.545636296272277832e-01 -4.135565087199211121e-02 -1.718321740627288818e-01
2.376418709754943848e-01 -6.911037117242813110e-02 2.367417961359024048e-01
8.296769857406616211e-02 -1.008461266756057739e-01 1.121346801519393921e-01
5.714599788188934326e-02 -1.531158983707427979e-01 -2.120543457567691803e-02
2.467374503612518311e-01 -1.465201079845428467e-01 -1.447653770446777344e-01
1.679549366235733032e-01 -5.435268953442573547e-02 -7.366123050451278687e-02
3.024697899818420410e-01 -5.328532680869102478e-02 -2.589795589447021484e-01
3.478454351425170898e-01 -9.978412836790084839e-02 1.856602877378463745e-01
7.921460270881652832e-02 -9.464304149150848389e-02 4.846825450658798218e-02
2.287208884954452515e-01 -1.183891519904136658e-01 2.819160819053649902e-01
3.400526642799377441e-01 -1.239430308341979980e-01 9.111734107136726379e-03
3.876459300518035889e-01 -9.588956087827682495e-02 -6.284262053668498993e-03
2.391851544380187988e-01 -4.148121923208236694e-02 -1.459277868270874023e-01
2.703291177749633789e-01 -4.695061221718788147e-02 -2.299533337354660034e-01
2.775078415870666504e-01 -1.242927238345146179e-01 2.320487350225448608e-01
5.066150426864624023e-02 -1.394287049770355225e-01 -9.869098663330078125e-02
2.251032888889312744e-01 -4.985934495925903320e-02 -2.105778306722640991e-01
3.134062290191650391e-01 -1.116620525717735291e-01 -2.319569587707519531e-01
1.850689947605133057e-01 -1.603646129369735718e-01 1.145801842212677002e-01
8.098788559436798096e-02 -9.618359059095382690e-02 7.336400449275970459e-02
1.295571625232696533e-01 -1.640924811363220215e-01 9.219238162040710449e-02
2.845044434070587158e-01 -5.494458600878715515e-02 1.948659271001815796e-01
3.682481944561004639e-01 -3.774374723434448242e-02 -1.975738443434238434e-02
2.641289234161376953e-01 -1.069646775722503662e-01 2.799184918403625488e-01
2.119843661785125732e-01 -1.598227769136428833e-01 5.593556165695190430e-02
3.800601661205291748e-01 -6.058061122894287109e-02 -1.752967089414596558e-01
3.164722323417663574e-01 -5.808529630303382874e-02 2.006457149982452393e-01
2.015679776668548584e-01 -6.026682257652282715e-02 1.617691516876220703e-01
1.195059567689895630e-01 -7.704204320907592773e-02 8.301256597042083740e-02
2.419755905866622925e-01 -1.262325793504714966e-01 2.603524327278137207e-01
3.908843994140625000e-01 -8.757646381855010986e-02 -9.063481539487838745e-02
2.456421405076980591e-01 -1.485129594802856445e-01 -1.259430050849914551e-01
2.786030769348144531e-01 -1.339446902275085449e-01 -1.807776093482971191e-01
2.577809095382690430e-01 -1.492822617292404175e-01 8.796904981136322021e-02
3.533233404159545898e-01 -3.944377601146697998e-02 -1.388995647430419922e-01
3.455958366394042969e-01 -1.207749471068382263e-01 4.116018861532211304e-02
1.533045470714569092e-01 -1.654253154993057251e-01 6.636685878038406372e-02
1.126782149076461792e-01 -1.492262929677963257e-01 1.837009489536285400e-01
2.946831881999969482e-01 -4.862570390105247498e-02 1.630766391754150391e-01
3.560013175010681152e-01 -3.652108460664749146e-02 -9.347937256097793579e-02
1.804575920104980469e-01 -8.505429327487945557e-02 -3.084436655044555664e-01
4.326298832893371582e-02 -1.357173323631286621e-01 3.976708278059959412e-03
1.908777058124542236e-01 -5.707996711134910583e-02 -2.086163312196731567e-01
2.137993425130844116e-01 -4.308838397264480591e-02 -3.431874141097068787e-02
1.665441244840621948e-01 -5.591226369142532349e-02 1.643041893839836121e-02
3.303635716438293457e-01 -8.133330941200256348e-02 -2.717333436012268066e-01
1.816412210464477539e-01 -1.633728742599487305e-01 6.773182749748229980e-02
9.999132156372070312e-02 -1.589857637882232666e-01 -1.198347583413124084e-01
2.182746380567550659e-01 -4.260136932134628296e-02 -8.884271234273910522e-02
1.468511670827865601e-01 -1.435180902481079102e-01 -2.386402934789657593e-01
2.189715355634689331e-01 -1.589464098215103149e-01 -2.786777541041374207e-02
1.670931726694107056e-01 -1.533098369836807251e-01 -1.851793676614761353e-01
1.390823423862457275e-01 -1.587431430816650391e-01 1.498001664876937866e-01
2.889019250869750977e-01 -1.419544517993927002e-01 -4.511166363954544067e-02
1.880492866039276123e-01 -6.853516399860382080e-02 -2.689812481403350830e-01
7.451963424682617188e-02 -9.369781613349914551e-02 -3.340817987918853760e-02
1.218376904726028442e-01 -1.135469004511833191e-01 2.316236346960067749e-01
1.200096905231475830e-01 -8.494383096694946289e-02 1.431136131286621094e-01
2.200362086296081543e-01 -1.488312035799026489e-01 -1.721500605344772339e-01
1.570949554443359375e-01 -1.617572605609893799e-01 -1.131552830338478088e-01
4.509451985359191895e-02 -1.415555626153945923e-01 -3.589482232928276062e-02
1.833074092864990234e-01 -5.652283877134323120e-02 9.430124610662460327e-02
2.354396879673004150e-01 -1.548659950494766235e-01 -5.933944508433341980e-02
3.513349890708923340e-01 -1.172237172722816467e-01 -5.679870396852493286e-02
1.555447280406951904e-01 -5.833825841546058655e-02 -1.066719181835651398e-02
2.215250134468078613e-01 -4.443293437361717224e-02 -1.451113820075988770e-01
1.176005378365516663e-01 -1.653488576412200928e-01 -5.614771693944931030e-02
3.890462815761566162e-01 -4.630777612328529358e-02 1.414438709616661072e-02
3.525674939155578613e-01 -1.163470894098281860e-01 6.208901107311248779e-02
3.904516398906707764e-01 -5.116665735840797424e-02 -1.107001081109046936e-01
1.662987470626831055e-01 -6.139894947409629822e-02 -1.858915835618972778e-01
6.647390127182006836e-02 -1.259419769048690796e-01 -1.760291010141372681e-01
2.739411890506744385e-01 -1.454738080501556396e-01 7.962793111801147461e-02
2.424146980047225952e-01 -4.456995800137519836e-02 -1.887498199939727783e-01
4.577110707759857178e-02 -1.215556561946868896e-01 -9.504749439656734467e-03
4.040316343307495117e-01 -7.541288435459136963e-02 -3.604220971465110779e-02
2.869599461555480957e-01 -1.335610598325729370e-01 1.688646525144577026e-01
2.764301300048828125e-01 -4.986472800374031067e-02 1.666357070207595825e-01
2.129381448030471802e-01 -1.449410170316696167e-01 2.104827016592025757e-01
1.802947074174880981e-01 -5.076434463262557983e-02 -4.625700414180755615e-02
1.298219561576843262e-01 -1.670018136501312256e-01 -6.967398338019847870e-03
1.270101964473724365e-01 -6.806601583957672119e-02 -7.154851406812667847e-02
3.899768590927124023e-01 -8.494143187999725342e-02 -1.115474849939346313e-01
3.134815692901611328e-01 -1.194930970668792725e-01 -1.942910850048065186e-01
1.254359185695648193e-01 -1.060331538319587708e-01 -2.798462510108947754e-01
2.087405472993850708e-01 -1.208603829145431519e-01 2.822092175483703613e-01
2.349124103784561157e-01 -3.952011093497276306e-02 -8.345342427492141724e-02
2.185090184211730957e-01 -1.436582207679748535e-01 -2.106446623802185059e-01
1.750143915414810181e-01 -1.634004712104797363e-01 -6.758333742618560791e-02
3.938423395156860352e-01 -7.627189159393310547e-02 8.992964029312133789e-02
2.994094491004943848e-01 -5.724859982728958130e-02 2.036513090133666992e-01
1.220946460962295532e-01 -7.326686382293701172e-02 5.214049667119979858e-02
1.911089867353439331e-01 -1.632142215967178345e-01 -1.997421868145465851e-02
3.036654889583587646e-01 -1.282990723848342896e-01 -1.606296598911285400e-01
2.378316521644592285e-01 -1.117087379097938538e-01 -3.130870461463928223e-01
4.012833237648010254e-01 -7.110269367694854736e-02 -8.777973055839538574e-02
1.484285891056060791e-01 -1.360646635293960571e-01 2.459557801485061646e-01
2.896230220794677734e-01 -3.351055830717086792e-02 -8.605305105447769165e-02
3.965876400470733643e-01 -5.404780060052871704e-02 -9.241036325693130493e-02
3.638483583927154541e-01 -9.630981832742691040e-02 -1.706573516130447388e-01
2.029657661914825439e-01 -1.541301906108856201e-01 1.583006531000137329e-01
3.694296479225158691e-01 -1.071906909346580505e-01 5.193395167589187622e-02
2.825319170951843262e-01 -3.915976360440254211e-02 -1.746622920036315918e-01
1.337966620922088623e-01 -1.663959026336669922e-01 4.823330789804458618e-02
2.881853580474853516e-01 -6.403720378875732422e-02 -2.936174273490905762e-01
3.441156148910522461e-01 -1.092830002307891846e-01 1.603761315345764160e-01
3.016811609268188477e-01 -1.383900046348571777e-01 3.990306332707405090e-02
1.236463561654090881e-01 -1.607903987169265747e-01 1.255423128604888916e-01
1.398313045501708984e-01 -6.474900245666503906e-02 -1.148247942328453064e-01
7.108418643474578857e-02 -1.457959264516830444e-01 1.243955790996551514e-01
1.609498262405395508e-01 -8.099403977394104004e-02 2.069752514362335205e-01
2.077125906944274902e-01 -1.601674556732177734e-01 -4.912562668323516846e-02
3.695213794708251953e-01 -1.063046157360076904e-01 -7.066731154918670654e-02
1.449632048606872559e-01 -7.905668020248413086e-02 1.701612919569015503e-01
2.318207472562789917e-01 -1.539801955223083496e-01 1.055441051721572876e-01
2.388019263744354248e-01 -1.545065939426422119e-01 6.757614016532897949e-02
3.041360378265380859e-01 -3.747841343283653259e-02 7.514163851737976074e-02
1.720551997423171997e-01 -1.052815094590187073e-01 -3.192266821861267090e-01
1.832636147737503052e-01 -5.598945915699005127e-02 -1.811798363924026489e-01
2.583089172840118408e-01 -3.590483218431472778e-02 -3.536149114370346069e-02
1.253259330987930298e-01 -1.413707733154296875e-01 2.191309034824371338e-01
2.541752159595489502e-01 -9.051927924156188965e-02 2.832426428794860840e-01
2.296980023384094238e-01 -4.545376077294349670e-02 8.285091817378997803e-02
1.007133722305297852e-01 -1.642199903726577759e-01 4.929305613040924072e-02
4.928970336914062500e-02 -1.401812583208084106e-01 5.364929139614105225e-02
1.748840212821960449e-01 -1.577821671962738037e-01 -1.439463496208190918e-01
6.835083663463592529e-02 -1.040625572204589844e-01 -1.298893094062805176e-01
1.293870508670806885e-01 -1.486533284187316895e-01 1.998372524976730347e-01
1.685671806335449219e-01 -5.477187782526016235e-02 -9.806480258703231812e-02
1.956363916397094727e-01 -1.571998298168182373e-01 1.379492133855819702e-01
1.960100382566452026e-01 -5.660744011402130127e-02 1.251643896102905273e-01
2.769069373607635498e-01 -1.463407278060913086e-01 7.065765559673309326e-03
8.356404304504394531e-02 -8.943819999694824219e-02 -9.039802849292755127e-02
2.848618924617767334e-01 -8.516506850719451904e-02 2.700997591018676758e-01
1.486070156097412109e-01 -1.361944228410720825e-01 -2.647837698459625244e-01
2.290987968444824219e-01 -1.499556005001068115e-01 -1.471984982490539551e-01
3.526514768600463867e-01 -9.569388628005981445e-02 -2.050842940807342529e-01
3.723743557929992676e-01 -7.930273562669754028e-02 -1.936804950237274170e-01
1.665469706058502197e-01 -6.909946352243423462e-02 -2.397248297929763794e-01
1.998137980699539185e-01 -4.889945685863494873e-02 4.755470901727676392e-02
3.767685890197753906e-01 -1.031090170145034790e-01 3.630238771438598633e-02
3.855464756488800049e-01 -9.365494549274444580e-02 6.663944572210311890e-02
8.312894403934478760e-02 -1.092853769659996033e-01 1.467264890670776367e-01
1.647072434425354004e-01 -5.510426685214042664e-02 -5.361099541187286377e-02
1.189228892326354980e-01 -1.582423150539398193e-01 1.423629671335220337e-01
1.959999203681945801e-01 -1.540889143943786621e-01 -1.579035073518753052e-01
1.299626976251602173e-01 -8.390358090400695801e-02 -2.374660521745681763e-01
8.141474425792694092e-02 -8.948080241680145264e-02 -5.138199031352996826e-02
1.579212546348571777e-01 -1.656505763530731201e-01 -4.244110733270645142e-02
8.258429169654846191e-02 -1.594488471746444702e-01 7.040391117334365845e-02
1.475696861743927002e-01 -6.478577852249145508e-02 -1.565547734498977661e-01
3.572207689285278320e-01 -1.061974018812179565e-01 -1.411195248365402222e-01
9.539262950420379639e-02 -1.076202318072319031e-01 1.738535761833190918e-01
6.905075907707214355e-02 -1.498292237520217896e-01 -1.230476126074790955e-01
3.202680945396423340e-01 -1.306245476007461548e-01 -6.021790951490402222e-02
3.566808700561523438e-01 -3.585232794284820557e-02 -7.421818375587463379e-02
1.454950571060180664e-01 -6.492619216442108154e-02 5.820395052433013916e-02
6.585916876792907715e-02 -1.202758699655532837e-01 1.203699856996536255e-01
