3.872032463550567627e-01 3.796541690826416016e-02 5.323244631290435791e-02
-1.421398222446441650e-01 6.811730563640594482e-03 1.232350319623947144e-01
8.913321048021316528e-02 9.588165208697319031e-03 1.354174315929412842e-01
1.633184850215911865e-01 1.012711599469184875e-01 2.272568643093109131e-02
1.646604239940643311e-01 -5.129980295896530151e-02 -1.094660833477973938e-01
9.942065924406051636e-02 -1.098283231258392334e-01 -3.550216555595397949e-02
9.360495954751968384e-02 -6.554260849952697754e-02 -9.028317779302597046e-02
-1.432739198207855225e-01 1.114546358585357666e-01 6.517106294631958008e-02
5.440924167633056641e-01 -1.756974868476390839e-02 -6.721495836973190308e-02
2.972571849822998047e-01 4.655162990093231201e-02 8.125718683004379272e-02
-1.028027832508087158e-01 1.089150644838809967e-02 1.302598565816879272e-01
-9.519335627555847168e-02 6.557842344045639038e-02 1.216247528791427612e-01
2.836430370807647705e-01 -3.860924020409584045e-02 1.168340966105461121e-01
1.475863903760910034e-01 1.024564206600189209e-01 3.131680190563201904e-02
-7.596762478351593018e-02 -6.191860139369964600e-02 -3.566652536392211914e-02
3.609426021575927734e-01 -1.105455383658409119e-01 7.280125468969345093e-02
2.405142635107040405e-01 4.775527864694595337e-02 9.708275645971298218e-02
-3.898069262504577637e-03 3.971967846155166626e-02 1.328486502170562744e-01
1.657540947198867798e-01 -8.862072974443435669e-02 2.788642644882202148e-01
9.802363812923431396e-02 -1.212816834449768066e-01 -1.137243807315826416e-01
2.312866896390914917e-01 -7.468927651643753052e-02 -6.319849193096160889e-02
8.719364553689956665e-02 -1.192241609096527100e-01 1.873190999031066895e-01
3.493304550647735596e-02 -1.139964684844017029e-01 -3.949869796633720398e-02
8.111795037984848022e-02 -8.544815331697463989e-02 -4.710688814520835876e-02
7.024349272251129150e-02 -1.196545809507369995e-01 1.853820383548736572e-01
1.824264228343963623e-01 -7.704346626996994019e-02 -2.146439850330352783e-01
1.643046438694000244e-01 -9.641098976135253906e-02 2.308276444673538208e-01
1.630526930093765259e-01 -5.478899925947189331e-02 2.040806412696838379e-01
2.989006638526916504e-01 -1.776354759931564331e-02 1.929762363433837891e-01
9.109808504581451416e-02 -8.006295561790466309e-02 -3.260235115885734558e-02
2.203970849514007568e-01 -4.428976029157638550e-02 2.841999828815460205e-01
2.464621365070343018e-01 -6.894481182098388672e-02 -3.196511790156364441e-02
2.492760717868804932e-01 -2.660508826375007629e-02 -8.486326038837432861e-02
4.208432137966156006e-02 -1.351430714130401611e-01 1.141984388232231140e-02
1.720823496580123901e-01 -7.783958315849304199e-02 3.053563535213470459e-01
1.558205932378768921e-01 -1.059523224830627441e-01 1.375810652971267700e-01
2.812173962593078613e-01 -1.496623456478118896e-02 1.562492549419403076e-02
2.165409773588180542e-01 -3.920308500528335571e-02 -1.378917694091796875e-01
1.560942679643630981e-01 -1.047405302524566650e-01 -8.716383576393127441e-02
2.785993814468383789e-01 -5.464506149291992188e-02 6.717702746391296387e-02
2.691931426525115967e-01 -1.647554337978363037e-02 3.627312555909156799e-02
2.468145042657852173e-01 -5.945734679698944092e-02 2.611276805400848389e-01
2.265625000000000000e-01 -2.942464128136634827e-02 1.608890146017074585e-01
2.304099500179290771e-01 -2.763458713889122009e-02 -3.127122297883033752e-02
1.173355877399444580e-01 -1.039491072297096252e-01 2.530507743358612061e-01
2.189778089523315430e-01 -3.016927838325500488e-02 -1.166854053735733032e-02
5.857954174280166626e-02 -9.771440923213958740e-02 4.873791709542274475e-02
2.723538875579833984e-02 -1.323585510253906250e-01 -3.080556914210319519e-02
1.122407466173171997e-01 -7.883451133966445923e-02 2.074071913957595825e-01
5.429521948099136353e-02 -1.342242956161499023e-01 -1.392042264342308044e-02
7.149322330951690674e-02 -1.235874295234680176e-01 -1.455959230661392212e-01
2.081018686294555664e-01 -8.625925332307815552e-02 -4.342853650450706482e-02
1.368926167488098145e-01 -1.114424318075180054e-01 -8.621256053447723389e-02
2.684694230556488037e-01 -5.242837220430374146e-02 -8.493356406688690186e-02
1.950403451919555664e-01 -9.341979771852493286e-02 2.498519048094749451e-02
2.143596261739730835e-01 -3.744210675358772278e-02 -1.161884069442749023e-01
1.021396219730377197e-01 -1.245638057589530945e-01 3.005675971508026123e-02
8.103086054325103760e-02 -8.488473296165466309e-02 4.150618985295295715e-02
1.858498007059097290e-01 -9.382030367851257324e-02 1.705158203840255737e-01
1.474505513906478882e-01 -7.245524227619171143e-02 2.775833606719970703e-01
2.151706516742706299e-01 -8.472110331058502197e-02 1.064766794443130493e-01
1.086032241582870483e-01 -1.204185485839843750e-01 -8.094090223312377930e-02
1.181211620569229126e-01 -8.715283125638961792e-02 2.646204829216003418e-01
2.056595087051391602e-01 -8.396016806364059448e-02 2.049527466297149658e-01
9.094396233558654785e-02 -1.242894977331161499e-01 -9.514717757701873779e-02
1.234270483255386353e-01 -1.175008416175842285e-01 -4.427230730652809143e-02
1.302942633628845215e-01 -1.106408014893531799e-01 -1.301032602787017822e-01
2.141502499580383301e-01 -3.082209452986717224e-02 7.238416373729705811e-02
3.134667277336120605e-01 -1.470043137669563293e-02 1.436595022678375244e-01
3.000080585479736328e-01 -4.048426076769828796e-02 1.330075114965438843e-01
2.346082031726837158e-01 -6.545280665159225464e-02 -1.397945284843444824e-01
7.006856799125671387e-02 -9.129834920167922974e-02 6.070948392152786255e-02
2.268851697444915771e-01 -7.350486516952514648e-02 -1.066011637449264526e-01
2.058546096086502075e-01 -4.388937354087829590e-02 2.543523907661437988e-01
1.614157557487487793e-01 -1.061101555824279785e-01 2.693834528326988220e-02
1.416505277156829834e-01 -6.010672077536582947e-02 1.510971337556838989e-01
2.782619297504425049e-01 -2.456226944923400879e-02 -9.024454653263092041e-02
1.294494718313217163e-01 -7.067799568176269531e-02 2.130069285631179810e-01
1.416542679071426392e-01 -8.659483492374420166e-02 2.920068204402923584e-01
1.574145108461380005e-01 -5.504269152879714966e-02 1.769645512104034424e-01
9.949994832277297974e-02 -1.249343082308769226e-01 5.716763436794281006e-02
8.452107757329940796e-02 -8.656141906976699829e-02 -1.057560592889785767e-01
2.753090262413024902e-01 -1.506137102842330933e-02 5.478523671627044678e-02
2.512341737747192383e-02 -1.242713704705238342e-01 6.285365670919418335e-03
1.980903744697570801e-01 -3.667360916733741760e-02 -1.268947869539260864e-02
1.384317129850387573e-01 -1.065103262662887573e-01 -1.461174786090850830e-01
1.017613783478736877e-01 -7.442052662372589111e-02 8.219901472330093384e-03
9.944792836904525757e-02 -9.158301353454589844e-02 2.347287684679031372e-01
1.738931983709335327e-01 -9.507854282855987549e-02 -1.285482048988342285e-01
1.956130266189575195e-01 -4.501324146986007690e-02 -1.398589015007019043e-01
2.223315984010696411e-01 -3.383864834904670715e-02 -9.876333177089691162e-02
1.992578059434890747e-01 -7.621137797832489014e-02 -1.864359676837921143e-01
2.416753619909286499e-01 -7.336015254259109497e-02 8.539795875549316406e-02
1.488282829523086548e-01 -1.103293448686599731e-01 6.103733927011489868e-02
2.061951756477355957e-01 -3.358620405197143555e-02 8.917094767093658447e-02
1.596650034189224243e-01 -4.976544156670570374e-02 2.997875213623046875e-02
1.687864810228347778e-01 -1.033049449324607849e-01 9.478559717535972595e-03
5.765686929225921631e-02 -1.094978749752044678e-01 1.630535572767257690e-01
9.844832122325897217e-02 -7.899355143308639526e-02 -9.493248164653778076e-02
2.023578435182571411e-01 -3.471052646636962891e-02 1.805421151220798492e-02
1.639873534440994263e-01 -1.024915650486946106e-01 1.530186235904693604e-01
8.348117768764495850e-02 -1.248022466897964478e-01 1.387891173362731934e-01
1.637897640466690063e-01 -1.041863411664962769e-01 -3.472816571593284607e-02
5.295420438051223755e-02 -1.044652909040451050e-01 1.038754135370254517e-01
1.466602236032485962e-01 -9.691929072141647339e-02 -1.963760852813720703e-01
2.057714313268661499e-01 -8.920104801654815674e-02 5.299669131636619568e-02
3.414772450923919678e-02 -1.169931143522262573e-01 -7.263955473899841309e-02
1.941367685794830322e-01 -8.672128617763519287e-02 2.245287299156188965e-01
9.639254212379455566e-02 -8.883811533451080322e-02 -1.810281574726104736e-01
2.633649408817291260e-01 -3.368433564901351929e-02 2.727805972099304199e-01
2.951950430870056152e-01 -4.467962309718132019e-02 6.846764683723449707e-02
1.540334075689315796e-01 -5.230160802602767944e-02 -8.526295423507690430e-03
1.367476433515548706e-01 -5.946272611618041992e-02 7.865097373723983765e-02
1.186613738536834717e-01 -7.185926288366317749e-02 -1.253126412630081177e-01
1.887881010770797729e-01 -4.868391528725624084e-02 -1.544308662414550781e-01
2.046680003404617310e-01 -8.036068826913833618e-02 -1.431769430637359619e-01
5.575653910636901855e-02 -1.017865538597106934e-01 -8.970104157924652100e-02
3.067730367183685303e-02 -1.342080235481262207e-01 -1.080884784460067749e-02
2.060261219739913940e-01 -8.902575075626373291e-02 7.094934582710266113e-02
2.276967912912368774e-01 -7.655239850282669067e-02 1.788275390863418579e-01
2.771305143833160400e-01 -5.320901423692703247e-02 1.621356606483459473e-01
8.368860185146331787e-02 -9.170337021350860596e-02 -1.545935571193695068e-01
2.870002686977386475e-01 -4.860706627368927002e-02 1.658442243933677673e-02
9.215376526117324829e-02 -1.187473088502883911e-01 -1.550327837467193604e-01
3.028056621551513672e-01 -3.692540526390075684e-02 5.587562918663024902e-03
1.697996109724044800e-01 -4.774191975593566895e-02 1.321327090263366699e-01
1.501431167125701904e-01 -5.473616719245910645e-02 -4.579071328043937683e-02
2.330625951290130615e-01 -7.578368484973907471e-02 -2.465774491429328918e-02
4.410324990749359131e-02 -1.087699010968208313e-01 7.392124831676483154e-02
1.935191899538040161e-01 -8.353352546691894531e-02 2.547306120395660400e-01
3.124339580535888672e-01 -3.192576766014099121e-02 7.092543691396713257e-02
2.561006247997283936e-01 -4.830807074904441833e-02 2.830766439437866211e-01
1.735091656446456909e-01 -4.875086992979049683e-02 1.791364550590515137e-01
1.978943645954132080e-01 -4.377309605479240417e-02 2.294600456953048706e-01
4.167841374874114990e-02 -1.090585738420486450e-01 4.588603600859642029e-02
5.212563276290893555e-02 -1.010458022356033325e-01 8.058555424213409424e-03
4.740425944328308105e-02 -1.203323230147361755e-01 1.450295895338058472e-01
2.764483690261840820e-01 -1.640190184116363525e-02 -2.540979534387588501e-03
1.881332844495773315e-01 -9.525601565837860107e-02 1.162524819374084473e-01
5.121766030788421631e-02 -1.297768056392669678e-01 -1.071539819240570068e-01
2.687612771987915039e-01 -2.123995870351791382e-02 -5.979771539568901062e-02
2.366700470447540283e-01 -6.984183937311172485e-02 -9.254810214042663574e-02
1.679801642894744873e-01 -1.034183129668235779e-01 8.339356631040573120e-02
1.582201272249221802e-01 -9.909401088953018188e-02 -1.498326510190963745e-01
6.170102208852767944e-02 -1.329348236322402954e-01 -2.989673241972923279e-02
1.322235018014907837e-01 -1.148045733571052551e-01 9.990420192480087280e-02
2.370413094758987427e-01 -2.691684663295745850e-02 -5.174939706921577454e-02
1.411534398794174194e-01 -1.099455729126930237e-01 1.508577615022659302e-01
2.796860635280609131e-01 -1.809309795498847961e-02 -3.698280826210975647e-02
9.852315485477447510e-02 -8.357413858175277710e-02 -1.512610167264938354e-01
3.195505142211914062e-01 -2.304401248693466187e-02 5.589532107114791870e-02
1.339652240276336670e-01 -1.056137830018997192e-01 -1.676543205976486206e-01
2.202963680028915405e-01 -4.089125990867614746e-02 2.658210694789886475e-01
6.400729715824127197e-02 -1.268373876810073853e-01 1.396076232194900513e-01
8.278752118349075317e-02 -9.821434319019317627e-02 -1.869748830795288086e-01
1.988386064767837524e-01 -8.894188702106475830e-02 -6.980122625827789307e-02
2.899346649646759033e-01 -4.102339223027229309e-02 2.100627869367599487e-01
1.605868190526962280e-01 -5.527430027723312378e-02 -1.264936029911041260e-01
1.167018115520477295e-01 -8.598461747169494629e-02 -2.138091027736663818e-01
2.364975512027740479e-01 -7.545746117830276489e-02 1.913536898791790009e-02
2.372184246778488159e-01 -6.924067437648773193e-02 2.198865562677383423e-01
1.140463054180145264e-01 -1.204238384962081909e-01 8.665044605731964111e-02
3.198890984058380127e-01 -2.040795981884002686e-02 1.283198595046997070e-01
7.897744327783584595e-02 -1.294722408056259155e-01 6.241603195667266846e-02
1.140591278672218323e-01 -6.885050237178802490e-02 -2.145458012819290161e-03
2.411437928676605225e-01 -7.366988807916641235e-02 4.911831766366958618e-02
9.364525228738784790e-02 -1.266923695802688599e-01 -7.622241973876953125e-04
2.293174266815185547e-01 -6.554723531007766724e-02 -1.571583598852157593e-01
1.689757257699966431e-01 -6.710421293973922729e-02 -2.186512053012847900e-01
1.282201409339904785e-01 -1.006115823984146118e-01 -2.076711803674697876e-01
4.967373609542846680e-02 -1.126415431499481201e-01 -1.383298933506011963e-01
2.191446870565414429e-01 -7.707646489143371582e-02 2.212540507316589355e-01
2.029505819082260132e-01 -3.629385679960250854e-02 1.454397886991500854e-01
1.491892337799072266e-01 -9.982822090387344360e-02 2.396920621395111084e-01
2.786291241645812988e-01 -5.156708136200904846e-02 -2.518789097666740417e-02
1.319960951805114746e-01 -6.206877157092094421e-02 1.000694632530212402e-01
5.314590781927108765e-02 -1.050491631031036377e-01 -1.075393557548522949e-01
6.516311317682266235e-02 -1.327587068080902100e-01 -2.890788018703460693e-04
1.644021272659301758e-01 -4.909123852849006653e-02 -3.810498490929603577e-02
1.145367696881294250e-01 -7.005546987056732178e-02 -6.193526461720466614e-02
1.830291002988815308e-01 -9.817601740360260010e-02 5.720495432615280151e-02
2.681959271430969238e-01 -1.643479615449905396e-02 8.447153866291046143e-02
6.281886994838714600e-02 -9.698828309774398804e-02 9.226788580417633057e-02
2.337330281734466553e-01 -4.830893874168395996e-02 3.026936352252960205e-01
1.136634349822998047e-01 -7.252116501331329346e-02 1.449810713529586792e-01
2.002996802330017090e-01 -9.042874723672866821e-02 -1.906662061810493469e-02
1.625058501958847046e-01 -1.057134717702865601e-01 5.218702554702758789e-02
2.263790220022201538e-01 -7.960879057645797729e-02 1.198281496763229370e-01
2.095359712839126587e-01 -3.724801540374755859e-02 2.004631310701370239e-01
1.436031609773635864e-01 -1.078215986490249634e-01 1.734075993299484253e-01
1.187612563371658325e-01 -6.687687337398529053e-02 5.544983595609664917e-02
2.521384954452514648e-01 -6.767477095127105713e-02 9.359823539853096008e-03
8.751162141561508179e-02 -1.155197545886039734e-01 2.090911716222763062e-01
1.705611646175384521e-01 -4.823146760463714600e-02 -7.257963716983795166e-02
2.143787443637847900e-01 -7.064574956893920898e-02 2.831784486770629883e-01
2.622992992401123047e-01 -6.001951172947883606e-02 -4.189335927367210388e-02
2.434935569763183594e-01 -7.203739881515502930e-02 1.142557859420776367e-01
2.734663784503936768e-01 -1.770401373505592346e-02 1.626404076814651489e-01
1.616889983415603638e-01 -5.648525804281234741e-02 -1.443520039319992065e-01
2.156538069248199463e-01 -7.782500237226486206e-02 -1.185559183359146118e-01
7.003904879093170166e-02 -1.283344924449920654e-01 -1.001935303211212158e-01
1.518097072839736938e-01 -1.090429797768592834e-01 8.082558214664459229e-02
2.655448615550994873e-01 -5.004364252090454102e-02 -1.134078651666641235e-01
1.011922433972358704e-01 -7.494671642780303955e-02 -1.793558150529861450e-02
2.049921452999114990e-01 -3.545655310153961182e-02 -4.272041097283363342e-02
2.535204291343688965e-01 -1.973574981093406677e-02 7.678057253360748291e-02
8.215107023715972900e-02 -8.417736738920211792e-02 -1.089568063616752625e-02
2.658604681491851807e-01 -5.562637746334075928e-02 2.125780731439590454e-01
2.387039661407470703e-01 -5.960546061396598816e-02 2.813477516174316406e-01
1.984303593635559082e-01 -4.169258847832679749e-02 -1.134581118822097778e-01
4.734897613525390625e-02 -1.055782586336135864e-01 -6.085497513413429260e-02
1.352145075798034668e-01 -1.143947988748550415e-01 8.045817166566848755e-02
1.944736242294311523e-01 -9.143715351819992065e-02 1.537184119224548340e-01
6.180744618177413940e-02 -1.317396312952041626e-01 -6.482245028018951416e-02
2.496683299541473389e-01 -2.842994406819343567e-02 2.316668033599853516e-01
1.366289258003234863e-01 -7.334020733833312988e-02 -1.990021914243698120e-01
8.488409221172332764e-02 -1.054605394601821899e-01 -2.034008949995040894e-01
2.456628084182739258e-01 -2.395766973495483398e-02 1.599897146224975586e-01
7.031774520874023438e-02 -9.227980673313140869e-02 -7.461671531200408936e-02
8.553080260753631592e-02 -1.226384639739990234e-01 1.598623991012573242e-01
1.396287083625793457e-01 -5.777377262711524963e-02 1.491841301321983337e-02
1.581782847642898560e-01 -8.705015480518341064e-02 -2.186582386493682861e-01
8.724938333034515381e-02 -8.456003665924072266e-02 1.213019043207168579e-01
1.798943579196929932e-01 -4.984657466411590576e-02 2.234339267015457153e-01
1.151997745037078857e-01 -1.206022650003433228e-01 6.546360254287719727e-02
1.731031984090805054e-01 -5.990657582879066467e-02 -1.964287459850311279e-01
1.848024129867553711e-01 -4.081476479768753052e-02 8.265361189842224121e-02
1.273866593837738037e-01 -6.572549045085906982e-02 1.384294331073760986e-01
2.049634307622909546e-01 -3.839744254946708679e-02 -9.584648907184600830e-02
1.302391588687896729e-01 -6.214778870344161987e-02 -2.230668440461158752e-02
3.097696304321289062e-01 -2.665160968899726868e-02 1.838815808296203613e-01
1.230242773890495300e-01 -6.478524208068847656e-02 1.409540884196758270e-02
2.541379928588867188e-01 -6.724616885185241699e-02 3.586683794856071472e-02
2.636836767196655273e-01 -1.940461993217468262e-02 -1.994035765528678894e-02
9.942585974931716919e-02 -7.663036137819290161e-02 8.521609753370285034e-02
1.789461225271224976e-01 -4.353524371981620789e-02 -2.723130211234092712e-02
9.836953878402709961e-02 -7.800752669572830200e-02 1.069473922252655029e-01
7.095801830291748047e-02 -1.008725166320800781e-01 -1.636686325073242188e-01
1.305667459964752197e-01 -1.163840219378471375e-01 3.280850872397422791e-02
1.432397514581680298e-01 -6.165928766131401062e-02 1.849193572998046875e-01
6.591666489839553833e-02 -9.721839427947998047e-02 1.229203939437866211e-01
1.444482803344726562e-01 -9.675267338752746582e-02 2.655637860298156738e-01
1.342660486698150635e-01 -6.562519818544387817e-02 -1.295251399278640747e-01
1.820162236690521240e-01 -9.327852725982666016e-02 1.997597664594650269e-01
2.380734384059906006e-01 -2.476457506418228149e-02 1.282768398523330688e-01
2.698546946048736572e-01 -5.819580703973770142e-02 4.487026482820510864e-03
2.174911797046661377e-01 -8.423323929309844971e-02 4.049419611692428589e-02
1.086641699075698853e-01 -7.607129961252212524e-02 1.605755686759948730e-01
1.604362726211547852e-01 -5.834886431694030762e-02 2.292059063911437988e-01
2.444740980863571167e-01 -2.218451350927352905e-02 3.326956927776336670e-02
8.542349189519882202e-02 -8.862501382827758789e-02 1.600056290626525879e-01
2.828707098960876465e-01 -3.583609685301780701e-02 -1.027102917432785034e-01
2.721410989761352539e-01 -4.449676722288131714e-02 2.587873637676239014e-01
2.742735743522644043e-01 -5.687344819307327271e-02 9.970209002494812012e-02
5.103421956300735474e-02 -1.319276988506317139e-01 8.772873133420944214e-02
1.154957264661788940e-01 -1.097896769642829895e-01 -1.783240586519241333e-01
1.829305142164230347e-01 -5.345514416694641113e-02 2.625735998153686523e-01
6.625732034444808960e-02 -1.287379562854766846e-01 1.178827732801437378e-01
8.410315215587615967e-02 -8.457251638174057007e-02 -6.534485518932342529e-02
2.543235421180725098e-01 -2.447363361716270447e-02 2.021334469318389893e-01
1.257896572351455688e-01 -1.154367029666900635e-01 1.316115856170654297e-01
3.794139623641967773e-02 -1.222446560859680176e-01 1.110917925834655762e-01
1.046868935227394104e-01 -7.517066597938537598e-02 -7.770287990570068359e-02
1.079820692539215088e-01 -8.550375699996948242e-02 -1.949889510869979858e-01
1.212014853954315186e-01 -1.191863417625427246e-01 1.045916788280010223e-02
1.869782209396362305e-01 -5.856778472661972046e-02 -2.061097919940948486e-01
3.007192909717559814e-01 -1.650757342576980591e-02 -2.059088274836540222e-02
7.806773483753204346e-02 -1.183333843946456909e-01 -1.728147566318511963e-01
1.880328804254531860e-01 -3.936851769685745239e-02 4.224063456058502197e-02
5.653662234544754028e-02 -1.059755906462669373e-01 1.405796855688095093e-01
1.726647019386291504e-01 -9.068953245878219604e-02 -1.724808961153030396e-01
2.395123243331909180e-01 -7.151184231042861938e-02 -4.903944954276084900e-02
1.155584603548049927e-01 -1.206158995628356934e-01 -1.147186011075973511e-02
1.410968303680419922e-01 -6.884913146495819092e-02 -1.831688582897186279e-01
2.740976214408874512e-02 -1.230298206210136414e-01 -5.126477405428886414e-02
5.193950235843658447e-02 -1.014477759599685669e-01 3.087237104773521423e-02
1.312599480152130127e-01 -1.144050359725952148e-01 -6.213123723864555359e-02
2.137573808431625366e-01 -8.555835485458374023e-02 1.607822999358177185e-02
4.848463088274002075e-02 -1.346160620450973511e-01 2.922887727618217468e-02
1.095399558544158936e-01 -1.218666955828666687e-01 -3.501380607485771179e-02
2.012717723846435547e-01 -9.067964553833007812e-02 9.271013736724853516e-02
2.388563156127929688e-01 -2.677977457642555237e-02 1.779199838638305664e-01
1.577361077070236206e-01 -1.016101837158203125e-01 -1.244790256023406982e-01
9.181174635887145996e-02 -1.266063600778579712e-01 -3.422576561570167542e-02
2.730839848518371582e-01 -1.897019147872924805e-02 1.815926581621170044e-01
2.155181765556335449e-01 -4.728439450263977051e-02 -1.834983080625534058e-01
2.326990365982055664e-01 -4.197901114821434021e-02 -1.695538014173507690e-01
2.486833333969116211e-01 -6.636781990528106689e-02 1.881677955389022827e-01
3.100171685218811035e-01 -1.463089883327484131e-02 1.474334299564361572e-02
2.376169711351394653e-01 -2.423097565770149231e-02 1.019612699747085571e-01
2.485884726047515869e-01 -7.018775492906570435e-02 6.570682674646377563e-02
2.980414628982543945e-01 -1.427084952592849731e-02 2.468753606081008911e-03
1.442567855119705200e-01 -7.827728986740112305e-02 -2.261152565479278564e-01
1.434617340564727783e-01 -5.635147541761398315e-02 5.996590852737426758e-02
5.683144927024841309e-02 -1.103760898113250732e-01 -1.558006852865219116e-01
2.534182071685791016e-01 -1.975798979401588440e-02 5.376393347978591919e-02
2.257961034774780273e-01 -7.892030477523803711e-02 1.476973891258239746e-01
6.399853527545928955e-02 -9.395309537649154663e-02 1.900677941739559174e-02
2.884967625141143799e-01 -1.332879438996315002e-02 3.852016478776931763e-02
2.615411877632141113e-01 -6.166020408272743225e-02 -2.038560062646865845e-02
1.238797456026077271e-01 -1.101531535387039185e-01 2.080390900373458862e-01
8.960831910371780396e-02 -9.049797058105468750e-02 1.959909051656723022e-01
3.258663415908813477e-02 -1.301337182521820068e-01 7.260942459106445312e-02
1.671528816223144531e-01 -6.325668841600418091e-02 2.798805534839630127e-01
1.477724164724349976e-01 -6.591323763132095337e-02 2.443417012691497803e-01
8.457466959953308105e-02 -8.866494148969650269e-02 -1.317786425352096558e-01
2.809683382511138916e-01 -4.417143762111663818e-02 2.308741360902786255e-01
1.099327728152275085e-01 -1.191164702177047729e-01 -9.778188169002532959e-02
2.396740913391113281e-01 -3.025827929377555847e-02 -1.033793240785598755e-01
2.235723286867141724e-01 -2.795889601111412048e-02 3.419999033212661743e-02
3.182892203330993652e-01 -2.596841752529144287e-02 9.722915291786193848e-02
3.055786192417144775e-01 -3.608861938118934631e-02 2.690101787447929382e-02
1.144779026508331299e-01 -7.554976642131805420e-02 1.884045004844665527e-01
1.050289422273635864e-01 -1.076481044292449951e-01 -2.024078518152236938e-01
2.510480880737304688e-01 -2.130234986543655396e-02 -2.924352884292602539e-06
2.121471762657165527e-01 -3.240228071808815002e-02 1.218457967042922974e-01
2.055684626102447510e-01 -8.072165399789810181e-02 2.400631755590438843e-01
9.161549061536788940e-02 -7.989435642957687378e-02 6.358899921178817749e-02
3.033604621887207031e-01 -3.380854800343513489e-02 -1.982389762997627258e-02
1.143368184566497803e-01 -1.141405105590820312e-01 -1.452482044696807861e-01
2.951455414295196533e-01 -1.217010617256164551e-02 9.026519209146499634e-02
1.849237680435180664e-01 -8.393809199333190918e-02 2.721578180789947510e-01
5.642740428447723389e-02 -9.966871887445449829e-02 6.556811183691024780e-02
1.691081821918487549e-01 -4.659179970622062683e-02 8.301748335361480713e-02
2.978762090206146240e-01 -4.255976527929306030e-02 1.142516732215881348e-01
1.063959747552871704e-01 -1.166877672076225281e-01 1.825695633888244629e-01
2.010118663311004639e-01 -5.143161490559577942e-02 2.882413864135742188e-01
1.327591240406036377e-01 -6.167253106832504272e-02 -4.477490857243537903e-02
2.782034277915954590e-01 -5.136043578386306763e-02 1.814870834350585938e-01
1.170603409409523010e-01 -1.189236342906951904e-01 1.069992035627365112e-01
1.903135776519775391e-01 -3.932537510991096497e-02 1.053992956876754761e-01
1.481630206108093262e-01 -1.093900054693222046e-01 1.134451031684875488e-01
1.092709600925445557e-01 -1.193872317671775818e-01 1.392920613288879395e-01
8.591526001691818237e-02 -1.284055858850479126e-01 4.268403723835945129e-02
1.951523721218109131e-01 -8.118452131748199463e-02 -1.699859797954559326e-01
2.170277088880538940e-01 -3.339187800884246826e-02 1.794013679027557373e-01
2.990646660327911377e-02 -1.331761479377746582e-01 2.940525487065315247e-02
6.933579593896865845e-02 -9.117597341537475586e-02 -2.509586885571479797e-02
3.065350651741027832e-01 -1.212242618203163147e-02 5.061809718608856201e-02
1.468756794929504395e-01 -5.882845073938369751e-02 -1.048173010349273682e-01
6.131492555141448975e-02 -1.273453384637832642e-01 -1.241133064031600952e-01
2.067404389381408691e-01 -6.388388574123382568e-02 3.106399774551391602e-01
3.026358485221862793e-01 -3.687025234103202820e-02 1.614183336496353149e-01
2.331632375717163086e-01 -2.916992828249931335e-02 -7.275444269180297852e-02
1.166640892624855042e-01 -6.885053217411041260e-02 9.770163893699645996e-02
1.748666614294052124e-01 -4.412654414772987366e-02 2.188688889145851135e-02
2.260705530643463135e-01 -7.606076449155807495e-02 -8.027078211307525635e-02
1.514587104320526123e-01 -1.039241254329681396e-01 1.937688589096069336e-01
1.739155948162078857e-01 -4.468973726034164429e-02 2.216447144746780396e-03
2.460757493972778320e-01 -3.191671893000602722e-02 2.521590292453765869e-01
1.452799737453460693e-01 -5.695715546607971191e-02 1.160744428634643555e-01
2.726564705371856689e-01 -2.943599969148635864e-02 -1.146997660398483276e-01
4.029868543148040771e-02 -1.201969310641288757e-01 -1.224460303783416748e-01
2.243480682373046875e-01 -3.474612906575202942e-02 2.262849956750869751e-01
3.037028610706329346e-01 -1.533644273877143860e-02 1.689938008785247803e-01
1.822734922170639038e-01 -9.689040482044219971e-02 -4.341487959027290344e-02
7.019188255071640015e-02 -1.066979914903640747e-01 1.972592025995254517e-01
1.684512645006179810e-01 -4.655662178993225098e-02 6.296397745609283447e-02
1.312825083732604980e-01 -7.653769105672836304e-02 2.573426067829132080e-01
1.923748403787612915e-01 -4.146916791796684265e-02 -8.378033339977264404e-02
3.012584447860717773e-01 -2.093930169939994812e-02 -4.520810768008232117e-02
1.897184848785400391e-01 -4.196256771683692932e-02 1.669604182243347168e-01
1.379367560148239136e-01 -1.133227944374084473e-01 -2.867014333605766296e-02
2.255746573209762573e-01 -7.989652454853057861e-02 -5.066093057394027710e-03
2.902828454971313477e-01 -4.040117561817169189e-02 -5.593432858586311340e-02
-6.589979678392410278e-02 2.404801733791828156e-02 7.074081897735595703e-01
3.546475619077682495e-02 -6.350227165967226028e-03 5.381535887718200684e-01
-5.174308270215988159e-02 -5.250959191471338272e-03 4.373438954353332520e-01
-4.558570310473442078e-02 1.601779274642467499e-02 5.867555737495422363e-01
-5.328064039349555969e-02 1.123437471687793732e-02 5.395960211753845215e-01
6.771128624677658081e-03 -2.874576020985841751e-03 5.848338007926940918e-01
4.930313676595687866e-02 -6.828736048191785812e-03 3.995750546455383301e-01
-1.374939382076263428e-01 3.700853558257222176e-03 5.791150331497192383e-01
-6.548185646533966064e-02 1.244462281465530396e-02 5.526431202888488770e-01
1.517854630947113037e-02 -1.374832168221473694e-02 4.900805056095123291e-01
-9.155459702014923096e-02 3.883289173245429993e-05 6.322032809257507324e-01
1.752671599388122559e-02 -1.129464711993932724e-03 4.352753162384033203e-01
3.962721675634384155e-03 -1.163972727954387665e-02 5.153138041496276855e-01
3.611952066421508789e-02 -6.112623959779739380e-04 4.454483389854431152e-01
-2.138585969805717468e-02 3.950948826968669891e-03 4.752090871334075928e-01
2.868469059467315674e-02 -1.476501673460006714e-02 4.736914932727813721e-01
5.435328930616378784e-02 2.019524341449141502e-03 5.209621191024780273e-01
-7.205931097269058228e-02 -3.308057319372892380e-03 6.031671166419982910e-01
-6.156771257519721985e-02 -7.890963926911354065e-03 5.542771220207214355e-01
-4.956757277250289917e-02 6.828000769019126892e-03 5.034067034721374512e-01
-1.405254900455474854e-01 2.778472378849983215e-02 7.396062612533569336e-01
-5.912952497601509094e-02 4.531828686594963074e-03 6.687376499176025391e-01
7.777471840381622314e-02 -8.099513128399848938e-03 4.189508557319641113e-01
-2.999566309154033661e-02 1.488260552287101746e-02 5.786978602409362793e-01
-1.188718676567077637e-01 1.941465213894844055e-02 6.344979405403137207e-01
-4.903868213295936584e-02 -1.301502622663974762e-02 4.822138547897338867e-01
1.255758479237556458e-02 1.151181012392044067e-02 5.784556865692138672e-01
5.502700060606002808e-02 -4.825621377676725388e-03 4.192028045654296875e-01
-3.740764409303665161e-02 1.857051253318786621e-02 6.254521608352661133e-01
-1.527085006237030029e-01 2.088960818946361542e-02 7.814408540725708008e-01
-2.089696563780307770e-02 -1.371838711202144623e-02 4.932131171226501465e-01
-5.178600177168846130e-02 3.287296276539564133e-03 4.799812436103820801e-01
-1.221887618303298950e-01 1.330106891691684723e-02 5.902064442634582520e-01
-9.934008121490478516e-03 2.351452130824327469e-03 4.616972208023071289e-01
-9.348469972610473633e-02 -5.864709150046110153e-03 5.516591668128967285e-01
-6.361792981624603271e-02 -6.030038464814424515e-03 5.758428573608398438e-01
-2.218538336455821991e-02 3.666381817311048508e-04 4.498274028301239014e-01
-9.230981767177581787e-02 -1.546788495033979416e-03 6.148880124092102051e-01
-4.455824568867683411e-02 -3.499529324471950531e-03 6.021504998207092285e-01
-4.124025255441665649e-02 -9.844167158007621765e-03 5.374954342842102051e-01
-1.317661404609680176e-01 1.274448819458484650e-03 5.986191630363464355e-01
1.653444021940231323e-02 -3.454116638749837875e-03 4.180125594139099121e-01
7.436709105968475342e-02 -1.824840717017650604e-02 3.551714718341827393e-01
-1.339793652296066284e-01 6.395794916898012161e-03 6.750399470329284668e-01
-1.201804056763648987e-01 2.219060435891151428e-02 6.614784002304077148e-01
-7.358750700950622559e-02 9.227849543094635010e-03 5.303958058357238770e-01
-1.364934891462326050e-01 3.530196612700819969e-03 6.335549354553222656e-01
-5.844236537814140320e-02 -1.680564135313034058e-03 4.569178223609924316e-01
-1.393039524555206299e-02 1.679206825792789459e-02 6.468457579612731934e-01
-1.635934412479400635e-01 1.355899870395660400e-02 6.476789116859436035e-01
-8.693009614944458008e-02 4.851950332522392273e-03 6.761320233345031738e-01
-2.991679310798645020e-02 1.708502694964408875e-02 6.951067447662353516e-01
-1.484398394823074341e-01 5.765213165432214737e-03 6.103909015655517578e-01
-1.849051751196384430e-02 1.625321246683597565e-02 6.747378706932067871e-01
-2.346814423799514771e-02 -9.957171976566314697e-03 5.377112627029418945e-01
-1.884225755929946899e-03 -2.716051880270242691e-03 4.247943162918090820e-01
-6.056133657693862915e-02 2.301565185189247131e-02 6.843721270561218262e-01
-1.701767146587371826e-01 1.279536820948123932e-02 6.744130253791809082e-01
2.054072171449661255e-02 7.985706906765699387e-04 4.517908096313476562e-01
-5.430006980895996094e-02 2.189844101667404175e-02 7.204725742340087891e-01
-5.623739212751388550e-03 -1.480887457728385925e-02 3.768095374107360840e-01
-1.022905260324478149e-01 2.311095967888832092e-02 6.661502122879028320e-01
-1.277496218681335449e-01 2.626735530793666840e-02 7.118912935256958008e-01
1.367258280515670776e-02 7.946448400616645813e-03 6.244810819625854492e-01
-1.795067079365253448e-02 -1.583576388657093048e-02 4.617211520671844482e-01
7.678382098674774170e-04 1.397716253995895386e-02 6.330741643905639648e-01
-4.658541455864906311e-02 2.133799716830253601e-02 7.050334215164184570e-01
5.106844007968902588e-03 -7.327463012188673019e-03 5.532704591751098633e-01
-1.147995591163635254e-01 2.828560397028923035e-02 7.557818889617919922e-01
-7.153779268264770508e-03 1.080080866813659668e-02 5.414073467254638672e-01
-1.032383292913436890e-01 -4.168821964412927628e-03 5.151624083518981934e-01
5.653674900531768799e-02 -1.996066793799400330e-02 3.478586375713348389e-01
-5.488167330622673035e-02 1.920713484287261963e-02 6.230318546295166016e-01
2.959497272968292236e-02 8.021668531000614166e-03 5.825001597404479980e-01
-8.945600688457489014e-02 2.184138447046279907e-02 6.499168276786804199e-01
-1.002007424831390381e-01 1.757944934070110321e-02 7.591638565063476562e-01
-1.809073835611343384e-01 1.905535161495208740e-02 7.222348451614379883e-01
-7.355414330959320068e-02 1.448626257479190826e-02 5.724847316741943359e-01
4.509709775447845459e-03 -1.624963618814945221e-02 4.624162316322326660e-01
1.029426977038383484e-02 -9.135335683822631836e-03 5.355961322784423828e-01
-8.920740336179733276e-02 -3.936092834919691086e-03 5.878999233245849609e-01
-1.770696640014648438e-01 2.569380216300487518e-02 7.785276770591735840e-01
-1.809113472700119019e-01 2.065855078399181366e-02 7.501757740974426270e-01
-1.367057263851165771e-01 2.438491210341453552e-02 6.933411955833435059e-01
-5.758900940418243408e-02 1.748683862388134003e-02 6.012269258499145508e-01
-3.367119282484054565e-02 -9.837377816438674927e-03 4.085593819618225098e-01
-1.352820843458175659e-01 2.151379920542240143e-02 7.855771780014038086e-01
-1.140752136707305908e-01 -2.665214240550994873e-03 5.645868778228759766e-01
5.885825306177139282e-02 -7.526632864028215408e-03 5.032958984375000000e-01
-8.338789641857147217e-02 1.252900436520576477e-02 7.272713184356689453e-01
6.720691174268722534e-02 -1.301835477352142334e-02 4.553101658821105957e-01
-1.499704644083976746e-02 -8.648131042718887329e-03 3.985090255737304688e-01
1.486492902040481567e-02 7.826725952327251434e-03 5.213446617126464844e-01
1.677816361188888550e-02 -2.005833573639392853e-02 3.859182596206665039e-01
-7.822906970977783203e-02 2.304431237280368805e-02 6.678337454795837402e-01
-7.216146588325500488e-02 -9.869443252682685852e-03 5.089369416236877441e-01
1.561081409454345703e-02 -1.202506944537162781e-02 3.707590699195861816e-01
3.767136484384536743e-02 -1.652055978775024414e-02 4.499552249908447266e-01
-1.566742360591888428e-01 1.504675485193729401e-02 7.400645017623901367e-01
-5.981630086898803711e-02 -9.898412972688674927e-03 5.273213982582092285e-01
8.211463689804077148e-03 4.138649441301822662e-03 4.783419370651245117e-01
4.446843266487121582e-02 7.351976819336414337e-04 4.656890630722045898e-01
-1.261083930730819702e-01 1.486776769161224365e-02 7.490536570549011230e-01
-8.933677524328231812e-02 -3.486973233520984650e-03 4.842233061790466309e-01
1.046944409608840942e-03 -1.885288953781127930e-02 4.095351696014404297e-01
-1.065718680620193481e-01 1.238408498466014862e-02 7.321315407752990723e-01
-1.115493103861808777e-01 -1.912151463329792023e-03 5.909148454666137695e-01
-1.188768595457077026e-01 4.382590763270854950e-03 5.425827503204345703e-01
-9.950005263090133667e-02 2.722341381013393402e-02 7.396951913833618164e-01
-2.866452559828758240e-02 2.504786942154169083e-03 6.420497298240661621e-01
-3.358471393585205078e-02 7.233888842165470123e-03 6.725075244903564453e-01
-8.395004272460937500e-02 2.230151556432247162e-03 6.542659997940063477e-01
2.706782519817352295e-02 -2.003807388246059418e-02 3.610901236534118652e-01
-1.326482594013214111e-01 1.963871158659458160e-02 6.455256938934326172e-01
4.192744195461273193e-02 -1.285658590495586395e-02 4.833628237247467041e-01
-7.453884929418563843e-02 8.616608567535877228e-03 7.008744478225708008e-01
2.572876214981079102e-02 -6.590484175831079483e-03 3.969963192939758301e-01
-3.449483960866928101e-02 1.256590336561203003e-02 5.515446066856384277e-01
-8.944659680128097534e-02 4.687748849391937256e-03 5.122702717781066895e-01
3.142928332090377808e-02 -1.060665026307106018e-02 5.103425383567810059e-01
-1.043024957180023193e-01 3.876165254041552544e-03 6.657294631004333496e-01
6.710416078567504883e-02 -1.062547229230403900e-02 3.819732069969177246e-01
-9.899231791496276855e-02 2.441682480275630951e-02 6.829015016555786133e-01
-1.395013630390167236e-01 2.871369011700153351e-02 7.574860453605651855e-01
-1.042368561029434204e-01 1.886440254747867584e-02 6.223229169845581055e-01
-6.938494741916656494e-02 1.860759407281875610e-02 7.438862323760986328e-01
-1.054933667182922363e-01 8.963621221482753754e-03 7.081460356712341309e-01
-2.407717704772949219e-02 -5.248600151389837265e-03 5.824460983276367188e-01
-5.040537193417549133e-02 2.451749052852392197e-03 6.511707901954650879e-01
5.335427820682525635e-03 -1.814490929245948792e-02 4.324711859226226807e-01
2.107623219490051270e-02 -3.555733710527420044e-03 5.690868496894836426e-01
-3.774020075798034668e-02 -1.309832371771335602e-02 4.942701458930969238e-01
4.125085473060607910e-02 -1.802236028015613556e-02 4.299266934394836426e-01
-2.035937085747718811e-02 6.976529024541378021e-03 4.998733997344970703e-01
-7.728576660156250000e-02 1.636097766458988190e-02 5.905410647392272949e-01
1.040955632925033569e-02 1.081248000264167786e-02 5.589092373847961426e-01
6.093282252550125122e-02 -2.053630165755748749e-02 3.698021471500396729e-01
-1.051040738821029663e-01 -4.586209077388048172e-03 5.398827195167541504e-01
-4.442416131496429443e-02 -1.400938630104064941e-02 4.646373093128204346e-01
-1.761213093996047974e-01 1.719366386532783508e-02 6.930274367332458496e-01
-1.537038236856460571e-01 8.549561724066734314e-03 6.743497252464294434e-01
3.004582226276397705e-02 3.080913797020912170e-03 4.785683453083038330e-01
-5.360650271177291870e-02 -2.046810463070869446e-03 6.160776615142822266e-01
-1.034281700849533081e-01 1.535605825483798981e-02 5.918594598770141602e-01
-9.990934282541275024e-02 2.501376159489154816e-02 7.757747173309326172e-01
-9.738083183765411377e-02 1.226717978715896606e-02 5.649920701980590820e-01
-7.880228757858276367e-02 2.433146350085735321e-02 6.895164251327514648e-01
-1.510256528854370117e-01 1.267915032804012299e-02 7.238332033157348633e-01
-1.231266930699348450e-02 -1.762720011174678802e-02 4.257768392562866211e-01
-7.092846930027008057e-02 4.492006264626979828e-04 4.763374924659729004e-01
-7.152528315782546997e-02 2.024636231362819672e-02 6.317182183265686035e-01
-5.178656429052352905e-02 2.146785892546176910e-02 6.621622443199157715e-01
-1.110346913337707520e-01 2.708791382610797882e-02 7.241557836532592773e-01
-1.611317098140716553e-01 1.815292425453662872e-02 7.608177661895751953e-01
-1.219811886548995972e-01 1.014560647308826447e-02 7.154909372329711914e-01
-1.233612522482872009e-01 7.682466879487037659e-03 6.942388415336608887e-01
-5.715528503060340881e-02 9.720595553517341614e-03 6.999827623367309570e-01
-2.126207202672958374e-02 -1.311881002038717270e-03 6.123055815696716309e-01
-1.473342478275299072e-01 9.071109816431999207e-03 6.911371350288391113e-01
2.224642783403396606e-02 -6.812380254268646240e-02 1.076985299587249756e-01
1.046885848045349121e-01 -6.667552888393402100e-02 1.377959996461868286e-01
5.601377785205841064e-02 -7.929608225822448730e-02 1.180070787668228149e-01
2.931825071573257446e-02 -4.719312489032745361e-02 1.155804544687271118e-01
1.024087816476821899e-01 -5.251322686672210693e-02 1.039257645606994629e-01
1.281965076923370361e-01 -5.962117016315460205e-02 1.410121023654937744e-01
1.311158835887908936e-01 -7.278756052255630493e-02 1.282170563936233521e-01
1.400959938764572144e-01 -3.163974732160568237e-02 1.374794691801071167e-01
2.171233594417572021e-01 -3.939121961593627930e-02 1.207673251628875732e-01
1.476539373397827148e-01 -6.733667105436325073e-02 1.344213336706161499e-01
9.161628782749176025e-02 -6.689399480819702148e-02 1.064483076333999634e-01
1.186425611376762390e-01 -2.967534773051738739e-02 1.145747974514961243e-01
1.206023767590522766e-01 -4.083986580371856689e-02 1.403916925191879272e-01
1.899175941944122314e-01 -3.021557629108428955e-02 1.166702732443809509e-01
5.174723267555236816e-02 -4.336895793676376343e-02 1.279052644968032837e-01
9.417675435543060303e-02 -7.657416164875030518e-02 1.278196573257446289e-01
2.017045021057128906e-02 -6.661564111709594727e-02 1.270180195569992065e-01
1.747885644435882568e-01 -4.644303023815155029e-02 1.110330522060394287e-01
1.396581530570983887e-01 -2.849811874330043793e-02 1.146393567323684692e-01
1.879738718271255493e-01 -6.091317906975746155e-02 1.276590079069137573e-01
1.652996540069580078e-01 -6.222806870937347412e-02 1.368302702903747559e-01
6.426618248224258423e-02 -7.018494606018066406e-02 1.337631046772003174e-01
1.604962646961212158e-01 -2.481370978057384491e-02 1.198426559567451477e-01
8.315582573413848877e-02 -5.002944543957710266e-02 1.384467631578445435e-01
6.737585365772247314e-02 -6.874684989452362061e-02 1.059486940503120422e-01
8.432616293430328369e-02 -3.236203268170356750e-02 1.221628561615943909e-01
2.067959755659103394e-01 -3.955675289034843445e-02 1.402795463800430298e-01
7.387858629226684570e-02 -3.065077960491180420e-02 -2.539431154727935791e-01
7.210893929004669189e-02 -4.804693162441253662e-02 -3.918663263320922852e-01
-1.633231341838836670e-01 5.433898791670799255e-02 -8.514953851699829102e-01
3.069631755352020264e-02 -4.861802980303764343e-02 -3.220600485801696777e-01
8.523096889257431030e-02 -1.515607349574565887e-02 -2.780723869800567627e-01
-1.988239213824272156e-02 -4.536681249737739563e-02 -4.275969862937927246e-01
-7.990691810846328735e-03 -4.708715155720710754e-02 -4.644035100936889648e-01
-5.234962329268455505e-02 3.645103424787521362e-02 -7.382119894027709961e-01
-6.118010729551315308e-02 -2.665671054273843765e-04 -7.263307571411132812e-01
1.138005927205085754e-01 -1.992975547909736633e-02 -3.241055011749267578e-01
-7.789664715528488159e-02 3.145994618535041809e-02 -5.116180181503295898e-01
-2.433618344366550446e-02 -1.775980740785598755e-02 -3.597730398178100586e-01
-4.218750074505805969e-02 -3.972597792744636536e-02 -4.476839601993560791e-01
-2.435175515711307526e-02 -1.633622311055660248e-02 -6.469619274139404297e-01
1.170652285218238831e-01 -3.360633924603462219e-02 -2.795289754867553711e-01
-1.759566962718963623e-01 3.851728886365890503e-02 -7.005187273025512695e-01
-1.248288229107856750e-01 4.693936556577682495e-02 -6.285475492477416992e-01
7.247029244899749756e-02 -1.068577915430068970e-02 -2.881583869457244873e-01
-1.586799323558807373e-01 7.775333710014820099e-03 -7.833833098411560059e-01
-1.375050991773605347e-01 -2.616529585793614388e-03 -7.465209364891052246e-01
-1.385520547628402710e-01 5.609190557152032852e-03 -7.844874858856201172e-01
-1.157131120562553406e-01 -6.721245124936103821e-03 -5.332241654396057129e-01
-9.488977491855621338e-02 -2.595656178891658783e-02 -6.084760427474975586e-01
-6.059236451983451843e-02 8.109506219625473022e-03 -7.417840361595153809e-01
-1.279025077819824219e-01 -1.400272361934185028e-02 -6.665163040161132812e-01
-6.665380299091339111e-02 -3.045893087983131409e-02 -6.036272048950195312e-01
-1.231523826718330383e-01 3.540790826082229614e-02 -5.854384303092956543e-01
7.796241343021392822e-02 -2.799545973539352417e-02 -4.573712348937988281e-01
5.264698714017868042e-02 1.659417338669300079e-02 -4.085512757301330566e-01
-1.974385976791381836e-01 4.706797748804092407e-02 -8.352993726730346680e-01
-1.603639125823974609e-01 1.013876171782612801e-03 -6.792597174644470215e-01
5.093919485807418823e-02 -5.096785351634025574e-02 -4.018715023994445801e-01
1.921809464693069458e-02 -4.989210516214370728e-03 -3.241487145423889160e-01
-1.668171286582946777e-01 4.123791679739952087e-02 -6.847371459007263184e-01
-1.273870170116424561e-01 7.020865567028522491e-03 -5.523114800453186035e-01
-4.718937352299690247e-02 -1.403069868683815002e-02 -6.761744618415832520e-01
1.105360761284828186e-01 -3.683843836188316345e-02 -3.426312208175659180e-01
-1.079317629337310791e-01 5.564020201563835144e-02 -6.603437066078186035e-01
8.201126009225845337e-02 -3.885661065578460693e-02 -4.171729683876037598e-01
5.271201580762863159e-02 -1.278921030461788177e-02 -5.363206863403320312e-01
-1.603162139654159546e-01 6.660989020019769669e-04 -7.199851274490356445e-01
1.992411538958549500e-02 1.472688652575016022e-02 -3.809127807617187500e-01
-1.417534053325653076e-01 5.472206324338912964e-02 -6.934081912040710449e-01
4.982522130012512207e-02 -4.303412139415740967e-02 -4.567803144454956055e-01
-1.061764433979988098e-01 5.875091254711151123e-02 -6.938126087188720703e-01
-8.027422428131103516e-02 5.159015953540802002e-02 -6.123169660568237305e-01
-1.423265933990478516e-01 -7.794569246470928192e-03 -6.932867765426635742e-01
-1.875120699405670166e-01 1.865871436893939972e-02 -7.542093992233276367e-01
-1.679539680480957031e-01 4.914424382150173187e-03 -7.029391527175903320e-01
-1.724919974803924561e-01 1.659713685512542725e-02 -8.101767301559448242e-01
-1.744257211685180664e-01 5.660744011402130127e-02 -7.757351994514465332e-01
-2.771893888711929321e-02 7.759592030197381973e-03 -3.935626447200775146e-01
-8.737668395042419434e-02 -1.563665643334388733e-02 -6.920866370201110840e-01
-8.187134563922882080e-02 -1.351770944893360138e-02 -4.609507620334625244e-01
-1.565751433372497559e-01 3.722027689218521118e-02 -6.516574621200561523e-01
3.205509483814239502e-02 2.760492451488971710e-02 -4.859655499458312988e-01
-7.289254665374755859e-02 2.690959163010120392e-02 -4.918121397495269775e-01
8.770144730806350708e-02 -1.338771730661392212e-02 -4.493342638015747070e-01
-2.845708653330802917e-02 4.626389220356941223e-02 -6.013386249542236328e-01
-8.111600577831268311e-02 4.442002251744270325e-02 -5.675806999206542969e-01
3.291691839694976807e-02 1.857248321175575256e-02 -4.003667533397674561e-01
-1.378343999385833740e-02 -1.569355838000774384e-02 -3.456857800483703613e-01
2.939940243959426880e-02 -5.147133395075798035e-02 -4.128433465957641602e-01
9.822087734937667847e-02 -4.139233008027076721e-02 -3.669429421424865723e-01
-5.842959880828857422e-02 4.864506050944328308e-02 -5.847641229629516602e-01
-6.973239034414291382e-02 1.215997524559497833e-02 -4.538196325302124023e-01
-6.761260330677032471e-03 -9.339453652501106262e-03 -6.424971818923950195e-01
-4.307223856449127197e-02 3.869282826781272888e-02 -5.135103464126586914e-01
-2.767173200845718384e-02 4.103913530707359314e-02 -6.698989868164062500e-01
-3.386797383427619934e-02 -4.309203103184700012e-02 -4.640865325927734375e-01
-1.532500386238098145e-01 4.607354104518890381e-02 -6.719859242439270020e-01
-1.096670776605606079e-01 2.416991814970970154e-02 -5.366793870925903320e-01
-9.085218608379364014e-02 4.794804379343986511e-02 -5.947225093841552734e-01
-1.888320222496986389e-02 -4.265110939741134644e-02 -3.958218097686767578e-01
-1.641718447208404541e-01 3.098314814269542694e-02 -8.536742925643920898e-01
-5.971097573637962341e-02 -3.609291091561317444e-02 -4.836898446083068848e-01
5.109582096338272095e-03 2.519928663969039917e-02 -6.339452862739562988e-01
