6.544525921344757080e-02 -6.559883803129196167e-02 -7.695092260837554932e-02
-3.336381912231445312e-01 -5.546727403998374939e-02 -3.684271499514579773e-02
1.011626273393630981e-01 -4.674114286899566650e-02 9.424618631601333618e-02
4.278370141983032227e-01 -4.664148762822151184e-02 4.840107634663581848e-03
-1.576378196477890015e-01 -7.165965437889099121e-02 3.813418373465538025e-02
2.836338877677917480e-01 -5.404518544673919678e-02 5.218668654561042786e-02
-4.191212356090545654e-02 6.221301481127738953e-02 -4.317408055067062378e-02
-3.323106169700622559e-01 1.887214183807373047e-02 -4.716669395565986633e-02
2.081936895847320557e-01 8.062615245580673218e-02 9.481620043516159058e-03
-1.444146186113357544e-01 4.926780611276626587e-02 9.994684159755706787e-02
-4.651378095149993896e-02 -4.230676963925361633e-02 -1.049815937876701355e-01
3.478325903415679932e-03 -6.553702056407928467e-02 -7.809253036975860596e-02
-5.267447978258132935e-02 2.301794104278087616e-02 -9.929478913545608521e-02
-1.489779651165008545e-01 -3.317427262663841248e-02 1.091463118791580200e-01
1.119814217090606689e-01 7.331859320402145386e-02 7.836364954710006714e-02
4.190351366996765137e-01 7.577164215035736561e-04 -9.209295362234115601e-02
1.408544480800628662e-01 -4.954027757048606873e-02 8.641821891069412231e-02
-8.778885006904602051e-03 3.933856263756752014e-02 -8.717221021652221680e-02
3.248647600412368774e-02 -4.778999462723731995e-02 -1.030450090765953064e-01
-4.491011500358581543e-01 -3.003045544028282166e-02 1.305586099624633789e-02
-7.909718155860900879e-02 2.063700929284095764e-02 -9.847980737686157227e-02
2.681512832641601562e-01 -6.201773881912231445e-02 -5.420853197574615479e-02
-2.606333494186401367e-01 -6.802070885896682739e-02 -2.894546091556549072e-02
5.002215504646301270e-01 5.869344994425773621e-02 1.504677813500165939e-02
-1.616721600294113159e-02 -6.298313289880752563e-02 -8.253073692321777344e-02
2.604831457138061523e-01 7.986566424369812012e-02 1.450517401099205017e-02
-2.400004416704177856e-01 -5.832741782069206238e-02 6.264384090900421143e-02
-7.417893409729003906e-02 -7.289811223745346069e-02 -5.622761324048042297e-02
-1.219709366559982300e-01 3.127109259366989136e-02 1.213376596570014954e-01
8.185237646102905273e-02 2.429737523198127747e-02 -1.064899787306785583e-01
3.178381919860839844e-01 7.720574736595153809e-02 8.028273470699787140e-03
-2.095614522695541382e-01 5.902397260069847107e-02 5.078358575701713562e-02
-7.542985677719116211e-02 5.741760879755020142e-02 9.775787591934204102e-02
1.767632663249969482e-01 4.919331148266792297e-02 -8.213823288679122925e-02
5.554665923118591309e-01 -1.445453055202960968e-02 -2.535457909107208252e-02
-2.389056831598281860e-01 5.076579004526138306e-02 -1.709347963333129883e-02
-7.252089679241180420e-02 -6.918618828058242798e-02 5.417621880769729614e-02
-3.798136115074157715e-01 7.515700533986091614e-03 7.798415422439575195e-02
-1.299605220556259155e-01 -7.373391836881637573e-02 3.345736488699913025e-02
-4.243274927139282227e-01 -3.582705929875373840e-02 -1.860934123396873474e-02
-5.130967497825622559e-02 7.209645956754684448e-02 -4.259220324456691742e-03
-1.209042966365814209e-02 5.130283161997795105e-02 1.132318153977394104e-01
1.769000887870788574e-01 3.297537099570035934e-03 1.285775601863861084e-01
-1.276472061872482300e-01 -4.083087295293807983e-02 1.028447896242141724e-01
-4.475095272064208984e-01 3.548232605680823326e-03 1.120377518236637115e-02
8.990883082151412964e-02 4.652678500860929489e-03 -1.166961640119552612e-01
3.090767264366149902e-01 7.378388941287994385e-02 5.905610695481300354e-02
2.699607312679290771e-01 -4.801846295595169067e-02 6.933181732892990112e-02
1.678351759910583496e-01 7.134790718555450439e-02 -3.779364749789237976e-02
-1.869785636663436890e-01 1.109495386481285095e-02 1.216423809528350830e-01
1.701562702655792236e-01 -6.306351721286773682e-02 5.344105139374732971e-02
-2.279334217309951782e-01 5.833369493484497070e-02 3.014575317502021790e-02
-3.062859177589416504e-01 2.180237136781215668e-02 -5.263742059469223022e-02
4.866210818290710449e-01 -3.621070459485054016e-02 -1.546425838023424149e-02
1.595382988452911377e-01 -7.436934858560562134e-02 -2.547580003738403320e-02
4.455435276031494141e-01 -4.196976870298385620e-02 1.564002037048339844e-02
-3.930953145027160645e-01 1.879820600152015686e-02 -1.577407121658325195e-02
-3.735190629959106445e-02 1.547836046665906906e-02 -1.059214621782302856e-01
2.680616676807403564e-01 4.623053595423698425e-02 -8.269735425710678101e-02
-9.348656237125396729e-02 3.909726440906524658e-02 1.185948252677917480e-01
5.119329690933227539e-01 5.410994589328765869e-02 3.375923633575439453e-02
9.771029651165008545e-02 7.049573957920074463e-02 -3.763809427618980408e-02
2.491926103830337524e-01 3.379647433757781982e-02 -9.702009707689285278e-02
3.033238053321838379e-01 7.824757695198059082e-02 2.946818619966506958e-02
4.030836224555969238e-01 7.154155522584915161e-02 1.523235626518726349e-02
-1.127963513135910034e-01 -7.203964889049530029e-02 -5.480774864554405212e-02
4.961261749267578125e-01 3.979132696986198425e-02 6.851910054683685303e-02
6.670673191547393799e-02 -2.700714953243732452e-02 1.182057335972785950e-01
1.339280307292938232e-01 -6.261896342039108276e-02 -7.850934565067291260e-02
-2.839774638414382935e-02 -7.858664542436599731e-02 1.230006292462348938e-02
-9.658770263195037842e-02 5.081659182906150818e-02 -5.870061740279197693e-02
-1.734908372163772583e-01 -2.767949365079402924e-02 1.116334870457649231e-01
-1.285936236381530762e-01 -5.872164294123649597e-02 7.607513666152954102e-02
-2.863431721925735474e-02 3.179252147674560547e-02 -9.366947412490844727e-02
-1.837051957845687866e-01 -1.323353964835405350e-02 -9.988743066787719727e-02
-1.483307480812072754e-01 1.613643206655979156e-02 1.250331252813339233e-01
5.659423768520355225e-03 -7.522218395024538040e-03 1.308084875345230103e-01
-3.075501322746276855e-01 -1.631048880517482758e-02 9.876411408185958862e-02
2.510219812393188477e-01 5.010317638516426086e-02 -7.855609059333801270e-02
3.856655210256576538e-02 3.445233404636383057e-02 -9.594430029392242432e-02
-5.685707926750183105e-02 -7.965003699064254761e-02 -1.353095192462205887e-02
1.084114313125610352e-01 -4.109443631023168564e-03 -1.186990514397621155e-01
-1.050611138343811035e-01 -7.407382875680923462e-02 3.484578058123588562e-02
1.640743315219879150e-01 -2.687899582087993622e-02 1.124115809798240662e-01
2.256070822477340698e-01 4.518497735261917114e-02 1.167429462075233459e-01
-4.136554598808288574e-01 -3.694446384906768799e-02 4.286292567849159241e-02
-2.640734612941741943e-02 7.549215853214263916e-02 1.089944504201412201e-02
-1.136858612298965454e-01 -6.264514476060867310e-02 6.888653337955474854e-02
3.586014509201049805e-01 7.109962403774261475e-02 -1.745710521936416626e-02
-3.160813450813293457e-01 -3.369940444827079773e-02 8.456305414438247681e-02
2.989308238029479980e-01 5.736346915364265442e-02 9.691584855318069458e-02
3.976689577102661133e-01 6.795004010200500488e-02 -1.785045117139816284e-02
3.603955507278442383e-01 -5.578289926052093506e-02 -3.441808745265007019e-02
1.541260927915573120e-01 -5.772059038281440735e-02 6.929603964090347290e-02
1.269633173942565918e-01 -2.948016859591007233e-02 1.128743067383766174e-01
-2.080147713422775269e-01 4.381038621068000793e-02 -4.682873189449310303e-02
5.958377122879028320e-01 2.101009152829647064e-02 9.534894488751888275e-03
7.042706012725830078e-03 2.501852624118328094e-02 -1.024777442216873169e-01
1.825791597366333008e-01 8.105830848217010498e-02 3.700941428542137146e-02
2.492351979017257690e-01 -6.345394998788833618e-02 3.191256150603294373e-02
-1.928081661462783813e-01 -7.425881922245025635e-02 -2.454075589776039124e-02
5.513350367546081543e-01 -2.519356319680809975e-03 -4.731376841664314270e-02
4.320536255836486816e-01 4.464584216475486755e-02 8.465093374252319336e-02
5.429736375808715820e-01 1.241884473711252213e-02 5.632012337446212769e-02
1.464698910713195801e-01 -7.547448575496673584e-02 -1.047518383711576462e-02
5.171219706535339355e-01 5.539125576615333557e-02 1.083563547581434250e-02
9.833917021751403809e-02 -1.947234198451042175e-02 1.225890442728996277e-01
-8.660949766635894775e-02 6.669414788484573364e-02 7.240623980760574341e-02
2.896131277084350586e-01 -2.876798063516616821e-02 9.475404024124145508e-02
3.423896431922912598e-01 -5.519834905862808228e-02 2.602601051330566406e-02
-4.243493080139160156e-01 -2.072690986096858978e-02 -3.119476512074470520e-02
1.862698048353195190e-02 -5.381854251027107239e-03 -1.170721948146820068e-01
4.681148529052734375e-01 -1.770984381437301636e-03 -8.045202493667602539e-02
-3.281775116920471191e-01 -5.581898614764213562e-02 4.301749914884567261e-02
-2.670181393623352051e-01 -8.788152597844600677e-03 1.091169714927673340e-01
5.040980577468872070e-01 1.012458652257919312e-02 7.205568253993988037e-02
-2.485965639352798462e-01 5.237472802400588989e-02 5.825098231434822083e-02
4.324842095375061035e-01 6.833265721797943115e-02 2.379214763641357422e-02
1.958340406417846680e-01 7.319384068250656128e-02 -3.167666122317314148e-02
2.921237349510192871e-01 -3.309504315257072449e-02 -9.931823611259460449e-02
-2.234061807394027710e-01 5.021491274237632751e-02 7.756769657135009766e-02
3.834835290908813477e-01 1.849996671080589294e-02 -9.409838914871215820e-02
4.640974998474121094e-01 -4.052275046706199646e-02 7.793847471475601196e-04
-1.436584144830703735e-01 1.276484224945306778e-02 -9.609821438789367676e-02
5.438743233680725098e-01 4.830174520611763000e-02 2.001496404409408569e-02
-1.002524048089981079e-01 7.079697400331497192e-02 4.251341149210929871e-02
1.440377384424209595e-01 -3.743599727749824524e-02 1.031170487403869629e-01
-2.112479954957962036e-01 -7.180952280759811401e-02 -3.237441182136535645e-02
4.488088488578796387e-01 -3.819463402032852173e-02 -4.818109422922134399e-02
3.242863416671752930e-01 -2.093387395143508911e-02 -1.025598123669624329e-01
3.039529323577880859e-01 4.112630337476730347e-02 -8.594110608100891113e-02
7.996114343404769897e-02 8.022122085094451904e-02 1.741418056190013885e-02
7.454682141542434692e-02 8.004872500896453857e-02 3.701127320528030396e-02
-4.748582094907760620e-02 -5.927341803908348083e-02 -8.723268657922744751e-02
2.444497197866439819e-01 -6.346324086189270020e-02 -5.664775893092155457e-02
-2.232054919004440308e-01 -7.299865037202835083e-02 -1.585387066006660461e-02
1.030296683311462402e-01 -4.608756303787231445e-02 -1.038355454802513123e-01
3.010933995246887207e-01 -5.900782346725463867e-02 -5.307601019740104675e-02
3.646423816680908203e-01 -3.977588936686515808e-02 -7.787929475307464600e-02
-1.748555451631546021e-01 4.383951425552368164e-02 -5.543590709567070007e-02
-1.152957081794738770e-01 -1.317076943814754486e-02 -1.083448976278305054e-01
3.514134883880615234e-01 1.681788824498653412e-02 -9.923883527517318726e-02
4.804320633411407471e-02 2.403741702437400818e-02 -1.054651439189910889e-01
-4.744268208742141724e-02 -2.586660906672477722e-02 1.199693009257316589e-01
-1.711248159408569336e-01 -4.207009077072143555e-02 9.803230315446853638e-02
6.283836811780929565e-02 -7.234988361597061157e-02 -5.881002917885780334e-02
1.678909957408905029e-01 -7.016927003860473633e-02 -5.130333080887794495e-02
1.142169237136840820e-01 7.873436808586120605e-02 5.611233040690422058e-02
-1.298093050718307495e-02 -7.513179630041122437e-02 3.297583013772964478e-02
2.441290393471717834e-02 -2.188226580619812012e-02 -1.168646812438964844e-01
-2.749682068824768066e-01 -3.358040377497673035e-02 9.318602830171585083e-02
2.231959700584411621e-01 -5.212580785155296326e-02 7.024136930704116821e-02
-3.427119255065917969e-01 -1.694915629923343658e-02 -6.619784235954284668e-02
-1.888746023178100586e-02 -7.095811516046524048e-02 -6.495938450098037720e-02
3.908497095108032227e-01 6.466429680585861206e-02 6.507324427366256714e-02
-7.071241736412048340e-02 7.223866879940032959e-02 6.119736935943365097e-03
5.312940478324890137e-02 -7.763406634330749512e-02 -3.318486735224723816e-02
2.694851458072662354e-01 4.619342833757400513e-02 1.118721887469291687e-01
-2.982557415962219238e-01 4.739021882414817810e-02 1.478236541152000427e-02
1.060012802481651306e-01 4.618722945451736450e-02 1.213860735297203064e-01
4.045143723487854004e-01 5.783189833164215088e-02 -4.610378295183181763e-02
4.364387691020965576e-02 6.351058185100555420e-02 -5.152207985520362854e-02
-6.615045666694641113e-02 -6.429052352905273438e-02 -7.784915715456008911e-02
2.139075845479965210e-01 -4.025546461343765259e-02 9.178487211465835571e-02
-4.529788345098495483e-02 5.714510008692741394e-02 1.021083071827888489e-01
-2.380576580762863159e-01 2.837284281849861145e-02 1.054992973804473877e-01
2.900137603282928467e-01 -5.725427065044641495e-03 -1.103451475501060486e-01
-6.558208167552947998e-02 -5.222010239958763123e-02 -9.508042782545089722e-02
4.600877165794372559e-01 1.904085464775562286e-02 -7.940385490655899048e-02
3.348275423049926758e-01 -4.775994271039962769e-02 5.297578871250152588e-02
3.440157771110534668e-01 -5.818857625126838684e-02 -3.180630505084991455e-02
7.836539298295974731e-03 -7.544898241758346558e-02 -4.959123954176902771e-02
3.912749513983726501e-02 -2.043024869635701180e-03 -1.172408908605575562e-01
-1.723448932170867920e-01 -7.430606335401535034e-02 2.172545716166496277e-02
2.500965893268585205e-01 -5.427778512239456177e-02 6.004397198557853699e-02
3.306502699851989746e-01 -4.085692018270492554e-02 -8.444371819496154785e-02
9.149186313152313232e-02 7.625589519739151001e-02 6.692109256982803345e-02
-1.858663558959960938e-02 -3.601321950554847717e-02 1.114022582769393921e-01
5.361812710762023926e-01 -1.088846474885940552e-02 -4.888661578297615051e-02
-2.284899502992630005e-01 1.228381413966417313e-02 -8.213658630847930908e-02
6.776391714811325073e-02 1.216341741383075714e-03 -1.172764226794242859e-01
-1.151792854070663452e-01 -4.957458376884460449e-02 -9.375873953104019165e-02
2.765852212905883789e-01 -1.756845973432064056e-02 1.075511127710342407e-01
2.175266668200492859e-02 -5.640392750501632690e-02 -9.323526173830032349e-02
7.386158406734466553e-02 -4.656243324279785156e-02 9.626373648643493652e-02
1.158010363578796387e-01 7.044122368097305298e-02 -3.892834112048149109e-02
1.401357203722000122e-01 -1.856756582856178284e-02 -1.177741512656211853e-01
4.325609803199768066e-01 -3.519528731703758240e-02 -6.316558271646499634e-02
3.268076777458190918e-01 7.325573265552520752e-02 5.642289668321609497e-02
-1.906795352697372437e-01 -4.526603221893310547e-02 9.205497801303863525e-02
4.744648337364196777e-01 6.238350272178649902e-02 1.880551222711801529e-03
-2.807523608207702637e-01 4.875233024358749390e-02 2.311663702130317688e-03
-2.137395590543746948e-01 -3.441260755062103271e-02 -9.157447516918182373e-02
-2.044250816106796265e-01 -6.953085958957672119e-02 3.717347607016563416e-02
1.339513659477233887e-01 8.056230098009109497e-02 4.329204559326171875e-02
-7.932126522064208984e-03 -6.167414784431457520e-02 7.320568710565567017e-02
4.754217267036437988e-01 4.542878642678260803e-02 -5.024222284555435181e-02
1.850509047508239746e-01 1.329925470054149628e-02 -1.128329038619995117e-01
-3.768295049667358398e-01 -5.203152447938919067e-02 -1.782363653182983398e-02
2.294545620679855347e-01 -2.063767425715923309e-02 -1.128131896257400513e-01
3.758419156074523926e-01 -1.210352592170238495e-02 9.439134597778320312e-02
4.206071496009826660e-01 5.499719828367233276e-02 -4.822064936161041260e-02
2.895651757717132568e-01 6.607925146818161011e-02 8.404125273227691650e-02
1.031564623117446899e-01 6.322269886732101440e-02 1.009179726243019104e-01
-4.366017132997512817e-02 -7.448995858430862427e-02 -5.269388481974601746e-02
-1.360624730587005615e-01 -3.439300460740923882e-03 -1.044370681047439575e-01
2.984110713005065918e-01 1.565924659371376038e-02 -1.053555011749267578e-01
6.164428219199180603e-02 -6.545389443635940552e-02 6.093569099903106689e-02
-4.500436782836914062e-01 -2.355239912867546082e-02 3.206078335642814636e-02
-2.729091644287109375e-01 2.426002919673919678e-02 -5.982866510748863220e-02
-3.444178700447082520e-01 -5.606477335095405579e-02 3.375004231929779053e-02
-1.538028120994567871e-01 2.422545291483402252e-02 -8.551114797592163086e-02
3.371395543217658997e-02 3.924921154975891113e-02 1.261036098003387451e-01
3.153649866580963135e-01 2.282491512596607208e-02 1.160741969943046570e-01
2.602991834282875061e-02 7.810319960117340088e-02 4.291968792676925659e-02
-3.698664903640747070e-01 2.593841776251792908e-02 -1.543002482503652573e-02
2.680230736732482910e-01 5.979224294424057007e-02 -6.159136816859245300e-02
-9.697507321834564209e-02 -6.002638861536979675e-02 -8.264483511447906494e-02
2.488273382186889648e-01 2.654467709362506866e-03 -1.131098940968513489e-01
-1.289706081151962280e-01 -5.966577306389808655e-02 -7.994370907545089722e-02
3.982033133506774902e-01 3.383842110633850098e-02 -8.145378530025482178e-02
-8.659167587757110596e-02 7.233281433582305908e-02 3.246207907795906067e-02
-2.590161561965942383e-01 5.393402650952339172e-02 3.438873961567878723e-02
-1.339612901210784912e-01 -2.773517183959484100e-02 1.147620454430580139e-01
2.326554954051971436e-01 -6.974803656339645386e-02 -1.913691870868206024e-03
-8.208212256431579590e-02 6.365849822759628296e-02 -3.060587123036384583e-02
-2.478028982877731323e-01 -6.797011196613311768e-02 3.053908795118331909e-02
4.692155122756958008e-01 -2.956022135913372040e-02 4.127818718552589417e-02
9.356914460659027100e-02 -2.309274300932884216e-02 -1.174060031771659851e-01
-1.355257034301757812e-01 -6.906225532293319702e-02 -6.031091883778572083e-02
1.389640867710113525e-01 -7.023501396179199219e-02 -5.703474953770637512e-02
4.914278984069824219e-01 5.877512693405151367e-02 3.177572786808013916e-02
1.814277619123458862e-01 -6.658720225095748901e-02 -6.168094649910926819e-02
-5.926696956157684326e-02 -7.922624796628952026e-02 4.013557918369770050e-03
2.780460119247436523e-01 6.551674008369445801e-02 -4.850296303629875183e-02
-2.788239717483520508e-01 -6.540612131357192993e-02 -3.169237822294235229e-02
-4.225859791040420532e-02 -1.485836226493120193e-03 1.318145841360092163e-01
-4.009784460067749023e-01 2.426086924970149994e-02 2.975001931190490723e-02
2.122459709644317627e-01 7.105867564678192139e-02 -3.798352554440498352e-02
-2.521426677703857422e-01 -2.249759621918201447e-02 -8.818935602903366089e-02
-1.608595699071884155e-01 -5.189950764179229736e-02 -8.612452447414398193e-02
4.721406102180480957e-02 4.515250027179718018e-02 -8.404828608036041260e-02
-1.527841538190841675e-01 -5.836676806211471558e-02 7.478071749210357666e-02
-1.613421887159347534e-01 6.098770722746849060e-02 6.830497831106185913e-02
3.709131479263305664e-01 5.366566777229309082e-02 -6.071042641997337341e-02
3.620828390121459961e-01 7.170891016721725464e-02 5.119832605123519897e-02
-1.150927990674972534e-01 6.064819544553756714e-02 -3.128664195537567139e-02
3.495253920555114746e-01 -3.209833428263664246e-02 7.837338745594024658e-02
-4.192653894424438477e-01 1.145663950592279434e-02 -9.858657605946063995e-03
-3.715637326240539551e-01 3.159933909773826599e-02 8.538492023944854736e-03
8.050238341093063354e-02 6.899967789649963379e-02 -4.070148244500160217e-02
3.253988623619079590e-01 6.106990575790405273e-02 8.740572631359100342e-02
-1.319739222526550293e-01 -8.559466223232448101e-04 1.271174997091293335e-01
1.213286370038986206e-01 9.438308887183666229e-03 -1.152551025152206421e-01
3.746899962425231934e-02 -1.556585542857646942e-02 1.268764287233352661e-01
5.861381068825721741e-02 6.811878085136413574e-02 -4.119404777884483337e-02
6.349423527717590332e-02 -7.848230004310607910e-02 -3.756806254386901855e-03
3.555619120597839355e-01 -6.452834233641624451e-03 -1.023788005113601685e-01
8.127121627330780029e-02 -4.921664670109748840e-02 -1.012835353612899780e-01
-3.049268126487731934e-01 4.660461470484733582e-02 3.244179114699363708e-02
8.960258215665817261e-03 1.335738226771354675e-02 1.343206316232681274e-01
-1.301342397928237915e-01 -7.814846187829971313e-02 -3.981980495154857635e-03
-1.018903106451034546e-01 -7.889467477798461914e-02 -1.360116060823202133e-02
-1.486487537622451782e-01 6.504553556442260742e-02 5.525945872068405151e-02
4.972938299179077148e-01 -2.719949744641780853e-02 -4.596556723117828369e-02
5.722221136093139648e-01 -9.362832643091678619e-03 -1.252170745283365250e-02
-2.898195385932922363e-01 1.990159787237644196e-02 -6.015003100037574768e-02
2.214788943529129028e-01 6.606785207986831665e-02 -5.089140310883522034e-02
5.102328956127166748e-03 -6.705889850854873657e-02 5.997928231954574585e-02
-1.625774055719375610e-01 6.579555571079254150e-02 2.680106088519096375e-02
-3.252529501914978027e-01 3.890499472618103027e-02 -6.918530911207199097e-03
1.377414613962173462e-01 5.644350871443748474e-02 -7.079236954450607300e-02
2.681199908256530762e-01 -1.450809184461832047e-02 -1.112768054008483887e-01
6.037982553243637085e-02 7.912917435169219971e-02 9.407819248735904694e-03
5.910411477088928223e-03 -7.920558005571365356e-02 2.995683345943689346e-03
7.557374238967895508e-02 7.689110189676284790e-02 -1.037621218711137772e-02
1.794421374797821045e-01 3.179842233657836914e-02 1.271378248929977417e-01
1.087701320648193359e-01 7.913696020841598511e-02 -1.189270988106727600e-03
3.675864934921264648e-01 -5.348458141088485718e-02 1.877628266811370850e-02
5.107353329658508301e-01 -2.678646706044673920e-02 -3.640916198492050171e-02
2.378196120262145996e-01 7.435431331396102905e-02 -2.544626593589782715e-02
2.367075979709625244e-01 -3.965418040752410889e-02 -1.005323603749275208e-01
-8.468741178512573242e-02 2.612964063882827759e-02 1.273964196443557739e-01
2.792181968688964844e-01 5.757845193147659302e-02 9.918977320194244385e-02
2.052160501480102539e-01 -8.362610824406147003e-03 -1.164823547005653381e-01
3.258476853370666504e-01 -5.933672562241554260e-02 -3.876691311597824097e-02
4.692289233207702637e-01 3.286405280232429504e-02 -6.762460619211196899e-02
-2.025664299726486206e-01 2.171720005571842194e-02 -7.926312088966369629e-02
-2.112736552953720093e-01 -5.505513027310371399e-02 -7.429258525371551514e-02
2.030241042375564575e-01 7.220807671546936035e-02 7.936431467533111572e-02
6.822235882282257080e-03 6.812669336795806885e-02 -3.456638753414154053e-02
-1.875639706850051880e-01 3.906935080885887146e-02 1.052943170070648193e-01
1.134633570909500122e-01 -1.178784854710102081e-02 1.264873445034027100e-01
2.479263693094253540e-01 5.817487090826034546e-02 1.018250659108161926e-01
2.463125810027122498e-02 -7.700780034065246582e-02 -4.094373434782028198e-02
2.472683787345886230e-03 7.760044932365417480e-02 3.406427428126335144e-02
-6.794893741607666016e-02 3.788910806179046631e-02 1.218817532062530518e-01
-7.159438729286193848e-02 5.792070925235748291e-02 -4.833999276161193848e-02
8.778288960456848145e-03 -5.951915308833122253e-02 7.726644724607467651e-02
-3.537676334381103516e-01 9.572652168571949005e-03 8.684415370225906372e-02
2.081587761640548706e-01 7.721354812383651733e-02 -1.503507886081933975e-02
-1.096500307321548462e-01 6.949043273925781250e-02 7.948670536279678345e-03
2.241016030311584473e-01 5.625189468264579773e-02 -7.033414393663406372e-02
4.922672510147094727e-01 2.215724810957908630e-02 7.768344134092330933e-02
1.657083630561828613e-01 -4.100535809993743896e-02 9.654703736305236816e-02
1.982864290475845337e-01 -5.409060791134834290e-02 7.045397162437438965e-02
9.610050916671752930e-02 -5.536647513508796692e-02 8.035145699977874756e-02
4.961253404617309570e-01 -1.806649565696716309e-02 -6.147751584649085999e-02
1.027197912335395813e-01 8.048406988382339478e-02 3.960747644305229187e-02
-1.652415096759796143e-01 4.947495087981224060e-02 9.544495493173599243e-02
2.731555104255676270e-01 2.408971823751926422e-02 1.211856156587600708e-01
1.259459704160690308e-01 4.074097611010074615e-03 1.317040473222732544e-01
1.312887370586395264e-01 -6.133404001593589783e-02 6.398098170757293701e-02
1.786414831876754761e-01 -6.031500175595283508e-02 -7.820187509059906006e-02
-2.991285175085067749e-02 -1.828850805759429932e-02 1.253150701522827148e-01
-2.333588153123855591e-01 -1.467054337263107300e-02 1.123746410012245178e-01
2.370351403951644897e-01 6.812199950218200684e-02 8.626162260770797729e-02
3.265087604522705078e-01 -5.004359409213066101e-03 1.083420217037200928e-01
4.734738469123840332e-01 -3.471496328711509705e-02 -4.208750650286674500e-02
-1.358447074890136719e-01 5.251380801200866699e-02 -4.716504365205764771e-02
-9.229408204555511475e-02 6.739539653062820435e-02 -1.351073104888200760e-02
-1.870183497667312622e-01 -7.502084970474243164e-02 9.784671477973461151e-03
4.823352396488189697e-02 -2.857407368719577789e-02 1.174710094928741455e-01
6.829979270696640015e-02 -7.553427666425704956e-02 2.308274805545806885e-02
-1.173373460769653320e-01 9.682696312665939331e-03 -1.013134047389030457e-01
3.480296730995178223e-01 7.460385560989379883e-02 4.087428376078605652e-02
-3.818964362144470215e-01 3.001673519611358643e-02 2.710423991084098816e-02
-1.658148765563964844e-01 -7.523656636476516724e-02 -2.905336022377014160e-02
4.757875800132751465e-01 -3.622577339410781860e-02 1.474822498857975006e-02
3.933188691735267639e-02 7.354458421468734741e-02 -2.040958777070045471e-02
-6.220006942749023438e-02 5.155096575617790222e-02 -6.297095865011215210e-02
3.718609809875488281e-01 3.983328491449356079e-02 1.014382019639015198e-01
3.223220705986022949e-01 -6.066444888710975647e-02 7.256018929183483124e-03
4.183865785598754883e-01 6.701914966106414795e-02 -1.299215573817491531e-02
-2.969981431961059570e-01 -3.590921312570571899e-02 -7.377751171588897705e-02
4.523933529853820801e-01 -1.420269533991813660e-02 7.229700684547424316e-02
-4.330464601516723633e-01 1.233762968331575394e-02 2.030594274401664734e-02
-2.310361415147781372e-01 4.645007848739624023e-02 -3.337876126170158386e-02
5.519067496061325073e-02 -4.369997233152389526e-02 1.010812446475028992e-01
3.649913668632507324e-01 -4.809395596385002136e-02 4.107548296451568604e-02
-2.721814513206481934e-01 -6.683696410618722439e-04 -8.050805330276489258e-02
-1.176060289144515991e-01 6.518576294183731079e-02 6.847604364156723022e-02
6.961502879858016968e-02 -3.615008294582366943e-02 -1.119547486305236816e-01
-1.297884136438369751e-01 6.545820087194442749e-02 -7.455372251570224762e-03
-4.022158384323120117e-01 2.201974950730800629e-02 3.509666770696640015e-03
-9.694875776767730713e-02 5.170165747404098511e-02 1.040095761418342590e-01
3.230039477348327637e-01 -5.547476559877395630e-02 -5.668246373534202576e-02
-2.983281016349792480e-01 -4.244257137179374695e-02 7.831855118274688721e-02
2.666058242321014404e-01 -2.332737669348716736e-03 1.181236058473587036e-01
4.070093631744384766e-01 -4.428010061383247375e-02 -5.368696898221969604e-02
3.012968301773071289e-01 -5.539530888199806213e-02 4.280610755085945129e-02
-1.750789731740951538e-01 -6.817527115345001221e-02 4.785634204745292664e-02
5.541326999664306641e-01 -1.740497536957263947e-02 -4.131684079766273499e-03
3.132492899894714355e-01 -1.633518002927303314e-02 1.028661653399467468e-01
-3.804493546485900879e-01 -5.109990760684013367e-02 2.689196914434432983e-02
1.621139049530029297e-02 2.290526032447814941e-02 -3.233152031898498535e-01
-9.483056068420410156e-01 1.293392479419708252e-01 -1.504797488451004028e-03
-9.126611948013305664e-01 2.450057864189147949e-01 -2.375859320163726807e-01
-6.741595268249511719e-02 2.043803036212921143e-01 -2.090955674648284912e-01
-6.816660165786743164e-01 1.437237113714218140e-01 -2.866580188274383545e-01
-9.005385637283325195e-01 1.129412129521369934e-01 1.507508754730224609e-02
9.447452425956726074e-02 -3.583641350269317627e-02 -2.967168986797332764e-01
2.382086217403411865e-01 1.224630922079086304e-01 -4.311347007751464844e-02
3.524881601333618164e-02 5.129929631948471069e-02 1.648492515087127686e-01
-3.381660580635070801e-02 -2.441464364528656006e-02 1.243521943688392639e-01
2.242199480533599854e-01 1.206746250391006470e-01 -1.405899375677108765e-01
-9.876595735549926758e-01 1.446375995874404907e-01 -4.114103317260742188e-02
-4.267679750919342041e-01 -3.246377408504486084e-02 -6.099842488765716553e-02
-3.720577955245971680e-01 2.942862510681152344e-01 1.514314711093902588e-01
-1.103048324584960938e+00 3.799754679203033447e-01 1.460715234279632568e-01
-5.911564230918884277e-01 5.467472970485687256e-02 1.260672509670257568e-01
-8.144242763519287109e-01 1.686510741710662842e-01 1.955301165580749512e-01
2.004763782024383545e-01 -8.838851749897003174e-02 -2.336471378803253174e-01
-9.959281682968139648e-01 3.498493134975433350e-01 -1.655955612659454346e-01
-3.758704662322998047e-01 8.459155261516571045e-02 2.120651602745056152e-01
-6.766201257705688477e-01 1.159838736057281494e-01 1.852653026580810547e-01
8.633032441139221191e-02 -1.130930930376052856e-01 -1.226864084601402283e-01
4.242062568664550781e-03 -8.514150977134704590e-02 1.778121665120124817e-02
-1.140226423740386963e-01 -9.005083143711090088e-02 -6.425683945417404175e-02
-6.681331992149353027e-01 3.564669191837310791e-01 -1.476969420909881592e-01
-1.158262729644775391e+00 2.957270741462707520e-01 1.361655890941619873e-01
3.328006565570831299e-01 -1.061916202306747437e-01 -1.235418245196342468e-01
-2.616578340530395508e-01 2.627344429492950439e-01 1.479048728942871094e-01
-1.222669363021850586e+00 2.818123698234558105e-01 8.998781442642211914e-03
-9.319828748703002930e-01 3.745057284832000732e-01 1.754421293735504150e-01
-3.604333400726318359e-01 1.536864936351776123e-01 -3.280512690544128418e-01
1.440065205097198486e-01 1.656110882759094238e-01 -7.828578352928161621e-02
-3.333050310611724854e-01 1.392934322357177734e-01 2.353788316249847412e-01
-3.391340076923370361e-01 1.553301811218261719e-01 2.374768853187561035e-01
-7.084164619445800781e-01 3.206631541252136230e-01 2.172616124153137207e-01
1.768631041049957275e-01 7.183527946472167969e-02 1.104964837431907654e-01
-1.069703936576843262e+00 3.758810162544250488e-01 1.593931317329406738e-01
-3.887749910354614258e-01 1.484726071357727051e-01 2.401010096073150635e-01
-2.470340430736541748e-01 2.379440963268280029e-01 1.762449443340301514e-01
-4.591755568981170654e-01 1.149903088808059692e-01 -3.251910805702209473e-01
-3.277812898159027100e-01 2.674552500247955322e-01 -2.168525755405426025e-01
-1.012501716613769531e-01 7.779125124216079712e-02 -3.324810862541198730e-01
-1.197563290596008301e+00 2.778791189193725586e-01 -6.566473841667175293e-02
2.750342190265655518e-01 1.828859746456146240e-02 -2.527225613594055176e-01
-3.295421898365020752e-01 3.054605126380920410e-01 9.318380802869796753e-02
-5.331605076789855957e-01 -6.212145090103149414e-03 -9.756118059158325195e-02
-7.061057686805725098e-01 1.694201081991195679e-01 2.253530025482177734e-01
-3.953006267547607422e-01 9.298592805862426758e-03 -2.662671804428100586e-01
-5.225310325622558594e-01 9.043067693710327148e-04 2.204587310552597046e-02
-3.285365700721740723e-01 3.883421421051025391e-03 -2.823722362518310547e-01
4.206678271293640137e-02 -1.019265502691268921e-01 -3.372368216514587402e-02
-3.482003808021545410e-01 3.127273917198181152e-01 -1.078458577394485474e-01
-5.366958975791931152e-01 1.323358714580535889e-02 -1.938091218471527100e-01
-9.048979282379150391e-01 1.258864104747772217e-01 6.605810672044754028e-02
-1.202908277511596680e+00 3.945604860782623291e-01 2.797104418277740479e-03
-7.267506122589111328e-01 3.174229264259338379e-01 -2.218288779258728027e-01
-9.152493476867675781e-01 1.596310734748840332e-01 1.355669200420379639e-01
-2.126763463020324707e-01 -7.566006481647491455e-02 -1.182636171579360962e-01
-6.148865818977355957e-02 1.293107420206069946e-01 1.861811876296997070e-01
-1.099384725093841553e-01 -4.011233150959014893e-02 -2.816129028797149658e-01
-5.021038651466369629e-01 -9.907290339469909668e-03 -9.975869208574295044e-03
-4.714830815792083740e-01 2.820625305175781250e-01 -2.359346449375152588e-01
1.369968354701995850e-01 1.655315011739730835e-01 -1.053916066884994507e-01
-8.320348262786865234e-01 1.086110919713973999e-01 9.085332602262496948e-02
-7.413092255592346191e-01 2.375646680593490601e-01 2.456358969211578369e-01
-7.227773666381835938e-01 3.792749047279357910e-01 -1.009411364793777466e-01
-6.486995816230773926e-01 5.598065257072448730e-02 9.701075404882431030e-02
-7.903319597244262695e-01 3.737659454345703125e-01 -1.340992152690887451e-01
-1.039340853691101074e+00 2.550820410251617432e-01 1.776907742023468018e-01
-7.432037591934204102e-01 2.630714178085327148e-01 -2.670812904834747314e-01
6.488066911697387695e-02 1.408003717660903931e-01 1.234287247061729431e-01
-1.085779309272766113e+00 4.036948680877685547e-01 -5.389413237571716309e-02
-3.140610456466674805e-01 2.701486349105834961e-01 -2.061777710914611816e-01
-2.945197820663452148e-01 -6.891980767250061035e-03 -2.791189253330230713e-01
-1.133900880813598633e-01 -8.561663329601287842e-02 -1.721940338611602783e-01
-9.358274936676025391e-01 1.822309792041778564e-01 1.572290360927581787e-01
-6.709069013595581055e-01 5.693104118108749390e-02 -1.957655251026153564e-01
-7.279279828071594238e-01 1.011389866471290588e-01 1.437341272830963135e-01
-7.602946162223815918e-01 3.154093027114868164e-01 -2.246014773845672607e-01
-4.624053835868835449e-01 4.785627126693725586e-02 -2.883825302124023438e-01
-8.190518617630004883e-01 2.916700243949890137e-01 -2.416293621063232422e-01
-7.673345804214477539e-01 3.996764421463012695e-01 -2.452923916280269623e-02
-6.134140491485595703e-01 3.790659904479980469e-01 5.482714623212814331e-03
-9.052210450172424316e-01 3.695706427097320557e-01 -1.496627330780029297e-01
-2.150339186191558838e-01 1.630913019180297852e-01 -3.100009262561798096e-01
3.942197263240814209e-01 1.620234549045562744e-02 -1.391297280788421631e-01
9.606114029884338379e-02 -1.027988642454147339e-01 -1.965661942958831787e-01
3.644162714481353760e-01 -9.883578121662139893e-02 -1.207280755043029785e-01
-8.154065608978271484e-01 3.697768747806549072e-01 1.730253100395202637e-01
-4.099288880825042725e-01 -2.942930161952972412e-02 -1.603547036647796631e-01
-1.110082507133483887e+00 4.152277112007141113e-01 4.007782042026519775e-02
-1.165590167045593262e+00 2.599690854549407959e-01 -8.789502829313278198e-02
-2.812731564044952393e-01 2.710749506950378418e-01 1.442219913005828857e-01
-1.151247024536132812e+00 4.086825251579284668e-01 8.108224719762802124e-03
-5.643603801727294922e-01 1.461391150951385498e-02 3.682047128677368164e-02
-7.053353786468505859e-01 4.853957891464233398e-02 -1.298149824142456055e-01
8.473351597785949707e-02 1.429980993270874023e-01 -2.263731658458709717e-01
-4.917070269584655762e-01 9.002771973609924316e-02 -3.109119534492492676e-01
-1.138567924499511719e-01 2.538933157920837402e-01 -9.493905305862426758e-02
3.873920142650604248e-01 9.835109114646911621e-03 -1.651324480772018433e-01
-7.987340688705444336e-01 1.153084784746170044e-01 -2.103049159049987793e-01
-2.998801767826080322e-01 7.290661334991455078e-03 -2.942930161952972412e-01
-8.109515309333801270e-01 3.816252946853637695e-01 -1.181998252868652344e-01
-2.016834169626235962e-01 1.315203309059143066e-01 2.191804349422454834e-01
1.129888594150543213e-01 -5.048990249633789062e-03 -3.068336248397827148e-01
-9.571294784545898438e-01 3.149493336677551270e-01 2.151216864585876465e-01
-4.395308792591094971e-01 -2.312374114990234375e-02 -2.802930772304534912e-03
-4.564212858676910400e-01 3.613762557506561279e-02 -2.779914438724517822e-01
-8.854846954345703125e-01 1.156177371740341187e-01 5.478147417306900024e-02
-6.674997806549072266e-01 3.825814127922058105e-01 -5.432057380676269531e-02
-1.044816613197326660e+00 3.448932170867919922e-01 -1.583189070224761963e-01
-9.747136831283569336e-01 1.391228288412094116e-01 -1.688138023018836975e-02
-6.401700377464294434e-01 1.762621104717254639e-01 2.395043075084686279e-01
-8.100162744522094727e-01 2.295026481151580811e-01 2.347674369812011719e-01
-4.016447365283966064e-01 1.016274988651275635e-01 2.215956747531890869e-01
-6.511017084121704102e-01 3.841505050659179688e-01 -2.005773968994617462e-02
-6.731902360916137695e-01 3.221908211708068848e-02 -5.000243708491325378e-02
-8.336765766143798828e-01 1.469725221395492554e-01 -2.274805009365081787e-01
-4.769246280193328857e-01 2.929488420486450195e-01 -2.206709980964660645e-01
3.952904641628265381e-01 -5.154520273208618164e-02 -1.871587634086608887e-01
-1.475206911563873291e-01 2.020632028579711914e-01 -2.521890699863433838e-01
-6.823279261589050293e-01 3.777178525924682617e-01 1.110531911253929138e-01
-6.616799235343933105e-01 2.081809490919113159e-01 2.476568520069122314e-01
-8.271442055702209473e-01 9.531957656145095825e-02 -1.418248116970062256e-01
-5.486208796501159668e-01 1.961466521024703979e-01 2.501378953456878662e-01
-1.237204551696777344e+00 3.792198896408081055e-01 2.961209416389465332e-02
-8.344130516052246094e-01 1.454030871391296387e-01 1.597393453121185303e-01
-4.791198670864105225e-01 -2.045936882495880127e-02 -8.438651263713836670e-02
-7.421290874481201172e-01 3.969155550003051758e-01 -2.153869345784187317e-02
-1.062563538551330566e+00 3.317137956619262695e-01 -1.626194566488265991e-01
-4.132058322429656982e-01 1.455324888229370117e-02 1.226857826113700867e-01
-4.576552510261535645e-01 9.460184723138809204e-02 2.116791009902954102e-01
-9.563231468200683594e-01 1.315608471632003784e-01 -1.569251157343387604e-02
-1.057800054550170898e+00 1.966084539890289307e-01 8.531292527914047241e-02
-3.720498085021972656e-02 -9.129095077514648438e-02 -1.937323808670043945e-01
3.534569442272186279e-01 -5.336534976959228516e-02 3.467552363872528076e-03
5.281656980514526367e-02 -8.225995302200317383e-02 3.166835755109786987e-02
3.824951350688934326e-01 -9.219832718372344971e-02 -1.301390081644058228e-01
-1.052652597427368164e-01 2.563937008380889893e-01 -2.467933297157287598e-02
-8.331557512283325195e-01 1.716877669095993042e-01 1.917973458766937256e-01
-1.455655694007873535e-01 1.213168799877166748e-01 2.092001736164093018e-01
-2.226064503192901611e-01 -6.856621801853179932e-02 -2.455320768058300018e-02
-1.129727602005004883e+00 4.113709926605224609e-01 5.946625024080276489e-02
-2.769286632537841797e-01 2.946517467498779297e-01 -1.132532209157943726e-01
-7.043900489807128906e-01 6.324163079261779785e-02 7.493121176958084106e-02
-8.094568848609924316e-01 3.090968132019042969e-01 2.301295399665832520e-01
-4.735393524169921875e-01 -2.034322917461395264e-02 -1.138997748494148254e-01
-1.536695659160614014e-01 2.249677479267120361e-01 1.468528211116790771e-01
-1.964125037193298340e-02 2.031768262386322021e-01 8.995132893323898315e-02
-2.140203416347503662e-01 2.412814199924468994e-01 1.560544371604919434e-01
-6.017934679985046387e-01 3.714194595813751221e-01 7.627833634614944458e-02
-5.455306768417358398e-01 2.187645733356475830e-01 -3.013126254081726074e-01
-4.893407821655273438e-01 1.103787869215011597e-01 -3.194191157817840576e-01
1.644833981990814209e-01 1.508015543222427368e-01 5.152188241481781006e-03
-9.891453981399536133e-01 2.411630153656005859e-01 -2.073202729225158691e-01
-1.104862928390502930e+00 2.099624872207641602e-01 -7.763145864009857178e-02
-1.078346848487854004e+00 3.009905219078063965e-01 -1.689890623092651367e-01
1.006843745708465576e-01 -9.438884258270263672e-02 3.441412001848220825e-03
6.139069795608520508e-02 1.987168490886688232e-01 -2.764565870165824890e-02
-1.164594888687133789e+00 2.364951819181442261e-01 -1.008868589997291565e-02
-5.822793841361999512e-01 1.927986443042755127e-01 -3.091582059860229492e-01
1.412823498249053955e-01 -3.158946335315704346e-02 9.977678209543228149e-02
-6.555507779121398926e-01 2.301940321922302246e-01 2.503217458724975586e-01
-1.453833878040313721e-01 -7.638579607009887695e-02 -5.699492990970611572e-03
-6.696053743362426758e-01 3.220236301422119141e-01 2.104053497314453125e-01
-1.152408838272094727e+00 2.544888556003570557e-01 -9.757978469133377075e-02
-1.003345727920532227e+00 1.514962166547775269e-01 -3.866587206721305847e-02
-6.965723037719726562e-01 4.245175421237945557e-02 -1.099584624171257019e-01
3.274221122264862061e-01 5.365237593650817871e-03 3.921555727720260620e-02
-6.516420245170593262e-01 3.508165478706359863e-01 -1.563681960105895996e-01
-5.816715955734252930e-02 2.387695312500000000e-01 9.369235485792160034e-03
-3.706755638122558594e-01 -1.201094686985015869e-02 -2.410853505134582520e-01
-1.836929768323898315e-01 2.282673567533493042e-01 -2.260875105857849121e-01
1.896919906139373779e-01 -1.155434697866439819e-01 -1.446764469146728516e-01
8.861079812049865723e-02 -1.098122149705886841e-01 -6.242332607507705688e-02
-2.815556228160858154e-01 1.863567829132080078e-01 -3.036402165889739990e-01
-4.828554391860961914e-01 5.124949663877487183e-02 1.601944267749786377e-01
-6.712944507598876953e-01 6.432464718818664551e-02 1.023408249020576477e-01
-4.699031412601470947e-01 -2.248932421207427979e-02 -6.298889219760894775e-02
-7.836217880249023438e-01 2.062380313873291016e-01 -2.737021148204803467e-01
-3.883469104766845703e-02 2.094494402408599854e-01 9.333742409944534302e-02
-9.137097597122192383e-01 4.157595038414001465e-01 1.267539709806442261e-02
-1.960944235324859619e-01 2.299845516681671143e-01 1.624641418457031250e-01
-4.645291566848754883e-01 2.784151434898376465e-01 2.086405158042907715e-01
-6.929669380187988281e-01 6.863317638635635376e-02 -2.039678394794464111e-01
-4.672364592552185059e-01 3.637486696243286133e-02 1.423899233341217041e-01
-1.638293266296386719e-03 2.172655761241912842e-01 1.895883679389953613e-02
2.386150658130645752e-01 4.171586781740188599e-02 8.780574053525924683e-02
-1.623956412076950073e-01 -4.439358413219451904e-02 -2.630894780158996582e-01
9.619340300559997559e-02 1.328728646039962769e-01 1.120894923806190491e-01
-5.560054779052734375e-01 3.236616253852844238e-01 1.802897155284881592e-01
9.545505046844482422e-03 1.083250343799591064e-01 -2.978871464729309082e-01
-6.523087024688720703e-01 3.842470943927764893e-01 4.501583427190780640e-02
-5.863853693008422852e-01 3.731675148010253906e-01 3.897460550069808960e-02
-4.349243044853210449e-01 3.206267952919006348e-01 1.300570666790008545e-01
2.636727690696716309e-02 2.053380459547042847e-01 -1.147681996226310730e-01
4.659119248390197754e-02 1.819228827953338623e-01 7.417576014995574951e-02
-1.533768177032470703e-01 -5.599328875541687012e-02 -2.444583475589752197e-01
-1.685495674610137939e-01 -6.681109964847564697e-02 1.924598962068557739e-02
2.192892730236053467e-01 -7.545202970504760742e-03 9.357910603284835815e-02
-2.209964394569396973e-01 2.560121417045593262e-01 1.355863213539123535e-01
-6.929706931114196777e-01 1.329241991043090820e-01 -2.776062488555908203e-01
1.099184453487396240e-01 4.855155199766159058e-02 -3.023842871189117432e-01
-1.186213195323944092e-01 1.672172546386718750e-02 -3.262613713741302490e-01
-5.752866268157958984e-01 1.790772378444671631e-02 -1.725566983222961426e-01
1.596772968769073486e-01 8.385898917913436890e-02 1.137134507298469543e-01
-7.360570430755615234e-01 3.515854477882385254e-01 -1.718659400939941406e-01
-7.260243892669677734e-01 7.114816457033157349e-02 7.960128784179687500e-02
-4.638579189777374268e-01 3.468570709228515625e-01 5.239052325487136841e-02
-1.234513521194458008e+00 3.687344193458557129e-01 7.128039002418518066e-02
-3.200232982635498047e-01 2.658161222934722900e-01 1.725207865238189697e-01
-7.434773445129394531e-01 2.016416639089584351e-01 -2.831523120403289795e-01
-5.744608640670776367e-01 4.694461822509765625e-03 -4.538297653198242188e-02
-9.099529981613159180e-01 1.984263807535171509e-01 1.878436207771301270e-01
-2.463358938694000244e-01 -6.210693717002868652e-02 -1.048809662461280823e-02
-1.906007528305053711e-03 8.002579212188720703e-03 1.522607207298278809e-01
-8.754346370697021484e-01 1.077252924442291260e-01 -1.160333827137947083e-01
4.318709671497344971e-01 -4.107590019702911377e-02 -9.242272377014160156e-02
-3.244550824165344238e-01 -2.663490176200866699e-02 -2.337346673011779785e-01
-4.914131760597229004e-01 -5.055800080299377441e-03 2.788072079420089722e-02
-1.035538554191589355e+00 2.895007133483886719e-01 -1.895914673805236816e-01
-1.194975614547729492e+00 2.909762859344482422e-01 -8.332565426826477051e-02
2.265387773513793945e-02 -1.028702706098556519e-01 -4.654204100370407104e-02
2.601957619190216064e-01 -1.052125841379165649e-01 -1.854791343212127686e-01
-8.071525096893310547e-01 9.696796536445617676e-02 -1.690371930599212646e-01
-2.171864658594131470e-01 1.441099345684051514e-01 -3.219452798366546631e-01
-4.559076428413391113e-01 -2.362184226512908936e-02 -3.249800205230712891e-02
-1.113693952560424805e+00 3.923794031143188477e-01 1.252916753292083740e-01
3.795695006847381592e-01 -8.793714642524719238e-02 -1.572328805923461914e-01
-3.654418885707855225e-01 -4.624818265438079834e-02 -1.033645421266555786e-01
-5.154540538787841797e-01 -1.143224537372589111e-02 -7.938078045845031738e-02
-4.592966735363006592e-01 -1.716585457324981689e-02 5.635820329189300537e-03
-1.059818506240844727e+00 4.120532870292663574e-01 8.907843381166458130e-02
-3.062538802623748779e-01 2.305848598480224609e-01 2.052307724952697754e-01
3.374692499637603760e-01 -6.601844727993011475e-02 -2.201413512229919434e-01
-8.078511953353881836e-01 4.021034836769104004e-01 7.925359904766082764e-02
2.609616518020629883e-02 -9.147815406322479248e-02 -2.156611382961273193e-01
1.612504422664642334e-01 1.350171715021133423e-01 5.512396246194839478e-02
-1.409974396228790283e-01 -8.738586306571960449e-02 -1.207202598452568054e-01
-1.416992247104644775e-01 2.668774127960205078e-01 -5.178674682974815369e-02
9.724751114845275879e-02 1.638639271259307861e-01 -1.726623475551605225e-01
-7.639714479446411133e-01 1.897058188915252686e-01 -2.770020961761474609e-01
-7.203713655471801758e-01 2.911925315856933594e-01 2.374595999717712402e-01
-8.435572385787963867e-01 3.073310554027557373e-01 2.297344803810119629e-01
-7.646149396896362305e-02 2.462102472782135010e-01 -4.083666950464248657e-03
-8.446775674819946289e-01 2.005970031023025513e-01 2.122949063777923584e-01
-2.162119448184967041e-01 1.154863536357879639e-01 -3.333353102207183838e-01
-9.367097616195678711e-01 1.944174170494079590e-01 -2.112952470779418945e-01
-2.569416761398315430e-01 2.723987102508544922e-01 1.259639561176300049e-01
3.180559575557708740e-01 6.563903391361236572e-02 -5.479395389556884766e-03
2.378676235675811768e-01 -1.156488209962844849e-01 -1.031831055879592896e-01
-4.303229749202728271e-01 1.885693967342376709e-01 2.452135980129241943e-01
-8.312453031539916992e-01 2.360449433326721191e-01 2.329475879669189453e-01
-1.070575714111328125e-01 -6.291717290878295898e-03 -3.142689764499664307e-01
-6.508973836898803711e-01 4.692985117435455322e-02 -1.880245804786682129e-01
-2.121348381042480469e-01 2.806611657142639160e-01 -1.005806773900985718e-01
-3.041776418685913086e-01 2.623314261436462402e-01 1.702448725700378418e-01
-4.506308436393737793e-01 3.456043004989624023e-01 -4.078042507171630859e-02
-1.365215182304382324e-01 -6.096415221691131592e-02 4.874893277883529663e-02
-1.225571632385253906e-01 2.219693362712860107e-02 1.712240278720855713e-01
-3.232266306877136230e-01 1.613006144762039185e-01 2.357568442821502686e-01
2.863107025623321533e-01 -1.094258874654769897e-01 -7.763492316007614136e-02
-1.209079384803771973e+00 3.637017011642456055e-01 -5.878832191228866577e-02
-3.510889708995819092e-01 7.716757804155349731e-02 -3.297468423843383789e-01
-1.042244672775268555e+00 3.918101191520690918e-01 1.430766284465789795e-01
-8.148427009582519531e-01 7.768002152442932129e-02 -4.576675593852996826e-02
-2.867617607116699219e-01 1.687110215425491333e-01 2.296930849552154541e-01
-5.130075812339782715e-01 1.880468130111694336e-01 -3.151299357414245605e-01
-7.404050230979919434e-01 1.108560413122177124e-01 -2.389858067035675049e-01
-7.624504566192626953e-01 2.313116490840911865e-01 2.423897385597229004e-01
-3.916853070259094238e-01 3.260079026222229004e-01 7.539773732423782349e-02
-3.290318846702575684e-01 2.100104838609695435e-01 2.243678271770477295e-01
