1.877140849828720093e-01 -3.062624484300613403e-02 -1.884306967258453369e-02
1.467485278844833374e-01 -1.651402935385704041e-02 2.499254792928695679e-01
1.996292918920516968e-02 -3.788689151406288147e-02 5.204723477363586426e-01
1.995764970779418945e-01 -3.670728579163551331e-02 3.966726064682006836e-01
1.846345514059066772e-01 -2.012559399008750916e-02 1.804893314838409424e-01
1.936159729957580566e-01 -5.412185192108154297e-02 2.324811667203903198e-01
4.728109017014503479e-02 -5.049472302198410034e-02 -4.649625718593597412e-02
1.128728315234184265e-01 -6.591936945915222168e-02 2.664703130722045898e-01
2.217784225940704346e-01 -3.314670175313949585e-02 1.338835209608078003e-01
1.705493032932281494e-01 -5.989971384406089783e-02 1.314537227153778076e-01
2.471795678138732910e-02 -6.066941469907760620e-02 4.030979871749877930e-01
1.354810595512390137e-01 -6.357719004154205322e-02 2.839401364326477051e-01
1.268340647220611572e-01 -6.554193794727325439e-02 2.052980214357376099e-01
7.108151167631149292e-02 -2.246341295540332794e-02 1.050219833850860596e-01
1.090362966060638428e-01 -2.895726449787616730e-02 -4.809452593326568604e-02
6.908174604177474976e-02 -6.104512512683868408e-02 4.457219243049621582e-01
3.233490884304046631e-02 -4.099868237972259521e-02 -4.906550049781799316e-03
1.932387650012969971e-01 -2.171142585575580597e-02 2.672581970691680908e-01
1.129804402589797974e-01 -6.229181215167045593e-02 3.089904785156250000e-04
1.457217931747436523e-01 -2.394906058907508850e-02 2.955660223960876465e-03
1.644844859838485718e-01 -5.517295375466346741e-02 3.807655870914459229e-01
2.654573321342468262e-02 -2.634869143366813660e-02 2.090246826410293579e-01
1.014352887868881226e-01 -6.502253562211990356e-02 5.589433014392852783e-02
8.717874437570571899e-02 -6.427489966154098511e-02 3.734717667102813721e-01
1.516712158918380737e-01 -6.111793220043182373e-02 4.939517378807067871e-02
1.536124050617218018e-01 -6.178782135248184204e-02 2.594030797481536865e-01
2.146890014410018921e-02 -2.645235136151313782e-02 3.423137664794921875e-01
2.065524458885192871e-01 -2.447345852851867676e-02 2.035659998655319214e-01
-4.751488566398620605e-03 -3.524217382073402405e-02 2.361009418964385986e-01
1.778869926929473877e-01 -5.515860393643379211e-02 1.504433155059814453e-02
6.986708939075469971e-02 -5.097108334302902222e-02 -7.994957268238067627e-02
3.510855883359909058e-02 -6.552758812904357910e-02 2.026115059852600098e-01
1.373346298933029175e-01 -2.158257737755775452e-02 3.975245356559753418e-02
2.238933145999908447e-01 -3.520961478352546692e-02 1.972007155418395996e-01
5.134767293930053711e-02 -5.653718113899230957e-02 -2.540569007396697998e-02
9.294374287128448486e-02 -6.683189421892166138e-02 1.227011084556579590e-01
1.018833592534065247e-01 -1.674885861575603485e-02 3.124948441982269287e-01
9.404350817203521729e-02 -4.213549196720123291e-02 -1.079743951559066772e-01
1.004551500082015991e-01 -3.178687021136283875e-02 -6.580309569835662842e-02
1.348616778850555420e-01 -6.334210932254791260e-02 6.213040649890899658e-02
1.953969001770019531e-01 -2.269764244556427002e-02 1.376871764659881592e-01
1.952530145645141602e-01 -2.534941397607326508e-02 3.507856428623199463e-01
1.472929269075393677e-01 -6.341303884983062744e-02 1.410928368568420410e-01
1.521644294261932373e-01 -2.363325282931327820e-02 4.614743888378143311e-01
8.069784194231033325e-02 -2.972133085131645203e-02 -2.455623447895050049e-02
1.736814826726913452e-01 -3.151108324527740479e-02 -5.087651312351226807e-02
1.948032081127166748e-01 -2.989476732909679413e-02 5.822509527206420898e-03
4.468662664294242859e-02 -6.203867867588996887e-02 4.135502874851226807e-01
8.432997763156890869e-02 -3.234664723277091980e-02 5.718709826469421387e-01
6.990013271570205688e-02 -6.164803355932235718e-02 9.918808937072753906e-04
-1.930696517229080200e-02 -4.789809882640838623e-02 2.959252893924713135e-01
7.782106846570968628e-02 -2.502943202853202820e-02 3.996786475181579590e-02
1.262737661600112915e-01 -2.406561188399791718e-02 4.994625449180603027e-01
1.480077356100082397e-01 -2.010077424347400665e-02 4.142190515995025635e-01
7.805203646421432495e-02 -6.629725545644760132e-02 9.782247245311737061e-02
1.308053880929946899e-01 -6.487019360065460205e-02 1.185012608766555786e-01
1.114829778671264648e-01 -1.630082167685031891e-02 2.827176749706268311e-01
1.545250713825225830e-01 -6.245478987693786621e-02 2.024874687194824219e-01
1.927150040864944458e-01 -2.491353079676628113e-02 6.626307964324951172e-02
1.387623846530914307e-01 -1.635329797863960266e-02 2.265689820051193237e-01
1.077864170074462891e-01 -6.040301173925399780e-02 -3.207679092884063721e-02
5.944772064685821533e-02 -2.166414633393287659e-02 1.701384335756301880e-01
1.460166275501251221e-01 -6.366664171218872070e-02 1.628572940826416016e-01
7.041250169277191162e-02 -1.976355910301208496e-02 3.827053904533386230e-01
6.285703927278518677e-02 -6.709413230419158936e-02 1.659396588802337646e-01
1.066813617944717407e-02 -5.623107403516769409e-02 8.552123606204986572e-02
2.026473283767700195e-01 -4.938290268182754517e-02 4.788565635681152344e-02
9.503149986267089844e-02 -6.710599362850189209e-02 2.441835105419158936e-01
9.347891807556152344e-02 -6.331058591604232788e-02 3.910084664821624756e-01
1.426046490669250488e-01 -1.680386811494827271e-02 1.906252801418304443e-01
1.132714003324508667e-02 -3.008368238806724548e-02 3.933927416801452637e-01
1.569212079048156738e-01 -5.795734375715255737e-02 3.574908375740051270e-01
1.785128414630889893e-01 -5.755607038736343384e-02 2.477392256259918213e-01
1.149963587522506714e-01 -2.264043129980564117e-02 2.847085893154144287e-02
1.263747364282608032e-02 -3.231699019670486450e-02 1.503202021121978760e-01
1.458712667226791382e-02 -2.835679054260253906e-02 3.595388531684875488e-01
1.718582212924957275e-02 -2.727948687970638275e-02 2.911564409732818604e-01
1.430902183055877686e-01 -6.306180357933044434e-02 8.343952894210815430e-02
7.023900747299194336e-02 -6.661333143711090088e-02 1.196616515517234802e-01
9.297247231006622314e-02 -6.577401608228683472e-02 3.210596442222595215e-01
2.115735709667205811e-01 -3.398451954126358032e-02 3.859953582286834717e-02
4.278118908405303955e-02 -6.522881984710693359e-02 1.346544623374938965e-01
1.040081977844238281e-01 -5.033672600984573364e-02 5.441023111343383789e-01
2.088651955127716064e-01 -2.837144397199153900e-02 8.351649343967437744e-02
1.975252330303192139e-01 -2.230057679116725922e-02 2.405307441949844360e-01
5.270750820636749268e-02 -6.381309777498245239e-02 6.556667387485504150e-02
1.735242307186126709e-01 -1.857593655586242676e-02 2.002952098846435547e-01
3.962352871894836426e-03 -3.364911675453186035e-02 4.191012084484100342e-01
1.012383475899696350e-01 -6.596350669860839844e-02 8.833149075508117676e-02
1.098754256963729858e-02 -4.161267727613449097e-02 6.223496794700622559e-02
1.577455550432205200e-02 -6.166408956050872803e-02 1.518290638923645020e-01
1.163044646382331848e-01 -6.613016128540039062e-02 2.336579412221908569e-01
1.620874106884002686e-01 -5.602636188268661499e-02 -2.244178950786590576e-02
3.366125375032424927e-02 -3.000633046030998230e-02 4.953634142875671387e-01
6.573467701673507690e-02 -6.385698914527893066e-02 4.391874372959136963e-02
4.554356262087821960e-02 -6.646633148193359375e-02 2.380071878433227539e-01
1.576317995786666870e-01 -1.713650487363338470e-02 2.657178938388824463e-01
5.036033689975738525e-02 -4.432799667119979858e-02 5.712913870811462402e-01
1.203208267688751221e-01 -2.670491300523281097e-02 -3.100626170635223389e-02
4.140756651759147644e-02 -6.509724259376525879e-02 3.216354846954345703e-01
1.026238277554512024e-01 -3.622261807322502136e-02 5.804138183593750000e-01
3.336799144744873047e-02 -2.967824973165988922e-02 9.402859210968017578e-02
8.180335164070129395e-03 -6.111301854252815247e-02 3.113290667533874512e-01
1.168689429759979248e-01 -1.664257422089576721e-02 2.016934156417846680e-01
5.140025913715362549e-02 -6.098487228155136108e-02 4.397206902503967285e-01
5.144847556948661804e-02 -6.465344876050949097e-02 8.895297348499298096e-02
1.778290569782257080e-01 -5.787070840597152710e-02 8.890123665332794189e-02
7.570867240428924561e-02 -5.088350176811218262e-02 5.529044866561889648e-01
2.149436026811599731e-01 -4.696018248796463013e-02 1.454529613256454468e-01
2.128543853759765625e-01 -2.885401621460914612e-02 1.043732017278671265e-01
1.801925152540206909e-02 -5.125325173139572144e-02 5.005075931549072266e-01
1.846004277467727661e-02 -6.312636286020278931e-02 1.903583556413650513e-01
1.158758774399757385e-01 -1.900653727352619171e-02 4.226142168045043945e-01
1.554140001535415649e-01 -2.143252827227115631e-02 5.212284624576568604e-02
9.037696570158004761e-02 -5.933996289968490601e-02 -4.314555227756500244e-02
1.292098462581634521e-01 -1.687842234969139099e-02 1.769458949565887451e-01
-1.041510701179504395e-02 -5.458833277225494385e-02 3.423297107219696045e-01
1.760512292385101318e-01 -5.390961840748786926e-02 3.557089269161224365e-01
1.318636238574981689e-01 -4.414932057261466980e-02 5.458246469497680664e-01
1.690695136785507202e-01 -5.003593116998672485e-02 -6.626613438129425049e-02
1.408197432756423950e-01 -1.854425668716430664e-02 3.896955251693725586e-01
5.163897946476936340e-02 -2.383695542812347412e-02 1.389541625976562500e-01
7.022602856159210205e-02 -1.880371943116188049e-02 3.014991581439971924e-01
1.964729130268096924e-01 -5.250783264636993408e-02 2.593977749347686768e-01
1.224856823682785034e-01 -6.518831849098205566e-02 9.892602264881134033e-02
6.288012862205505371e-02 -4.014990478754043579e-02 -6.619389355182647705e-02
1.161054968833923340e-01 -6.382207572460174561e-02 3.406602144241333008e-01
1.869057714939117432e-01 -5.285771936178207397e-02 3.203355669975280762e-01
5.358713865280151367e-02 -6.115205213427543640e-02 1.778395473957061768e-02
1.351781636476516724e-01 -3.455172106623649597e-02 -9.608523547649383545e-02
1.504319906234741211e-01 -5.206200852990150452e-02 -8.183877170085906982e-02
6.743137538433074951e-02 -6.439230591058731079e-02 3.766826987266540527e-01
1.199754625558853149e-01 -6.601483374834060669e-02 1.491714417934417725e-01
1.647833436727523804e-01 -1.814003475010395050e-02 3.040383458137512207e-01
1.579971313476562500e-01 -5.448658019304275513e-02 -4.990555346012115479e-02
-3.790795803070068359e-03 -4.998116195201873779e-02 4.403100609779357910e-01
3.829278051853179932e-02 -2.582915499806404114e-02 4.428809285163879395e-01
2.003881037235260010e-01 -5.201254040002822876e-02 9.084196388721466064e-02
1.678019613027572632e-01 -3.013309650123119354e-02 4.813571572303771973e-01
1.476937979459762573e-01 -5.183687806129455566e-02 4.691856503486633301e-01
-9.364135563373565674e-03 -3.647830337285995483e-02 2.803820967674255371e-01
6.036209315061569214e-02 -6.333142518997192383e-02 3.998817205429077148e-01
6.651292741298675537e-02 -2.332859300076961517e-02 4.703373312950134277e-01
-1.461041718721389771e-02 -4.631181433796882629e-02 3.875010609626770020e-01
1.754594296216964722e-01 -1.976407505571842194e-02 3.204740583896636963e-01
5.036980286240577698e-02 -3.346963971853256226e-02 -1.723185181617736816e-03
1.701531708240509033e-01 -2.084522135555744171e-02 8.835946023464202881e-02
1.199248731136322021e-01 -6.301429867744445801e-02 2.207788825035095215e-02
4.691997542977333069e-02 -6.411492824554443359e-02 3.673077821731567383e-01
1.369688659906387329e-02 -2.813087031245231628e-02 3.097475469112396240e-01
1.715331077575683594e-01 -1.857283525168895721e-02 2.856735885143280029e-01
1.294087469577789307e-01 -1.866105757653713226e-02 1.077866256237030029e-01
-6.310775876045227051e-03 -3.492571040987968445e-02 3.236325383186340332e-01
1.274376213550567627e-01 -2.920480258762836456e-02 -5.850119888782501221e-02
-2.025216817855834961e-04 -3.335230797529220581e-02 3.739201426506042480e-01
8.384244143962860107e-02 -6.742661446332931519e-02 1.646445393562316895e-01
2.228114008903503418e-01 -3.592490404844284058e-02 2.298716455698013306e-01
1.266330778598785400e-01 -1.610675454139709473e-02 2.591724991798400879e-01
1.168399304151535034e-01 -1.625741459429264069e-02 2.408138811588287354e-01
1.361374408006668091e-01 -6.113585084676742554e-02 3.571772575378417969e-01
2.343919128179550171e-02 -6.253036111593246460e-02 1.326461732387542725e-01
8.888925611972808838e-02 -1.885781250894069672e-02 1.598469316959381104e-01
1.202233135700225830e-01 -5.954506248235702515e-02 4.253416061401367188e-01
4.586283490061759949e-02 -2.176605537533760071e-02 2.965544462203979492e-01
2.104870975017547607e-01 -2.970707416534423828e-02 3.138774931430816650e-01
-1.594379544258117676e-02 -4.928804188966751099e-02 3.607314229011535645e-01
1.114248633384704590e-01 -1.737027056515216827e-02 1.693653166294097900e-01
1.827178895473480225e-01 -5.634798109531402588e-02 7.080164551734924316e-02
5.770521983504295349e-02 -5.436691641807556152e-02 5.240154266357421875e-01
1.522808074951171875e-01 -5.981625616550445557e-02 3.329862356185913086e-01
5.449076369404792786e-02 -2.899034135043621063e-02 5.270689725875854492e-01
5.770589783787727356e-02 -2.140464074909687042e-02 1.892545968294143677e-01
4.969649761915206909e-02 -2.889645099639892578e-02 5.064441263675689697e-02
3.281071037054061890e-02 -3.182602301239967346e-02 6.584753096103668213e-02
1.377568393945693970e-01 -1.777124218642711639e-02 3.704679608345031738e-01
2.061765044927597046e-01 -2.566044963896274567e-02 2.813294231891632080e-01
1.671655178070068359e-01 -1.904028095304965973e-02 1.376366913318634033e-01
1.846665143966674805e-01 -5.438832193613052368e-02 3.009185194969177246e-01
2.166028469800949097e-01 -2.978225424885749817e-02 2.565863728523254395e-01
-2.020484507083892822e-01 1.256519854068756104e-01 -2.010127902030944824e-02
4.690391421318054199e-01 4.459852352738380432e-02 1.006273180246353149e-01
-3.912001848220825195e-04 -1.359987817704677582e-02 -1.569922268390655518e-01
-1.233308389782905579e-01 -1.008874699473381042e-01 -5.090143531560897827e-04
3.442648351192474365e-01 7.421117275953292847e-02 8.873067796230316162e-02
6.499297022819519043e-01 -6.633594632148742676e-02 -5.839874967932701111e-03
-4.146261811256408691e-01 8.978985249996185303e-02 -1.994783617556095123e-02
2.149774134159088135e-01 -1.296757608652114868e-01 1.615680567920207977e-02
-4.764851927757263184e-01 7.571540772914886475e-02 -3.938484191894531250e-02
-1.148841753602027893e-01 -3.336711600422859192e-02 7.431174069643020630e-02
5.091026425361633301e-01 -1.125126704573631287e-01 4.927930980920791626e-02
-2.278259098529815674e-01 1.084610670804977417e-01 1.939350552856922150e-02
-7.667440921068191528e-02 9.486504644155502319e-02 -1.147736087441444397e-01
2.339603751897811890e-02 -1.252421736717224121e-01 -4.030057787895202637e-02
-9.306588023900985718e-02 1.096846759319305420e-01 4.212984442710876465e-02
5.049779415130615234e-01 6.619189679622650146e-02 1.703564636409282684e-02
3.269329071044921875e-01 8.891244232654571533e-02 6.875246763229370117e-02
-3.010040223598480225e-01 1.170085221529006958e-01 -7.002210617065429688e-02
5.279763936996459961e-01 6.141339987516403198e-02 3.399397432804107666e-02
6.341829299926757812e-01 2.127066440880298615e-02 6.285750120878219604e-02
3.517928421497344971e-01 -1.088871061801910400e-01 7.075491547584533691e-02
4.266116917133331299e-01 7.706012576818466187e-02 6.457907706499099731e-02
-3.915202617645263672e-01 1.033075004816055298e-01 -3.529827296733856201e-02
-3.154360353946685791e-01 -5.113007500767707825e-02 -1.331831067800521851e-01
4.221342802047729492e-01 6.722833961248397827e-02 8.439324796199798584e-02
5.953857898712158203e-01 3.951037302613258362e-02 2.572357095777988434e-02
-2.038819789886474609e-01 7.559408992528915405e-02 -1.388362795114517212e-01
-2.334528565406799316e-01 -5.138210952281951904e-03 -1.625967472791671753e-01
-1.466752886772155762e-01 -3.201241418719291687e-02 -1.587077230215072632e-01
5.331962704658508301e-01 1.628846116364002228e-02 -4.760422557592391968e-02
-5.548758059740066528e-02 5.426352843642234802e-02 8.962866663932800293e-02
1.126710027456283569e-01 -3.789038956165313721e-02 -1.446110308170318604e-01
4.041104018688201904e-01 8.648462593555450439e-02 1.241357997059822083e-03
3.661911189556121826e-01 -9.129213541746139526e-02 -8.548834919929504395e-02
4.468914270401000977e-01 8.014407753944396973e-02 2.010174654424190521e-02
2.306004464626312256e-01 7.760037481784820557e-02 9.343668818473815918e-02
-3.450550734996795654e-01 -1.158390287309885025e-02 2.434263564646244049e-02
-1.150607690215110779e-01 -7.690833508968353271e-02 -1.330624818801879883e-01
-5.807823687791824341e-02 1.255642622709274292e-01 1.060081832110881805e-02
6.685588359832763672e-01 5.192125216126441956e-03 3.197574615478515625e-02
3.308331668376922607e-01 -7.526656240224838257e-02 -1.024215519428253174e-01
5.800741910934448242e-01 1.415244862437248230e-02 9.876227378845214844e-02
1.018267199397087097e-01 5.630114302039146423e-02 -1.269314140081405640e-01
-6.458716839551925659e-02 -1.165671423077583313e-01 -2.992841228842735291e-02
-2.167261242866516113e-01 4.234139621257781982e-02 6.534744054079055786e-02
3.689166307449340820e-01 -5.393319297581911087e-03 1.266812682151794434e-01
4.740688800811767578e-01 -1.139152199029922485e-01 -2.924795821309089661e-02
1.986656486988067627e-01 8.328306674957275391e-02 -8.578269183635711670e-02
-4.532133936882019043e-01 3.416335210204124451e-02 -1.371664702892303467e-01
-2.313515841960906982e-01 9.510777145624160767e-02 3.511320799589157104e-02
1.122621595859527588e-01 -1.030833721160888672e-01 5.703964084386825562e-02
5.429356694221496582e-01 4.533410817384719849e-02 7.888511568307876587e-02
-4.662053585052490234e-01 5.582509934902191162e-02 -1.635964401066303253e-02
1.215842142701148987e-01 8.216619491577148438e-02 8.889632672071456909e-02
-5.104994028806686401e-02 -6.789535284042358398e-02 -1.416930556297302246e-01
5.035489797592163086e-01 8.226506412029266357e-03 -6.309102475643157959e-02
6.323323845863342285e-01 -7.905385643243789673e-02 6.977235525846481323e-02
-1.230498924851417542e-01 -6.292130053043365479e-02 -1.441200077533721924e-01
2.057148516178131104e-01 1.138626411557197571e-01 2.617563493549823761e-02
2.174445390701293945e-01 -1.276431977748870850e-01 -5.518019199371337891e-02
1.968705356121063232e-01 -1.300853937864303589e-01 1.153649576008319855e-02
-3.630790412425994873e-01 2.714008837938308716e-02 -1.536310315132141113e-01
-9.098906069993972778e-02 -1.129610389471054077e-01 -6.607639789581298828e-02
3.843169212341308594e-01 4.882073402404785156e-02 1.083521619439125061e-01
7.180828601121902466e-02 9.429854154586791992e-02 -9.703226387500762939e-02
-3.024174571037292480e-01 -7.857637107372283936e-02 -4.700602963566780090e-02
-2.822636365890502930e-01 1.070620417594909668e-01 -1.004836782813072205e-01
1.308402121067047119e-01 -1.206004433333873749e-02 -1.447329819202423096e-01
-9.972053021192550659e-02 4.163885116577148438e-02 8.674346655607223511e-02
5.288645029067993164e-01 -1.125888302922248840e-01 -4.264497198164463043e-03
6.461502313613891602e-01 -8.177562803030014038e-02 1.030990853905677795e-02
-4.367266893386840820e-01 -1.994900405406951904e-02 -1.274872273206710815e-01
-4.191296696662902832e-01 -4.419802129268646240e-02 -4.813782125711441040e-02
3.900788128376007080e-01 6.552565097808837891e-02 9.260510653257369995e-02
-4.628109335899353027e-01 -2.861274778842926025e-02 -9.924358874559402466e-02
5.198696255683898926e-01 -1.161143556237220764e-01 2.778254635632038116e-02
2.094728350639343262e-01 9.301348775625228882e-02 -6.974497437477111816e-02
-2.741685211658477783e-01 2.023915387690067291e-02 -1.610443145036697388e-01
7.815211266279220581e-02 -2.766653336584568024e-02 -1.495394408702850342e-01
-1.930759549140930176e-01 -9.423425048589706421e-02 -9.422978013753890991e-02
-3.349343240261077881e-01 7.267806679010391235e-02 -1.366949528455734253e-01
-2.021376043558120728e-02 1.640576310455799103e-02 -1.561355739831924438e-01
-8.483729511499404907e-02 -9.084059856832027435e-03 8.838114142417907715e-02
-1.489587128162384033e-01 1.223803460597991943e-01 8.102869614958763123e-03
1.841471940279006958e-01 1.796359568834304810e-02 1.204536929726600647e-01
-2.543556392192840576e-01 1.063687950372695923e-01 -1.038640588521957397e-01
-8.927389234304428101e-02 -7.990037091076374054e-03 -1.619065999984741211e-01
-1.222757473587989807e-01 -1.097811236977577209e-01 -3.505428880453109741e-02
-6.324797868728637695e-05 9.529448300600051880e-02 -1.062462106347084045e-01
4.099298417568206787e-01 -9.282659739255905151e-02 -7.490687072277069092e-02
-2.965148687362670898e-01 -8.087537437677383423e-02 -7.700036466121673584e-02
9.155154228210449219e-03 1.151497662067413330e-01 -7.332527637481689453e-02
2.400458604097366333e-02 4.544239491224288940e-02 -1.425428986549377441e-01
3.946814239025115967e-01 9.026581794023513794e-02 2.239952422678470612e-02
3.458732366561889648e-01 -1.430842373520135880e-02 1.265858411788940430e-01
5.527576804161071777e-01 -1.110769584774971008e-01 1.447725109755992889e-02
1.135302558541297913e-01 6.439558416604995728e-02 1.011034920811653137e-01
6.010071635246276855e-01 -7.573643326759338379e-02 8.448302000761032104e-02
-1.630440056324005127e-01 -1.036040633916854858e-01 -7.245940715074539185e-02
3.493025600910186768e-01 -7.928169518709182739e-02 -9.685591608285903931e-02
1.053880155086517334e-01 -1.156491879373788834e-02 -1.476071029901504517e-01
4.400200247764587402e-01 -7.350132614374160767e-02 1.055678501725196838e-01
-4.111448228359222412e-01 -5.092268437147140503e-02 -6.516349315643310547e-02
1.918943822383880615e-01 -1.148162186145782471e-01 -8.471037447452545166e-02
-4.606601595878601074e-01 -2.539682574570178986e-02 -4.671579971909523010e-02
4.191258549690246582e-02 1.226950362324714661e-01 -4.539279639720916748e-02
-2.546766102313995361e-01 -6.929488480091094971e-02 -1.248802244663238525e-01
3.733623623847961426e-01 9.388343244791030884e-02 2.194523252546787262e-02
-5.456230789422988892e-02 -1.022527962923049927e-01 2.116600610315799713e-02
-4.099842309951782227e-01 -2.515611797571182251e-02 -1.192736625671386719e-02
1.123706549406051636e-01 9.481081366539001465e-02 -8.911846578121185303e-02
5.949146151542663574e-01 3.451801091432571411e-02 6.883059442043304443e-02
2.289022132754325867e-02 6.551696360111236572e-02 -1.309890449047088623e-01
1.393199712038040161e-02 -4.060247913002967834e-02 -1.518325656652450562e-01
2.891566455364227295e-01 2.729403786361217499e-05 -1.193733513355255127e-01
-2.316375672817230225e-01 1.777297817170619965e-02 -1.625895351171493530e-01
-3.478716313838958740e-01 1.047563403844833374e-01 -9.442106634378433228e-02
6.515480577945709229e-02 1.148514375090599060e-01 -6.330686062574386597e-02
5.780469179153442383e-01 -4.554393701255321503e-03 -4.116516560316085815e-02
2.362208664417266846e-01 -1.090969592332839966e-01 6.428658217191696167e-02
3.857291340827941895e-01 8.497529476881027222e-02 -1.840070821344852448e-02
-3.763208985328674316e-01 -3.357278928160667419e-02 -1.350425183773040771e-01
-2.967624366283416748e-02 -1.014506965875625610e-01 2.971387468278408051e-02
3.100792169570922852e-01 -5.633642524480819702e-02 1.145839467644691467e-01
-4.782966971397399902e-01 6.247149407863616943e-02 -1.159160956740379333e-01
5.776683092117309570e-01 -7.745766639709472656e-02 8.836253732442855835e-02
1.555983424186706543e-01 6.269572675228118896e-02 1.040296405553817749e-01
2.814663350582122803e-01 -1.633865060284733772e-03 1.259059607982635498e-01
-4.142459332942962646e-01 9.958032518625259399e-02 -4.205803573131561279e-02
-5.059123039245605469e-01 -7.351323962211608887e-03 -6.721039116382598877e-02
-2.153141796588897705e-01 -1.138507761061191559e-02 6.125563383102416992e-02
-7.890268415212631226e-02 7.986682653427124023e-02 7.375403493642807007e-02
5.757514238357543945e-01 -1.058745384216308594e-01 3.602383285760879517e-02
2.079906165599822998e-01 3.484102711081504822e-02 -1.220602318644523621e-01
4.709837213158607483e-02 -1.040770113468170166e-01 -1.064026504755020142e-01
1.783253550529479980e-01 9.590699523687362671e-02 -7.314884662628173828e-02
-4.015657305717468262e-01 -1.374854706227779388e-02 1.323560252785682678e-03
3.929792642593383789e-01 8.113893866539001465e-02 6.745918095111846924e-02
2.403652667999267578e-01 1.118258610367774963e-01 1.498892717063426971e-02
-1.352190375328063965e-01 1.212413683533668518e-01 -7.415845990180969238e-02
3.490377366542816162e-01 -5.458047613501548767e-02 -1.070855855941772461e-01
-3.902947306632995605e-01 -4.871616885066032410e-02 -1.112677156925201416e-01
-3.347029536962509155e-02 1.220920085906982422e-01 -6.251498311758041382e-02
1.373056918382644653e-01 -9.749507158994674683e-02 6.794608384370803833e-02
-2.666184008121490479e-01 -8.256857283413410187e-03 4.940261691808700562e-02
-2.176508307456970215e-03 1.211533993482589722e-01 2.766697295010089874e-02
-1.355302333831787109e-02 -9.852591156959533691e-02 -1.130261197686195374e-01
-2.183763682842254639e-02 4.488301649689674377e-02 9.680987894535064697e-02
-1.510013639926910400e-01 3.732988378033041954e-03 7.873174548149108887e-02
2.529515027999877930e-01 6.751283258199691772e-02 -9.035339951515197754e-02
-1.922726333141326904e-01 1.237191781401634216e-01 -6.509139388799667358e-02
-3.681448101997375488e-01 -6.420616805553436279e-02 -6.869861483573913574e-02
6.987868547439575195e-01 -2.724570780992507935e-02 5.514642596244812012e-02
7.235573977231979370e-02 -4.901336506009101868e-02 -1.452982723712921143e-01
2.184607982635498047e-01 -2.004418149590492249e-02 1.215161606669425964e-01
4.972663149237632751e-02 -1.259945034980773926e-01 -5.102522671222686768e-02
9.487512707710266113e-02 -1.265486776828765869e-01 -5.817092210054397583e-02
2.613075077533721924e-02 -9.167946130037307739e-02 5.633161962032318115e-02
3.292607069015502930e-01 -4.065821692347526550e-02 -1.135792732238769531e-01
6.131848096847534180e-01 3.264234960079193115e-02 2.652136422693729401e-02
-2.799920737743377686e-01 -7.335147261619567871e-02 -1.119110137224197388e-01
-2.154398262500762939e-01 4.462304525077342987e-03 -1.635793298482894897e-01
-3.164137899875640869e-01 -2.990755252540111542e-02 -1.488198041915893555e-01
-2.403891086578369141e-01 -6.061748415231704712e-02 -1.368700116872787476e-01
4.146237671375274658e-01 -7.749833911657333374e-02 -8.438143134117126465e-02
1.106581687927246094e-01 -1.234621480107307434e-01 -6.988885998725891113e-02
-3.404457867145538330e-01 1.121961325407028198e-01 -3.075114637613296509e-02
-2.958274185657501221e-01 7.596822828054428101e-02 3.464172035455703735e-02
-5.377089381217956543e-01 2.979071810841560364e-02 -7.756334543228149414e-02
3.501082062721252441e-01 -7.673437893390655518e-02 1.037546023726463318e-01
3.377928435802459717e-01 8.530690334737300873e-03 -1.073989197611808777e-01
-1.076317504048347473e-01 1.211874559521675110e-01 1.830249093472957611e-02
-1.963041722774505615e-01 -5.048885941505432129e-03 -1.634516865015029907e-01
-2.285459637641906738e-01 1.095144599676132202e-01 -9.960275888442993164e-02
1.270306706428527832e-01 -1.302756071090698242e-01 -8.257156237959861755e-03
5.172376036643981934e-01 -1.020148620009422302e-01 6.966943293809890747e-02
3.475973308086395264e-01 8.979842811822891235e-02 -2.633749507367610931e-02
1.382414996623992920e-01 -9.703249484300613403e-02 -1.110420674085617065e-01
2.426784634590148926e-01 -2.066232264041900635e-02 1.227970495820045471e-01
2.729615569114685059e-01 9.204432368278503418e-02 -5.233685672283172607e-02
-1.346953511238098145e-01 -4.855685308575630188e-02 6.139144301414489746e-02
4.786072075366973877e-01 -7.491869479417800903e-02 -6.981238722801208496e-02
3.096350133419036865e-01 5.665334314107894897e-02 -8.655284345149993896e-02
-2.875018715858459473e-01 9.811141341924667358e-02 1.775562204420566559e-02
2.223400473594665527e-01 -1.337139010429382324e-01 -1.917653530836105347e-02
3.779582083225250244e-01 2.133637666702270508e-02 1.221471950411796570e-01
8.484388887882232666e-02 1.109127625823020935e-01 5.167404562234878540e-02
3.096962571144104004e-01 -1.865463564172387123e-03 -1.158478930592536926e-01
4.985001087188720703e-01 1.913257315754890442e-02 1.126671060919761658e-01
5.982115864753723145e-03 -1.239112541079521179e-01 -3.422131761908531189e-02
5.012619495391845703e-01 4.947133362293243408e-02 8.802063018083572388e-02
-3.951704800128936768e-01 8.766545355319976807e-02 -1.131659820675849915e-01
-1.433275341987609863e-01 -2.252802066504955292e-02 7.318345457315444946e-02
6.530724167823791504e-01 -8.755146991461515427e-04 7.977288216352462769e-02
1.362071633338928223e-01 9.290194511413574219e-02 7.836300879716873169e-02
-4.926985502243041992e-01 7.456982880830764771e-02 -5.399787425994873047e-02
-3.890115916728973389e-01 -5.716521292924880981e-02 -5.863813310861587524e-02
2.965667843818664551e-01 -9.222026914358139038e-02 8.872632682323455811e-02
1.168622300028800964e-01 -1.866915263235569000e-02 1.135534271597862244e-01
-2.063079178333282471e-01 -8.026576042175292969e-02 -1.189760863780975342e-01
4.059370458126068115e-01 -1.252444647252559662e-02 -9.706072509288787842e-02
-1.646094024181365967e-01 -6.042078137397766113e-02 -1.440417915582656860e-01
6.083802878856658936e-02 -9.614086151123046875e-02 5.738589167594909668e-02
9.226492792367935181e-02 -7.212025672197341919e-02 -1.334744989871978760e-01
-4.405435174703598022e-02 3.400278836488723755e-02 9.623660892248153687e-02
3.178728520870208740e-01 -3.735327348113059998e-02 1.220462694764137268e-01
-1.172343268990516663e-01 -1.098194867372512817e-01 -6.825139373540878296e-02
1.755968034267425537e-01 7.971374690532684326e-02 -9.482980519533157349e-02
5.040907859802246094e-01 -1.189357265830039978e-01 1.571272127330303192e-02
-1.453805565834045410e-01 1.259324550628662109e-01 -5.803443491458892822e-02
1.001221537590026855e-01 1.711075939238071442e-02 1.143846288323402405e-01
-4.684025049209594727e-01 -8.097702637314796448e-03 -2.992131747305393219e-02
-1.235977485775947571e-01 5.894538387656211853e-02 -1.471566557884216309e-01
-3.421431183815002441e-01 2.852559275925159454e-02 -1.555092781782150269e-01
3.877521753311157227e-01 -5.822800472378730774e-02 1.151425316929817200e-01
1.606685668230056763e-01 -1.288511902093887329e-01 -5.304341018199920654e-02
1.834736168384552002e-01 -1.273421794176101685e-01 -5.811919271945953369e-02
-4.459688663482666016e-01 -2.270127832889556885e-02 -3.057242557406425476e-02
-1.801361143589019775e-02 -8.187894523143768311e-02 5.846840888261795044e-02
-1.777546107769012451e-01 -2.094388566911220551e-02 -1.613050401210784912e-01
-5.409238487482070923e-02 -3.685015439987182617e-02 8.416455984115600586e-02
-5.233258754014968872e-02 -1.114476099610328674e-01 3.760624676942825317e-04
5.521855950355529785e-01 -9.734565764665603638e-02 -2.553824335336685181e-02
7.789899408817291260e-02 -1.546225510537624359e-03 1.120881214737892151e-01
3.634148836135864258e-01 -1.095195934176445007e-01 -6.738119572401046753e-02
-2.132643759250640869e-01 -3.091336227953433990e-02 -1.573363393545150757e-01
3.938776254653930664e-01 -7.466468028724193573e-03 1.262689828872680664e-01
1.714286804199218750e-01 -3.691480308771133423e-02 1.136453226208686829e-01
-2.061964273452758789e-01 -4.816807433962821960e-02 -1.495133787393569946e-01
-2.615455389022827148e-01 -8.107975870370864868e-02 -1.020750850439071655e-01
-1.428662240505218506e-01 -1.076723784208297729e-01 -5.931957066059112549e-02
4.505065083503723145e-01 -1.071187257766723633e-01 7.019212096929550171e-02
1.494289636611938477e-01 4.617533832788467407e-02 1.115752980113029480e-01
-2.549907863140106201e-01 1.223445758223533630e-01 -5.872774869203567505e-02
1.747414469718933105e-02 7.288793101906776428e-03 -1.546284109354019165e-01
6.307053565979003906e-01 -9.218385815620422363e-02 3.406590223312377930e-02
4.767032563686370850e-01 -1.223009005188941956e-01 1.097189262509346008e-02
-8.628668636083602905e-02 1.281278878450393677e-01 -4.336076788604259491e-03
3.746502846479415894e-02 -1.250076889991760254e-01 -1.533573493361473083e-02
6.350952386856079102e-02 4.552461206912994385e-02 -1.380473077297210693e-01
2.509540021419525146e-01 1.014230493456125259e-02 1.243540719151496887e-01
4.072893261909484863e-01 -4.118283465504646301e-02 -9.750745445489883423e-02
9.273778647184371948e-02 -9.034252166748046875e-02 -1.202107667922973633e-01
-3.542507290840148926e-01 1.029371023178100586e-01 -1.273602060973644257e-02
-3.182631433010101318e-01 -6.766873598098754883e-02 -1.085297465324401855e-01
1.312774270772933960e-01 -1.240592673420906067e-01 1.983940787613391876e-02
3.013044595718383789e-01 -1.086068227887153625e-01 6.959049403667449951e-02
-8.645176887512207031e-03 8.935575187206268311e-02 7.441588491201400757e-02
-3.227678835391998291e-01 -5.695358291268348694e-02 -7.123672403395175934e-03
-2.793395221233367920e-01 4.556340351700782776e-02 -1.547455787658691406e-01
-3.468398749828338623e-01 2.975873649120330811e-02 3.365541994571685791e-02
5.447589159011840820e-01 5.595979839563369751e-02 4.729363322257995605e-02
-6.974712759256362915e-02 2.794913575053215027e-02 -1.568080335855484009e-01
-2.876796126365661621e-01 -1.339292526245117188e-02 -1.581372469663619995e-01
2.388985455036163330e-01 -6.189308688044548035e-02 -1.228473410010337830e-01
-4.047547578811645508e-01 -5.016125738620758057e-02 -9.731274843215942383e-02
-2.585608363151550293e-01 5.307944491505622864e-02 5.370129644870758057e-02
-3.427229523658752441e-01 -1.405037008225917816e-03 -1.553851962089538574e-01
-6.053405255079269409e-02 2.556839957833290100e-02 9.488980472087860107e-02
3.951349854469299316e-01 -1.261629611253738403e-01 -2.411884814500808716e-02
-4.147661477327346802e-02 1.084323152899742126e-01 4.978355020284652710e-02
-3.495185822248458862e-02 7.292741537094116211e-02 8.355354517698287964e-02
1.646926999092102051e-02 7.039742544293403625e-03 1.055678203701972961e-01
-2.861604094505310059e-03 4.498976841568946838e-02 -1.454306393861770630e-01
3.661802113056182861e-01 1.992669887840747833e-02 -9.655412286520004272e-02
-3.011742234230041504e-01 -5.662471428513526917e-02 3.214294090867042542e-03
5.125166773796081543e-01 6.285179406404495239e-02 5.467655509710311890e-02
-1.420631706714630127e-01 -9.548199921846389771e-02 -1.051117852330207825e-01
2.835695147514343262e-01 -1.184917911887168884e-01 -6.805738806724548340e-02
1.865175962448120117e-01 7.083740085363388062e-02 9.944396466016769409e-02
1.251440048217773438e-01 -1.117283776402473450e-01 -9.365076571702957153e-02
1.633663624525070190e-01 -1.297919899225234985e-01 5.957312881946563721e-03
2.323532700538635254e-01 -7.840192317962646484e-02 -1.157945394515991211e-01
4.515183866024017334e-01 7.791394740343093872e-02 4.535339772701263428e-02
4.954707622528076172e-01 -6.349999457597732544e-02 1.086765006184577942e-01
2.789624631404876709e-01 4.551240056753158569e-02 -1.022236272692680359e-01
7.617682963609695435e-02 2.919927611947059631e-02 -1.434118896722793579e-01
-2.293861508369445801e-01 -9.252613782882690430e-02 -3.783718496561050415e-02
-4.949003458023071289e-03 1.274422705173492432e-01 -3.398801013827323914e-02
-4.948180168867111206e-02 7.204145938158035278e-02 -1.336190104484558105e-01
-1.190209612250328064e-01 2.873641252517700195e-02 8.544657379388809204e-02
1.703632175922393799e-01 -1.168332174420356750e-01 -8.293323218822479248e-02
3.322041034698486328e-02 1.050706505775451660e-01 -8.802596479654312134e-02
-4.521105885505676270e-01 3.019478917121887207e-02 -5.115471780300140381e-03
-1.842946112155914307e-01 5.937481299042701721e-02 6.723740696907043457e-02
1.018302291631698608e-01 -1.280657202005386353e-01 -3.783859312534332275e-03
8.338580280542373657e-02 -1.287226229906082153e-01 -1.784930750727653503e-02
-1.000969931483268738e-01 9.829259663820266724e-02 -1.125231236219406128e-01
-6.162166595458984375e-03 6.844490021467208862e-02 8.924888819456100464e-02
-2.272019982337951660e-01 8.724918216466903687e-02 -1.288317739963531494e-01
-7.659199088811874390e-02 1.153788492083549500e-01 3.474900871515274048e-02
6.460232138633728027e-01 1.943796500563621521e-02 4.458481073379516602e-02
3.255850672721862793e-01 7.555671781301498413e-02 8.934137225151062012e-02
-3.144791424274444580e-01 -7.754964381456375122e-02 -6.529081612825393677e-02
1.587665975093841553e-01 1.720721833407878876e-02 -1.364992111921310425e-01
3.963664174079895020e-01 -1.001909673213958740e-01 8.223737031221389771e-02
5.095041394233703613e-01 6.066156923770904541e-02 -5.271285772323608398e-04
-3.413621187210083008e-01 -7.114349305629730225e-02 -6.589540094137191772e-02
1.464290320873260498e-01 1.760236732661724091e-02 1.180709525942802429e-01
-1.966595053672790527e-01 8.114761859178543091e-02 5.377322435379028320e-02
-3.847635388374328613e-01 2.729460783302783966e-02 -1.509572118520736694e-01
-1.830001473426818848e-01 -2.220365032553672791e-02 6.468155235052108765e-02
-2.701989114284515381e-01 -8.472836017608642578e-02 -8.488659560680389404e-02
2.488221824169158936e-01 9.367817640304565430e-02 -5.724827945232391357e-02
-2.977970987558364868e-02 -6.640556454658508301e-02 -1.423969417810440063e-01
-2.231237292289733887e-01 6.759567558765411377e-02 5.610483139753341675e-02
-2.873377203941345215e-01 -5.582560598850250244e-02 -1.340653747320175171e-01
-5.217673182487487793e-01 5.424824543297290802e-03 -9.344405680894851685e-02
-5.041446089744567871e-01 6.407045572996139526e-02 -9.940811991691589355e-02
-2.402357757091522217e-01 -8.976326137781143188e-02 -8.557889610528945923e-02
-3.216565251350402832e-01 3.403139486908912659e-02 -1.560331434011459351e-01
3.747292608022689819e-02 8.649805188179016113e-02 8.072497695684432983e-02
1.403574347496032715e-01 -1.453439984470605850e-02 1.165464147925376892e-01
1.992684900760650635e-01 1.021372973918914795e-01 -5.622349679470062256e-02
1.146505028009414673e-01 -8.869000524282455444e-02 7.443559914827346802e-02
2.767390310764312744e-01 1.072601079940795898e-01 2.292464114725589752e-02
1.812389492988586426e-02 -1.199947148561477661e-01 1.368559896945953369e-04
1.156409680843353271e-01 -5.542297288775444031e-02 -1.394169777631759644e-01
-3.707540929317474365e-01 8.033917844295501709e-02 8.915994316339492798e-03
2.629612982273101807e-01 -2.041996642947196960e-02 -1.262999475002288818e-01
-1.669557392597198486e-01 -3.603716194629669189e-02 -1.570225059986114502e-01
6.152428686618804932e-02 -6.479874998331069946e-02 8.684217929840087891e-02
-4.674351215362548828e-01 8.510668575763702393e-02 -8.573842793703079224e-02
2.048646211624145508e-01 -7.328447699546813965e-02 -1.220849528908729553e-01
3.207587003707885742e-01 6.607136875391006470e-02 -7.442551851272583008e-02
5.559720993041992188e-01 -8.444998413324356079e-02 8.574347198009490967e-02
2.074053585529327393e-01 -3.846283257007598877e-02 1.160221174359321594e-01
-3.780362606048583984e-01 -4.066675528883934021e-02 -1.268785726279020309e-02
-1.565318405628204346e-01 1.044680327177047729e-01 3.954084962606430054e-02
2.569935023784637451e-01 1.083238869905471802e-01 -1.174517255276441574e-02
5.275940895080566406e-01 3.612456470727920532e-02 -3.238243982195854187e-02
-1.106328144669532776e-01 -3.013061732053756714e-02 -1.591553837060928345e-01
2.537667453289031982e-01 -1.310563236474990845e-01 -3.894821926951408386e-02
3.441199958324432373e-01 -1.135080382227897644e-01 -6.564759463071823120e-02
-3.576042950153350830e-01 -4.780467599630355835e-02 -1.259287446737289429e-01
4.182156920433044434e-01 -1.277738511562347412e-01 5.324149504303932190e-03
1.283250451087951660e-01 -1.262062042951583862e-01 -6.197042018175125122e-02
4.239845648407936096e-02 5.749710649251937866e-02 -1.339543461799621582e-01
-3.391776233911514282e-02 4.030582495033740997e-03 -1.588360816240310669e-01
-3.083832561969757080e-03 -1.124913319945335388e-01 1.496048830449581146e-02
5.071847438812255859e-01 -6.810173392295837402e-02 -6.494372338056564331e-02
7.724453508853912354e-02 9.231536090373992920e-02 7.753081619739532471e-02
1.314927637577056885e-01 -1.096480637788772583e-01 5.034305900335311890e-02
2.686960101127624512e-01 -1.061251685023307800e-01 7.106798142194747925e-02
-6.264743953943252563e-02 6.371426396071910858e-03 -1.603278070688247681e-01
5.581302642822265625e-01 -5.324415862560272217e-02 -5.348443984985351562e-02
2.731757164001464844e-01 -1.182384267449378967e-01 5.204823613166809082e-02
3.700781464576721191e-01 7.289005070924758911e-02 8.666478842496871948e-02
1.708235442638397217e-01 -6.556035578250885010e-02 -1.297578811645507812e-01
2.020289599895477295e-01 -1.219992190599441528e-01 -7.072489708662033081e-02
-1.025557443499565125e-01 -1.128131374716758728e-01 -3.987424075603485107e-02
4.076317548751831055e-01 4.467206448316574097e-02 1.090250983834266663e-01
-1.044338867068290710e-01 -9.529650211334228516e-02 -1.112096980214118958e-01
4.896142482757568359e-01 -4.266766086220741272e-02 1.176338568329811096e-01
-2.003348469734191895e-01 -9.874156117439270020e-02 -4.429093003273010254e-02
-1.145769283175468445e-01 5.943049117922782898e-02 7.922351360321044922e-02
-7.383760064840316772e-02 -3.817079216241836548e-02 -1.562003940343856812e-01
3.539319708943367004e-02 -5.165835842490196228e-03 -1.542172431945800781e-01
6.922719478607177734e-01 -1.437632367014884949e-02 3.590775281190872192e-02
1.590399444103240967e-01 8.000553399324417114e-02 9.167033433914184570e-02
-2.481653094291687012e-01 -8.006888628005981445e-02 -1.117178052663803101e-02
4.169295728206634521e-01 -6.981036067008972168e-02 1.085479184985160828e-01
1.282187998294830322e-01 1.006852313876152039e-01 -7.714451104402542114e-02
-1.573647558689117432e-01 -3.353958949446678162e-02 6.517604738473892212e-02
-1.258421540260314941e-01 8.353557437658309937e-02 -1.296739578247070312e-01
2.303948402404785156e-01 -4.328898712992668152e-02 -1.293418109416961670e-01
3.748083412647247314e-01 -7.601780444383621216e-02 -9.369327127933502197e-02
9.883833676576614380e-02 4.015555605292320251e-02 -1.361639648675918579e-01
4.292120039463043213e-01 -4.070011433213949203e-03 1.247900798916816711e-01
-1.675258874893188477e-01 8.409032225608825684e-02 5.713319033384323120e-02
6.122300773859024048e-02 1.190763637423515320e-01 3.326646238565444946e-02
4.231594130396842957e-02 -8.419449627399444580e-02 -1.277484744787216187e-01
1.948222666978836060e-01 -1.319417059421539307e-01 -3.798513114452362061e-02
8.794628083705902100e-02 6.630370020866394043e-02 9.847152978181838989e-02
2.366141080856323242e-01 1.091124713420867920e-01 -2.148729935288429260e-02
-2.448156177997589111e-01 1.161649227142333984e-01 -8.437776565551757812e-02
-6.504137068986892700e-02 1.192185953259468079e-01 -7.421912997961044312e-02
7.632855325937271118e-02 7.761344313621520996e-02 -1.143040657043457031e-01
-2.231046259403228760e-01 -6.655983626842498779e-02 2.070114575326442719e-02
-1.804272234439849854e-01 -9.966269135475158691e-02 -8.106286823749542236e-02
7.017326354980468750e-01 -4.420046880841255188e-02 4.338483512401580811e-02
3.023807108402252197e-01 2.119790762662887573e-02 -1.102412566542625427e-01
-1.650278866291046143e-01 5.960980802774429321e-02 -1.484369486570358276e-01
-8.889982849359512329e-02 5.950625240802764893e-02 -1.448561996221542358e-01
6.344659328460693359e-01 6.088889203965663910e-03 8.423041552305221558e-02
2.369171977043151855e-01 4.451988264918327332e-02 1.152743920683860779e-01
2.753879427909851074e-01 7.378686219453811646e-02 9.528854489326477051e-02
4.587181806564331055e-01 -6.285458803176879883e-02 1.112374886870384216e-01
2.632105052471160889e-01 1.014243438839912415e-01 5.437776446342468262e-02
5.382973700761795044e-02 1.016153842210769653e-01 -8.997287601232528687e-02
-3.117953240871429443e-01 3.306043148040771484e-02 4.363966733217239380e-02
4.796910583972930908e-01 -1.727344095706939697e-02 1.221172884106636047e-01
-2.471499443054199219e-01 1.221594065427780151e-01 -2.097888290882110596e-02
-1.875171661376953125e-01 5.467197299003601074e-02 -1.515580266714096069e-01
-1.559412777423858643e-01 3.808590397238731384e-02 7.791075855493545532e-02
-2.614220231771469116e-02 1.034113317728042603e-01 -9.873675554990768433e-02
4.423654079437255859e-01 -5.236782506108283997e-02 -8.741551637649536133e-02
4.523726701736450195e-01 -1.226894930005073547e-01 -1.210277248173952103e-02
-2.664753049612045288e-02 2.510419348254799843e-03 9.945565462112426758e-02
-1.645857095718383789e-01 1.158282440155744553e-02 -1.633403748273849487e-01
7.576070725917816162e-02 -1.064259558916091919e-01 4.566134512424468994e-02
1.988382637500762939e-01 -1.445966772735118866e-02 1.211285814642906189e-01
4.648588001728057861e-01 4.435434564948081970e-02 -5.008324980735778809e-02
-4.883950203657150269e-02 4.452801123261451721e-02 -1.495476663112640381e-01
-1.366285085678100586e-01 2.365113236010074615e-02 -1.609288156032562256e-01
-1.469788849353790283e-01 1.288302093744277954e-01 -2.738806605339050293e-02
-1.620012819766998291e-01 1.259990781545639038e-01 -8.057798258960247040e-03
-8.966244012117385864e-02 -1.041913777589797974e-01 -9.652841091156005859e-02
-8.336164057254791260e-03 1.103263720870018005e-01 4.965896904468536377e-02
1.814369559288024902e-01 6.026945635676383972e-02 -1.112799271941184998e-01
-3.792827129364013672e-01 -1.309165148995816708e-03 -1.504249870777130127e-01
1.377912014722824097e-01 1.096809580922126770e-01 5.225503444671630859e-02
-1.375376582145690918e-01 -1.036844551563262939e-01 -1.574358157813549042e-02
1.938109397888183594e-01 -6.303413212299346924e-02 1.035737395286560059e-01
6.674181222915649414e-01 -4.409385845065116882e-02 8.156362175941467285e-02
-4.182845354080200195e-01 4.137010499835014343e-02 -1.427726596593856812e-01
-3.683095872402191162e-01 1.036096289753913879e-01 -9.129631519317626953e-02
3.809854686260223389e-01 4.047238081693649292e-02 -8.063407987356185913e-02
3.958339616656303406e-02 1.251364052295684814e-01 1.155351661145687103e-02
-2.214312851428985596e-01 -6.540802121162414551e-02 -1.347331702709197998e-01
3.593684136867523193e-01 4.239217378199100494e-03 -1.039749458432197571e-01
-1.850009262561798096e-01 1.119352057576179504e-01 -9.588451683521270752e-02
3.094875514507293701e-01 -1.191342920064926147e-01 5.220105499029159546e-02
-3.497939556837081909e-02 1.291040927171707153e-01 -1.154460757970809937e-02
2.898365557193756104e-01 -1.256578862667083740e-01 -5.184718966484069824e-02
4.295055270195007324e-01 -2.015470899641513824e-02 -9.235176444053649902e-02
3.727886974811553955e-01 -1.194692775607109070e-01 -4.907259345054626465e-02
1.053251847624778748e-01 8.997289836406707764e-02 8.100230246782302856e-02
-3.358695507049560547e-01 -4.470264539122581482e-02 -1.349437981843948364e-01
-1.809940934181213379e-01 -9.210544824600219727e-02 -5.118213593959808350e-03
-4.379040002822875977e-01 -3.508524224162101746e-02 -1.074712947010993958e-01
-9.715599566698074341e-02 1.860875822603702545e-02 8.948177099227905273e-02
5.127243995666503906e-01 -3.599608317017555237e-02 1.173586621880531311e-01
4.623220264911651611e-01 -4.542582482099533081e-02 1.184447631239891052e-01
-5.113055706024169922e-01 6.792294234037399292e-02 -7.787144184112548828e-02
1.497145742177963257e-01 1.204841211438179016e-01 2.384295687079429626e-03
-2.532062232494354248e-01 5.863721668720245361e-02 -1.495663225650787354e-01
-2.756282985210418701e-01 -4.839403554797172546e-02 2.209982089698314667e-02
1.667315512895584106e-02 9.990898519754409790e-02 6.568998843431472778e-02
3.121594488620758057e-01 -2.431116811931133270e-02 -1.177557930350303650e-01
3.640751540660858154e-01 7.027184963226318359e-02 -5.579695105552673340e-02
1.080376207828521729e-01 1.171186193823814392e-01 3.586239367723464966e-02
6.463545560836791992e-01 -6.480260938405990601e-02 7.910850644111633301e-02
5.244656801223754883e-01 -5.980378389358520508e-02 -6.280847638845443726e-02
2.038717269897460938e-01 -9.251464158296585083e-02 -1.092052906751632690e-01
-3.431083261966705322e-01 1.135651543736457825e-01 -6.433446705341339111e-02
1.796407997608184814e-01 3.813666105270385742e-02 1.158436015248298645e-01
1.691456884145736694e-01 1.119150519371032715e-01 4.355107992887496948e-02
3.903575539588928223e-01 -9.725984930992126465e-02 -7.534325122833251953e-02
