5.623322725296020508e-01 -4.639085382223129272e-02 -8.128907531499862671e-02
1.400943696498870850e-01 -3.014048002660274506e-02 1.304503083229064941e-01
2.457106560468673706e-01 4.006733745336532593e-02 -2.834782376885414124e-02
4.927362203598022461e-01 2.694208920001983643e-02 2.134206518530845642e-02
5.444731712341308594e-01 -9.471210837364196777e-02 7.463759183883666992e-02
2.124109268188476562e-01 2.336473762989044189e-02 1.019345298409461975e-01
-6.559464335441589355e-02 -5.785076320171356201e-02 1.202285364270210266e-01
9.441638737916946411e-02 -1.157965064048767090e-01 7.082454860210418701e-02
-6.646442413330078125e-02 5.351511389017105103e-02 5.309467390179634094e-02
2.226703166961669922e-01 2.679433673620223999e-03 -7.149200141429901123e-02
2.091513574123382568e-01 -4.157624021172523499e-02 1.273344755172729492e-01
7.624677419662475586e-01 -8.070313930511474609e-02 -3.090195357799530029e-02
2.116764783859252930e-01 3.876788169145584106e-02 -3.240429982542991638e-02
-2.287525832653045654e-01 -1.664582639932632446e-03 1.088117286562919617e-01
-1.540157794952392578e-01 -1.830287277698516846e-03 -3.269320353865623474e-02
2.675811052322387695e-01 -9.591984748840332031e-02 1.023782491683959961e-01
3.718250989913940430e-01 -1.854103617370128632e-02 -8.309092372655868530e-02
6.978906393051147461e-01 -1.092923507094383240e-01 -2.713622897863388062e-02
6.404796242713928223e-01 -1.013913005590438843e-01 4.711404070258140564e-02
1.861623227596282959e-01 -1.303911358118057251e-01 -1.381328329443931580e-03
1.159884408116340637e-01 -1.491144485771656036e-02 1.293737888336181641e-01
-1.707605719566345215e-01 1.255813241004943848e-02 -2.129226922988891602e-02
-1.864490807056427002e-01 -7.711872458457946777e-02 7.768657058477401733e-02
1.848548352718353271e-01 5.113119632005691528e-02 5.558617413043975830e-02
2.052707225084304810e-01 -5.647978559136390686e-02 -8.337012678384780884e-02
4.407238960266113281e-01 -9.869089722633361816e-02 -7.507313787937164307e-02
-1.083521544933319092e-02 5.494704842567443848e-02 2.073068730533123016e-02
1.750926971435546875e-01 2.609214186668395996e-02 1.027644723653793335e-01
9.788031876087188721e-02 -6.408163905143737793e-02 1.245217621326446533e-01
-5.353343486785888672e-02 6.755284965038299561e-03 1.226444467902183533e-01
-1.814662516117095947e-01 -4.122608155012130737e-02 1.139129027724266052e-01
5.569664239883422852e-01 1.070921495556831360e-02 -3.109581023454666138e-02
4.779788255691528320e-01 -5.501558631658554077e-02 9.964659065008163452e-02
-4.904085397720336914e-02 4.413956403732299805e-02 -6.882850080728530884e-03
9.704679250717163086e-02 -3.718464076519012451e-02 -7.571842521429061890e-02
1.049973070621490479e-02 2.935275435447692871e-02 1.073286160826683044e-01
5.512027740478515625e-01 -1.269946992397308350e-01 2.840126119554042816e-02
-1.535781919956207275e-01 -4.975920543074607849e-02 -3.184749931097030640e-02
2.314822524785995483e-01 5.205568671226501465e-02 1.378191262483596802e-02
6.984119415283203125e-01 -1.609728671610355377e-02 -1.200767233967781067e-02
3.583268821239471436e-01 3.063861280679702759e-02 -3.623462468385696411e-02
3.489445149898529053e-01 3.957764059305191040e-02 -1.530420407652854919e-02
2.905209660530090332e-01 -3.277508169412612915e-02 -8.718084543943405151e-02
6.131306886672973633e-01 -1.229894235730171204e-01 1.735972613096237183e-02
4.086674451828002930e-01 -8.122950047254562378e-02 -8.453638106584548950e-02
-1.865214109420776367e-02 -1.104399114847183228e-01 5.667766556143760681e-02
3.672216832637786865e-01 -1.335662454366683960e-01 3.912226855754852295e-02
1.206873357295989990e-01 -1.529506035149097443e-02 -7.445397973060607910e-02
8.825607597827911377e-02 -1.369919627904891968e-03 -6.648447364568710327e-02
-1.018740832805633545e-01 4.704333841800689697e-02 7.394473999738693237e-02
6.054600477218627930e-01 -9.444013237953186035e-02 6.230559200048446655e-02
3.046181797981262207e-01 -6.920055299997329712e-02 -8.612977713346481323e-02
7.268422842025756836e-01 -6.618989259004592896e-02 3.581675514578819275e-02
-4.431876540184020996e-02 -1.634811051189899445e-02 -5.633145570755004883e-02
8.039776980876922607e-02 -7.573458552360534668e-02 -6.398814916610717773e-02
6.724793910980224609e-01 -5.634838715195655823e-02 5.649122595787048340e-02
-3.113134205341339111e-02 4.685661196708679199e-02 -3.862930461764335632e-03
9.430229663848876953e-03 -1.116628497838973999e-01 -4.314184188842773438e-03
4.895153045654296875e-01 -7.173036038875579834e-02 -8.602486550807952881e-02
5.299599170684814453e-01 -1.329727023839950562e-01 6.443058140575885773e-03
4.848014414310455322e-01 9.425535798072814941e-03 6.838934123516082764e-02
1.858789473772048950e-01 -1.207390502095222473e-01 -3.139296919107437134e-02
2.717537283897399902e-01 -1.222160086035728455e-02 -8.047971129417419434e-02
-4.242682456970214844e-02 -9.876924753189086914e-02 8.084502071142196655e-02
2.831485867500305176e-02 5.500286817550659180e-02 1.454216241836547852e-02
9.758770465850830078e-03 -9.664162993431091309e-02 9.332270175218582153e-02
4.853992760181427002e-01 -2.884507924318313599e-02 -8.239967375993728638e-02
6.625801324844360352e-02 -2.595114894211292267e-02 1.317779719829559326e-01
7.273501157760620117e-01 -1.040387749671936035e-01 -1.445296034216880798e-02
-2.541791498661041260e-01 -6.571511924266815186e-02 6.221628189086914062e-02
1.982043087482452393e-01 -1.768510974943637848e-02 1.260765194892883301e-01
2.803215384483337402e-01 -1.286630146205425262e-02 1.181598156690597534e-01
-3.168928921222686768e-01 9.240489453077316284e-03 3.471282869577407837e-02
-2.990506589412689209e-01 -4.420940205454826355e-02 7.414191961288452148e-02
3.626587688922882080e-01 -4.627685621380805969e-02 1.149875223636627197e-01
6.863212585449218750e-01 -8.649359643459320068e-02 4.466909170150756836e-02
5.485390424728393555e-01 -1.169254854321479797e-01 -5.214027315378189087e-02
7.349193096160888672e-01 -2.967539243400096893e-02 -1.164677739143371582e-02
-1.150205731391906738e-03 2.890303730964660645e-02 -3.549991548061370850e-02
4.367762804031372070e-01 -7.313338667154312134e-02 -8.704115450382232666e-02
1.368690282106399536e-01 1.254248619079589844e-02 1.168309375643730164e-01
-3.628423810005187988e-02 -1.090541481971740723e-01 1.062599010765552521e-02
-2.020781040191650391e-01 -4.708245396614074707e-04 1.129146367311477661e-01
-2.588970959186553955e-02 4.412513971328735352e-02 8.683149516582489014e-02
5.238721370697021484e-01 -1.300218850374221802e-01 2.642736583948135376e-02
3.523508906364440918e-01 -1.250000298023223877e-01 -4.267451912164688110e-02
5.081674456596374512e-02 -1.205069646239280701e-01 1.253891922533512115e-02
4.355657100677490234e-01 1.061304658651351929e-02 -5.732706189155578613e-02
7.654682397842407227e-01 -8.675672113895416260e-02 -7.567668333649635315e-03
-5.666819214820861816e-02 -2.382364682853221893e-02 1.293512880802154541e-01
4.587804079055786133e-01 -1.138212010264396667e-01 6.953281164169311523e-02
6.377605795860290527e-01 -8.023700863122940063e-02 -7.093720138072967529e-02
7.447181940078735352e-01 -9.605025500059127808e-02 1.581687480211257935e-03
6.220890879631042480e-01 -1.002500057220458984e-01 -6.185034662485122681e-02
-1.328118443489074707e-01 -5.837350338697433472e-02 1.121600791811943054e-01
-2.164730429649353027e-01 3.632345795631408691e-02 2.466980926692485809e-02
-1.057825088500976562e-01 2.490732073783874512e-02 1.079187467694282532e-01
1.896695345640182495e-01 -3.579583764076232910e-02 1.285129487514495850e-01
2.510191202163696289e-01 -6.716841459274291992e-02 1.197720468044281006e-01
8.480003476142883301e-02 5.638258159160614014e-02 4.509327560663223267e-02
1.395570784807205200e-01 -9.987831115722656250e-03 -7.400689274072647095e-02
-8.416628837585449219e-02 -3.049957565963268280e-02 -5.102016031742095947e-02
3.199020028114318848e-01 -9.434100985527038574e-02 -7.530904561281204224e-02
4.714261889457702637e-01 -9.144978225231170654e-02 8.824831992387771606e-02
-8.277797698974609375e-02 5.335031449794769287e-02 4.410452023148536682e-02
3.927172422409057617e-01 -1.126393526792526245e-01 -6.209553778171539307e-02
5.903185904026031494e-02 5.677422136068344116e-02 4.346721619367599487e-02
2.543280720710754395e-01 -1.345770955085754395e-01 2.852749079465866089e-02
-2.662011384963989258e-01 2.030381932854652405e-02 8.408682793378829956e-02
-1.230661571025848389e-01 5.031595379114151001e-02 5.203840881586074829e-02
7.305905818939208984e-01 -5.032131075859069824e-02 3.119775280356407166e-02
1.205253228545188904e-01 3.899002075195312500e-02 9.115914255380630493e-02
3.352692723274230957e-01 -3.223358839750289917e-02 -8.775477111339569092e-02
6.934871077537536621e-01 -1.795087940990924835e-02 1.710050366818904877e-02
5.545631647109985352e-01 1.599519699811935425e-02 -1.473673433065414429e-02
4.185527563095092773e-02 -9.018270671367645264e-02 1.042687147855758667e-01
-2.126986682415008545e-01 2.078340202569961548e-02 -3.076540306210517883e-03
6.216036081314086914e-01 3.671575337648391724e-03 -1.331369206309318542e-02
7.416779994964599609e-01 -5.131030455231666565e-02 -4.268567264080047607e-02
-1.525936424732208252e-01 4.709117114543914795e-02 3.211344033479690552e-02
7.646976709365844727e-01 -7.560639083385467529e-02 1.010168716311454773e-02
2.280552089214324951e-01 -1.340830028057098389e-01 2.295192144811153412e-02
7.725398540496826172e-01 -5.850535631179809570e-02 7.202718406915664673e-04
4.291936755180358887e-01 2.011984959244728088e-02 6.838105618953704834e-02
1.460936963558197021e-01 -1.254018843173980713e-01 5.214427411556243896e-02
1.596845686435699463e-02 -7.415247708559036255e-02 1.162816137075424194e-01
2.103465348482131958e-01 2.533488720655441284e-02 -5.170489102602005005e-02
5.028245449066162109e-01 -9.864217042922973633e-02 7.861585915088653564e-02
-1.151914894580841064e-02 -8.021961152553558350e-02 1.094059199094772339e-01
4.685379266738891602e-01 4.908468574285507202e-03 -5.995146930217742920e-02
2.467072457075119019e-01 -4.031714797019958496e-02 1.251718401908874512e-01
3.402303457260131836e-01 3.554569184780120850e-02 6.317196041345596313e-02
3.670685291290283203e-01 4.134257137775421143e-02 -2.906564623117446899e-04
2.907579541206359863e-01 -9.584219753742218018e-02 -7.262292504310607910e-02
4.750551879405975342e-01 2.417176961898803711e-02 -2.577845379710197449e-02
2.705237269401550293e-01 -8.370137959718704224e-02 -7.878123223781585693e-02
7.116194367408752441e-01 -6.513325870037078857e-02 4.248868301510810852e-02
6.049680709838867188e-01 -7.424557209014892578e-02 -7.690940797328948975e-02
-1.422558724880218506e-01 -9.359276294708251953e-02 5.069217830896377563e-02
-1.324095427989959717e-01 2.855450659990310669e-02 1.019773110747337341e-01
3.607331216335296631e-01 -1.882690005004405975e-02 1.111914068460464478e-01
-1.560924053192138672e-01 4.460469633340835571e-02 6.887246668338775635e-02
6.214890480041503906e-01 -3.030074015259742737e-02 -6.651759147644042969e-02
6.290299892425537109e-01 5.107708275318145752e-04 2.024001255631446838e-02
-1.479789912700653076e-01 2.678073942661285400e-03 1.183974146842956543e-01
7.207189798355102539e-01 -2.575251832604408264e-02 -2.144087478518486023e-02
4.849016368389129639e-01 -1.470975577831268311e-02 8.940974622964859009e-02
2.442361414432525635e-02 2.008521929383277893e-02 1.154223456978797913e-01
-2.440536320209503174e-01 -4.186270013451576233e-02 -7.022731006145477295e-03
4.207805991172790527e-01 -1.157503277063369751e-01 -5.885349214076995850e-02
7.253732681274414062e-01 -7.578645646572113037e-02 -5.229432880878448486e-02
3.150779902935028076e-01 -5.518173426389694214e-02 1.186162680387496948e-01
-5.159080028533935547e-03 -1.145317405462265015e-01 1.810214109718799591e-02
1.741394400596618652e-01 2.894217520952224731e-02 -4.699703305959701538e-02
1.738226413726806641e-01 5.505787581205368042e-02 2.560218982398509979e-02
5.631624460220336914e-01 -1.287882328033447266e-01 1.731335557997226715e-02
7.595407962799072266e-01 -4.924181476235389709e-02 8.996124379336833954e-03
4.985705316066741943e-01 -4.060785844922065735e-02 9.574137628078460693e-02
-6.535613536834716797e-02 -1.069071739912033081e-01 4.099591076374053955e-02
-9.976330399513244629e-02 5.002750456333160400e-02 2.132235281169414520e-02
6.321882009506225586e-01 -5.984684079885482788e-02 -7.443472743034362793e-02
3.756135702133178711e-03 1.210091635584831238e-02 -5.057927221059799194e-02
1.705650389194488525e-01 -7.563294470310211182e-02 1.186339631676673889e-01
4.103968441486358643e-01 -1.051421836018562317e-01 -6.987716257572174072e-02
1.300406157970428467e-01 4.852598160505294800e-02 7.189870625734329224e-02
2.744958400726318359e-01 1.202633976936340332e-02 1.050353720784187317e-01
3.688952624797821045e-01 -5.141568183898925781e-02 -9.000003337860107422e-02
-2.458643317222595215e-01 3.235553205013275146e-02 3.106679022312164307e-02
3.319112360477447510e-01 -1.091234236955642700e-01 8.656681329011917114e-02
4.546207189559936523e-01 -1.272242069244384766e-01 -4.006303101778030396e-02
2.272923439741134644e-01 -5.264525115489959717e-02 -8.530455082654953003e-02
7.317408919334411621e-02 -1.579893566668033600e-02 -7.048060745000839233e-02
-2.167469263076782227e-01 1.085553690791130066e-02 1.052649468183517456e-01
2.533408999443054199e-01 7.056716829538345337e-03 -6.897452473640441895e-02
9.131515026092529297e-02 5.238867551088333130e-02 -4.087537527084350586e-04
3.430129587650299072e-02 7.321421056985855103e-03 -5.689133703708648682e-02
1.374867558479309082e-02 5.087294429540634155e-02 4.750788211822509766e-04
3.122983574867248535e-01 3.366134315729141235e-02 -3.570829704403877258e-02
1.931912600994110107e-01 -8.794553577899932861e-02 -7.008180767297744751e-02
2.270734012126922607e-01 -4.726984724402427673e-02 1.258418858051300049e-01
3.667115569114685059e-01 -1.104751303791999817e-01 8.274237066507339478e-02
-1.998789608478546143e-01 4.244614392518997192e-02 5.255767703056335449e-02
2.731029093265533447e-01 4.865441471338272095e-02 3.988148272037506104e-02
7.018318176269531250e-01 -7.888326048851013184e-02 -5.850194394588470459e-02
6.691887378692626953e-01 -9.120423346757888794e-03 1.460117287933826447e-02
3.958610296249389648e-01 -1.375817358493804932e-01 2.769121900200843811e-03
-3.173569142818450928e-01 -3.954187780618667603e-02 3.727543354034423828e-02
2.862013578414916992e-01 1.806826516985893250e-02 -5.893038958311080933e-02
5.790838003158569336e-01 -6.073807179927825928e-02 8.088530600070953369e-02
-1.342543363571166992e-01 -1.005393452942371368e-02 1.230976283550262451e-01
1.375269591808319092e-01 1.267844438552856445e-02 -6.128139793872833252e-02
5.115108191967010498e-02 1.404153183102607727e-02 1.192403286695480347e-01
1.033618226647377014e-01 -1.293718069791793823e-02 -7.233784347772598267e-02
1.680192351341247559e-02 -1.162399873137474060e-01 4.713289439678192139e-02
1.641106307506561279e-01 -1.293914020061492920e-01 2.147564664483070374e-03
4.290160536766052246e-01 -7.725059986114501953e-03 9.587674587965011597e-02
-2.871367633342742920e-01 -4.595531523227691650e-02 1.797071844339370728e-02
-1.347176432609558105e-01 -6.223955750465393066e-02 -2.989717572927474976e-02
6.715441942214965820e-01 -1.097915321588516235e-01 2.420136891305446625e-02
3.200669288635253906e-01 -1.366686522960662842e-01 -3.729239106178283691e-04
3.155504167079925537e-01 -4.855168610811233521e-02 -8.921613544225692749e-02
1.593998223543167114e-01 5.430939048528671265e-02 4.555371031165122986e-02
6.546165943145751953e-01 -1.122721880674362183e-01 -4.008757695555686951e-02
2.403543889522552490e-01 -2.546463161706924438e-03 1.176561415195465088e-01
2.146803885698318481e-01 9.023625403642654419e-03 1.134343147277832031e-01
5.220160484313964844e-01 -5.023963749408721924e-03 -6.301081180572509766e-02
4.876970648765563965e-01 2.814908325672149658e-02 1.027585938572883606e-03
2.951664328575134277e-01 4.226873070001602173e-02 -1.770986989140510559e-02
-2.886944711208343506e-01 8.167870342731475830e-03 1.438165642321109772e-02
5.238659381866455078e-01 -1.068542227149009705e-01 -6.589529663324356079e-02
2.655630707740783691e-01 -4.637464135885238647e-02 1.235359162092208862e-01
4.047074913978576660e-01 -1.260112524032592773e-01 -4.275324195623397827e-02
5.255921185016632080e-02 4.266024380922317505e-02 8.908462524414062500e-02
6.346584856510162354e-02 -1.148364096879959106e-01 6.777319312095642090e-02
8.336648344993591309e-02 -4.295939207077026367e-02 1.306967139244079590e-01
-1.205995678901672363e-03 3.998859971761703491e-02 -2.087624371051788330e-02
-3.624242544174194336e-02 -1.112298816442489624e-01 3.220826759934425354e-02
-2.450933456420898438e-01 2.257329225540161133e-02 8.834620565176010132e-02
6.942823529243469238e-01 -2.914347872138023376e-02 -4.506473243236541748e-02
3.940372467041015625e-01 3.726921230554580688e-02 -9.529234841465950012e-03
2.985311448574066162e-01 4.624821245670318604e-02 -1.641258597373962402e-03
5.406357645988464355e-01 -1.179901137948036194e-01 5.034907907247543335e-02
4.640240967273712158e-01 -2.667970210313796997e-02 -8.289849013090133667e-02
5.932869911193847656e-01 -3.047448582947254181e-02 -7.151886075735092163e-02
4.408949017524719238e-01 -5.480320751667022705e-02 -8.932811021804809570e-02
-1.883493065834045410e-01 -7.694293558597564697e-02 6.684939377009868622e-03
2.568228542804718018e-02 -9.508794546127319336e-02 9.722326695919036865e-02
6.636184453964233398e-01 -1.333640888333320618e-02 -3.550525754690170288e-02
4.743133485317230225e-02 -5.391838029026985168e-02 1.277188956737518311e-01
2.581073343753814697e-01 -1.342480331659317017e-01 -2.817416563630104065e-03
5.859329104423522949e-01 -8.194968849420547485e-02 7.389440387487411499e-02
1.988684386014938354e-02 -2.843324840068817139e-02 1.485083550214767456e-01
2.246581614017486572e-01 -2.057182416319847107e-02 1.320018470287322998e-01
5.653963238000869751e-02 -5.596897751092910767e-02 1.362081617116928101e-01
8.490152657032012939e-02 -4.641424492001533508e-02 1.562260538339614868e-01
1.777359843254089355e-01 -4.477252066135406494e-02 1.247173771262168884e-01
2.370123863220214844e-01 -4.294310137629508972e-02 1.448767781257629395e-01
1.287762224674224854e-01 -3.234683722257614136e-02 1.145173013210296631e-01
2.499963045120239258e-01 -3.208340331912040710e-02 1.550898700952529907e-01
1.096081882715225220e-01 -5.846360698342323303e-03 1.355338841676712036e-01
5.615572631359100342e-02 -1.137479953467845917e-02 1.256299614906311035e-01
4.316785186529159546e-02 -5.122452974319458008e-02 1.221224442124366760e-01
1.432728320360183716e-01 -2.305338345468044281e-02 1.633385419845581055e-01
6.275938451290130615e-02 -4.180955141782760620e-02 1.139222532510757446e-01
1.025303378701210022e-01 -4.753397405147552490e-02 1.571514606475830078e-01
-3.947682678699493408e-03 -4.248233139514923096e-02 1.223285943269729614e-01
1.096475869417190552e-02 -1.833216473460197449e-02 1.258474886417388916e-01
4.395099729299545288e-02 -1.248646713793277740e-02 1.407127976417541504e-01
2.280756235122680664e-01 -2.238417789340019226e-02 1.596435308456420898e-01
2.164988964796066284e-01 -1.180709525942802429e-02 1.497205644845962524e-01
2.274962663650512695e-01 -3.673049062490463257e-02 1.320448070764541626e-01
1.176509261131286621e-01 -4.669163003563880920e-02 1.183376088738441467e-01
1.585841476917266846e-01 -1.603292115032672882e-02 1.603199839591979980e-01
1.477716267108917236e-01 -5.322168767452239990e-02 1.525869071483612061e-01
3.155432641506195068e-03 -2.884235791862010956e-02 1.434934139251708984e-01
1.165046319365501404e-01 -5.709422007203102112e-02 1.438373923301696777e-01
9.188728034496307373e-02 -2.573688887059688568e-02 1.131669804453849792e-01
7.246577739715576172e-02 -8.104223757982254028e-03 1.323530077934265137e-01
1.729463338851928711e-01 -7.685836404561996460e-03 1.491441130638122559e-01
2.187746763229370117e-02 -4.633388668298721313e-02 1.193793565034866333e-01
2.483109682798385620e-01 -2.473608404397964478e-02 1.392422914505004883e-01
1.579280793666839600e-01 -7.333660498261451721e-03 1.328464448451995850e-01
1.505555510520935059e-01 -5.312898010015487671e-02 1.289949864149093628e-01
1.979243606328964233e-01 -4.580726474523544312e-02 1.300901472568511963e-01
-1.286670565605163574e-02 -3.909876197576522827e-02 1.356336772441864014e-01
1.088537722826004028e-01 -1.251670531928539276e-02 1.544066220521926880e-01
9.728046506643295288e-02 -4.766792058944702148e-02 1.177651435136795044e-01
1.337169855833053589e-01 -5.736801773309707642e-03 1.436194777488708496e-01
4.570718854665756226e-02 -2.751188725233078003e-02 1.132301837205886841e-01
1.867474168539047241e-01 -3.686592727899551392e-02 1.638808101415634155e-01
5.237542837858200073e-02 -2.249245718121528625e-02 1.534001529216766357e-01
1.974230557680130005e-01 -1.221842691302299500e-02 1.551783233880996704e-01
7.678669691085815430e-02 -5.679918080568313599e-02 1.401579082012176514e-01
8.982015401124954224e-02 -7.724780589342117310e-03 1.294936090707778931e-01
1.510803848505020142e-01 -3.400865942239761353e-02 1.167931929230690002e-01
-7.741186618804931641e-01 -6.040198355913162231e-02 3.238283097743988037e-02
-1.107349276542663574e+00 1.347630023956298828e-01 1.974353045225143433e-01
-2.815572917461395264e-01 -4.476719349622726440e-02 1.116812825202941895e-01
-5.468695759773254395e-01 2.240532040596008301e-01 1.596994400024414062e-01
-1.034071683883666992e+00 2.203260362148284912e-02 1.565101891756057739e-01
-4.051160812377929688e-02 -5.163773149251937866e-02 -1.364854872226715088e-01
-6.154122352600097656e-01 1.883605420589447021e-01 2.156261354684829712e-01
1.286673545837402344e-01 -1.993904262781143188e-02 4.140774160623550415e-02
-2.311680912971496582e-01 2.230728268623352051e-01 8.293859660625457764e-02
-4.459406137466430664e-01 -4.083547741174697876e-02 1.299777776002883911e-01
-5.096545815467834473e-01 2.338732779026031494e-01 -1.115776449441909790e-01
-9.933598041534423828e-01 2.082630097866058350e-01 -1.465416401624679565e-01
-5.233800411224365234e-02 -5.800061672925949097e-02 -1.164353936910629272e-01
-1.239954948425292969e+00 1.388099342584609985e-01 -1.621937751770019531e-01
-8.144849538803100586e-02 -6.704915314912796021e-02 -6.057131290435791016e-02
7.059586048126220703e-02 5.149013549089431763e-02 -2.128041982650756836e-01
-6.247434616088867188e-01 -7.230641692876815796e-02 1.553615182638168335e-02
-3.897298872470855713e-01 7.392861694097518921e-02 2.390220612287521362e-01
-9.470070600509643555e-01 1.566761732101440430e-02 -2.281446754932403564e-01
-8.412454128265380859e-01 2.353413105010986328e-01 -1.063170880079269409e-01
-9.734396934509277344e-01 1.253751218318939209e-01 2.242247015237808228e-01
-7.712543010711669922e-01 2.256611287593841553e-01 -1.402141451835632324e-01
-1.265587329864501953e+00 1.903190165758132935e-01 9.470063447952270508e-02
-7.579224705696105957e-01 2.504347264766693115e-01 8.177106082439422607e-02
-5.205638408660888672e-01 2.523227632045745850e-01 1.750260591506958008e-03
-5.847424268722534180e-01 2.542147338390350342e-01 -4.801847971975803375e-03
-2.576702535152435303e-01 -1.584696769714355469e-02 -2.427548468112945557e-01
-2.056725621223449707e-01 1.671916842460632324e-01 -2.012296020984649658e-01
-1.658332347869873047e-02 -5.954956263303756714e-02 -3.466963395476341248e-02
2.401565909385681152e-01 3.815617412328720093e-02 5.948657169938087463e-02
-1.070990562438964844e+00 1.977282762527465820e-01 -1.472738981246948242e-01
-2.911491394042968750e-01 -4.078790545463562012e-03 1.778662502765655518e-01
2.543223500251770020e-01 9.907880425453186035e-02 4.403126612305641174e-02
-4.491733312606811523e-01 1.960650682449340820e-01 -1.928038150072097778e-01
-1.696451604366302490e-01 -7.369030267000198364e-02 -7.391477376222610474e-02
-1.049731612205505371e+00 6.623855233192443848e-02 -2.319732904434204102e-01
-3.853410482406616211e-01 4.816247895359992981e-02 2.284166216850280762e-01
-3.517841398715972900e-01 3.382760658860206604e-02 -2.797168791294097900e-01
-1.047290325164794922e+00 8.587273210287094116e-02 -2.348381429910659790e-01
-8.472444415092468262e-01 1.335644125938415527e-01 -2.525294423103332520e-01
-3.021831512451171875e-01 -8.019424229860305786e-02 -6.646160781383514404e-02
-3.801942467689514160e-01 -4.932456463575363159e-02 1.094883978366851807e-01
-9.800148606300354004e-01 2.435144186019897461e-01 -3.162186592817306519e-02
-9.363698959350585938e-02 2.019437849521636963e-01 8.643798530101776123e-02
-5.885899662971496582e-01 2.483612298965454102e-01 8.640956878662109375e-02
6.253981590270996094e-02 -4.858445376157760620e-02 -5.373847112059593201e-02
-7.474556565284729004e-02 6.896527111530303955e-02 1.947527080774307251e-01
-5.784444212913513184e-01 -3.405003249645233154e-02 -2.255330383777618408e-01
-7.879613041877746582e-01 1.187743544578552246e-01 -2.658326029777526855e-01
9.157454967498779297e-02 7.085047662258148193e-02 -2.035960853099822998e-01
-7.354913353919982910e-01 -7.088143378496170044e-02 -5.128035321831703186e-02
-1.742235422134399414e-01 -7.244347780942916870e-02 -9.331230819225311279e-02
2.113772034645080566e-01 1.219118237495422363e-01 5.678610876202583313e-02
-1.710010170936584473e-01 -2.445198595523834229e-03 1.645169705152511597e-01
-2.688948214054107666e-01 2.187906503677368164e-01 1.156673878431320190e-01
-1.313126385211944580e-01 6.119997799396514893e-02 -2.591169774532318115e-01
-5.194785594940185547e-01 9.189865738153457642e-02 2.487833946943283081e-01
-2.502377331256866455e-01 -7.175252586603164673e-02 -1.257383823394775391e-01
-5.509283542633056641e-01 -7.012214511632919312e-02 -1.410572230815887451e-01
-5.631482601165771484e-02 1.785597801208496094e-01 1.274433135986328125e-01
7.297557592391967773e-02 1.806164085865020752e-01 -1.500232610851526260e-02
-2.634298503398895264e-01 -7.762547582387924194e-02 -8.800116181373596191e-02
-8.218289613723754883e-01 2.491887509822845459e-01 8.085469901561737061e-02
-4.594008326530456543e-01 2.109958231449127197e-01 1.750642359256744385e-01
-3.859505057334899902e-01 1.932499259710311890e-01 -1.906314194202423096e-01
2.623068690299987793e-01 8.862845599651336670e-03 -3.614218160510063171e-02
-4.119271039962768555e-02 -6.549656391143798828e-03 1.329183131456375122e-01
-4.165254831314086914e-01 1.428457945585250854e-01 2.362606674432754517e-01
-1.070077419281005859e+00 -3.168532252311706543e-02 -2.344911359250545502e-02
9.621977806091308594e-04 1.803945004940032959e-01 -1.039772480726242065e-01
-6.010832786560058594e-01 1.819654554128646851e-02 2.103976607322692871e-01
-9.358953237533569336e-01 2.377032339572906494e-01 1.076716184616088867e-01
-3.246867954730987549e-01 8.648654818534851074e-02 -2.781063020229339600e-01
-4.123103618621826172e-01 7.906237244606018066e-02 2.417792230844497681e-01
-1.041190981864929199e+00 7.323513925075531006e-02 2.005939334630966187e-01
-1.172089576721191406e+00 1.269397884607315063e-02 -1.444108188152313232e-01
-7.163692712783813477e-01 2.376088798046112061e-01 -1.094635277986526489e-01
-1.922046244144439697e-01 -3.645917028188705444e-02 1.162817627191543579e-01
-7.263947725296020508e-01 9.242450445890426636e-02 2.463059276342391968e-01
8.223843574523925781e-02 -4.342380911111831665e-02 -8.160243928432464600e-02
-7.305856347084045410e-01 2.523445188999176025e-01 7.122738659381866455e-02
-1.138580739498138428e-01 -2.958419919013977051e-02 -2.054150253534317017e-01
8.509755134582519531e-04 -1.591813564300537109e-02 1.071307659149169922e-01
-6.062085032463073730e-01 2.363004088401794434e-01 1.343928426504135132e-01
-9.135690927505493164e-01 2.323329746723175049e-01 1.293272525072097778e-01
-8.379272818565368652e-01 -4.825360327959060669e-02 6.153210625052452087e-02
-7.216274738311767578e-02 -3.761917352676391602e-02 -1.823365837335586548e-01
-6.417878866195678711e-01 -6.481160968542098999e-02 5.026562884449958801e-02
-1.243348240852355957e+00 7.718943059444427490e-03 5.231156945228576660e-03
-4.028779864311218262e-01 -7.215184718370437622e-02 -1.413406133651733398e-01
2.620475888252258301e-01 1.540007442235946655e-02 1.218760386109352112e-03
-1.125345706939697266e+00 1.902125775814056396e-03 8.778221905231475830e-02
-5.256199836730957031e-01 -8.078976720571517944e-02 -5.366875231266021729e-02
-3.090235888957977295e-01 1.884683966636657715e-03 1.862365752458572388e-01
-9.403923749923706055e-01 2.478430867195129395e-01 -1.624936051666736603e-02
-5.881448388099670410e-01 2.262506186962127686e-01 1.582423001527786255e-01
-9.070023298263549805e-01 1.674110591411590576e-01 2.187287360429763794e-01
-2.062551677227020264e-01 1.881874501705169678e-01 1.626582741737365723e-01
-1.212814092636108398e+00 2.528555691242218018e-02 -1.425526589155197144e-01
4.291951656341552734e-02 6.171911954879760742e-04 -1.997503638267517090e-01
-4.848077595233917236e-01 2.505621612071990967e-01 2.914469316601753235e-02
-1.156639337539672852e+00 2.270753979682922363e-01 9.657815098762512207e-04
-7.277535796165466309e-01 1.538667082786560059e-02 2.002766132354736328e-01
-5.678240060806274414e-01 2.369382679462432861e-01 -1.076142936944961548e-01
-7.176993489265441895e-01 2.561217844486236572e-01 8.457893505692481995e-03
-8.156242966651916504e-01 1.706423163414001465e-01 -2.254775613546371460e-01
-1.100057125091552734e+00 2.322295308113098145e-01 5.711814388632774353e-02
1.537936329841613770e-01 1.458113789558410645e-01 -9.007219970226287842e-02
-4.747932553291320801e-01 -2.005881071090698242e-02 1.663249284029006958e-01
-8.625906705856323242e-01 1.443767398595809937e-01 2.340000420808792114e-01
-3.667888939380645752e-01 1.713430881500244141e-01 -2.205860912799835205e-01
-9.432149529457092285e-01 2.489070594310760498e-01 2.620145305991172791e-02
-1.078927993774414062e+00 6.592974066734313965e-03 1.180753409862518311e-01
-5.605160593986511230e-01 -7.535136491060256958e-02 1.075250282883644104e-02
-1.032944440841674805e+00 1.412032246589660645e-01 -2.196419686079025269e-01
2.016308307647705078e-01 -1.520587503910064697e-02 -2.345490641891956329e-02
-1.222159981727600098e+00 8.394584804773330688e-02 1.553000509738922119e-01
-1.082916498184204102e+00 2.121796905994415283e-01 1.344924420118331909e-01
-9.893134832382202148e-01 -4.416918009519577026e-02 -5.724633485078811646e-02
-2.783415913581848145e-01 1.602809578180313110e-01 2.089627087116241455e-01
-8.553482890129089355e-01 -3.402513265609741211e-02 1.000451445579528809e-01
-2.731216549873352051e-01 -7.625334709882736206e-02 -1.040262728929519653e-01
-1.074328899383544922e+00 6.081575155258178711e-02 -2.242169082164764404e-01
-7.795637249946594238e-01 4.424572363495826721e-02 2.209837883710861206e-01
-6.064252257347106934e-01 -5.234236270189285278e-02 -1.886761188507080078e-01
-5.384308099746704102e-01 2.197220325469970703e-01 -1.535429209470748901e-01
-6.768167018890380859e-01 -7.388960570096969604e-02 -2.391300350427627563e-02
-1.391696691513061523e+00 9.497427195310592651e-02 -8.164918422698974609e-02
-2.651320695877075195e-01 2.260605394840240479e-01 -7.551847398281097412e-02
-8.297328948974609375e-01 -6.138310581445693970e-02 -8.319878578186035156e-02
-1.163229703903198242e+00 2.232503294944763184e-01 -3.021074086427688599e-02
-5.984631776809692383e-01 1.431037485599517822e-02 -2.723681032657623291e-01
-6.692685484886169434e-01 1.540330350399017334e-01 -2.498222291469573975e-01
-1.326388716697692871e+00 6.749022752046585083e-02 8.873616158962249756e-02
-7.575370669364929199e-01 2.544233202934265137e-01 -1.872143335640430450e-02
-1.372664451599121094e+00 8.457332849502563477e-02 -9.546999633312225342e-02
-8.253807425498962402e-01 -6.148468703031539917e-02 -5.080246366560459137e-03
-4.811684787273406982e-01 -6.937695294618606567e-02 5.006050691008567810e-02
-2.584228217601776123e-01 -2.701659500598907471e-02 -2.303770035505294800e-01
-8.185314536094665527e-01 1.570656001567840576e-01 -2.382868081331253052e-01
-1.105477094650268555e+00 -1.445308327674865723e-02 -1.186955720186233521e-01
-9.900139570236206055e-01 -4.129747301340103149e-02 7.694983854889869690e-03
-8.479132056236267090e-01 1.484190970659255981e-01 -2.424546480178833008e-01
1.059648394584655762e-01 7.773929089307785034e-02 1.433120369911193848e-01
-3.635867536067962646e-01 -2.561241388320922852e-02 -2.395336776971817017e-01
-9.116590023040771484e-02 1.614443063735961914e-01 -1.816004365682601929e-01
-2.175904512405395508e-01 -1.734929531812667847e-02 1.521362215280532837e-01
-1.329114198684692383e+00 1.659491956233978271e-01 9.210635721683502197e-02
-4.005447626113891602e-01 2.075311541557312012e-01 1.725901514291763306e-01
-1.083481192588806152e+00 2.367416918277740479e-01 4.606848582625389099e-03
-1.306548714637756348e+00 2.779167518019676208e-02 9.129876270890235901e-03
-1.048762917518615723e+00 1.274053156375885010e-01 2.110523730516433716e-01
-2.156228423118591309e-01 -3.525289893150329590e-02 1.223424077033996582e-01
-7.437754869461059570e-01 3.083639964461326599e-02 2.136027514934539795e-01
-7.278985977172851562e-01 2.050204724073410034e-01 1.964080184698104858e-01
-3.523440957069396973e-01 -2.235469222068786621e-02 1.584221720695495605e-01
-1.286917030811309814e-01 -8.262738585472106934e-03 1.500144153833389282e-01
-9.483091831207275391e-01 -7.660888135433197021e-03 1.329596638679504395e-01
-2.332412600517272949e-01 1.413675546646118164e-01 2.138669192790985107e-01
-6.836056709289550781e-03 1.345429122447967529e-01 -1.915799677371978760e-01
-4.001568555831909180e-01 1.767616569995880127e-01 -2.170357853174209595e-01
-1.351078748703002930e+00 6.606645137071609497e-02 6.645606458187103271e-02
6.402671337127685547e-03 1.592866480350494385e-01 1.317857652902603149e-01
-1.193294048309326172e+00 1.205184757709503174e-01 -1.887518018484115601e-01
-3.778274655342102051e-01 2.420269548892974854e-01 -3.395127132534980774e-02
-9.661378860473632812e-01 2.432218790054321289e-01 -4.121458530426025391e-02
-1.092018365859985352e+00 1.199362426996231079e-01 2.023414075374603271e-01
1.688565015792846680e-01 1.442760974168777466e-01 5.115288868546485901e-02
1.815845370292663574e-01 -2.111107110977172852e-02 -7.163117825984954834e-02
-9.340620040893554688e-01 -4.406363517045974731e-02 -1.178474873304367065e-01
-1.298039078712463379e+00 1.977134943008422852e-01 2.890086919069290161e-02
-1.791099607944488525e-01 -5.108512192964553833e-02 -1.790620982646942139e-01
-3.730979561805725098e-01 2.381478250026702881e-01 -6.012577563524246216e-02
-1.077128052711486816e+00 2.287925183773040771e-01 -6.314530968666076660e-02
1.807538866996765137e-01 1.408214271068572998e-01 -7.645705342292785645e-02
-1.490111947059631348e-01 1.789873093366622925e-01 1.601795852184295654e-01
5.949592590332031250e-02 1.670873761177062988e-01 -1.051326543092727661e-01
-5.305607318878173828e-01 -2.965110540390014648e-02 -2.345278114080429077e-01
-6.041790843009948730e-01 2.212353050708770752e-03 1.935096085071563721e-01
-8.388480544090270996e-01 2.539257705211639404e-01 2.381766960024833679e-02
-1.386441469192504883e+00 6.586607545614242554e-02 1.680515334010124207e-02
-1.404091715812683105e-01 8.280165493488311768e-03 1.710160821676254272e-01
-1.006660699844360352e+00 -3.650367259979248047e-02 2.390849962830543518e-02
-5.479089021682739258e-01 1.188841536641120911e-01 2.497685104608535767e-01
1.971719861030578613e-01 5.497602000832557678e-02 9.726585447788238525e-02
-6.596217751502990723e-01 -3.514859080314636230e-02 1.319784969091415405e-01
-3.870151042938232422e-01 1.914477050304412842e-01 1.942025423049926758e-01
-3.718208372592926025e-01 2.317308783531188965e-01 1.070687919855117798e-01
-1.705900132656097412e-01 2.233504056930541992e-01 2.007947862148284912e-02
-3.787313997745513916e-01 -6.045278161764144897e-02 8.000300824642181396e-02
-5.185846686363220215e-01 2.507302761077880859e-01 -2.468677423894405365e-02
-5.850383043289184570e-01 1.586692780256271362e-01 -2.466244846582412720e-01
-1.132099390029907227e+00 2.278904318809509277e-01 5.735797062516212463e-02
-1.000056743621826172e+00 2.333555221557617188e-01 1.045764535665512085e-01
-1.196292996406555176e+00 1.121867969632148743e-01 1.737739741802215576e-01
-4.074753522872924805e-01 -4.269882291555404663e-02 1.252321004867553711e-01
-1.447041630744934082e-01 1.600905656814575195e-01 -1.976416110992431641e-01
-1.210138797760009766e+00 1.878456175327301025e-01 -1.158533841371536255e-01
-9.815663099288940430e-01 1.940121650695800781e-01 -1.737137436866760254e-01
-2.493531107902526855e-01 1.261625587940216064e-01 2.230798304080963135e-01
-4.461108446121215820e-01 2.370725870132446289e-01 -8.844375610351562500e-02
-9.027953147888183594e-01 1.433322578668594360e-02 -2.364130020141601562e-01
-5.235986113548278809e-01 -7.639332860708236694e-02 9.984474629163742065e-03
-1.178019881248474121e+00 7.810029387474060059e-02 1.673113107681274414e-01
-2.919505834579467773e-01 -7.750748842954635620e-02 -7.973262108862400055e-03
-4.383065104484558105e-01 1.584666520357131958e-01 2.298620790243148804e-01
-1.921321451663970947e-01 9.960747510194778442e-02 -2.584728896617889404e-01
-4.253825843334197998e-01 2.360477447509765625e-01 -8.777199685573577881e-02
1.554165482521057129e-01 1.449101418256759644e-01 6.377410888671875000e-02
-1.179028749465942383e+00 -1.041309535503387451e-02 -2.421275153756141663e-02
-6.099611520767211914e-01 -2.391091734170913696e-02 -2.372223585844039917e-01
-4.432315230369567871e-01 2.486549615859985352e-01 1.300930231809616089e-02
3.487175703048706055e-02 -2.192564308643341064e-02 -1.753418892621994019e-01
-8.406494855880737305e-01 -6.166201084852218628e-02 -6.388995051383972168e-02
-3.888275623321533203e-01 1.640762984752655029e-01 2.212248593568801880e-01
-6.331506371498107910e-02 2.078857272863388062e-01 3.772407770156860352e-03
-7.001407146453857422e-01 1.789781153202056885e-01 2.242233455181121826e-01
-7.698300480842590332e-01 -5.913617461919784546e-02 -1.319333910942077637e-01
-1.144889950752258301e+00 3.879984468221664429e-02 1.432848870754241943e-01
-4.146618247032165527e-01 1.326568275690078735e-01 -2.621796429157257080e-01
-1.032586336135864258e+00 2.158036828041076660e-01 -1.204499155282974243e-01
-4.146412611007690430e-01 2.321088910102844238e-01 -1.008147150278091431e-01
-8.276067972183227539e-01 1.790768802165985107e-01 -2.149195969104766846e-01
-2.279958426952362061e-01 2.276880741119384766e-01 -4.152953624725341797e-02
-6.034662127494812012e-01 -7.621032744646072388e-02 -8.696114644408226013e-03
-9.142001271247863770e-01 1.441060006618499756e-01 -2.376065850257873535e-01
-8.084756135940551758e-01 -2.696310728788375854e-02 1.269956678152084351e-01
-6.998617649078369141e-01 5.673259496688842773e-03 1.918123811483383179e-01
-7.203221321105957031e-01 2.431443929672241211e-01 -8.943091332912445068e-02
-1.116251945495605469e-01 1.443439722061157227e-02 -2.457213103771209717e-01
-6.786254644393920898e-01 2.559294402599334717e-01 1.837424933910369873e-03
-2.362109124660491943e-01 2.074828445911407471e-01 1.346967518329620361e-01
-5.793610215187072754e-01 1.611598581075668335e-02 -2.742591500282287598e-01
1.136547327041625977e-02 -2.906168997287750244e-02 -1.718577891588211060e-01
-1.261302232742309570e-01 -3.741761296987533569e-02 1.013480722904205322e-01
2.054181098937988281e-01 -2.015121281147003174e-03 2.643974870443344116e-02
-2.129830420017242432e-01 1.140926331281661987e-01 2.207155078649520874e-01
-9.617879390716552734e-01 1.074504852294921875e-02 -2.199785262346267700e-01
-4.798004031181335449e-01 2.480340003967285156e-01 -3.475763648748397827e-02
-5.812556743621826172e-01 1.310429126024246216e-01 2.482748478651046753e-01
-4.949939250946044922e-01 6.821680814027786255e-02 -2.884787321090698242e-01
-6.193829178810119629e-01 -1.346188783645629883e-02 1.723958104848861694e-01
-9.180619716644287109e-01 1.792209595441818237e-02 1.776358485221862793e-01
2.649670839309692383e-01 1.113738268613815308e-01 -1.508165057748556137e-02
-1.154684185981750488e+00 8.175484836101531982e-02 1.766011565923690796e-01
-9.404915571212768555e-02 -1.886004209518432617e-02 1.278338134288787842e-01
-3.789595663547515869e-01 -7.554078847169876099e-02 -1.244221925735473633e-01
-1.035605967044830322e-01 2.138396203517913818e-01 -1.601380668580532074e-02
-1.463576555252075195e-01 -7.251300662755966187e-02 -4.580327868461608887e-02
-1.106901884078979492e+00 1.003548055887222290e-01 1.964542418718338013e-01
9.425157308578491211e-02 1.289252936840057373e-01 -1.597446352243423462e-01
2.237175703048706055e-01 1.032146066427230835e-01 -1.151486784219741821e-01
-8.339947462081909180e-01 2.281063497066497803e-01 1.508293449878692627e-01
3.686958551406860352e-02 1.428551971912384033e-01 1.391042172908782959e-01
-3.781557083129882812e-02 -3.002194315195083618e-02 -1.861346215009689331e-01
2.456392049789428711e-01 1.177142262458801270e-01 1.853735372424125671e-02
-4.810654819011688232e-01 2.290988862514495850e-01 1.397559493780136108e-01
-7.226605415344238281e-01 -4.008687287569046021e-02 -1.977863013744354248e-01
-1.375910043716430664e-01 1.497024595737457275e-01 1.888298243284225464e-01
-5.997489690780639648e-01 -2.556686103343963623e-02 1.545577645301818848e-01
-2.189449071884155273e-01 -7.214886695146560669e-02 8.738324046134948730e-03
-6.910609006881713867e-01 -6.750262528657913208e-02 -1.206058859825134277e-01
2.048599720001220703e-02 -9.904652833938598633e-03 -1.962463557720184326e-01
-1.045477390289306641e+00 1.894714832305908203e-01 -1.671024262905120850e-01
-1.904516816139221191e-01 1.052622646093368530e-01 2.185192555189132690e-01
-5.655389428138732910e-01 2.515686750411987305e-01 -3.272426500916481018e-02
-4.418337345123291016e-02 1.140652522444725037e-01 1.851422190666198730e-01
-4.103834629058837891e-01 -3.378724306821823120e-02 -2.303814142942428589e-01
-7.352721691131591797e-02 2.084923386573791504e-01 2.856713160872459412e-02
-7.706892490386962891e-01 2.017482519149780273e-01 1.989911496639251709e-01
-1.030751943588256836e+00 -3.589738160371780396e-02 -8.118256926536560059e-02
-6.992245912551879883e-01 2.507206499576568604e-01 8.221429586410522461e-02
-1.157868623733520508e+00 1.030592918395996094e-01 -2.046683132648468018e-01
-8.745018839836120605e-01 1.711961925029754639e-01 -2.188475877046585083e-01
-5.836390256881713867e-01 5.149224400520324707e-02 2.353918105363845825e-01
-4.289240837097167969e-01 -5.364698916673660278e-02 -1.959749162197113037e-01
-1.301817178726196289e+00 1.864571869373321533e-01 -6.078597903251647949e-02
-1.738492548465728760e-01 -6.347683817148208618e-02 3.837851062417030334e-02
-6.262099146842956543e-01 1.211651712656021118e-01 -2.733230590820312500e-01
-2.666801214218139648e-01 6.794847548007965088e-03 1.872259080410003662e-01
-8.579556941986083984e-01 -4.271855205297470093e-02 7.402935624122619629e-02
-1.536331474781036377e-01 -3.636938333511352539e-02 1.093684583902359009e-01
-1.189919829368591309e+00 2.205143868923187256e-01 -1.684933342039585114e-02
6.585383415222167969e-02 -1.275566965341567993e-02 -1.769628971815109253e-01
-5.802007913589477539e-01 1.824437975883483887e-01 2.202368974685668945e-01
-1.073468446731567383e+00 1.679096221923828125e-01 -1.879370361566543579e-01
-6.336441636085510254e-02 -2.002985775470733643e-02 1.186325699090957642e-01
-7.806995511054992676e-01 5.058133974671363831e-02 -2.733757197856903076e-01
-9.897607564926147461e-01 1.084302365779876709e-02 1.526303738355636597e-01
-5.303524136543273926e-01 1.996720582246780396e-02 2.131265997886657715e-01
-1.371850967407226562e+00 1.147361397743225098e-01 8.901450037956237793e-02
-1.030747294425964355e+00 -2.862404286861419678e-02 -1.199822574853897095e-01
-6.112102866172790527e-01 3.325003758072853088e-02 -2.808522582054138184e-01
1.231455802917480469e-02 1.877549886703491211e-01 -6.675164401531219482e-02
-4.477389454841613770e-01 2.474290728569030762e-01 4.723693802952766418e-02
-7.856453657150268555e-01 -2.787320315837860107e-02 -2.083121985197067261e-01
-1.656027138233184814e-01 2.130076885223388672e-01 -8.338540792465209961e-02
-2.926495373249053955e-01 -8.004470914602279663e-02 -4.735451191663742065e-02
-1.253996849060058594e+00 3.274068981409072876e-02 8.134877681732177734e-02
-1.327589273452758789e+00 3.436304628849029541e-02 -4.486881941556930542e-02
2.117150425910949707e-01 1.416194438934326172e-02 5.319778993725776672e-02
-6.828599572181701660e-01 -6.761623173952102661e-02 2.641479671001434326e-02
-1.048867583274841309e+00 2.239954471588134766e-01 1.175282299518585205e-01
-7.430382966995239258e-01 -5.298449844121932983e-02 -1.622287034988403320e-01
-2.859783172607421875e-02 1.103267967700958252e-01 1.821408718824386597e-01
-1.179085016250610352e+00 2.168975472450256348e-01 -5.154458060860633850e-02
-1.387127995491027832e+00 1.619550585746765137e-01 2.811248973011970520e-02
-6.958895325660705566e-01 -7.194098085165023804e-02 -1.242339238524436951e-02
-8.656520247459411621e-01 -5.805312842130661011e-02 -1.001886092126369476e-02
-3.373096883296966553e-01 2.339441478252410889e-01 -6.844542920589447021e-02
-2.699641287326812744e-01 2.223689854145050049e-01 -9.373286366462707520e-02
-4.077861905097961426e-01 1.817693412303924561e-01 2.078777998685836792e-01
-2.019776403903961182e-01 -6.925898045301437378e-02 -1.253869831562042236e-01
-4.113453626632690430e-01 -4.697430878877639771e-02 -2.091756612062454224e-01
-6.843156218528747559e-01 2.283191978931427002e-01 -1.371032148599624634e-01
-8.470099568367004395e-01 2.035908848047256470e-01 1.913654655218124390e-01
-2.132955193519592285e-01 1.721060574054718018e-01 1.854619532823562622e-01
-8.782711029052734375e-01 -5.800499767065048218e-02 -3.120514564216136932e-02
-1.212243318557739258e+00 2.132614254951477051e-01 -3.980098664760589600e-02
1.636289358139038086e-01 -2.690473943948745728e-02 -6.379331648349761963e-02
-8.108724951744079590e-01 2.434153556823730469e-01 1.091848015785217285e-01
-1.246102154254913330e-01 1.861142814159393311e-01 -1.468764692544937134e-01
-1.342579603195190430e+00 4.666109383106231689e-02 3.114207834005355835e-02
-4.046743512153625488e-01 -6.735324859619140625e-05 1.904109269380569458e-01
-8.088765740394592285e-01 -5.775199085474014282e-02 -1.216184347867965698e-01
-6.715384721755981445e-01 2.324801981449127197e-01 1.473755836486816406e-01
-4.016472697257995605e-01 2.354389727115631104e-01 1.019814461469650269e-01
-1.295230507850646973e+00 4.864411056041717529e-02 8.282271027565002441e-02
-8.183727860450744629e-01 -2.712114900350570679e-02 -2.028380781412124634e-01
-3.187818825244903564e-01 -7.232234627008438110e-02 -1.348572671413421631e-01
-1.845802366733551025e-01 -4.182291775941848755e-02 -1.987921446561813354e-01
-2.290120124816894531e-01 -7.509005814790725708e-02 -9.335328824818134308e-03
-8.150608539581298828e-01 2.350702881813049316e-01 1.354767978191375732e-01
-1.464211940765380859e-02 -3.028783202171325684e-02 -1.785893142223358154e-01
-9.895470738410949707e-02 5.817463994026184082e-02 1.966087371110916138e-01
-9.408416748046875000e-01 -3.710734844207763672e-02 -1.409412026405334473e-01
-3.476322293281555176e-01 2.344738841056823730e-01 8.666571974754333496e-02
-1.113600254058837891e+00 2.184697687625885010e-01 1.079708337783813477e-01
-1.041472434997558594e+00 -3.531216830015182495e-02 -7.264208979904651642e-03
2.329632043838500977e-01 1.226454228162765503e-01 -6.390851736068725586e-02
3.018747568130493164e-01 5.242177844047546387e-02 -5.591447278857231140e-02
-1.052477121353149414e+00 2.049908041954040527e-01 1.560338288545608521e-01
-2.807031571865081787e-01 7.728447765111923218e-02 -2.762924730777740479e-01
-9.025940299034118652e-01 2.371404767036437988e-01 1.169951558113098145e-01
2.022711038589477539e-01 2.781654149293899536e-02 -1.507708281278610229e-01
-6.516330242156982422e-01 1.923416554927825928e-01 -2.067012488842010498e-01
5.868852138519287109e-03 -4.257955402135848999e-02 -1.435770392417907715e-01
-1.383568763732910156e+00 5.993628501892089844e-02 -1.922105997800827026e-02
-6.616224646568298340e-01 2.541382014751434326e-01 -2.499902248382568359e-02
-1.225865364074707031e+00 1.808273494243621826e-01 1.319157779216766357e-01
9.254837036132812500e-02 1.673681139945983887e-01 5.947609618306159973e-02
-6.461361646652221680e-01 2.552019953727722168e-01 3.850776329636573792e-02
