2.538008689880371094e-01 -1.016487926244735718e-01 5.121044516563415527e-01
7.761355489492416382e-02 -1.247447505593299866e-01 -9.645057469606399536e-02
3.430616259574890137e-01 -9.936826676130294800e-02 1.495900452136993408e-01
5.327048897743225098e-02 -1.048624143004417419e-01 2.351074516773223877e-01
3.711761534214019775e-02 -6.250966340303421021e-02 -3.694879114627838135e-01
2.538969516754150391e-01 -3.378944471478462219e-02 -3.273392915725708008e-01
1.477158665657043457e-01 -1.081838011741638184e-01 4.819712340831756592e-01
1.213202625513076782e-01 -1.256672665476799011e-02 1.469804495573043823e-01
1.710167527198791504e-02 -9.533941745758056641e-02 -3.449764847755432129e-02
9.695877879858016968e-02 -1.896560564637184143e-02 -1.115280836820602417e-01
2.568017840385437012e-01 -1.258521080017089844e-01 -3.545214235782623291e-01
2.736750543117523193e-01 -4.938702657818794250e-02 5.496261715888977051e-01
7.358861714601516724e-02 -1.143484711647033691e-01 2.173535674810409546e-01
3.579735159873962402e-01 -7.433598488569259644e-02 2.739510126411914825e-02
2.762306928634643555e-01 -1.306004226207733154e-01 -8.535704016685485840e-02
1.023430153727531433e-01 -1.300173401832580566e-01 -1.805612444877624512e-01
1.244635730981826782e-01 -1.341109573841094971e-01 -1.596532911062240601e-01
3.495079874992370605e-01 -9.383170306682586670e-02 1.338712573051452637e-01
3.474572300910949707e-01 -8.834690600633621216e-02 2.183771282434463501e-01
1.788901090621948242e-01 -1.297762617468833923e-02 3.082776367664337158e-01
2.584969997406005859e-01 -3.862350434064865112e-02 5.278394818305969238e-01
1.881606876850128174e-02 -9.616613388061523438e-02 -1.249569505453109741e-01
1.223918125033378601e-01 -2.355156466364860535e-02 -2.805703282356262207e-01
1.014709770679473877e-01 -1.250564008951187134e-01 1.580088138580322266e-01
2.781013846397399902e-01 -4.368381947278976440e-02 5.097628235816955566e-01
2.043547034263610840e-01 -1.346190869808197021e-01 1.500820666551589966e-01
1.527861058712005615e-01 -3.089255839586257935e-02 -4.032614529132843018e-01
1.519277989864349365e-01 -1.302619874477386475e-01 2.114827185869216919e-01
1.583532840013504028e-01 -1.036212220788002014e-01 -6.084948778152465820e-01
2.056198567152023315e-01 -1.079353690147399902e-02 8.389130979776382446e-02
3.138734102249145508e-01 -5.229453742504119873e-02 -2.787641286849975586e-01
3.419480919837951660e-01 -8.160911500453948975e-02 3.009655475616455078e-01
3.552924990653991699e-01 -7.717009633779525757e-02 1.613488048315048218e-01
2.045838385820388794e-01 -1.278002932667732239e-02 2.716653347015380859e-01
8.065887540578842163e-02 -1.923700049519538879e-02 3.919132053852081299e-02
3.003923296928405762e-01 -1.242154836654663086e-01 -8.369082957506179810e-02
2.987406253814697266e-01 -8.682298660278320312e-02 -4.566169679164886475e-01
1.035973057150840759e-01 -4.166271537542343140e-02 -4.484577476978302002e-01
2.243796885013580322e-01 -2.905750274658203125e-02 5.127959847450256348e-01
2.343859672546386719e-01 -1.797428727149963379e-02 3.336026370525360107e-01
5.014844238758087158e-02 -4.394099116325378418e-02 -3.072958290576934814e-01
3.172086477279663086e-01 -4.112394526600837708e-02 2.978926301002502441e-01
3.445942997932434082e-01 -5.330385267734527588e-02 1.425337232649326324e-02
6.543295085430145264e-02 -4.019914567470550537e-02 4.066682755947113037e-01
1.728611439466476440e-01 -1.358166784048080444e-01 1.039763838052749634e-01
8.937708288431167603e-02 -1.228280588984489441e-01 1.436515003442764282e-01
1.113825440406799316e-01 -1.166291981935501099e-01 -4.739106297492980957e-01
1.073501631617546082e-01 -1.518225297331809998e-02 1.946784853935241699e-01
2.226069271564483643e-01 -3.147025406360626221e-02 -3.685707449913024902e-01
2.162590324878692627e-01 -1.270879805088043213e-01 2.959836721420288086e-01
6.109942495822906494e-02 -1.192837432026863098e-01 -4.062847793102264404e-02
5.820101499557495117e-02 -3.043593838810920715e-02 -1.609883308410644531e-01
8.355393260717391968e-02 -1.216988116502761841e-01 -3.044026792049407959e-01
5.559962987899780273e-02 -1.151739954948425293e-01 6.123203784227371216e-02
8.221504837274551392e-02 -9.729494899511337280e-02 4.263326227664947510e-01
2.804369628429412842e-01 -9.520664811134338379e-02 4.990045130252838135e-01
5.723723769187927246e-02 -9.661857783794403076e-02 3.372617661952972412e-01
1.893311738967895508e-02 -9.660975635051727295e-02 -1.145509257912635803e-02
1.806151419878005981e-01 -1.281701028347015381e-01 -4.307653009891510010e-01
1.959263682365417480e-01 -1.109427660703659058e-01 4.874696433544158936e-01
3.153539896011352539e-01 -4.833371937274932861e-02 3.889844119548797607e-01
3.550167679786682129e-01 -7.781166583299636841e-02 -8.200472593307495117e-02
2.039041668176651001e-01 -1.860933378338813782e-02 -2.105109840631484985e-01
1.388163864612579346e-01 -1.346450746059417725e-01 -2.340763807296752930e-01
2.418941855430603027e-01 -1.867505908012390137e-02 -1.076688766479492188e-01
5.444537103176116943e-02 -2.737602218985557556e-02 -2.445722185075283051e-02
1.591645032167434692e-01 -1.265584081411361694e-01 2.896813750267028809e-01
2.519592046737670898e-01 -1.312077641487121582e-01 -2.690950334072113037e-01
2.609104812145233154e-01 -1.304382085800170898e-01 1.275683194398880005e-01
2.205889374017715454e-01 -1.372658461332321167e-01 -1.801223009824752808e-01
3.037966787815093994e-02 -5.012489482760429382e-02 2.764451205730438232e-01
3.037022054195404053e-02 -1.051283925771713257e-01 -1.043719723820686340e-01
5.931166559457778931e-02 -1.163319498300552368e-01 -2.341873943805694580e-01
1.836782544851303101e-01 -2.296218276023864746e-02 -3.038325309753417969e-01
2.517110109329223633e-01 -1.254889219999313354e-01 2.672217488288879395e-01
2.030312865972518921e-01 -3.990393504500389099e-02 -4.720830917358398438e-01
1.188720613718032837e-01 -1.479853317141532898e-02 2.485095113515853882e-01
2.510751485824584961e-01 -1.979687809944152832e-02 3.103525936603546143e-01
4.585254192352294922e-02 -6.805173307657241821e-02 4.038026928901672363e-01
3.291620612144470215e-01 -5.118201300501823425e-02 -1.654546707868576050e-01
2.335239946842193604e-02 -9.657964855432510376e-02 -2.078572660684585571e-01
1.771723031997680664e-01 -1.347720474004745483e-01 -3.105447292327880859e-01
3.269492387771606445e-01 -4.121227934956550598e-02 1.363804191350936890e-02
2.979846000671386719e-01 -7.492043823003768921e-02 5.191079378128051758e-01
2.900607287883758545e-01 -7.101641595363616943e-02 5.446881651878356934e-01
1.754767894744873047e-01 -4.593602567911148071e-02 -5.295971632003784180e-01
1.270247399806976318e-01 -1.187784820795059204e-01 3.428192436695098877e-01
2.102546244859695435e-01 -1.311608999967575073e-01 2.274276465177536011e-01
1.715234667062759399e-01 -1.311679631471633911e-01 2.213628590106964111e-01
1.202428042888641357e-01 -1.412309706211090088e-02 2.302406728267669678e-01
1.021492630243301392e-01 -2.035345137119293213e-02 -1.703229248523712158e-01
8.893706649541854858e-02 -1.123783141374588013e-01 -4.512338042259216309e-01
8.473368734121322632e-02 -1.265629082918167114e-01 -1.254418194293975830e-01
9.105391055345535278e-02 -1.081303432583808899e-01 3.649429678916931152e-01
2.333528697490692139e-01 -1.354849934577941895e-01 6.610652059316635132e-02
1.961191892623901367e-01 -1.079030707478523254e-01 5.116663575172424316e-01
6.779295951128005981e-02 -3.347577899694442749e-02 -2.651666104793548584e-01
1.837438941001892090e-01 -5.919544398784637451e-02 -5.953643321990966797e-01
1.726578474044799805e-01 -1.383481323719024658e-01 -2.307633124291896820e-02
1.279134154319763184e-01 -1.269704848527908325e-02 -2.317441813647747040e-02
5.754792690277099609e-02 -3.725147619843482971e-02 3.449399471282958984e-01
2.433724254369735718e-01 -5.415018647909164429e-02 -5.125931501388549805e-01
1.714369803667068481e-01 -9.961105883121490479e-03 1.774724572896957397e-01
2.070210725069046021e-01 -1.386224329471588135e-01 -4.323250800371170044e-02
1.615756303071975708e-01 -3.225850313901901245e-02 -4.197735488414764404e-01
2.499990612268447876e-01 -5.985925346612930298e-02 -5.278925299644470215e-01
1.113745942711830139e-01 -1.245781481266021729e-01 -3.774666190147399902e-01
3.105463087558746338e-01 -1.086196154356002808e-01 -3.210087716579437256e-01
1.306202411651611328e-01 -9.586956351995468140e-02 5.414367914199829102e-01
2.330027669668197632e-01 -1.250283569097518921e-01 -4.243747293949127197e-01
1.600560843944549561e-01 -1.295192167162895203e-02 2.998170554637908936e-01
3.105672597885131836e-01 -1.164513230323791504e-01 -2.209169864654541016e-01
1.763617098331451416e-01 -1.375407278537750244e-01 -2.174652516841888428e-01
8.847657591104507446e-02 -4.024944454431533813e-02 4.868280589580535889e-01
1.578180044889450073e-01 -1.220303177833557129e-01 -4.916305541992187500e-01
7.367026805877685547e-02 -6.742178648710250854e-02 -5.153293013572692871e-01
2.846165597438812256e-01 -1.287052482366561890e-01 -2.637572772800922394e-02
1.975738853216171265e-01 -2.109112218022346497e-02 -2.633645832538604736e-01
2.550252079963684082e-01 -7.313794642686843872e-02 -5.597168803215026855e-01
8.891284465789794922e-02 -1.273651272058486938e-01 -3.166794031858444214e-02
3.280198276042938232e-01 -4.127717390656471252e-02 4.444775730371475220e-02
3.134069442749023438e-01 -3.485291823744773865e-02 1.921251714229583740e-01
2.692960500717163086e-01 -2.330500259995460510e-02 2.986527383327484131e-01
1.634054630994796753e-01 -1.378495395183563232e-01 -1.665400713682174683e-01
1.650695651769638062e-01 -6.868278980255126953e-02 -6.272085905075073242e-01
2.708492577075958252e-01 -1.283256262540817261e-01 -2.470625340938568115e-01
2.377152740955352783e-01 -1.366109400987625122e-01 -5.151408165693283081e-02
1.513893306255340576e-01 -1.133626997470855713e-01 4.411451220512390137e-01
1.813247352838516235e-01 -2.468420565128326416e-02 4.992129504680633545e-01
4.049530625343322754e-02 -4.769692569971084595e-02 3.300639092922210693e-01
7.866933941841125488e-03 -6.197838485240936279e-02 -1.081020608544349670e-01
2.727424204349517822e-01 -1.308398693799972534e-01 2.085581049323081970e-02
4.819352924823760986e-02 -1.143510490655899048e-01 -1.081434264779090881e-01
2.634218931198120117e-01 -3.571481630206108093e-02 4.940353035926818848e-01
2.909601032733917236e-01 -1.229947060346603394e-01 1.592344790697097778e-01
1.718420535326004028e-01 -1.212432608008384705e-02 2.823071181774139404e-01
2.308917194604873657e-01 -2.112422138452529907e-02 -2.018598467111587524e-01
2.487794011831283569e-01 -1.834857091307640076e-02 2.808772623538970947e-01
1.369428485631942749e-01 -1.143247336149215698e-01 4.115991592407226562e-01
2.156794518232345581e-01 -1.363078206777572632e-01 8.185813575983047485e-02
2.263186722993850708e-01 -1.076671034097671509e-01 -5.659517645835876465e-01
3.037932515144348145e-02 -6.476508826017379761e-02 3.224791884422302246e-01
3.089208304882049561e-01 -1.106860190629959106e-01 2.733474671840667725e-01
3.194742500782012939e-01 -1.143840774893760681e-01 -1.738492548465728760e-01
1.358808875083923340e-01 -1.158098876476287842e-02 5.000386852771043777e-03
1.021474450826644897e-01 -1.303446739912033081e-01 -1.519451439380645752e-01
3.071228563785552979e-01 -9.354937076568603516e-02 4.291432499885559082e-01
2.747400701045989990e-01 -2.602090314030647278e-02 -1.213265359401702881e-01
1.601392477750778198e-01 -9.987480938434600830e-03 4.224248230457305908e-02
2.108849585056304932e-01 -1.405221968889236450e-02 2.984100878238677979e-01
3.242349326610565186e-01 -1.057805940508842468e-01 2.425067275762557983e-01
3.509564101696014404e-01 -5.913588404655456543e-02 7.240521907806396484e-02
3.383551239967346191e-01 -9.957461804151535034e-02 -1.933121830224990845e-01
2.282020449638366699e-01 -2.512228861451148987e-02 -2.762287557125091553e-01
2.169683277606964111e-01 -1.382169723510742188e-01 -1.139920204877853394e-01
5.136695504188537598e-02 -1.117504984140396118e-01 1.065979823470115662e-01
2.721621394157409668e-01 -1.254494935274124146e-01 -3.015007674694061279e-01
2.655869722366333008e-01 -1.058217585086822510e-01 -5.038444995880126953e-01
8.385698497295379639e-02 -1.239544451236724854e-01 7.314177602529525757e-02
1.600684374570846558e-01 -4.249195009469985962e-02 -5.064380168914794922e-01
7.827782630920410156e-02 -4.510106518864631653e-02 -4.189495146274566650e-01
1.097078621387481689e-02 -8.246416598558425903e-02 -1.779975742101669312e-01
2.157002240419387817e-01 -1.502547413110733032e-02 -9.957966953516006470e-02
2.825590372085571289e-01 -2.973930910229682922e-02 3.539060652256011963e-01
2.201202511787414551e-02 -6.628724187612533569e-02 -2.927096784114837646e-01
1.054399311542510986e-01 -7.821565121412277222e-02 -5.952665209770202637e-01
1.116881296038627625e-01 -2.189118415117263794e-02 -2.304334938526153564e-01
1.855382025241851807e-01 -1.369276642799377441e-01 7.655809074640274048e-02
2.323208749294281006e-01 -8.504565060138702393e-02 6.145184636116027832e-01
1.873754560947418213e-01 -1.907576620578765869e-02 4.281903207302093506e-01
8.285899460315704346e-02 -4.701960831880569458e-02 5.027391910552978516e-01
1.885251402854919434e-01 -1.385096311569213867e-01 -5.892646498978137970e-03
1.260339170694351196e-01 -5.208441615104675293e-02 -5.455611944198608398e-01
1.516108512878417969e-01 -1.473113521933555603e-02 -1.474448442459106445e-01
2.341998368501663208e-01 -9.525558352470397949e-02 5.718269348144531250e-01
3.388681411743164062e-01 -1.061400324106216431e-01 -6.567467749118804932e-02
2.658333480358123779e-01 -1.308534145355224609e-01 8.491621166467666626e-02
1.021891459822654724e-01 -7.599754631519317627e-02 5.662398338317871094e-01
8.832400292158126831e-02 -1.746352389454841614e-02 7.676477730274200439e-02
2.813196778297424316e-01 -2.564977109432220459e-02 -6.357723474502563477e-02
2.884960174560546875e-02 -3.859626129269599915e-02 6.602562963962554932e-02
2.324540615081787109e-01 -4.448899999260902405e-02 6.023243069648742676e-01
2.440622448921203613e-02 -9.059104323387145996e-02 -2.809113264083862305e-01
3.469968438148498535e-01 -7.594353705644607544e-02 2.695149779319763184e-01
3.493831157684326172e-01 -7.712040096521377563e-02 2.440263330936431885e-01
1.245062649250030518e-01 -1.344034075736999512e-01 -1.212975680828094482e-01
5.719387531280517578e-02 -2.849376574158668518e-02 2.083804607391357422e-01
1.581322103738784790e-01 -9.754113852977752686e-03 1.054437831044197083e-01
2.806748151779174805e-01 -2.313584089279174805e-02 4.273473471403121948e-02
1.012641638517379761e-01 -3.930922225117683411e-02 -4.247573614120483398e-01
3.474422395229339600e-01 -9.976290911436080933e-02 1.533820945769548416e-02
3.057953417301177979e-01 -6.025214120745658875e-02 -3.708357810974121094e-01
1.271225363016128540e-01 -1.284617185592651367e-01 -3.583369553089141846e-01
3.255397677421569824e-01 -4.033049941062927246e-02 1.658818721771240234e-01
1.447619199752807617e-01 -1.368558108806610107e-01 -8.436053246259689331e-02
1.495271325111389160e-01 -1.055745780467987061e-02 2.189093641936779022e-02
7.362885773181915283e-02 -1.012454256415367126e-01 3.674294352531433105e-01
2.376869916915893555e-01 -1.355302333831787109e-01 -1.893156617879867554e-01
1.313021779060363770e-02 -7.705967128276824951e-02 1.624712347984313965e-01
3.028860390186309814e-01 -2.979533001780509949e-02 6.870020180940628052e-02
8.663848042488098145e-01 -3.963168337941169739e-02 -2.135755494236946106e-04
7.588925361633300781e-01 -8.260486274957656860e-02 -2.022128365933895111e-02
8.179403543472290039e-01 -6.706400960683822632e-02 -3.447981551289558411e-02
7.960211634635925293e-01 -7.317995280027389526e-02 -3.575290739536285400e-02
8.276376724243164062e-01 -9.447938203811645508e-02 -1.150058023631572723e-02
8.131881952285766602e-01 -4.294531792402267456e-02 -4.103608801960945129e-02
8.045935034751892090e-01 -2.344805747270584106e-02 -2.850308641791343689e-02
7.985671758651733398e-01 -1.095024719834327698e-01 -1.277510263025760651e-02
8.535453081130981445e-01 -5.574140325188636780e-02 6.771356798708438873e-03
8.543486595153808594e-01 -3.253917396068572998e-02 -3.290594369173049927e-02
8.444762229919433594e-01 -5.508052557706832886e-02 -2.994517982006072998e-02
8.299359083175659180e-01 -8.646205067634582520e-02 1.104899775236845016e-02
7.956919074058532715e-01 -4.117263108491897583e-02 -3.887575864791870117e-02
8.209533095359802246e-01 -1.611634343862533569e-02 -2.017837576568126678e-02
7.638505101203918457e-01 -8.974989503622055054e-02 -4.743210040032863617e-03
8.632952570915222168e-01 -1.462787389755249023e-02 -2.937628701329231262e-02
7.712626457214355469e-01 -1.038282141089439392e-01 -2.176831848919391632e-02
7.835236191749572754e-01 -7.286330312490463257e-02 1.564026810228824615e-03
8.316451311111450195e-01 -5.097917094826698303e-02 7.174088619649410248e-03
8.704677820205688477e-01 -2.334075793623924255e-02 -7.870784029364585876e-03
8.561756014823913574e-01 -6.876946240663528442e-02 -1.087826676666736603e-02
7.761267423629760742e-01 -5.590882897377014160e-02 -1.500184275209903717e-02
7.913712263107299805e-01 -4.210516065359115601e-02 -1.330517604947090149e-02
8.662892580032348633e-01 -5.023565143346786499e-02 -1.600476913154125214e-02
8.176636695861816406e-01 -3.670311719179153442e-02 -2.688912674784660339e-03
8.371302485466003418e-01 -7.571233808994293213e-02 -2.212897315621376038e-02
-1.283932328224182129e-01 1.202712021768093109e-02 7.105092406272888184e-01
-3.082707896828651428e-02 3.045817837119102478e-02 5.788896083831787109e-01
7.971158623695373535e-02 -9.131819941103458405e-03 4.344299733638763428e-01
-1.679718196392059326e-01 3.256992995738983154e-02 6.299552321434020996e-01
-3.576426208019256592e-02 4.533631727099418640e-03 6.201699972152709961e-01
-2.041259258985519409e-01 4.332864284515380859e-02 7.588783502578735352e-01
6.336335837841033936e-02 8.565306663513183594e-03 5.386059284210205078e-01
1.094091832637786865e-01 3.674807958304882050e-03 3.564558625221252441e-01
-2.383858561515808105e-01 3.971363604068756104e-02 7.488949894905090332e-01
8.016355335712432861e-02 1.316097192466259003e-02 4.297567307949066162e-01
-9.629968553781509399e-02 -2.282913774251937866e-04 5.900334119796752930e-01
-8.279114961624145508e-02 -3.872334025800228119e-03 5.116192102432250977e-01
-1.727304011583328247e-01 1.210810709744691849e-02 7.109249234199523926e-01
-1.956728398799896240e-01 1.404130924493074417e-02 7.191443443298339844e-01
-1.437045782804489136e-01 4.034764133393764496e-03 5.640903711318969727e-01
-1.242138296365737915e-01 3.563030436635017395e-02 6.302174925804138184e-01
-8.162798732519149780e-02 3.221393749117851257e-02 5.852545499801635742e-01
-3.970193117856979370e-02 1.760123297572135925e-02 4.585315287113189697e-01
-1.306518018245697021e-01 9.119183756411075592e-03 6.882781386375427246e-01
-9.074370563030242920e-02 -2.584838308393955231e-03 5.482151508331298828e-01
9.466417133808135986e-03 1.331424340605735779e-03 5.692179799079895020e-01
-2.187730669975280762e-01 3.156550973653793335e-02 6.748662590980529785e-01
3.543243557214736938e-02 1.653680764138698578e-02 4.356228709220886230e-01
8.617065846920013428e-03 -4.724883474409580231e-03 5.259791016578674316e-01
-4.160116985440254211e-02 -2.813766710460186005e-03 5.635554790496826172e-01
7.795774936676025391e-02 1.484409067779779434e-02 4.629971086978912354e-01
-2.131092920899391174e-02 -7.797301746904850006e-03 4.983081817626953125e-01
7.574523985385894775e-02 4.674258641898632050e-03 5.127254724502563477e-01
5.009321868419647217e-02 -8.583837188780307770e-03 3.300894498825073242e-01
-1.564668715000152588e-01 4.263112694025039673e-02 7.659755945205688477e-01
-2.244227975606918335e-01 1.918724179267883301e-02 7.546920776367187500e-01
5.579102039337158203e-02 1.582184992730617523e-02 4.372173547744750977e-01
-1.704425811767578125e-01 3.709878027439117432e-02 6.663879156112670898e-01
-1.409228146076202393e-01 2.649129182100296021e-02 7.866227626800537109e-01
-4.245691746473312378e-02 -7.413818500936031342e-03 4.482188522815704346e-01
-2.637386918067932129e-01 3.965698555111885071e-02 7.863730192184448242e-01
4.732362926006317139e-02 -1.193740498274564743e-02 4.248655736446380615e-01
1.142562478780746460e-01 -1.273330952972173691e-02 3.423689603805541992e-01
-2.006239891052246094e-01 2.165541797876358032e-02 6.204642057418823242e-01
-5.124425515532493591e-02 2.687935903668403625e-02 5.285763740539550781e-01
-4.151064902544021606e-02 2.605907991528511047e-02 6.906681060791015625e-01
-2.038865387439727783e-01 3.895200043916702271e-02 7.073993086814880371e-01
9.702146053314208984e-04 -6.854950450360774994e-03 5.084506869316101074e-01
-1.412747204303741455e-01 3.855684772133827209e-02 6.683605909347534180e-01
6.052497029304504395e-02 -1.362485159188508987e-02 3.818060159683227539e-01
1.076422631740570068e-02 -7.103960029780864716e-03 3.621282577514648438e-01
-7.138452678918838501e-02 3.582511097192764282e-02 6.798650026321411133e-01
1.002702862024307251e-01 9.956706315279006958e-03 4.472866654396057129e-01
4.263915121555328369e-02 2.940311096608638763e-03 3.520568907260894775e-01
-2.703301608562469482e-03 2.369259670376777649e-02 4.984690546989440918e-01
-2.397970855236053467e-01 4.155315086245536804e-02 7.679316401481628418e-01
-8.051350712776184082e-03 1.509550120681524277e-02 4.305672645568847656e-01
-1.171831339597702026e-01 4.752551205456256866e-03 6.467171907424926758e-01
8.872610330581665039e-02 -2.995709888637065887e-03 4.662573635578155518e-01
-1.564849615097045898e-01 4.104341194033622742e-02 7.063899040222167969e-01
-2.060018107295036316e-02 2.902205288410186768e-02 5.627424716949462891e-01
-2.486518025398254395e-01 2.656791731715202332e-02 8.072250485420227051e-01
-9.062055498361587524e-02 2.996316552162170410e-02 5.658143758773803711e-01
9.100203216075897217e-02 7.551192305982112885e-03 3.763895630836486816e-01
-9.812530875205993652e-02 2.168633788824081421e-02 5.152332782745361328e-01
1.887511461973190308e-02 -1.150519866496324539e-02 3.808591067790985107e-01
-2.315358072519302368e-01 4.457423835992813110e-02 8.296812176704406738e-01
-2.610056996345520020e-01 3.508873656392097473e-02 7.530879974365234375e-01
-1.961420476436614990e-02 -7.022963836789131165e-04 5.743524432182312012e-01
-1.497274041175842285e-01 9.191272780299186707e-03 5.434191823005676270e-01
-7.438818365335464478e-02 1.816182583570480347e-02 7.124751210212707520e-01
1.138688772916793823e-01 5.255500786006450653e-03 3.789203166961669922e-01
-4.597152024507522583e-02 9.071299806237220764e-03 6.526759862899780273e-01
-2.320374846458435059e-01 4.069682210683822632e-02 8.573040962219238281e-01
-1.575111001729965210e-01 3.991957753896713257e-02 8.024449944496154785e-01
-1.718355417251586914e-01 7.557629607617855072e-03 6.259358525276184082e-01
-8.677621930837631226e-02 3.724706172943115234e-02 6.996830105781555176e-01
-6.550747156143188477e-02 -4.321457818150520325e-04 5.922354459762573242e-01
4.206132888793945312e-02 2.004654146730899811e-02 4.822754859924316406e-01
-2.024062424898147583e-01 1.263095065951347351e-02 6.650706529617309570e-01
-6.010356917977333069e-02 -3.811164759099483490e-03 5.511275529861450195e-01
-1.483014523983001709e-01 3.200143948197364807e-02 6.116052269935607910e-01
-1.856709420680999756e-01 1.632649078965187073e-02 5.942106842994689941e-01
7.714353501796722412e-02 -1.179878506809473038e-02 4.081131219863891602e-01
1.239104270935058594e-01 -2.878843806684017181e-03 3.238124251365661621e-01
3.434406220912933350e-02 5.478914827108383179e-04 5.436323881149291992e-01
-1.631264686584472656e-01 2.385155484080314636e-02 7.892531752586364746e-01
-7.717289775609970093e-02 3.128620795905590057e-03 6.281442046165466309e-01
-1.325563639402389526e-01 2.700520679354667664e-03 6.061384081840515137e-01
-1.065647751092910767e-01 2.593971788883209229e-02 7.597309350967407227e-01
-1.230266541242599487e-01 2.189970389008522034e-02 5.353937149047851562e-01
8.254951238632202148e-02 -8.795094676315784454e-03 3.110368847846984863e-01
-2.549406886100769043e-02 -8.966679684817790985e-03 4.346287846565246582e-01
-2.445582300424575806e-02 1.462344452738761902e-02 6.574413776397705078e-01
8.545820415019989014e-02 1.066166069358587265e-02 4.032173454761505127e-01
-7.028722763061523438e-02 4.625670611858367920e-03 4.398316442966461182e-01
-2.783656865358352661e-02 4.649152979254722595e-04 3.944651484489440918e-01
1.920165121555328369e-02 2.484351955354213715e-02 5.633338689804077148e-01
9.060829877853393555e-02 -1.389937754720449448e-02 3.494828939437866211e-01
-4.203742742538452148e-02 3.245479613542556763e-02 6.533355712890625000e-01
3.773891925811767578e-02 1.040674000978469849e-02 3.899496495723724365e-01
-2.679616212844848633e-01 3.234446421265602112e-02 8.325361609458923340e-01
-2.363517284393310547e-01 1.997889019548892975e-02 7.011431455612182617e-01
-1.301379352807998657e-01 4.014353454113006592e-02 7.600088715553283691e-01
-2.409728243947029114e-02 9.266701526939868927e-03 6.371833086013793945e-01
-1.688455939292907715e-01 4.305379465222358704e-02 7.485727667808532715e-01
-2.394427657127380371e-01 2.280234359204769135e-02 7.797640562057495117e-01
-5.766599625349044800e-02 5.169770680367946625e-03 6.364094018936157227e-01
-1.883306801319122314e-01 4.406386613845825195e-02 7.748413681983947754e-01
-6.465484946966171265e-02 3.363066166639328003e-02 6.073721647262573242e-01
5.509255826473236084e-02 -6.625219248235225677e-03 4.779615998268127441e-01
-1.476802229881286621e-01 6.355628371238708496e-03 6.542400121688842773e-01
-1.072899326682090759e-01 7.845023646950721741e-04 5.015441179275512695e-01
7.540717720985412598e-03 -1.049599330872297287e-02 4.550026655197143555e-01
-1.460863649845123291e-01 3.524816781282424927e-02 6.358063817024230957e-01
-6.010763347148895264e-02 3.475253656506538391e-02 6.618958711624145508e-01
-3.733476251363754272e-02 2.895226515829563141e-02 5.509255528450012207e-01
-3.636417910456657410e-02 3.209346905350685120e-02 6.356676220893859863e-01
-7.594612985849380493e-02 2.442820742726325989e-02 5.179994106292724609e-01
-2.419371008872985840e-01 2.123510465025901794e-02 7.519633769989013672e-01
8.953779935836791992e-03 1.676297374069690704e-02 4.370515346527099609e-01
-5.699659883975982666e-02 1.411081291735172272e-02 6.838625073432922363e-01
-1.237608194351196289e-01 2.180255763232707977e-02 7.602068781852722168e-01
-4.080583155155181885e-02 3.195907175540924072e-02 5.983746051788330078e-01
-1.189514920115470886e-01 3.737993538379669189e-02 6.500136256217956543e-01
-2.513240277767181396e-01 3.673080727458000183e-02 8.581581115722656250e-01
1.371750682592391968e-01 -7.943472824990749359e-03 3.439233899116516113e-01
-1.116675883531570435e-01 3.195777162909507751e-02 5.909410715103149414e-01
2.823770046234130859e-05 2.720421552658081055e-02 5.578037500381469727e-01
-1.025467664003372192e-01 3.845117613673210144e-02 6.776468157768249512e-01
-2.156532853841781616e-01 4.023154824972152710e-02 7.294574975967407227e-01
-7.909087836742401123e-02 -3.846683539450168610e-03 5.341836214065551758e-01
1.132775098085403442e-01 -7.330047897994518280e-03 4.067693352699279785e-01
1.763114333152770996e-02 -1.160524133592844009e-02 4.322839975357055664e-01
-5.623058974742889404e-02 3.033468686044216156e-02 5.640844106674194336e-01
-2.172890305519104004e-01 2.747943997383117676e-02 8.211727142333984375e-01
-2.207635194063186646e-01 4.478257894515991211e-02 8.125681877136230469e-01
1.335665285587310791e-01 -4.595583304762840271e-04 3.657297492027282715e-01
-1.297749131917953491e-01 6.760828197002410889e-03 6.661574244499206543e-01
2.483651041984558105e-03 8.344688452780246735e-03 3.920656442642211914e-01
-3.597289323806762695e-03 1.944746822118759155e-02 4.590766429901123047e-01
6.402617692947387695e-02 1.349979825317859650e-02 4.171512126922607422e-01
-1.677969992160797119e-01 1.596966572105884552e-02 7.453441619873046875e-01
-2.331670820713043213e-01 2.244106866419315338e-02 6.785234212875366211e-01
-2.154860645532608032e-02 2.187553420662879944e-02 4.810128808021545410e-01
-2.178572267293930054e-01 1.678953133523464203e-02 7.299864888191223145e-01
1.961818337440490723e-02 1.099290046840906143e-02 3.977515399456024170e-01
-2.031848430633544922e-01 3.030383959412574768e-02 6.507226824760437012e-01
5.978329479694366455e-02 -1.253615599125623703e-02 4.090761542320251465e-01
-1.915928348898887634e-02 2.492662891745567322e-02 5.085545778274536133e-01
5.513757467269897461e-02 1.899023167788982391e-02 5.194681286811828613e-01
-2.075967043638229370e-01 3.945541754364967346e-02 8.467916250228881836e-01
-2.580510675907135010e-01 4.311339557170867920e-02 8.187825679779052734e-01
-2.781487107276916504e-01 3.392500802874565125e-02 7.972091436386108398e-01
-1.770985722541809082e-01 3.981302678585052490e-02 6.971787214279174805e-01
6.232422590255737305e-02 -8.830954320728778839e-03 4.528540372848510742e-01
3.982421755790710449e-02 -1.250382792204618454e-02 3.625559806823730469e-01
-1.439933478832244873e-01 1.697073318064212799e-02 7.469125390052795410e-01
-3.023640811443328857e-02 2.740624733269214630e-02 5.339519381523132324e-01
-7.046941667795181274e-02 1.617408543825149536e-02 4.699395895004272461e-01
6.626959145069122314e-02 1.711432076990604401e-02 4.824518561363220215e-01
4.988886415958404541e-03 -1.081730704754590988e-02 3.961434066295623779e-01
-2.220588326454162598e-01 3.522044047713279724e-02 6.980908513069152832e-01
-2.579697594046592712e-02 1.104667782783508301e-02 4.190819859504699707e-01
-1.346246302127838135e-01 1.461391057819128036e-02 7.295345067977905273e-01
1.618660986423492432e-02 2.505329065024852753e-02 5.409268736839294434e-01
-2.057102769613265991e-01 4.454077035188674927e-02 7.905715703964233398e-01
-2.700135409832000732e-01 3.624153882265090942e-02 8.496749401092529297e-01
-1.408033221960067749e-01 3.111953847110271454e-03 5.899295210838317871e-01
-1.195525005459785461e-02 2.783226408064365387e-02 6.313449144363403320e-01
-5.572684109210968018e-02 3.183891996741294861e-02 5.836425423622131348e-01
-1.247974708676338196e-01 1.075674407184123993e-02 5.068750977516174316e-01
-1.472613215446472168e-02 -3.747473470866680145e-03 3.825853466987609863e-01
-1.537253260612487793e-01 3.974679857492446899e-02 6.867924332618713379e-01
-1.197609826922416687e-01 3.883727267384529114e-02 6.726488471031188965e-01
-3.951398655772209167e-02 2.423534542322158813e-02 5.035991072654724121e-01
6.442560255527496338e-02 9.948308579623699188e-03 3.862494826316833496e-01
-4.266209155321121216e-02 -5.250872112810611725e-03 5.339202880859375000e-01
-7.198623567819595337e-02 2.179636806249618530e-02 4.994437396526336670e-01
5.487942695617675781e-02 -3.380167298018932343e-03 5.013412833213806152e-01
-1.281938701868057251e-01 4.085575416684150696e-02 7.240656614303588867e-01
-1.103817075490951538e-01 1.129826158285140991e-02 6.999660134315490723e-01
-9.258088469505310059e-02 3.665366768836975098e-02 6.447329521179199219e-01
-8.457066863775253296e-02 3.383662551641464233e-02 6.042879819869995117e-01
-1.921708285808563232e-01 2.600309252738952637e-02 8.093315362930297852e-01
-9.643480926752090454e-02 7.655483204871416092e-03 6.698331832885742188e-01
-1.737726330757141113e-01 8.408996276557445526e-03 6.548458933830261230e-01
-5.920143797993659973e-02 3.438878059387207031e-02 6.318084001541137695e-01
-1.913979947566986084e-01 4.100710898637771606e-02 8.318264484405517578e-01
-2.269380837678909302e-01 2.497412264347076416e-02 8.056985139846801758e-01
-7.091540098190307617e-02 -5.025646649301052094e-03 4.902184009552001953e-01
1.261731684207916260e-01 -5.437337793409824371e-03 3.944123685359954834e-01
-3.857268765568733215e-02 2.201456576585769653e-02 4.862361848354339600e-01
2.774761617183685303e-02 2.269652858376502991e-02 5.087653994560241699e-01
-1.095539182424545288e-01 -7.945308461785316467e-04 5.355896353721618652e-01
-2.365148365497589111e-01 3.494992107152938843e-02 7.143098711967468262e-01
2.954093366861343384e-02 1.851556636393070221e-02 4.531198441982269287e-01
-8.962707221508026123e-02 1.519995089620351791e-02 4.809311628341674805e-01
2.829493582248687744e-02 -8.966726250946521759e-03 4.734955132007598877e-01
-9.563989192247390747e-02 4.635222256183624268e-03 6.451218128204345703e-01
8.244904875755310059e-02 -4.288824275135993958e-04 4.863495528697967529e-01
6.944890320301055908e-02 7.260429672896862030e-03 3.680284023284912109e-01
-1.164776384830474854e-01 3.979710489511489868e-02 7.002363204956054688e-01
-2.353557944297790527e-01 3.794656321406364441e-02 7.315427064895629883e-01
-7.790234684944152832e-02 3.480652719736099243e-02 6.198828220367431641e-01
4.757409542798995972e-02 1.568617857992649078e-02 5.647623538970947266e-01
-1.291507631540298462e-01 2.080714330077171326e-03 5.458021163940429688e-01
-2.126501202583312988e-01 1.484771911054849625e-02 7.024259567260742188e-01
-4.889062047004699707e-02 8.371263742446899414e-03 4.262477755546569824e-01
-7.904751598834991455e-02 -1.320677809417247772e-03 4.610970914363861084e-01
-1.498985886573791504e-01 7.844570092856884003e-03 6.724860072135925293e-01
1.010140627622604370e-01 -1.139717455953359604e-02 3.878415524959564209e-01
-1.820145547389984131e-02 2.993379905819892883e-02 6.104775071144104004e-01
-9.124464541673660278e-02 1.356288790702819824e-03 6.120989322662353516e-01
-1.698887348175048828e-02 6.161972880363464355e-03 6.165594458580017090e-01
1.087789833545684814e-01 -1.152378786355257034e-02 3.096711337566375732e-01
-8.812547475099563599e-02 -1.776355318725109100e-03 5.698307156562805176e-01
1.932811737060546875e-02 2.383445389568805695e-02 5.863987207412719727e-01
-1.575656831264495850e-01 6.239167414605617523e-03 5.783143639564514160e-01
-1.747632324695587158e-01 4.318653792142868042e-02 7.946669459342956543e-01
2.613274008035659790e-02 -3.652676008641719818e-03 3.463383316993713379e-01
9.323330223560333252e-02 -1.311545725911855698e-02 3.718173503875732422e-01
4.120507091283798218e-02 -1.318376045674085617e-02 3.831888139247894287e-01
-5.880188196897506714e-02 7.818071171641349792e-03 -6.323801875114440918e-01
1.978925615549087524e-02 6.342204287648200989e-03 -3.431034088134765625e-01
1.464893668889999390e-02 1.330703124403953552e-02 -4.044612050056457520e-01
7.957607507705688477e-02 -1.985510997474193573e-02 -2.471782565116882324e-01
-1.918891072273254395e-02 6.699199788272380829e-03 -3.636898398399353027e-01
-2.669502198696136475e-01 4.555934667587280273e-02 -8.783502578735351562e-01
-2.979577779769897461e-01 4.345921427011489868e-02 -8.851864337921142578e-01
-1.788560301065444946e-01 1.948143914341926575e-02 -7.948909401893615723e-01
-1.146275550127029419e-02 -1.332452148199081421e-02 -4.253605604171752930e-01
-1.311546713113784790e-01 3.793185949325561523e-02 -7.417349219322204590e-01
4.153887927532196045e-02 -1.643269136548042297e-02 -3.530535697937011719e-01
-1.465840637683868408e-01 -2.981539815664291382e-03 -5.493527054786682129e-01
-2.926275730133056641e-01 2.500313147902488708e-02 -8.463100194931030273e-01
-1.102165505290031433e-01 -7.533516734838485718e-03 -4.892629981040954590e-01
-9.103614091873168945e-02 3.287127614021301270e-02 -6.411500573158264160e-01
3.035928308963775635e-02 9.384316392242908478e-03 -5.183298587799072266e-01
-5.805198475718498230e-02 -1.292436942458152771e-02 -4.181356430053710938e-01
-2.075119316577911377e-01 9.882772341370582581e-03 -5.969482064247131348e-01
-1.719765365123748779e-01 5.998713895678520203e-04 -5.670985579490661621e-01
-5.811781063675880432e-02 -8.258828893303871155e-03 -3.584851622581481934e-01
-2.920978665351867676e-01 3.866795450448989868e-02 -8.292981982231140137e-01
-8.210930228233337402e-02 1.170505397021770477e-02 -6.751461029052734375e-01
1.587617397308349609e-02 -6.298922002315521240e-03 -4.706016778945922852e-01
-4.496797919273376465e-03 -9.760174900293350220e-03 -4.603930413722991943e-01
-1.153902783989906311e-01 5.026224069297313690e-03 -4.458795487880706787e-01
-4.380226507782936096e-02 7.680683862417936325e-03 -6.162021756172180176e-01
1.106627583503723145e-01 -1.669066771864891052e-02 -2.175211012363433838e-01
-3.259067237377166748e-02 -1.224575378000736237e-02 -4.469842910766601562e-01
-2.806971967220306396e-02 2.530669048428535461e-02 -5.614404678344726562e-01
-2.425226867198944092e-01 1.317008771002292633e-02 -7.409242987632751465e-01
-2.325607538223266602e-01 3.773638606071472168e-02 -7.478532791137695312e-01
-2.447254359722137451e-01 1.758968085050582886e-02 -6.689032316207885742e-01
-1.571329236030578613e-01 3.529568761587142944e-02 -8.206798434257507324e-01
9.086935222148895264e-02 -1.891568861901760101e-02 -2.233504056930541992e-01
-4.714382067322731018e-02 6.427290383726358414e-03 -3.819470405578613281e-01
-1.299365758895874023e-01 3.134775906801223755e-02 -6.162321567535400391e-01
-1.360022276639938354e-02 3.737157210707664490e-03 -3.436221480369567871e-01
-1.485085189342498779e-01 1.182301063090562820e-02 -7.278231382369995117e-01
-8.886887878179550171e-02 1.063954271376132965e-02 -4.382312297821044922e-01
-9.455729275941848755e-02 2.550490386784076691e-02 -5.437994599342346191e-01
1.530702412128448486e-02 1.797627471387386322e-02 -5.287322998046875000e-01
-1.223566830158233643e-01 3.863153047859668732e-03 -6.525669097900390625e-01
-2.105017006397247314e-01 7.517231628298759460e-03 -6.859467029571533203e-01
-1.939713656902313232e-01 2.237248606979846954e-02 -6.046705245971679688e-01
-8.862331509590148926e-03 -1.784349791705608368e-03 -5.264112949371337891e-01
-1.548046022653579712e-01 3.831885755062103271e-02 -7.120845913887023926e-01
6.654077768325805664e-02 6.928592454642057419e-03 -3.578451275825500488e-01
-7.050699740648269653e-02 1.960377208888530731e-02 -4.816958904266357422e-01
-5.150121077895164490e-02 1.781074889004230499e-02 -4.582711756229400635e-01
-3.603403270244598389e-02 1.380776520818471909e-02 -6.309548020362854004e-01
-6.935345381498336792e-02 1.656175777316093445e-02 -4.582511186599731445e-01
-2.328366041183471680e-02 -1.592888869345188141e-02 -3.639809489250183105e-01
-1.676372289657592773e-01 3.586818277835845947e-02 -6.819530725479125977e-01
6.570135056972503662e-02 -1.637044735252857208e-02 -2.256518900394439697e-01
-1.910620033740997314e-01 3.784157708287239075e-02 -7.165517807006835938e-01
1.263206452131271362e-02 -8.241496980190277100e-04 -5.087052583694458008e-01
2.676242589950561523e-02 -1.831355132162570953e-02 -3.299455046653747559e-01
-3.008708357810974121e-01 2.611068449914455414e-02 -8.174263834953308105e-01
-1.929858028888702393e-01 3.371651470661163330e-02 -6.778508424758911133e-01
-2.182783186435699463e-02 7.382928859442472458e-03 -5.898385047912597656e-01
-3.064872324466705322e-02 8.584810420870780945e-04 -5.646426677703857422e-01
3.059667348861694336e-02 1.008274592459201813e-02 -3.737131357192993164e-01
-1.839963197708129883e-01 4.118309915065765381e-02 -7.614968419075012207e-01
-1.722391843795776367e-01 3.277839347720146179e-02 -6.539011001586914062e-01
-7.166087627410888672e-03 1.961564458906650543e-02 -4.740163981914520264e-01
3.686618804931640625e-02 6.127618253231048584e-04 -2.989782094955444336e-01
-1.933066248893737793e-01 3.008463606238365173e-02 -6.498353481292724609e-01
-1.468040943145751953e-01 6.066382862627506256e-03 -6.816927194595336914e-01
-2.277145236730575562e-01 4.466885328292846680e-02 -8.382189869880676270e-01
-1.452209353446960449e-01 3.235978074371814728e-03 -6.539412140846252441e-01
1.129807531833648682e-02 1.524465344846248627e-02 -4.254161715507507324e-01
-2.091896235942840576e-01 6.207929924130439758e-03 -6.438339352607727051e-01
-2.107961177825927734e-01 6.730268709361553192e-03 -6.644224524497985840e-01
-1.224851459264755249e-01 3.680690377950668335e-02 -7.027972340583801270e-01
-9.632334113121032715e-04 -1.637193188071250916e-02 -3.029485642910003662e-01
-2.751443386077880859e-01 2.290830947458744049e-02 -7.370258569717407227e-01
-1.695856451988220215e-02 -7.317038252949714661e-03 -3.071978092193603516e-01
-2.721073627471923828e-01 4.304278269410133362e-02 -8.428015708923339844e-01
4.900629818439483643e-02 -5.329087376594543457e-03 -4.380789399147033691e-01
-1.347369253635406494e-01 2.075065299868583679e-02 -5.348565578460693359e-01
4.431506991386413574e-02 -9.228026494383811951e-03 -4.184951186180114746e-01
-2.233830690383911133e-01 4.384431242942810059e-02 -8.172658085823059082e-01
-2.383014112710952759e-01 4.136796668171882629e-02 -7.897359132766723633e-01
-6.088208034634590149e-02 1.977924630045890808e-02 -6.787838935852050781e-01
-2.271085828542709351e-01 4.500086605548858643e-02 -8.612449765205383301e-01
-1.403675228357315063e-01 3.665553778409957886e-02 -7.891821861267089844e-01
-1.795542836189270020e-01 3.578054718673229218e-03 -6.513783931732177734e-01
-1.794538199901580811e-01 1.258809585124254227e-02 -7.483311891555786133e-01
-1.460886895656585693e-01 -6.848759949207305908e-04 -4.964286684989929199e-01
3.086678683757781982e-02 -1.826479472219944000e-02 -2.697138786315917969e-01
-4.142262041568756104e-03 1.103140786290168762e-02 -5.786089301109313965e-01
-6.300766766071319580e-02 2.382072806358337402e-02 -5.173749327659606934e-01
-1.116569861769676208e-01 -1.657512038946151733e-04 -6.108925342559814453e-01
-1.950462907552719116e-01 4.001412540674209595e-03 -6.096100211143493652e-01
-9.902601689100265503e-02 -8.822660893201828003e-03 -4.696676433086395264e-01
1.151990145444869995e-01 -5.542986094951629639e-03 -2.820768058300018311e-01
4.316765069961547852e-02 1.087342668324708939e-02 -3.881033957004547119e-01
-2.276552319526672363e-01 1.604129560291767120e-02 -7.868196964263916016e-01
-2.412231117486953735e-01 2.972631528973579407e-02 -8.854427337646484375e-01
-1.455983668565750122e-01 -2.679580822587013245e-03 -5.145800709724426270e-01
-1.341650784015655518e-01 9.549342095851898193e-03 -4.816524982452392578e-01
-8.638200163841247559e-02 -1.019860431551933289e-02 -4.480141401290893555e-01
-2.014531344175338745e-01 1.242607273161411285e-02 -7.521570920944213867e-01
-2.180132567882537842e-01 2.260826900601387024e-02 -8.349681496620178223e-01
5.830079317092895508e-05 -5.572251975536346436e-03 -4.914950132369995117e-01
1.043473184108734131e-02 -1.671148464083671570e-02 -2.866648137569427490e-01
-2.111168503761291504e-01 2.781105414032936096e-02 -6.536144614219665527e-01
-5.505830049514770508e-04 -1.703579351305961609e-02 -3.582139611244201660e-01
-9.757041186094284058e-02 5.097795277833938599e-03 -6.480521559715270996e-01
1.238137483596801758e-02 -1.212387718260288239e-02 -4.244634509086608887e-01
-1.280785799026489258e-01 2.352970838546752930e-02 -7.699039578437805176e-01
-1.279282271862030029e-01 2.602640539407730103e-03 -4.589819014072418213e-01
5.800230801105499268e-02 4.958267323672771454e-03 -3.293501138687133789e-01
-9.018036723136901855e-02 1.601964235305786133e-03 -6.165916919708251953e-01
1.804589480161666870e-02 -8.322121575474739075e-03 -4.532594978809356689e-01
-2.691462337970733643e-01 2.152814716100692749e-02 -8.298642635345458984e-01
-2.841921746730804443e-01 4.419641941785812378e-02 -8.734515905380249023e-01
-3.674048930406570435e-02 -1.439016312360763550e-02 -4.055860340595245361e-01
-3.678554296493530273e-02 2.227217331528663635e-02 -4.988798499107360840e-01
-3.199426531791687012e-01 3.631489351391792297e-02 -9.179094433784484863e-01
2.355027943849563599e-02 3.607894293963909149e-03 -3.229381442070007324e-01
1.985213160514831543e-02 1.790330372750759125e-02 -4.910515248775482178e-01
-2.094752192497253418e-01 1.085521467030048370e-02 -7.353574037551879883e-01
-2.628860622644424438e-02 -1.519389078021049500e-02 -3.425602912902832031e-01
-1.205681413412094116e-01 2.498188242316246033e-02 -5.535060763359069824e-01
6.216704845428466797e-02 8.200537413358688354e-03 -4.444545507431030273e-01
-1.194500699639320374e-01 2.818704396486282349e-02 -5.802697539329528809e-01
8.062797784805297852e-02 -1.752359792590141296e-02 -2.987638115882873535e-01
-4.164509475231170654e-03 2.173665165901184082e-02 -5.235357880592346191e-01
-4.012854397296905518e-02 -1.375001482665538788e-02 -3.553221225738525391e-01
-2.131667137145996094e-01 3.033083863556385040e-02 -6.715311408042907715e-01
-4.218129441142082214e-02 -5.783651024103164673e-03 -3.372920155525207520e-01
-1.372068077325820923e-01 8.796432055532932281e-03 -6.996506452560424805e-01
-2.169534862041473389e-01 1.904109865427017212e-02 -8.103884458541870117e-01
7.724839448928833008e-02 -5.243364721536636353e-04 -4.126482605934143066e-01
-2.649205327033996582e-01 2.642029523849487305e-02 -7.220863103866577148e-01
-1.369241029024124146e-01 -6.430130451917648315e-04 -6.084228754043579102e-01
-4.783671349287033081e-02 -1.083334907889366150e-02 -4.698668122291564941e-01
7.492536306381225586e-02 -1.582013256847858429e-02 -3.257216811180114746e-01
-8.918962627649307251e-02 3.346456587314605713e-02 -6.763306856155395508e-01
-1.066211238503456116e-01 3.473039716482162476e-02 -6.671151518821716309e-01
-1.226428449153900146e-01 -3.260303288698196411e-03 -5.748917460441589355e-01
-1.987781822681427002e-01 4.216407611966133118e-02 -7.802798151969909668e-01
-2.365069091320037842e-01 1.104718446731567383e-02 -6.865899562835693359e-01
-2.668974101543426514e-01 3.976732492446899414e-02 -8.029434084892272949e-01
-2.234603464603424072e-01 1.831567846238613129e-02 -6.305934190750122070e-01
1.156109273433685303e-01 -6.560374051332473755e-03 -3.003319799900054932e-01
-1.801781356334686279e-01 2.794963493943214417e-02 -6.226069927215576172e-01
-3.197670578956604004e-01 3.737339004874229431e-02 -8.827390670776367188e-01
-7.374392449855804443e-02 3.017021156847476959e-02 -6.011759638786315918e-01
-9.144514799118041992e-02 1.422736421227455139e-02 -4.594064950942993164e-01
-1.006054356694221497e-01 1.155120693147182465e-02 -6.912868618965148926e-01
-1.527472883462905884e-01 2.547107264399528503e-02 -8.012204766273498535e-01
1.043809205293655396e-02 1.355025731027126312e-02 -5.576552748680114746e-01
-2.086116969585418701e-01 1.559204515069723129e-02 -7.812179923057556152e-01
-1.422131955623626709e-01 -2.824721857905387878e-03 -5.681012272834777832e-01
-6.632515788078308105e-02 -1.207545958459377289e-02 -4.336197972297668457e-01
-2.062819749116897583e-01 3.771955519914627075e-02 -8.800712823867797852e-01
-1.663469970226287842e-01 1.818621531128883362e-04 -5.477401614189147949e-01
7.367859780788421631e-02 -1.021002419292926788e-02 -3.741117715835571289e-01
-1.097655594348907471e-01 1.351742073893547058e-02 -4.717983007431030273e-01
-2.079891860485076904e-01 4.325209558010101318e-02 -8.622186183929443359e-01
-2.296492159366607666e-01 1.329104229807853699e-02 -7.565450072288513184e-01
-2.221098691225051880e-01 3.529892116785049438e-02 -8.922243118286132812e-01
-1.095675677061080933e-01 3.257578611373901367e-02 -6.266727447509765625e-01
-2.271899580955505371e-01 1.069488283246755600e-02 -7.205729484558105469e-01
-2.678404450416564941e-01 1.912938989698886871e-02 -8.007189035415649414e-01
-2.090403139591217041e-01 4.040007293224334717e-02 -7.573296427726745605e-01
-1.318384557962417603e-01 3.561264649033546448e-02 -6.701133847236633301e-01
-8.745332062244415283e-02 -8.540898561477661133e-03 -5.012841224670410156e-01
-2.708160281181335449e-01 1.804779469966888428e-02 -7.637836337089538574e-01
-5.537159368395805359e-02 2.560481056571006775e-02 -5.380901098251342773e-01
2.813424170017242432e-02 1.637469232082366943e-02 -4.709840416908264160e-01
-5.994127318263053894e-02 1.113504637032747269e-02 -4.171038866043090820e-01
-2.712298631668090820e-01 4.596918076276779175e-02 -8.985602259635925293e-01
-1.199184507131576538e-01 3.679704293608665466e-02 -7.265203595161437988e-01
-1.795422434806823730e-01 2.303010039031505585e-02 -5.917568802833557129e-01
-1.864092051982879639e-01 2.815835177898406982e-03 -5.887246727943420410e-01
-2.351980954408645630e-01 4.349333792924880981e-02 -9.012185335159301758e-01
-7.662010192871093750e-02 9.668126702308654785e-03 -4.225644171237945557e-01
7.373562455177307129e-02 4.917640239000320435e-03 -3.389278054237365723e-01
-7.139201462268829346e-02 -1.274695619940757751e-03 -3.786596357822418213e-01
-1.366468966007232666e-01 2.547401562333106995e-02 -5.685101151466369629e-01
