-1.198083162307739258e-02 -1.329727843403816223e-02 -5.989021062850952148e-02
-7.738089561462402344e-01 -5.065952613949775696e-02 1.979790441691875458e-02
-7.213554382324218750e-01 1.221368312835693359e-01 8.757683634757995605e-02
-7.953416109085083008e-01 -2.330290898680686951e-02 -4.435815289616584778e-02
-9.172475337982177734e-01 -3.993663564324378967e-02 3.733755275607109070e-02
-3.124020397663116455e-01 1.496912539005279541e-01 -2.686972171068191528e-02
2.402347624301910400e-01 -6.349962204694747925e-03 5.287827551364898682e-02
-8.627437353134155273e-01 -3.866925463080406189e-02 -1.193550974130630493e-02
-1.020232319831848145e+00 1.247381418943405151e-01 2.709056250751018524e-02
-7.336181402206420898e-01 -2.037807926535606384e-02 9.312019497156143188e-02
-7.334914207458496094e-01 6.873811781406402588e-02 1.169529855251312256e-01
2.442735731601715088e-01 6.150918826460838318e-02 -6.425192952156066895e-02
-1.252815246582031250e+00 2.432643994688987732e-02 4.878479242324829102e-02
-7.542954683303833008e-01 1.392485946416854858e-02 -7.190620154142379761e-02
1.934638321399688721e-01 -2.726193889975547791e-02 1.528646517544984818e-02
-1.851290017366409302e-01 7.946935296058654785e-02 1.126307919621467590e-01
-1.254818797111511230e+00 5.488447099924087524e-02 5.478604510426521301e-02
-4.153622388839721680e-01 1.499273031949996948e-01 5.616006255149841309e-02
-8.711702823638916016e-01 -4.216936603188514709e-02 4.340950399637222290e-02
-9.584417939186096191e-02 9.344709664583206177e-02 -7.924103736877441406e-02
-6.475213170051574707e-02 1.382296383380889893e-01 -3.782127425074577332e-02
-6.155093312263488770e-01 1.289782077074050903e-01 8.523157238960266113e-02
-8.527514338493347168e-02 1.054438576102256775e-01 9.577846527099609375e-02
-6.468174457550048828e-01 4.796044155955314636e-02 1.216913983225822449e-01
-5.305552482604980469e-01 1.325251311063766479e-01 8.354276418685913086e-02
-1.052313685417175293e+00 5.571515858173370361e-02 -4.864253848791122437e-02
-9.494991302490234375e-01 1.290719509124755859e-01 -2.333927899599075317e-03
-7.635685205459594727e-01 1.331941783428192139e-01 6.983570009469985962e-02
-4.322312474250793457e-01 1.556371301412582397e-01 -6.730353459715843201e-03
-6.062530279159545898e-01 3.415379300713539124e-02 -8.465643227100372314e-02
-1.195449233055114746e-01 -5.013385787606239319e-02 3.071645647287368774e-02
-7.417552471160888672e-01 1.477555781602859497e-01 7.543742656707763672e-03
-4.737535715103149414e-01 1.570309400558471680e-01 2.643381059169769287e-02
3.379618823528289795e-01 5.832091718912124634e-02 -5.113244056701660156e-02
-1.921349167823791504e-01 1.052074134349822998e-02 1.094997897744178772e-01
-7.151219844818115234e-01 1.402155160903930664e-01 -2.353660762310028076e-02
-2.399190515279769897e-01 1.009315103292465210e-01 -7.896067947149276733e-02
-2.075596749782562256e-01 1.313589513301849365e-01 8.026451617479324341e-02
-2.078318446874618530e-01 -5.481492355465888977e-02 2.288784831762313843e-02
-6.834063529968261719e-01 -2.319381013512611389e-02 -5.319549888372421265e-02
-5.105182528495788574e-01 -4.503886029124259949e-02 -3.363652899861335754e-02
-1.032714366912841797e+00 -2.935659512877464294e-02 3.160706162452697754e-02
-1.740322262048721313e-01 5.145297944545745850e-02 1.162780150771141052e-01
1.941252052783966064e-01 -8.191149681806564331e-03 6.021737679839134216e-02
-9.781728982925415039e-01 1.292666345834732056e-01 3.088743984699249268e-02
-2.008551359176635742e-02 1.309580206871032715e-01 -4.532837495207786560e-02
-1.136159420013427734e+00 5.788819864392280579e-02 -3.443623706698417664e-02
-1.531766057014465332e-01 1.310336217284202576e-02 1.085787042975425720e-01
-2.886304259300231934e-01 -3.042102977633476257e-02 8.514034748077392578e-02
-9.360613822937011719e-01 -2.517604455351829529e-02 -2.434581518173217773e-02
-1.083982229232788086e+00 1.148247569799423218e-01 3.712826967239379883e-02
-6.363180279731750488e-01 7.772253453731536865e-02 1.176553070545196533e-01
-1.053375244140625000e+00 -2.241981402039527893e-02 -1.497946679592132568e-03
-4.070367813110351562e-01 1.276685297489166260e-01 -5.891748517751693726e-02
-8.257738351821899414e-01 1.213895380496978760e-01 -3.928968682885169983e-02
4.585622847080230713e-01 2.974949218332767487e-02 6.253172643482685089e-03
3.941204249858856201e-01 8.427257090806961060e-02 4.048956185579299927e-02
1.877469718456268311e-01 1.111461520195007324e-01 -4.614087194204330444e-02
-3.136420249938964844e-01 1.306194514036178589e-01 8.507394045591354370e-02
-1.175064206123352051e+00 9.748592972755432129e-02 1.013691537082195282e-02
-5.641650557518005371e-01 1.532317548990249634e-01 3.958164528012275696e-02
-5.853285789489746094e-01 1.257937103509902954e-01 8.975662291049957275e-02
-3.585066497325897217e-01 4.511417448520660400e-02 -9.129220247268676758e-02
-1.180628299713134766e+00 8.653002977371215820e-02 -7.587384432554244995e-03
-5.221025943756103516e-01 -7.357414811849594116e-03 -7.246705144643783569e-02
-5.837953090667724609e-01 -4.005246981978416443e-02 7.602030783891677856e-02
-7.893976569175720215e-02 3.218477591872215271e-02 -8.556957542896270752e-02
3.052445352077484131e-01 -1.168680191040039062e-02 1.160125620663166046e-02
-3.147784769535064697e-01 7.831942290067672729e-02 -8.804178982973098755e-02
-2.757855653762817383e-01 4.164647683501243591e-02 1.197971627116203308e-01
1.192912459373474121e-02 7.692597806453704834e-02 -8.031600713729858398e-02
-6.340478658676147461e-01 8.927064388990402222e-02 -7.675693184137344360e-02
-5.385667085647583008e-01 1.011710613965988159e-01 1.095610857009887695e-01
-1.013580203056335449e+00 1.000439152121543884e-01 8.026885241270065308e-02
-2.948355078697204590e-01 1.166008412837982178e-03 1.093146279454231262e-01
-3.355776667594909668e-01 1.084128618240356445e-01 -7.504262030124664307e-02
1.170621812343597412e-01 -3.373663499951362610e-02 2.748533710837364197e-02
-1.072700738906860352e+00 1.024804264307022095e-01 -1.985343173146247864e-02
-4.212093651294708252e-01 1.068418771028518677e-01 -7.508676499128341675e-02
-9.785596132278442383e-01 4.159596189856529236e-02 1.041927486658096313e-01
2.368090450763702393e-01 8.167517930269241333e-02 7.574772834777832031e-02
7.255330681800842285e-02 1.347349733114242554e-01 4.752795025706291199e-02
-4.343601763248443604e-01 1.023420989513397217e-01 1.092415079474449158e-01
-2.522740662097930908e-01 1.565902084112167358e-01 2.526183053851127625e-02
-4.885166585445404053e-01 -5.244408175349235535e-02 -1.817509904503822327e-02
-1.131455898284912109e-01 1.511624306440353394e-01 3.305175527930259705e-02
3.744083642959594727e-02 1.302472800016403198e-01 6.089799106121063232e-02
-1.362402141094207764e-01 -5.220570042729377747e-02 2.039969712495803833e-02
-5.680554509162902832e-01 -1.003349199891090393e-02 1.058342680335044861e-01
1.063381731510162354e-01 5.217684805393218994e-02 9.693359583616256714e-02
-1.042957067489624023e+00 1.118180230259895325e-01 -1.390651799738407135e-02
-8.855973482131958008e-01 9.526709467172622681e-02 9.787977486848831177e-02
-2.701573669910430908e-01 1.417034864425659180e-01 6.893564760684967041e-02
7.319256663322448730e-02 -1.723602414131164551e-03 -6.241299211978912354e-02
1.848629117012023926e-02 3.870712220668792725e-02 -8.220198750495910645e-02
2.693924009799957275e-01 1.146500706672668457e-01 4.023260623216629028e-02
-8.442444801330566406e-01 -4.132192209362983704e-02 -8.674841374158859253e-03
-4.710340499877929688e-02 1.484686732292175293e-01 -9.253833442926406860e-03
-5.170561075210571289e-01 1.521796584129333496e-01 -1.415429823100566864e-02
-3.479086160659790039e-01 1.511116772890090942e-01 -2.351855859160423279e-02
-1.166248798370361328e+00 6.003942340612411499e-02 7.793009281158447266e-02
1.459100544452667236e-01 1.086560189723968506e-01 7.137501239776611328e-02
-2.707203030586242676e-01 8.091704547405242920e-02 -8.721841871738433838e-02
2.444567382335662842e-01 -1.667902991175651550e-02 -1.622408628463745117e-02
-1.128009438514709473e+00 9.872968494892120361e-02 -9.398419409990310669e-03
1.316139400005340576e-01 4.070527106523513794e-02 9.370615333318710327e-02
-1.634425371885299683e-01 -1.313159242272377014e-02 -6.793231517076492310e-02
-5.526958107948303223e-01 -4.146550223231315613e-02 7.456791400909423828e-02
-2.841728925704956055e-02 1.427826732397079468e-01 -2.482161298394203186e-02
-6.774854660034179688e-02 1.242637038230895996e-01 7.909830659627914429e-02
-3.891626000404357910e-01 1.546450257301330566e-01 4.234350472688674927e-02
-1.030974268913269043e+00 -2.909306436777114868e-03 -3.373407199978828430e-02
-6.982066631317138672e-01 1.241398453712463379e-01 8.676939457654953003e-02
3.243749439716339111e-01 1.131743341684341431e-01 1.951618492603302002e-02
3.816069066524505615e-01 8.369803428649902344e-03 -1.452111639082431793e-02
-6.333290934562683105e-01 3.017627820372581482e-02 1.204825341701507568e-01
4.159246385097503662e-01 6.729181110858917236e-02 4.346179962158203125e-02
2.551657855510711670e-01 4.247517138719558716e-02 7.842759042978286743e-02
-4.709778726100921631e-01 2.151182666420936584e-02 -8.612462133169174194e-02
-1.938674896955490112e-01 -1.550180837512016296e-02 -6.704818457365036011e-02
-8.256673812866210938e-01 1.889560744166374207e-02 -6.844719499349594116e-02
-8.815153241157531738e-01 -3.314161673188209534e-02 6.477669626474380493e-02
2.905339002609252930e-02 1.402665674686431885e-01 -2.267235517501831055e-02
-9.069125652313232422e-01 3.685458749532699585e-02 -6.535868346691131592e-02
-1.276293098926544189e-01 2.825732342898845673e-02 -8.636650443077087402e-02
6.371587514877319336e-03 -4.447547718882560730e-02 1.331802271306514740e-02
-8.450366258621215820e-01 -3.521234914660453796e-02 6.587192416191101074e-02
1.172036826610565186e-01 3.953415527939796448e-02 -7.583405077457427979e-02
-3.173461556434631348e-01 1.422339975833892822e-01 6.968273222446441650e-02
-2.399598211050033569e-01 -5.109307542443275452e-02 4.653679206967353821e-02
-7.504291534423828125e-01 2.735950052738189697e-03 1.081201806664466858e-01
-1.020740509033203125e+00 -5.402460694313049316e-03 8.078242838382720947e-02
-1.072775959968566895e+00 -6.545107811689376831e-03 7.115077972412109375e-02
-7.435162067413330078e-01 -1.545224711298942566e-02 -5.593903362751007080e-02
1.179424226284027100e-01 1.383690834045410156e-01 -5.898501724004745483e-03
-3.949003517627716064e-01 3.233208507299423218e-02 1.214050501585006714e-01
3.589405119419097900e-01 5.545438081026077271e-02 6.055939942598342896e-02
1.163613498210906982e-01 -3.460655733942985535e-02 -2.857355400919914246e-03
2.181213796138763428e-01 1.766652613878250122e-02 -5.919425189495086670e-02
-6.876682043075561523e-01 5.039548873901367188e-02 1.206243261694908142e-01
4.517115056514739990e-01 8.101776987314224243e-02 6.809792481362819672e-03
-6.792590618133544922e-01 1.247196942567825317e-01 8.715280145406723022e-02
-1.256595015525817871e+00 1.608412340283393860e-02 2.690748497843742371e-02
-1.862504631280899048e-01 1.558452844619750977e-01 1.318734977394342422e-02
-3.006777167320251465e-02 1.250732988119125366e-01 7.498431205749511719e-02
3.599539101123809814e-01 1.076938062906265259e-01 1.061971113085746765e-02
2.899359166622161865e-01 9.740187227725982666e-02 5.679275095462799072e-02
-5.827733874320983887e-01 -2.076795324683189392e-02 -6.060413271188735962e-02
-5.427043437957763672e-01 6.318885087966918945e-02 1.221667304635047913e-01
-3.473966717720031738e-01 1.525677293539047241e-01 4.857312887907028198e-02
2.160099148750305176e-02 2.957113087177276611e-03 9.146791696548461914e-02
-3.860223293304443359e-02 7.486633956432342529e-02 1.058065816760063171e-01
-8.728346228599548340e-01 -9.458623826503753662e-03 9.330067783594131470e-02
-2.177703082561492920e-01 1.200563311576843262e-01 9.208067506551742554e-02
-1.935522258281707764e-01 1.126720607280731201e-01 -7.102847844362258911e-02
-4.907065033912658691e-01 1.194832473993301392e-01 9.734502434730529785e-02
2.805484235286712646e-01 1.097746044397354126e-01 -3.071242943406105042e-02
-2.177935689687728882e-01 -2.022336050868034363e-02 -6.373782455921173096e-02
-5.231947898864746094e-01 7.780034095048904419e-03 1.154127568006515503e-01
-1.066515564918518066e+00 -1.388632133603096008e-02 -1.428175531327724457e-02
-1.028139293193817139e-01 4.156107455492019653e-02 1.123216152191162109e-01
-6.936327219009399414e-01 1.257698684930801392e-01 -4.738520830869674683e-02
-1.058212995529174805e+00 8.635282516479492188e-02 8.424725383520126343e-02
-5.676615834236145020e-01 -5.504081025719642639e-02 -4.874682053923606873e-03
-9.107292890548706055e-01 -1.644152775406837463e-02 -3.874722123146057129e-02
-9.567283391952514648e-01 1.085409224033355713e-01 -3.546506166458129883e-02
-7.125598192214965820e-01 3.187955170869827271e-02 1.186984851956367493e-01
3.569925129413604736e-01 1.038007363677024841e-01 -1.566695049405097961e-02
-2.648257017135620117e-01 -9.385433048009872437e-03 1.022191792726516724e-01
2.247355878353118896e-01 -2.163146808743476868e-02 2.595973201096057892e-02
-6.202459931373596191e-01 -2.582539245486259460e-02 -5.422040820121765137e-02
-8.055827617645263672e-01 -2.755575999617576599e-02 8.105535805225372314e-02
-4.967373609542846680e-02 1.393152177333831787e-01 5.653353035449981689e-02
-8.597803115844726562e-01 1.304490715265274048e-01 6.268891692161560059e-02
-8.731257915496826172e-01 1.053009182214736938e-01 -4.941947758197784424e-02
-3.399485349655151367e-02 -3.835405781865119934e-02 -2.805966511368751526e-02
-1.350860297679901123e-01 1.353712826967239380e-01 7.076047360897064209e-02
-8.539645075798034668e-01 4.119309410452842712e-02 -7.049950212240219116e-02
-1.581847667694091797e-01 -4.110525920987129211e-02 -3.484680876135826111e-02
-1.733738780021667480e-01 1.489858329296112061e-01 -2.337805554270744324e-02
-8.035525679588317871e-02 1.165962964296340942e-01 -6.426123529672622681e-02
-6.577119827270507812e-01 1.461143344640731812e-01 5.370617657899856567e-02
-8.823248744010925293e-02 6.621903181076049805e-02 -8.678989112377166748e-02
-6.934202313423156738e-01 -1.509421691298484802e-02 9.926372766494750977e-02
-1.141221880912780762e+00 5.455912277102470398e-02 8.363558351993560791e-02
-6.195171475410461426e-01 -1.206110045313835144e-02 1.036223918199539185e-01
-6.094083189964294434e-01 1.487698107957839966e-01 5.099643766880035400e-02
-1.784175187349319458e-01 -9.905606508255004883e-03 9.785854071378707886e-02
-7.906466126441955566e-01 9.599442780017852783e-02 -6.346265226602554321e-02
-8.653448224067687988e-01 4.351193085312843323e-02 1.127715110778808594e-01
-3.646159470081329346e-01 1.227355301380157471e-01 9.399475902318954468e-02
-8.195233345031738281e-01 -5.886498838663101196e-03 9.959948807954788208e-02
-7.538621425628662109e-01 -5.148367956280708313e-02 1.498397812247276306e-02
-9.109743833541870117e-01 9.347418695688247681e-02 9.679873287677764893e-02
-4.819366335868835449e-01 6.681737303733825684e-02 1.218201741576194763e-01
4.134812951087951660e-02 -4.080321267247200012e-02 -3.382636234164237976e-03
2.053218781948089600e-01 6.816558539867401123e-02 8.424715697765350342e-02
-1.161226272583007812e+00 7.050324231386184692e-03 6.542900204658508301e-02
2.117266356945037842e-01 9.717446565628051758e-02 -5.478060245513916016e-02
-7.543572783470153809e-01 3.758133947849273682e-02 -7.745192199945449829e-02
-3.954361081123352051e-01 1.468833982944488525e-01 6.274050474166870117e-02
1.680328547954559326e-01 8.109100162982940674e-03 -5.967155098915100098e-02
-8.282665610313415527e-01 1.429673135280609131e-01 2.367269620299339294e-02
-8.901379108428955078e-01 -1.477931067347526550e-02 8.733988553285598755e-02
-2.194094657897949219e-02 -4.161413386464118958e-02 4.151141270995140076e-02
-3.868891000747680664e-01 -4.959512874484062195e-02 5.922920629382133484e-02
-7.601816058158874512e-01 7.146495580673217773e-02 1.152435243129730225e-01
-1.226944446563720703e+00 5.345065519213676453e-02 6.488603353500366211e-02
-1.108024477958679199e+00 1.123415678739547729e-01 2.209444530308246613e-02
-8.629024624824523926e-01 2.338446676731109619e-02 -6.669120490550994873e-02
-9.192768335342407227e-01 8.505502343177795410e-02 -5.673812329769134521e-02
-6.367855072021484375e-01 1.532917916774749756e-01 1.513830106705427170e-02
-3.411352932453155518e-01 7.094307243824005127e-02 1.195897012948989868e-01
4.443883001804351807e-01 3.076016902923583984e-02 2.576688304543495178e-02
-9.441487789154052734e-01 9.474061429500579834e-02 9.283775836229324341e-02
-7.929939031600952148e-02 -2.366149798035621643e-02 7.907304912805557251e-02
-7.988941073417663574e-01 7.355994731187820435e-02 1.128671467304229736e-01
-3.902952373027801514e-01 1.061231940984725952e-01 -7.598435133695602417e-02
-2.353232204914093018e-01 -2.993014827370643616e-02 -5.444865673780441284e-02
1.096050441265106201e-01 1.023416668176651001e-01 -6.223883479833602905e-02
-6.924866437911987305e-01 5.829144269227981567e-02 -8.129348605871200562e-02
-1.846375763416290283e-01 1.341117173433303833e-01 -5.034189671277999878e-02
-2.024763673543930054e-01 -2.086768671870231628e-02 9.051145613193511963e-02
-1.151918888092041016e+00 7.127946615219116211e-02 7.665665447711944580e-02
-3.374826312065124512e-01 -5.734024569392204285e-02 2.914446592330932617e-02
3.884623944759368896e-01 1.538828387856483459e-02 3.562503308057785034e-02
-1.901675313711166382e-01 3.927445039153099060e-02 -8.975049853324890137e-02
2.801572382450103760e-01 4.849251359701156616e-02 -6.001378595829010010e-02
-6.373825669288635254e-02 1.048850864171981812e-01 9.469256550073623657e-02
5.167546868324279785e-02 9.093102067708969116e-02 -7.301721721887588501e-02
3.765069544315338135e-01 2.839432470500469208e-02 5.036805570125579834e-02
-6.458515524864196777e-01 1.464816778898239136e-01 -1.754033565521240234e-02
-1.008345723152160645e+00 6.800394505262374878e-02 -5.229116231203079224e-02
-4.494501054286956787e-01 1.034666076302528381e-01 -7.649406790733337402e-02
3.524738848209381104e-01 3.048281185328960419e-02 -4.382724314928054810e-02
-1.183550596237182617e+00 8.957993239164352417e-03 -9.746534749865531921e-03
-5.553221702575683594e-02 -9.414330124855041504e-04 -7.168223708868026733e-02
2.024615108966827393e-01 3.157346695661544800e-02 -6.637358665466308594e-02
-5.743818283081054688e-01 5.946525186300277710e-02 1.223086118698120117e-01
-2.353665381669998169e-01 -5.596217885613441467e-02 1.817355118691921234e-02
-1.099438667297363281e+00 2.519504353404045105e-02 8.742201328277587891e-02
-3.050658106803894043e-01 8.110951632261276245e-02 1.162243708968162537e-01
-7.145854234695434570e-01 4.624358564615249634e-02 -8.044479787349700928e-02
-9.273638725280761719e-01 1.348242163658142090e-01 2.441035397350788116e-02
-5.371955633163452148e-01 1.547011584043502808e-01 3.535523265600204468e-02
-3.688156604766845703e-01 1.548096835613250732e-01 -1.201537251472473145e-02
-4.551009237766265869e-01 -1.999447867274284363e-02 -6.495072692632675171e-02
2.604255974292755127e-01 1.474820822477340698e-02 6.777857989072799683e-02
-1.221928119659423828e+00 5.458034947514533997e-02 -1.448364928364753723e-02
-1.106824278831481934e+00 -1.502956822514533997e-02 4.894349724054336548e-02
1.370278298854827881e-01 1.357960850000381470e-01 -1.031778007745742798e-02
-8.341077566146850586e-01 1.180210262537002563e-01 8.346415311098098755e-02
-6.305205225944519043e-01 -6.830822676420211792e-03 -6.873429566621780396e-02
-4.777581095695495605e-01 8.734688162803649902e-02 -8.321393281221389771e-02
-2.513762712478637695e-01 1.518647819757461548e-01 4.639410972595214844e-02
-4.610399603843688965e-01 1.229943633079528809e-01 9.438834339380264282e-02
1.342931389808654785e-02 -1.188788563013076782e-03 -6.740403920412063599e-02
-1.286548018455505371e+00 3.583442792296409607e-02 2.875171974301338196e-02
-1.098546266555786133e+00 -2.052646502852439880e-02 3.240725398063659668e-02
2.488464415073394775e-01 4.345543310046195984e-02 -6.352854520082473755e-02
-3.503291308879852295e-01 -2.714072540402412415e-02 9.069345146417617798e-02
-8.373124599456787109e-01 7.798943668603897095e-02 -6.740719825029373169e-02
-1.275829672813415527e+00 6.447952240705490112e-02 3.152026236057281494e-02
-4.151545166969299316e-01 -1.776942983269691467e-02 1.002320945262908936e-01
-9.144715070724487305e-01 1.121188104152679443e-01 8.142360299825668335e-02
-2.697069644927978516e-01 6.565240025520324707e-02 1.187108457088470459e-01
-8.141158819198608398e-01 3.850996494293212891e-03 -6.316278874874114990e-02
2.208789288997650146e-01 1.021230369806289673e-01 6.569726020097732544e-02
-3.378868103027343750e-03 -4.390415176749229431e-02 -3.654392436146736145e-03
-6.850987076759338379e-01 7.398077100515365601e-02 1.173762530088424683e-01
-2.569047808647155762e-01 1.568473279476165771e-01 3.139325417578220367e-03
4.195719063282012939e-01 2.375506982207298279e-02 -1.960550248622894287e-02
-1.544400453567504883e-01 -4.141661152243614197e-02 6.088884174823760986e-02
2.732336223125457764e-01 1.347751170396804810e-02 -4.886166006326675415e-02
-9.935313463211059570e-01 8.274887502193450928e-02 9.449905902147293091e-02
-5.487805604934692383e-01 1.368695795536041260e-01 -4.322343319654464722e-02
4.032236635684967041e-01 2.578842453658580780e-02 4.033043235540390015e-02
-8.505370616912841797e-01 -3.153742477297782898e-02 -2.765846624970436096e-02
-3.701539635658264160e-01 1.581184864044189453e-01 9.062575176358222961e-03
-7.450935840606689453e-01 -4.014673456549644470e-02 6.733611226081848145e-02
-4.351775050163269043e-01 -5.071163177490234375e-04 -7.818590849637985229e-02
-5.163235068321228027e-01 8.705722540616989136e-02 -8.226304501295089722e-02
-9.463384747505187988e-02 4.542632028460502625e-02 -8.781926333904266357e-02
1.229628622531890869e-01 -2.058747783303260803e-02 -3.730999678373336792e-02
-5.098555684089660645e-01 -3.454156592488288879e-02 -4.906412959098815918e-02
-2.473262995481491089e-01 1.306375563144683838e-01 8.287236094474792480e-02
-9.871146082878112793e-02 1.329424232244491577e-01 -4.805300384759902954e-02
1.599318087100982666e-01 1.191046684980392456e-01 5.801359191536903381e-02
-1.109224200248718262e+00 -1.698609441518783569e-03 6.896382570266723633e-02
-5.463028550148010254e-01 -3.333540633320808411e-02 -4.930512607097625732e-02
-5.727097392082214355e-01 -3.466847911477088928e-02 -4.660622030496597290e-02
-1.103617191314697266e+00 -1.717257872223854065e-02 5.273326300084590912e-03
-1.451036036014556885e-01 3.462171182036399841e-02 -8.809990435838699341e-02
4.134888947010040283e-01 9.483066201210021973e-02 3.921271301805973053e-03
-3.461215794086456299e-01 -2.227726206183433533e-02 -6.380081921815872192e-02
4.408178031444549561e-01 2.159722521901130676e-02 3.676514141261577606e-03
-5.883538722991943359e-01 1.543568372726440430e-01 2.885052561759948730e-02
2.468592226505279541e-01 1.147287636995315552e-01 -3.120867162942886353e-02
-7.895060181617736816e-01 3.162125125527381897e-02 -7.425018399953842163e-02
-6.826138496398925781e-01 -5.335694923996925354e-02 3.590247780084609985e-02
2.818934619426727295e-01 2.680367603898048401e-02 7.006270438432693481e-02
-1.190787315368652344e+00 2.719014696776866913e-02 7.121926546096801758e-02
1.679256260395050049e-01 1.325712502002716064e-01 -1.152913644909858704e-02
3.930695950984954834e-01 2.642621286213397980e-02 -3.158584609627723694e-02
-4.291266500949859619e-01 -3.079340979456901550e-02 -5.504673719406127930e-02
4.182137548923492432e-01 7.897610962390899658e-02 -2.464214712381362915e-02
-1.164363324642181396e-01 1.113447099924087524e-01 9.373112022876739502e-02
-2.890187501907348633e-02 1.113551855087280273e-01 -6.577809900045394897e-02
3.270458877086639404e-01 9.017214179039001465e-03 4.886655509471893311e-02
-7.408366799354553223e-01 4.612867906689643860e-02 1.189045980572700500e-01
-7.737336158752441406e-01 1.161900758743286133e-01 -5.025772750377655029e-02
-6.325009465217590332e-01 1.520967781543731689e-01 3.480321913957595825e-02
1.110570132732391357e-01 1.386230885982513428e-01 2.566386386752128601e-02
-4.411749839782714844e-01 -5.616923049092292786e-02 4.085672646760940552e-02
-6.315495371818542480e-01 1.182275414466857910e-01 -5.911953002214431763e-02
1.256327927112579346e-01 1.090095043182373047e-01 -5.565174669027328491e-02
-4.102816581726074219e-01 4.339019581675529480e-02 1.227293834090232849e-01
7.971295714378356934e-02 8.685015141963958740e-02 -7.283583283424377441e-02
-5.752879381179809570e-01 5.034469068050384521e-02 -8.693155646324157715e-02
-1.624567955732345581e-01 1.380028277635574341e-01 6.886239349842071533e-02
-8.229455947875976562e-01 -4.589996114373207092e-02 2.414661459624767303e-03
-7.329486608505249023e-01 1.425202041864395142e-01 5.418407917022705078e-02
-7.753426432609558105e-01 1.421679705381393433e-01 4.834790527820587158e-02
-7.266348600387573242e-01 8.523003756999969482e-02 -7.309442758560180664e-02
-4.602031707763671875e-01 -5.807214602828025818e-02 3.018456324934959412e-02
6.345257163047790527e-02 4.024197161197662354e-02 1.002510488033294678e-01
-9.212315082550048828e-01 1.281328052282333374e-01 5.628908425569534302e-02
-7.403119802474975586e-01 9.630428254604339600e-02 -6.713834404945373535e-02
-3.886143863201141357e-01 1.579606384038925171e-01 2.282035723328590393e-02
7.333609461784362793e-02 6.256390362977981567e-03 8.827582001686096191e-02
-1.064971446990966797e+00 -2.559624984860420227e-02 2.821088768541812897e-02
-5.017634034156799316e-01 1.446387320756912231e-01 -3.312388435006141663e-02
-1.209931850433349609e+00 1.393254101276397705e-02 -5.458997562527656555e-03
9.315589070320129395e-02 -2.896536514163017273e-02 4.841198027133941650e-02
-3.870256841182708740e-01 6.390310078859329224e-02 -9.038735181093215942e-02
3.827408850193023682e-01 3.886675834655761719e-02 -4.030216485261917114e-02
-1.025268316268920898e+00 1.114638745784759521e-01 -1.891562342643737793e-02
-1.082653522491455078e+00 9.229201823472976685e-03 8.256050944328308105e-02
-8.001947402954101562e-01 1.082002073526382446e-01 9.526484459638595581e-02
3.899562656879425049e-01 8.252917230129241943e-02 -3.129158914089202881e-02
-1.036622047424316406e+00 3.316918015480041504e-02 -5.000377446413040161e-02
1.601133048534393311e-01 -2.229185774922370911e-02 -2.754174917936325073e-02
-1.084256172180175781e-01 7.470127195119857788e-02 -8.588000386953353882e-02
-6.556898355484008789e-03 4.708021879196166992e-02 -8.430618047714233398e-02
-2.785754203796386719e-01 1.565527021884918213e-01 2.888122759759426117e-02
-6.531372070312500000e-01 -5.069166794419288635e-02 5.078246444463729858e-02
-8.173553347587585449e-01 1.674762740731239319e-02 1.106606349349021912e-01
-6.290428638458251953e-01 -5.029677227139472961e-02 -1.526823453605175018e-02
-7.201124429702758789e-01 1.464240998029708862e-01 -5.805259570479393005e-03
-6.611123681068420410e-01 1.521884053945541382e-01 1.237026043236255646e-02
-1.811125576496124268e-01 -5.118434503674507141e-02 -1.101090759038925171e-02
-8.672417402267456055e-01 8.096826821565628052e-02 -6.369855254888534546e-02
1.044115126132965088e-01 1.267877072095870972e-01 5.634815245866775513e-02
-6.238561868667602539e-01 6.875363737344741821e-02 -8.324187248945236206e-02
-9.082974195480346680e-01 -2.381510660052299500e-02 7.560117542743682861e-02
-3.208965659141540527e-01 -4.651011899113655090e-02 -3.214151784777641296e-02
-1.415282487869262695e-01 1.522493511438369751e-01 3.318943828344345093e-02
-6.484990119934082031e-01 4.633860662579536438e-02 -8.387298136949539185e-02
-7.600675225257873535e-01 -3.391850367188453674e-02 -3.463604673743247986e-02
-8.195510506629943848e-02 1.504985541105270386e-01 -6.970942020416259766e-03
-1.099243283271789551e+00 8.946891129016876221e-02 -2.695297822356224060e-02
-1.170110583305358887e+00 2.726215869188308716e-02 7.582517713308334351e-02
-8.629420995712280273e-01 1.230858713388442993e-01 -3.224305436015129089e-02
2.944875061511993408e-01 1.173865348100662231e-01 2.316539175808429718e-02
-3.159019351005554199e-01 -5.689534917473793030e-02 2.969507128000259399e-02
3.122703135013580322e-01 2.391589619219303131e-02 -4.840409010648727417e-02
-9.387950897216796875e-01 3.430050611495971680e-02 1.068302020430564880e-01
-8.081127405166625977e-01 9.971162676811218262e-02 -5.980221182107925415e-02
-9.949973821640014648e-01 -3.255740925669670105e-02 3.834299743175506592e-02
-9.916501045227050781e-01 1.169741153717041016e-01 6.324648857116699219e-02
9.048458933830261230e-02 6.788329035043716431e-02 -7.745965570211410522e-02
-1.672674119472503662e-01 9.924151748418807983e-02 -7.857204973697662354e-02
-5.719275474548339844e-01 -5.763216689229011536e-02 1.673881523311138153e-02
-4.393823742866516113e-01 -8.152827620506286621e-03 1.071536391973495483e-01
-9.654464721679687500e-01 5.718819051980972290e-02 1.048261597752571106e-01
-6.902668476104736328e-01 1.407323777675628662e-01 6.304296106100082397e-02
1.860012114048004150e-01 1.321880146861076355e-02 7.854749262332916260e-02
1.442018151283264160e-02 9.700374305248260498e-02 -7.238413393497467041e-02
-3.668811917304992676e-02 9.551860392093658447e-03 -7.636749744415283203e-02
-5.744377970695495605e-01 7.190825045108795166e-02 -8.463592082262039185e-02
-3.139737248420715332e-02 -4.639367386698722839e-02 2.234899811446666718e-02
-5.210605859756469727e-01 -4.205090180039405823e-02 7.412079721689224243e-02
-1.155111432075500488e+00 1.008995771408081055e-01 4.258437454700469971e-02
-9.663956165313720703e-01 7.132250815629959106e-02 -5.654392391443252563e-02
-5.640593171119689941e-01 1.484351903200149536e-01 -2.092506736516952515e-02
1.362755596637725830e-01 4.198375344276428223e-02 -7.464552670717239380e-02
-9.793550968170166016e-01 1.037328243255615234e-01 8.166427910327911377e-02
2.966329753398895264e-01 1.464410126209259033e-02 6.077008321881294250e-02
-9.323542118072509766e-01 -2.922959998250007629e-02 6.403542309999465942e-02
-1.170562982559204102e+00 6.020875647664070129e-02 -2.671474963426589966e-02
-5.836696028709411621e-01 1.253673136234283447e-01 -5.509551614522933960e-02
5.151104927062988281e-02 1.267726868391036987e-01 -4.434860125184059143e-02
-9.522266387939453125e-01 -3.659049794077873230e-02 7.148288190364837646e-03
-9.547387361526489258e-01 -3.493379428982734680e-02 4.514306038618087769e-02
4.673502743244171143e-01 6.387249380350112915e-02 2.050738222897052765e-02
-8.454440236091613770e-01 -1.878539845347404480e-02 8.741149306297302246e-02
1.562391221523284912e-01 -3.062128648161888123e-02 2.241391129791736603e-02
-3.543680906295776367e-01 -5.804436281323432922e-02 7.225148379802703857e-03
-5.975008010864257812e-01 8.916933834552764893e-02 1.144487336277961731e-01
1.549002528190612793e-02 7.666844129562377930e-02 1.013937443494796753e-01
-2.775943279266357422e-02 -2.584202215075492859e-02 -4.784351587295532227e-02
-8.900687098503112793e-01 -4.181833192706108093e-02 3.867921233177185059e-02
-5.216124057769775391e-01 -5.816413089632987976e-02 2.529583498835563660e-02
-4.948853254318237305e-01 2.437547966837882996e-02 -8.632685244083404541e-02
-2.781789302825927734e-01 -5.295287445187568665e-02 4.420458152890205383e-02
-2.496871054172515869e-01 6.791394203901290894e-03 1.103674322366714478e-01
-6.104844808578491211e-01 1.540879011154174805e-01 2.393354848027229309e-02
-2.333023399114608765e-01 -3.586858510971069336e-03 1.044998914003372192e-01
-2.156433165073394775e-01 1.432599425315856934e-01 -3.767897188663482666e-02
-1.101840019226074219e+00 1.101283282041549683e-01 4.428386688232421875e-02
-5.135360956192016602e-01 -2.070406451821327209e-02 -6.303833425045013428e-02
-4.691579937934875488e-01 1.384799182415008545e-01 -4.443854466080665588e-02
3.657701313495635986e-01 7.660613954067230225e-02 -4.098271578550338745e-02
-6.986410617828369141e-01 5.953546613454818726e-03 1.115692034363746643e-01
-2.165690809488296509e-01 -4.791976138949394226e-02 -2.445068210363388062e-02
-1.346592903137207031e-01 -1.732036098837852478e-02 -6.337694078683853149e-02
1.361544430255889893e-01 5.890821665525436401e-02 9.360598772764205933e-02
-7.304912805557250977e-01 -4.631359502673149109e-02 -1.439409144222736359e-02
-5.405105948448181152e-01 1.471692919731140137e-01 5.953530594706535339e-02
-9.731930494308471680e-01 -2.605422213673591614e-02 6.247233226895332336e-02
-9.801942110061645508e-01 1.249130219221115112e-01 4.913160204887390137e-02
-7.705016136169433594e-01 -4.408494010567665100e-02 5.633877590298652649e-02
-4.899116158485412598e-01 1.548698842525482178e-01 -6.207371130585670471e-03
-2.465709894895553589e-01 -3.107249736785888672e-03 -7.668773084878921509e-02
-9.051872491836547852e-01 1.332939863204956055e-01 -3.322357311844825745e-03
-1.270183801651000977e+00 5.047771334648132324e-02 4.269037395715713501e-03
-1.012143969535827637e+00 -3.207323327660560608e-02 2.583908289670944214e-02
7.395672798156738281e-02 1.130959987640380859e-01 7.636290043592453003e-02
-3.814038634300231934e-01 4.475470632314682007e-02 1.223961710929870605e-01
-1.713535338640213013e-01 2.622254379093647003e-02 1.134496852755546570e-01
-2.654673159122467041e-01 1.497672200202941895e-01 -2.580603584647178650e-02
-2.605741322040557861e-01 -3.164306655526161194e-02 8.248609304428100586e-02
-1.212654352188110352e+00 8.783468604087829590e-02 1.088956929743289948e-02
-1.224279701709747314e-01 3.467499837279319763e-02 1.125893145799636841e-01
-5.102413892745971680e-02 -1.954745873808860779e-02 -5.670443922281265259e-02
2.676772177219390869e-01 7.834413647651672363e-02 -5.728321522474288940e-02
-5.751208662986755371e-01 -2.892349287867546082e-02 9.009905904531478882e-02
-6.828784942626953125e-03 6.525824964046478271e-02 -8.357784152030944824e-02
-5.644753575325012207e-01 -4.693067446351051331e-02 -2.772923186421394348e-02
-6.442719697952270508e-01 -5.585584416985511780e-02 1.676144823431968689e-02
-6.924659013748168945e-01 3.425174951553344727e-02 -8.065257221460342407e-02
-8.854078650474548340e-01 3.500133752822875977e-02 1.107963621616363525e-01
-8.272540569305419922e-02 7.958911359310150146e-02 1.073374375700950623e-01
-1.081613421440124512e+00 1.056285873055458069e-01 6.070709601044654846e-02
-5.882790684700012207e-01 3.213548660278320312e-02 1.215319186449050903e-01
-5.312529206275939941e-02 3.562719747424125671e-02 1.085835844278335571e-01
-1.587294936180114746e-01 2.287303656339645386e-02 -8.584964275360107422e-02
-6.007208824157714844e-01 -4.397920146584510803e-02 -3.128544986248016357e-02
-3.016977310180664062e-01 1.916151121258735657e-02 -8.684609830379486084e-02
1.713049709796905518e-01 -1.322454586625099182e-02 -3.981631249189376831e-02
-6.213414072990417480e-01 -3.911450132727622986e-02 -3.801269456744194031e-02
-4.102800488471984863e-01 1.142204254865646362e-01 1.014609411358833313e-01
-4.601920843124389648e-01 8.474597334861755371e-02 1.172042861580848694e-01
-5.250388383865356445e-02 9.345334023237228394e-03 -9.714238345623016357e-02
-4.604706168174743652e-02 -8.095020800828933716e-02 7.321344316005706787e-02
-1.566245257854461670e-01 1.062080711126327515e-01 2.316254936158657074e-02
-8.355300128459930420e-02 1.970680803060531616e-02 -9.504237771034240723e-02
5.944994091987609863e-02 1.102100983262062073e-01 3.286674618721008301e-02
2.569701075553894043e-01 -1.326258629560470581e-01 2.941651642322540283e-02
-1.386729478836059570e-01 -7.281030062586069107e-03 -8.786494284868240356e-02
5.487294197082519531e-01 4.969178698956966400e-03 6.508726626634597778e-02
-2.264764606952667236e-01 -4.293624311685562134e-02 -4.529121518135070801e-02
-3.059419691562652588e-01 2.316802926361560822e-02 4.444129765033721924e-02
-2.142427861690521240e-01 -1.513386704027652740e-02 7.208629697561264038e-02
-3.500089347362518311e-01 1.805744878947734833e-02 4.330886527895927429e-03
-2.612669765949249268e-02 7.514589279890060425e-02 -7.535912096500396729e-02
3.749402761459350586e-01 5.066736787557601929e-02 8.354156464338302612e-02
1.578349471092224121e-01 -5.244401097297668457e-02 -8.738058060407638550e-02
1.198726594448089600e-01 9.047320485115051270e-02 7.278300076723098755e-02
-1.565769016742706299e-01 3.227037936449050903e-02 -8.731780946254730225e-02
4.350395500659942627e-01 3.902296535670757294e-03 1.071809753775596619e-01
-1.722378730773925781e-01 -4.928851127624511719e-02 6.465185433626174927e-02
5.512048006057739258e-01 -1.745540462434291840e-02 8.310963213443756104e-02
-1.547856926918029785e-01 3.513719141483306885e-02 9.027948975563049316e-02
-4.467120766639709473e-02 8.146123588085174561e-02 -7.014282792806625366e-02
4.522160440683364868e-02 8.830237388610839844e-02 7.782371342182159424e-02
7.970365881919860840e-02 -4.874131828546524048e-02 1.173243075609207153e-01
1.399046033620834351e-01 -1.211339607834815979e-01 -1.692349649965763092e-02
3.251770436763763428e-01 7.926970720291137695e-02 4.515094682574272156e-02
9.427653253078460693e-02 -9.648369625210762024e-03 -9.820891916751861572e-02
1.242516487836837769e-01 -1.107843685895204544e-02 -9.719496965408325195e-02
9.530641138553619385e-02 -9.452383965253829956e-02 8.915019780397415161e-02
-2.827981114387512207e-01 8.277389407157897949e-02 1.600243151187896729e-02
-1.824769675731658936e-01 4.491946101188659668e-02 -8.134496212005615234e-02
-2.432440519332885742e-01 2.484705299139022827e-03 -7.054398208856582642e-02
2.607338428497314453e-01 4.477097652852535248e-03 1.259022802114486694e-01
4.349753260612487793e-02 -1.170398741960525513e-01 2.125214971601963043e-02
1.663808673620223999e-01 -9.953445196151733398e-02 -5.517434328794479370e-02
3.170967102050781250e-01 -1.294092833995819092e-01 5.197042226791381836e-02
4.837624430656433105e-01 -1.183747947216033936e-01 3.937275707721710205e-02
-4.140689969062805176e-03 2.004753425717353821e-02 -9.786587208509445190e-02
2.574397921562194824e-01 2.726535685360431671e-02 1.182114034891128540e-01
3.903049528598785400e-01 -1.003316417336463928e-01 -3.839355707168579102e-02
2.070847153663635254e-02 -1.142500936985015869e-01 1.335243973881006241e-02
4.019943177700042725e-01 -7.415791507810354233e-03 -6.307195872068405151e-02
-2.327049374580383301e-01 8.042524009943008423e-02 4.535070806741714478e-02
3.585532307624816895e-01 -6.951199471950531006e-02 1.172008886933326721e-01
1.729211658239364624e-01 -1.293306201696395874e-01 1.541478931903839111e-02
3.160460591316223145e-01 5.477847531437873840e-03 1.223527938127517700e-01
2.370300441980361938e-01 -4.017313569784164429e-02 1.278621703386306763e-01
1.672891825437545776e-01 -1.271146684885025024e-01 4.022196680307388306e-02
-2.952909469604492188e-01 -6.138952448964118958e-04 4.390285164117813110e-02
-5.918139219284057617e-02 2.804382704198360443e-02 1.071927770972251892e-01
-3.477420210838317871e-01 4.207002371549606323e-02 9.225322864949703217e-03
-2.393449842929840088e-01 -4.940646886825561523e-02 2.614626660943031311e-02
1.112251356244087219e-01 7.319285720586776733e-02 9.351781755685806274e-02
-3.204625844955444336e-01 3.437463194131851196e-03 2.940200269222259521e-02
1.311787068843841553e-01 1.045423522591590881e-01 4.011362791061401367e-02
-9.237027168273925781e-02 -7.732963562011718750e-02 6.253447383642196655e-02
2.401785850524902344e-01 -1.479348540306091309e-02 -8.912648260593414307e-02
-2.698356807231903076e-01 2.951554767787456512e-02 6.009331345558166504e-02
-6.778801977634429932e-02 -9.121080487966537476e-02 -3.133343160152435303e-02
1.960291266441345215e-01 5.684180557727813721e-02 1.039990708231925964e-01
1.308847963809967041e-02 -4.575649648904800415e-02 -8.837190270423889160e-02
-1.510306596755981445e-01 -5.069467425346374512e-02 7.107453793287277222e-02
-2.224494516849517822e-02 -1.051298007369041443e-01 3.409192711114883423e-02
4.299346804618835449e-01 -4.405314102768898010e-04 -5.423485487699508667e-02
5.584203004837036133e-01 -5.044970661401748657e-02 -1.751047186553478241e-02
2.041802853345870972e-01 -5.097626894712448120e-02 -8.598347008228302002e-02
4.588124155998229980e-01 4.740688204765319824e-02 4.784215986728668213e-02
-1.324443221092224121e-01 -3.585018962621688843e-02 8.652213215827941895e-02
3.847569972276687622e-02 9.467110037803649902e-02 -5.235004425048828125e-02
2.600792050361633301e-01 8.722752332687377930e-02 -1.650504209101200104e-02
-1.226672530174255371e-01 -7.605157047510147095e-02 5.161578953266143799e-02
1.808993518352508545e-01 8.747091889381408691e-02 7.116010040044784546e-02
3.611265420913696289e-01 -1.286311596632003784e-01 5.067043006420135498e-02
4.886620342731475830e-01 -1.119255125522613525e-01 4.892176948487758636e-03
-4.296913743019104004e-03 1.143063306808471680e-01 -4.867097362875938416e-03
-1.240331530570983887e-01 9.590903297066688538e-03 9.914233535528182983e-02
5.591105669736862183e-02 3.213676065206527710e-02 1.165068447589874268e-01
5.152130872011184692e-02 1.108541712164878845e-01 -1.402244716882705688e-02
2.620835006237030029e-01 -1.124817430973052979e-01 -3.829968720674514771e-02
2.259357720613479614e-01 1.138542778789997101e-02 -8.779744803905487061e-02
2.938958406448364258e-01 -1.174673810601234436e-01 7.907769829034805298e-02
-1.806955933570861816e-01 -3.470114991068840027e-02 7.301694899797439575e-02
2.088930904865264893e-01 -4.954738169908523560e-02 1.253733336925506592e-01
2.872087657451629639e-01 -6.328801065683364868e-02 1.218490451574325562e-01
8.384882658720016479e-02 -3.961845487356185913e-02 -9.276401251554489136e-02
1.739717423915863037e-01 5.939672142267227173e-02 -7.268850505352020264e-02
-9.529510140419006348e-02 -9.327315539121627808e-02 -5.844010040163993835e-03
6.452447921037673950e-02 -1.099733263254165649e-01 -2.986554242670536041e-02
-2.895416319370269775e-01 1.758423820137977600e-02 5.200157314538955688e-02
1.615877151489257812e-01 1.013881638646125793e-01 4.286565631628036499e-02
3.070639371871948242e-01 -1.273031979799270630e-01 -7.192358374595642090e-03
5.285928249359130859e-01 -5.917981266975402832e-03 8.606968820095062256e-02
8.797096461057662964e-02 9.561422467231750488e-02 6.660595536231994629e-02
-6.744763255119323730e-02 2.794025279581546783e-02 -9.494692087173461914e-02
2.823989391326904297e-01 -9.700219333171844482e-02 -5.439147353172302246e-02
1.494909524917602539e-01 9.542271494865417480e-02 6.103125959634780884e-02
2.767950594425201416e-01 2.106959000229835510e-04 -8.367447555065155029e-02
3.256174921989440918e-01 8.159981667995452881e-02 1.105591282248497009e-02
5.402394533157348633e-01 -1.027826815843582153e-01 5.322103202342987061e-02
1.267706304788589478e-01 -4.018060117959976196e-02 1.238380894064903259e-01
-1.512958407402038574e-01 -2.408008836209774017e-02 -8.035609871149063110e-02
-6.873017549514770508e-02 -5.474549531936645508e-02 9.093777090311050415e-02
1.006920263171195984e-01 -1.177528873085975647e-01 -1.850430108606815338e-02
4.966467916965484619e-01 -1.121649071574211121e-01 5.729173123836517334e-02
5.592747777700424194e-02 -1.158133298158645630e-01 -1.035683974623680115e-02
6.010978668928146362e-02 9.490037709474563599e-02 6.874629110097885132e-02
-3.205664455890655518e-01 -1.213372591882944107e-02 1.078189723193645477e-02
5.491085648536682129e-01 -1.027399674057960510e-01 3.245205059647560120e-02
-9.689331054687500000e-04 -9.615375846624374390e-02 -4.198764264583587646e-02
3.534540534019470215e-02 -4.332963377237319946e-02 -9.043332189321517944e-02
3.052560985088348389e-01 6.774798780679702759e-02 7.834324985742568970e-02
-1.379606425762176514e-01 1.094932481646537781e-01 -1.617171801626682281e-02
1.324835121631622314e-01 -1.259046047925949097e-01 6.632986478507518768e-03
1.014890745282173157e-01 8.773554116487503052e-02 7.767811417579650879e-02
6.584687530994415283e-02 -1.199790313839912415e-01 1.587843522429466248e-02
-4.949742555618286133e-02 -6.410414725542068481e-02 8.864907920360565186e-02
5.028445720672607422e-01 -9.898515790700912476e-02 -1.065037213265895844e-02
-1.460405290126800537e-01 -7.890870422124862671e-02 3.019012138247489929e-02
-1.729880869388580322e-01 -3.061827272176742554e-02 -7.278478145599365234e-02
-1.358030438423156738e-01 5.310942977666854858e-02 8.763351291418075562e-02
-4.988148808479309082e-02 6.285453587770462036e-02 -8.336650580167770386e-02
1.704085171222686768e-01 -3.572198003530502319e-02 -9.194117784500122070e-02
2.499002218246459961e-01 -1.241780072450637817e-01 6.445614248514175415e-02
1.307713538408279419e-01 2.532804198563098907e-02 -9.296806901693344116e-02
1.592580974102020264e-01 -7.833563536405563354e-02 1.100757792592048645e-01
-1.956776678562164307e-01 -4.739049822092056274e-02 -5.277743935585021973e-02
3.943217098712921143e-01 -5.618546903133392334e-02 -6.307756155729293823e-02
-3.256033658981323242e-01 6.647504866123199463e-02 -2.030551619827747345e-02
1.924846172332763672e-01 -9.966950863599777222e-02 9.564007073640823364e-02
3.710480332374572754e-01 -1.063480526208877563e-01 -3.518528491258621216e-02
1.001265794038772583e-01 -5.812148749828338623e-02 1.155926883220672607e-01
-1.876992285251617432e-01 -7.587080821394920349e-03 -8.002803474664688110e-02
-2.263285219669342041e-01 6.025261245667934418e-03 7.411034405231475830e-02
4.315118789672851562e-01 -1.172255054116249084e-01 -6.301723420619964600e-03
-1.766809523105621338e-01 1.064888238906860352e-01 1.082599721848964691e-02
3.232548832893371582e-01 -1.321117877960205078e-01 1.641038805246353149e-02
1.337444633245468140e-01 5.060367286205291748e-02 1.101514771580696106e-01
4.248859584331512451e-01 5.824343115091323853e-02 4.174654558300971985e-02
-2.039692997932434082e-01 4.604247957468032837e-02 -7.783295959234237671e-02
2.586884200572967529e-01 -1.012602448463439941e-02 -8.701851218938827515e-02
1.489846408367156982e-02 3.014529682695865631e-02 1.143244653940200806e-01
2.700000405311584473e-01 4.012971371412277222e-02 1.102301850914955139e-01
2.780087292194366455e-01 6.004656106233596802e-02 -5.349627882242202759e-02
2.546686530113220215e-01 -3.541436046361923218e-02 -8.607821911573410034e-02
-2.192875146865844727e-01 8.233436197042465210e-02 -5.246276408433914185e-02
-3.846274316310882568e-02 2.979623712599277496e-02 -9.566048532724380493e-02
3.860661685466766357e-01 -1.201415583491325378e-01 7.021441310644149780e-02
2.052679955959320068e-01 3.377246856689453125e-02 1.176643818616867065e-01
-1.845443248748779297e-01 -7.131692022085189819e-02 -9.082753211259841919e-03
3.808299005031585693e-01 -2.666070871055126190e-02 -6.948989629745483398e-02
-3.358483314514160156e-02 5.049020797014236450e-02 -8.955435454845428467e-02
-8.510307967662811279e-02 2.304213307797908783e-02 1.045672893524169922e-01
-7.671251893043518066e-02 9.691673517227172852e-02 5.903881043195724487e-02
-1.460575461387634277e-01 9.895470738410949707e-02 4.389147087931632996e-02
3.249921202659606934e-01 5.992299318313598633e-02 -4.089191555976867676e-02
-1.429806351661682129e-01 -5.086240917444229126e-02 -6.486100703477859497e-02
1.811854839324951172e-01 1.033242270350456238e-01 9.751990437507629395e-03
1.924013346433639526e-01 -3.371813148260116577e-02 1.281082481145858765e-01
8.568524569272994995e-02 -1.115383729338645935e-01 -3.067233972251415253e-02
-1.079753041267395020e-02 1.050773784518241882e-01 5.008135735988616943e-02
2.069130390882492065e-01 -3.876229748129844666e-04 -9.157229214906692505e-02
3.696069121360778809e-01 6.607501208782196045e-02 -1.207925751805305481e-02
2.973255515098571777e-01 -2.126049064099788666e-02 -8.256266266107559204e-02
2.803985476493835449e-01 -6.458782404661178589e-02 -7.525338977575302124e-02
3.842012584209442139e-01 1.586401648819446564e-02 1.103028953075408936e-01
1.382915824651718140e-01 1.023306846618652344e-01 -2.072636224329471588e-02
6.033509969711303711e-01 -2.766979299485683441e-02 2.159990184009075165e-02
1.772808879613876343e-01 -1.255389750003814697e-01 -9.317230433225631714e-03
-3.096492588520050049e-02 5.193202197551727295e-02 1.020823940634727478e-01
2.857140898704528809e-01 8.597969263792037964e-02 4.476363211870193481e-02
1.601257920265197754e-02 -1.068862900137901306e-01 -2.410317026078701019e-02
-2.496281564235687256e-01 -3.044293075799942017e-02 4.733815044164657593e-02
7.640086114406585693e-03 6.651746481657028198e-02 -8.089191466569900513e-02
2.941952943801879883e-01 -3.235817421227693558e-03 1.259751319885253906e-01
