-1.245980024337768555e+00 5.565861612558364868e-02 -1.752527505159378052e-01
-1.405273795127868652e+00 1.648364961147308350e-01 -1.184163540601730347e-01
-8.175981640815734863e-01 1.186978146433830261e-01 -3.499162495136260986e-01
-1.254408359527587891e+00 8.869792520999908447e-02 -2.075596600770950317e-01
-1.121324539184570312e+00 3.657573461532592773e-01 -3.365679457783699036e-02
-8.095916509628295898e-01 -8.498068153858184814e-02 -1.501295268535614014e-01
-1.686192750930786133e-01 5.482493340969085693e-02 2.448146790266036987e-01
-1.304697394371032715e+00 3.290243148803710938e-01 8.830498903989791870e-02
-1.291000127792358398e+00 1.616725921630859375e-01 1.884693056344985962e-01
-1.449242830276489258e+00 2.144386172294616699e-01 4.113050922751426697e-02
-2.049013376235961914e-01 -1.145806759595870972e-01 -6.730704754590988159e-02
-4.381358325481414795e-01 2.974972426891326904e-01 -1.781589239835739136e-01
-1.163894772529602051e+00 8.750493824481964111e-02 -2.583172023296356201e-01
-2.558231055736541748e-01 3.138250112533569336e-01 5.541847273707389832e-02
-1.212104558944702148e+00 1.061102002859115601e-02 -4.356417804956436157e-02
-1.242699503898620605e+00 2.314933240413665771e-01 2.281451225280761719e-01
-5.894739031791687012e-01 1.336319893598556519e-01 3.273014128208160400e-01
-1.052257061004638672e+00 2.297201007604598999e-01 -2.741235792636871338e-01
-9.209471940994262695e-02 -9.493185579776763916e-02 -1.278084218502044678e-01
-3.306870162487030029e-01 1.843596994876861572e-01 -2.933858931064605713e-01
-1.044035434722900391e+00 3.155068159103393555e-01 -1.836389750242233276e-01
-8.312243223190307617e-01 -7.489985227584838867e-02 -1.795499026775360107e-01
-2.524970173835754395e-01 -6.009475886821746826e-02 1.436358094215393066e-01
-7.810477018356323242e-01 3.439616560935974121e-01 2.321559935808181763e-01
2.524155378341674805e-02 -4.482522606849670410e-02 -1.716884076595306396e-01
-9.419950246810913086e-01 -2.141362428665161133e-02 1.318374127149581909e-01
-9.978220462799072266e-01 3.848950266838073730e-01 4.345103725790977478e-02
-6.976621150970458984e-01 3.804369568824768066e-01 1.389369461685419083e-02
-1.305290818214416504e+00 1.978273540735244751e-01 1.941971778869628906e-01
-2.635782361030578613e-01 1.673208326101303101e-01 -2.891451120376586914e-01
-6.187779307365417480e-01 1.297204196453094482e-01 3.265504240989685059e-01
-1.455300807952880859e+00 2.029118537902832031e-01 4.363956861197948456e-03
-4.406850337982177734e-01 -1.026632636785507202e-01 -2.101006656885147095e-01
-9.073966741561889648e-02 8.672720193862915039e-02 2.325759381055831909e-01
-1.234930157661437988e-01 -6.142200529575347900e-02 1.070925369858741760e-01
-5.585767626762390137e-01 3.532147109508514404e-01 -7.354444265365600586e-02
-2.505238056182861328e-01 6.300897151231765747e-02 2.677360177040100098e-01
-6.931248903274536133e-01 3.276929259300231934e-01 -1.755253821611404419e-01
-1.265407562255859375e+00 2.754970490932464600e-01 -1.646101623773574829e-01
-1.187303543090820312e+00 2.994470000267028809e-01 2.187542766332626343e-01
-6.713355183601379395e-01 1.674469560384750366e-01 3.331139981746673584e-01
-3.374318182468414307e-01 -3.422580659389495850e-02 1.948656737804412842e-01
-1.752091050148010254e-01 -8.631333708763122559e-02 -2.052373588085174561e-01
-1.093278169631958008e+00 3.519421517848968506e-01 -9.598851948976516724e-02
-1.926526427268981934e-01 2.770970761775970459e-01 1.531711220741271973e-01
-1.257858514785766602e+00 2.802059054374694824e-01 2.022952884435653687e-01
-9.068117737770080566e-01 2.613928020000457764e-01 -2.694339156150817871e-01
-4.219603836536407471e-01 -4.662062227725982666e-02 1.824423372745513916e-01
-2.345745861530303955e-01 3.687732666730880737e-02 -3.216197788715362549e-01
-1.401378989219665527e+00 1.169924661517143250e-01 -5.557316914200782776e-02
-8.641831874847412109e-01 4.432922601699829102e-02 2.507157921791076660e-01
-8.533238768577575684e-01 1.985451728105545044e-01 3.244498968124389648e-01
-5.013638734817504883e-01 -2.103136479854583740e-02 2.188143432140350342e-01
-7.909278273582458496e-01 1.216621771454811096e-01 -3.520595133304595947e-01
-3.933158516883850098e-01 1.387117058038711548e-02 2.529630661010742188e-01
-2.675332427024841309e-01 6.436292827129364014e-02 2.716469764709472656e-01
-9.529238939285278320e-01 2.893593311309814453e-01 -2.340612262487411499e-01
-1.423518896102905273e+00 2.686480283737182617e-01 -1.349822711199522018e-02
-1.971787214279174805e-02 1.677976399660110474e-01 -1.824053674936294556e-01
-4.016228020191192627e-01 3.279477059841156006e-01 1.643748134374618530e-01
-7.967911362648010254e-01 -7.397347688674926758e-02 5.972855910658836365e-02
-1.043583393096923828e+00 3.551638126373291016e-02 1.859129816293716431e-01
-1.221250534057617188e+00 3.521144390106201172e-01 -1.725971139967441559e-02
-7.328211069107055664e-01 3.726862668991088867e-01 1.528595089912414551e-01
-6.813993453979492188e-01 1.747262030839920044e-01 -3.398078680038452148e-01
-1.826309263706207275e-01 1.024042516946792603e-01 -3.011937141418457031e-01
-4.237439036369323730e-01 4.855755716562271118e-02 -3.517833948135375977e-01
-9.535126090049743652e-01 3.822807669639587402e-01 -1.336136646568775177e-02
-8.975968956947326660e-01 3.534260094165802002e-01 2.133398205041885376e-01
-4.576158523559570312e-01 2.047150135040283203e-01 3.162699043750762939e-01
-1.048966646194458008e+00 4.614454507827758789e-02 1.979196518659591675e-01
-1.138955950736999512e+00 1.355466842651367188e-01 2.449995130300521851e-01
-4.685556888580322266e-01 3.489952683448791504e-01 -3.714490309357643127e-02
-9.720864295959472656e-01 3.820428848266601562e-01 -9.943929500877857208e-03
-9.824460744857788086e-01 3.729780614376068115e-01 1.510038375854492188e-01
-5.063980817794799805e-02 -7.935836911201477051e-02 -1.539254188537597656e-01
-1.062039613723754883e+00 9.776119142770767212e-02 2.457201629877090454e-01
-9.782624244689941406e-01 2.497594654560089111e-01 3.002966344356536865e-01
-6.260491013526916504e-01 7.027286291122436523e-02 -3.613512814044952393e-01
-8.844014406204223633e-01 3.498395085334777832e-01 -1.366576403379440308e-01
-4.085236787796020508e-01 -6.615491211414337158e-02 1.487589776515960693e-01
-1.095231056213378906e+00 -1.944214105606079102e-02 -1.444307416677474976e-01
-1.251749515533447266e+00 2.499395161867141724e-01 2.201471030712127686e-01
-7.399919629096984863e-01 4.919073730707168579e-02 -3.507241010665893555e-01
-5.217778682708740234e-01 -8.404178917407989502e-02 -2.495858073234558105e-01
-1.325394630432128906e+00 2.980341613292694092e-01 -9.220743179321289062e-02
-2.325796782970428467e-01 1.010826155543327332e-01 2.777526378631591797e-01
-9.674686789512634277e-01 3.843556046485900879e-01 9.302009642124176025e-02
-1.751814484596252441e-01 -8.243246376514434814e-02 7.799327373504638672e-02
-6.099901795387268066e-01 -9.349256753921508789e-02 -2.138807922601699829e-01
-1.088455080986022949e+00 2.345961034297943115e-01 2.808705568313598633e-01
-7.395484447479248047e-01 4.723679274320602417e-02 2.738681435585021973e-01
-5.667132735252380371e-01 -8.746600151062011719e-02 -2.373062521219253540e-01
-3.324751257896423340e-01 -9.993582963943481445e-02 6.350020319223403931e-02
-5.506449937820434570e-01 1.698387116193771362e-01 -3.367142081260681152e-01
-1.111621022224426270e+00 7.351423799991607666e-02 2.044089883565902710e-01
-8.498351573944091797e-01 1.435042321681976318e-01 3.162575662136077881e-01
-9.603810906410217285e-01 3.827258944511413574e-01 1.090251877903938293e-01
-1.261387348175048828e+00 2.385831773281097412e-01 -2.012553215026855469e-01
-1.655633747577667236e-01 2.545588612556457520e-01 -1.339134573936462402e-01
-1.131716609001159668e+00 -7.073938846588134766e-03 3.180011361837387085e-02
-7.046319246292114258e-01 -8.480198681354522705e-02 6.337159872055053711e-02
-1.047129511833190918e+00 5.371177196502685547e-02 -2.866108417510986328e-01
-6.060720682144165039e-01 3.668839931488037109e-01 1.319100856781005859e-01
-8.867977857589721680e-01 3.882167935371398926e-01 5.561683699488639832e-02
-7.107231616973876953e-01 -5.903449654579162598e-02 -2.646764516830444336e-01
-1.001643061637878418e+00 3.753010034561157227e-01 1.366780251264572144e-01
-8.994883298873901367e-01 2.495271861553192139e-01 3.110257685184478760e-01
-1.141262054443359375e+00 4.238918423652648926e-02 -2.341631501913070679e-01
-1.406520843505859375e+00 2.836569547653198242e-01 4.617468267679214478e-02
-4.358267784118652344e-02 1.174258962273597717e-01 -2.408677488565444946e-01
-1.047945618629455566e+00 3.608709871768951416e-01 -8.353111147880554199e-02
-7.149403095245361328e-01 -1.632203161716461182e-02 -3.163670003414154053e-01
-1.001053929328918457e+00 1.100448295474052429e-01 -3.195396363735198975e-01
-2.310383319854736328e-01 1.600044816732406616e-01 -2.850389182567596436e-01
-1.486986875534057617e-02 1.423321515321731567e-01 -2.065293490886688232e-01
-1.336037278175354004e+00 2.793955206871032715e-01 1.531635671854019165e-01
-1.050165772438049316e+00 6.061048060655593872e-02 2.147073596715927124e-01
-8.138945102691650391e-01 2.748875021934509277e-01 3.055108785629272461e-01
-8.118724822998046875e-01 -9.024009108543395996e-02 -9.971085190773010254e-02
-8.050399422645568848e-01 1.446385085582733154e-01 -3.465616405010223389e-01
-1.229015350341796875e+00 2.660311013460159302e-02 -1.260548532009124756e-01
-7.749828100204467773e-01 2.725485712289810181e-02 2.498853951692581177e-01
-4.804116487503051758e-02 1.124957278370857239e-01 2.180688530206680298e-01
-1.243666768074035645e+00 1.569696813821792603e-01 -2.385630160570144653e-01
-3.857433795928955078e-02 -6.473249197006225586e-02 5.869802460074424744e-02
-1.184738874435424805e+00 4.383668303489685059e-03 -1.075316742062568665e-01
-4.294248521327972412e-01 -2.689078450202941895e-03 2.389749735593795776e-01
-4.682004451751708984e-01 8.203861117362976074e-02 -3.565348982810974121e-01
-1.246688365936279297e+00 2.471630275249481201e-02 -3.720542788505554199e-02
-1.217237472534179688e+00 7.607622444629669189e-02 1.517671346664428711e-01
-2.407486140727996826e-01 2.516358792781829834e-01 -1.835642009973526001e-01
-1.008528470993041992e-01 1.142403781414031982e-01 -2.680063843727111816e-01
-1.261160969734191895e-01 3.728850930929183960e-02 2.227137088775634766e-01
-6.514434814453125000e-01 -1.014675199985504150e-01 1.704333722591400146e-02
-8.172420859336853027e-01 3.823646306991577148e-01 -1.744884066283702850e-02
-1.255971670150756836e+00 2.522321641445159912e-01 -1.928554922342300415e-01
-3.042876720428466797e-01 2.096943408250808716e-01 2.831522524356842041e-01
3.354597091674804688e-02 1.470691710710525513e-01 1.604217290878295898e-01
-2.088841199874877930e-01 1.883204579353332520e-01 -2.538354694843292236e-01
-7.480920553207397461e-01 3.801976442337036133e-01 1.186516508460044861e-01
-1.019170761108398438e+00 3.803818225860595703e-01 1.013965830206871033e-01
-1.653991937637329102e-01 2.846910655498504639e-01 -2.828582376241683960e-02
-7.188835144042968750e-01 -8.129058778285980225e-02 -2.150395661592483521e-01
-7.065435647964477539e-01 3.362103104591369629e-01 -1.593293845653533936e-01
-9.736901521682739258e-01 2.230897694826126099e-01 -2.926045954227447510e-01
-4.998357295989990234e-01 6.604595482349395752e-02 2.972288131713867188e-01
1.597400903701782227e-01 9.264346212148666382e-02 4.409077391028404236e-02
-5.133029818534851074e-01 3.054910302162170410e-01 -1.846713721752166748e-01
-1.130467891693115234e+00 3.711346089839935303e-01 1.207105163484811783e-02
1.655673980712890625e-02 3.810938447713851929e-02 1.658343523740768433e-01
-5.850691795349121094e-01 1.596161574125289917e-01 3.314067125320434570e-01
-7.850978970527648926e-01 2.326988279819488525e-01 -3.016395866870880127e-01
-7.964213490486145020e-01 3.346229195594787598e-01 -1.698085218667984009e-01
1.107915043830871582e-01 3.376204520463943481e-02 9.755061566829681396e-02
-5.113051533699035645e-01 -7.832495868206024170e-02 1.212392672896385193e-01
-1.408199667930603027e-01 2.629233896732330322e-01 1.420995444059371948e-01
4.069465398788452148e-02 4.311144351959228516e-03 1.246627345681190491e-01
-3.998690843582153320e-01 1.876366436481475830e-01 -3.055297434329986572e-01
-2.817621231079101562e-01 7.108333706855773926e-02 2.773999273777008057e-01
-8.713558316230773926e-01 -4.836001992225646973e-02 1.008690223097801208e-01
-1.215944051742553711e+00 6.377635896205902100e-02 1.339734047651290894e-01
-1.326790452003479004e-01 2.081042826175689697e-01 -1.971580833196640015e-01
-1.133614301681518555e+00 3.632474541664123535e-01 1.247671172022819519e-01
-2.481940686702728271e-01 -4.692204296588897705e-02 -2.821514308452606201e-01
-1.120421409606933594e+00 1.043625250458717346e-01 -2.829462885856628418e-01
-4.601706266403198242e-01 9.244479238986968994e-03 2.522003352642059326e-01
9.238910675048828125e-02 1.763866543769836426e-01 -2.972221933305263519e-03
-1.299427270889282227e+00 4.885302484035491943e-02 -3.925203531980514526e-02
-6.465398669242858887e-01 3.575584888458251953e-01 1.830713897943496704e-01
-3.465567827224731445e-01 3.328462243080139160e-01 8.321982622146606445e-02
-4.311188459396362305e-01 2.742700278759002686e-01 -2.166062593460083008e-01
-6.987860798835754395e-01 1.494597941637039185e-01 -3.501692116260528564e-01
-9.372829198837280273e-01 2.811805605888366699e-01 2.917995750904083252e-01
-1.314084053039550781e+00 1.862253844738006592e-01 1.854893863201141357e-01
-8.096377253532409668e-01 -8.864849805831909180e-02 -1.240741088986396790e-01
-8.366805315017700195e-01 3.741624951362609863e-02 -3.328001499176025391e-01
-9.492605924606323242e-01 3.130972981452941895e-01 -2.017669975757598877e-01
1.583465933799743652e-01 1.068561002612113953e-01 3.093492612242698669e-02
-1.251128196716308594e+00 2.735786139965057373e-01 -1.737734824419021606e-01
-7.758518457412719727e-01 -5.528330802917480469e-04 -3.196876645088195801e-01
-1.116500854492187500e+00 3.636645078659057617e-01 1.336358040571212769e-01
-1.040061116218566895e-01 -3.974413871765136719e-02 1.374423503875732422e-01
-6.958293914794921875e-01 2.921442389488220215e-01 -2.353111207485198975e-01
-6.552952527999877930e-02 2.199447005987167358e-01 -1.322385072708129883e-01
-8.014318943023681641e-01 1.003891974687576294e-01 -3.523433804512023926e-01
-1.020124912261962891e+00 1.481185704469680786e-01 -3.141244053840637207e-01
-9.895660877227783203e-01 3.029422461986541748e-01 -2.115693986415863037e-01
-1.422672033309936523e+00 1.878461539745330811e-01 -9.992544353008270264e-02
1.242792010307312012e-01 1.375651359558105469e-01 -7.399062812328338623e-02
-6.335831284523010254e-01 3.767270445823669434e-01 6.117523089051246643e-02
-3.719489574432373047e-01 2.970618009567260742e-01 -1.539790928363800049e-01
-3.410368263721466064e-01 -9.469802677631378174e-02 -2.253506481647491455e-01
-6.916952133178710938e-01 1.309864819049835205e-01 3.254219591617584229e-01
-1.151042461395263672e+00 7.593952119350433350e-03 6.278509646654129028e-02
-4.690320789813995361e-01 -1.202282458543777466e-01 -3.562707826495170593e-02
6.232076883316040039e-02 1.106847822666168213e-02 1.171881332993507385e-01
-3.535868525505065918e-01 3.157029151916503906e-01 -9.394536912441253662e-02
-9.706300497055053711e-01 3.429304361343383789e-01 -1.450184881687164307e-01
5.336999893188476562e-02 7.974866032600402832e-02 1.604701131582260132e-01
-6.637489795684814453e-01 9.988553822040557861e-02 -3.608875274658203125e-01
-1.072203397750854492e+00 -1.219774782657623291e-02 7.544855028390884399e-02
-1.040474891662597656e+00 9.280675649642944336e-02 2.486497312784194946e-01
-7.851925492286682129e-01 3.454873263835906982e-01 -1.456852257251739502e-01
-2.381747961044311523e-02 2.342119812965393066e-02 -2.509357035160064697e-01
-9.459745883941650391e-01 2.143236249685287476e-01 -3.021126389503479004e-01
-2.055366337299346924e-01 2.793997526168823242e-01 -9.889487177133560181e-02
-1.412727117538452148e+00 2.366285920143127441e-01 -9.186785668134689331e-02
1.430237293243408203e-01 -1.012143492698669434e-02 -2.271641604602336884e-02
-8.859596252441406250e-01 2.993403077125549316e-01 2.840224504470825195e-01
-1.167253732681274414e+00 1.948733627796173096e-01 2.570006251335144043e-01
-1.193365097045898438e+00 1.957025378942489624e-02 5.382515117526054382e-02
-9.728559255599975586e-01 1.419934630393981934e-02 -2.814894616603851318e-01
-2.010003030300140381e-01 1.699154973030090332e-01 2.679981887340545654e-01
-1.228593230247497559e+00 3.140926659107208252e-01 -1.253098547458648682e-01
-2.108861505985260010e-01 2.823455929756164551e-01 1.550430804491043091e-01
-2.181345224380493164e-01 2.381188720464706421e-01 2.320350110530853271e-01
-1.039616823196411133e+00 3.802038431167602539e-01 8.918837457895278931e-02
-1.010979890823364258e+00 -5.126586556434631348e-02 -5.861384794116020203e-02
-8.549520373344421387e-01 9.589861333370208740e-02 2.934620082378387451e-01
-5.802839994430541992e-01 -8.499071002006530762e-02 9.609427303075790405e-02
-5.939798951148986816e-01 3.345403075218200684e-02 -3.545428216457366943e-01
3.357923030853271484e-02 1.913947016000747681e-01 1.085642129182815552e-01
-7.169055938720703125e-01 3.822000324726104736e-01 2.103612199425697327e-02
-1.186038851737976074e-01 1.314075589179992676e-01 -2.653767764568328857e-01
-1.288820624351501465e+00 4.705192148685455322e-02 -8.784373104572296143e-02
-7.827892899513244629e-01 3.358483314514160156e-03 2.206479161977767944e-01
-3.740511834621429443e-01 2.301921695470809937e-02 -3.415983915328979492e-01
-1.143265485763549805e+00 -9.703844785690307617e-03 -1.441200263798236847e-03
-9.404004216194152832e-01 2.588272690773010254e-01 3.026458323001861572e-01
-1.144279479980468750e+00 3.400642275810241699e-01 -1.080700084567070007e-01
-4.279038906097412109e-01 2.574481368064880371e-01 -2.400807291269302368e-01
-1.411598682403564453e+00 1.906325072050094604e-01 1.032615080475807190e-01
-1.241871714591979980e-01 2.281988561153411865e-01 -1.598731726408004761e-01
-4.619538784027099609e-01 1.507868170738220215e-01 3.224207460880279541e-01
-3.546744883060455322e-01 -1.229184418916702271e-01 -8.831703662872314453e-02
-7.690299749374389648e-01 -9.645055234432220459e-02 -1.035103350877761841e-01
-8.637777566909790039e-01 -9.496748447418212891e-03 1.824977993965148926e-01
-5.106900930404663086e-01 2.796193659305572510e-01 2.811847031116485596e-01
-6.254918575286865234e-01 3.595710694789886475e-01 1.704575717449188232e-01
-1.221796393394470215e+00 2.571638226509094238e-01 -2.031419128179550171e-01
-6.001169085502624512e-01 -1.154154688119888306e-01 -7.246292382478713989e-02
9.282618761062622070e-02 3.159670531749725342e-02 -1.805527508258819580e-01
-1.311210393905639648e+00 2.664071321487426758e-01 1.805903613567352295e-01
-1.660392582416534424e-01 5.503733456134796143e-02 -3.053427040576934814e-01
6.120741367340087891e-02 2.408589422702789307e-02 -2.029535025358200073e-01
-6.107735633850097656e-02 9.177231788635253906e-02 2.220323979854583740e-01
-1.090433359146118164e+00 1.800248324871063232e-01 -2.897673249244689941e-01
-6.352747678756713867e-01 1.170632764697074890e-01 -3.589895069599151611e-01
-8.721807599067687988e-01 1.811973750591278076e-01 3.215321600437164307e-01
-8.035044074058532715e-01 -5.924946069717407227e-02 1.014860868453979492e-01
-4.071244597434997559e-01 2.945212423801422119e-01 2.369871288537979126e-01
-1.040357708930969238e+00 -2.013804018497467041e-02 -1.956944912672042847e-01
-1.223176121711730957e-01 2.633647024631500244e-01 -6.765823066234588623e-02
-8.445085287094116211e-01 1.777233779430389404e-01 -3.320878148078918457e-01
-6.450998783111572266e-01 -1.093351244926452637e-01 -1.262508481740951538e-01
-1.085621953010559082e+00 1.404897719621658325e-01 2.656526863574981689e-01
-7.608532905578613281e-01 -9.385713934898376465e-02 -1.196813117712736130e-02
-2.867507040500640869e-01 4.338213801383972168e-02 2.630676031112670898e-01
-1.295979022979736328e+00 3.363024592399597168e-01 7.631503976881504059e-03
-4.699190258979797363e-01 -9.694708883762359619e-02 7.536859065294265747e-02
-3.887218236923217773e-02 2.976524084806442261e-02 1.865824162960052490e-01
-6.283643245697021484e-01 -9.533973038196563721e-02 -2.034412324428558350e-01
-1.139679193496704102e+00 2.893084883689880371e-01 -1.969902217388153076e-01
-1.006127357482910156e+00 3.627567738294601440e-02 -2.889111340045928955e-01
-6.668955683708190918e-01 2.246007025241851807e-01 -3.070241510868072510e-01
-9.968466758728027344e-01 3.624634146690368652e-01 -9.073518961668014526e-02
-1.295961856842041016e+00 3.362035155296325684e-01 6.260587275028228760e-02
-8.357084989547729492e-01 1.444402337074279785e-02 -3.194015920162200928e-01
-9.080327749252319336e-01 3.711860775947570801e-01 1.685007959604263306e-01
-2.324396669864654541e-01 -1.167203187942504883e-01 -5.994670465588569641e-02
-1.080216765403747559e+00 3.683549463748931885e-01 -4.384580999612808228e-02
-4.472191929817199707e-01 2.812520265579223633e-01 -2.098909467458724976e-01
-1.277898550033569336e+00 1.946189701557159424e-01 -2.158429175615310669e-01
-7.585606575012207031e-01 5.957079678773880005e-02 -3.516857922077178955e-01
-5.450948476791381836e-01 1.522388756275177002e-01 -3.448043763637542725e-01
-3.914559483528137207e-01 -1.233293265104293823e-01 -8.894598484039306641e-02
-1.918864548206329346e-01 8.072599768638610840e-02 -3.097061216831207275e-01
-7.378730773925781250e-01 9.400089085102081299e-02 -3.577224612236022949e-01
-1.710750162601470947e-01 -7.192178070545196533e-02 1.014454439282417297e-01
-2.174517512321472168e-01 1.711127012968063354e-01 2.728706896305084229e-01
-3.278378248214721680e-01 3.172310590744018555e-01 1.463392376899719238e-01
-8.330241441726684570e-01 -8.460545539855957031e-02 -2.349016442894935608e-02
-7.736594080924987793e-01 3.854921460151672363e-01 7.784787565469741821e-02
-1.097882986068725586e+00 3.745967149734497070e-01 8.689543604850769043e-02
3.126168251037597656e-02 1.543215662240982056e-02 1.409872919321060181e-01
-1.063771367073059082e+00 3.796903491020202637e-01 6.731033325195312500e-02
-7.895854711532592773e-01 -8.486886322498321533e-02 1.838070154190063477e-02
-1.425908327102661133e+00 2.441339939832687378e-01 8.055917918682098389e-02
-1.403920888900756836e+00 2.767518758773803711e-01 -4.114198312163352966e-02
-4.996540248394012451e-01 1.339401900768280029e-01 -3.483356237411499023e-01
-1.813699901103973389e-01 2.750583887100219727e-01 -9.100113064050674438e-02
-1.558519601821899414e-01 1.798874884843826294e-01 2.480396777391433716e-01
-3.299014270305633545e-01 -1.054361462593078613e-01 -1.954025626182556152e-01
-8.901380896568298340e-01 3.671425580978393555e-01 1.817757934331893921e-01
-1.414757966995239258e+00 2.300364375114440918e-01 1.044531837105751038e-01
-8.529520034790039062e-01 2.313700616359710693e-01 -2.996588647365570068e-01
-8.368225097656250000e-01 3.794170022010803223e-01 -3.729855641722679138e-02
-1.052335977554321289e+00 1.343248039484024048e-02 -2.471863776445388794e-01
-4.792219400405883789e-02 4.234690964221954346e-02 -2.639796137809753418e-01
-4.499344527721405029e-01 1.321488469839096069e-01 3.189920485019683838e-01
-9.615122079849243164e-01 3.795224428176879883e-01 -2.885781601071357727e-02
-1.335093021392822266e+00 2.605682313442230225e-01 -1.400695145130157471e-01
-7.856377363204956055e-01 3.584713339805603027e-01 2.029930651187896729e-01
-9.697960019111633301e-01 1.023897975683212280e-01 2.749374806880950928e-01
-3.035435378551483154e-01 -1.202325075864791870e-01 -4.723549261689186096e-02
-1.432309389114379883e+00 1.468799412250518799e-01 -2.268429659307003021e-02
-9.076314568519592285e-01 -7.359275221824645996e-02 -5.261310562491416931e-02
-1.297186493873596191e+00 3.151589334011077881e-01 1.359932273626327515e-01
-1.361387252807617188e+00 9.348193556070327759e-02 3.100885078310966492e-02
-3.972924053668975830e-01 -1.229843944311141968e-01 -6.109515577554702759e-02
-5.710184574127197266e-01 -4.657433927059173584e-02 -3.018256127834320068e-01
-1.504164040088653564e-01 -1.084338724613189697e-01 -8.426323533058166504e-02
-1.124392509460449219e+00 2.587685585021972656e-01 -2.340187430381774902e-01
-6.595327854156494141e-01 -8.703947067260742188e-02 -2.187017649412155151e-01
-1.317401170730590820e+00 9.150964021682739258e-02 -1.561809182167053223e-01
-1.190977573394775391e+00 3.411033749580383301e-01 1.570782214403152466e-01
-6.798633933067321777e-01 1.411128640174865723e-01 -3.530523777008056641e-01
-6.512902975082397461e-01 5.234634876251220703e-02 2.859887480735778809e-01
-8.993202447891235352e-02 2.167505025863647461e-01 1.850343495607376099e-01
-6.479919552803039551e-01 2.658400535583496094e-01 3.087780773639678955e-01
-6.239547133445739746e-01 -1.100526452064514160e-01 -1.369353383779525757e-01
-7.145447731018066406e-01 -7.283210754394531250e-03 2.187051475048065186e-01
-2.659398019313812256e-01 -2.247935533523559570e-02 -3.053646087646484375e-01
-7.677261233329772949e-01 -8.774216473102569580e-02 1.930254325270652771e-02
-9.271540641784667969e-01 7.858972996473312378e-02 -3.304870724678039551e-01
-7.229614257812500000e-02 -2.406504750251770020e-02 -2.496119141578674316e-01
-2.185966074466705322e-01 5.893391370773315430e-02 -3.190305233001708984e-01
-3.856664896011352539e-01 3.570841997861862183e-02 -3.459154963493347168e-01
-1.060981512069702148e+00 8.104366064071655273e-02 -2.958620190620422363e-01
-6.375607848167419434e-01 3.755622804164886475e-01 9.072273969650268555e-02
-1.132835507392883301e+00 3.353828191757202148e-01 1.950453221797943115e-01
-1.868583261966705322e-01 9.131394326686859131e-03 2.176152914762496948e-01
-8.103877305984497070e-02 1.159930974245071411e-01 2.323461472988128662e-01
-8.647015690803527832e-01 1.595606058835983276e-01 3.187982439994812012e-01
-7.133480906486511230e-01 3.108037114143371582e-01 -2.082185447216033936e-01
-6.140140295028686523e-01 3.009080290794372559e-01 -2.129732817411422729e-01
-6.983442902565002441e-01 3.166285753250122070e-01 -1.969116330146789551e-01
-3.510817885398864746e-01 3.249736428260803223e-01 1.368717402219772339e-01
-4.235603213310241699e-01 2.551335990428924561e-01 2.841413915157318115e-01
-1.479959487915039062e-01 -3.463689982891082764e-02 1.589722484350204468e-01
-5.246074795722961426e-01 -1.714238524436950684e-02 -3.301872014999389648e-01
-8.495628833770751953e-01 6.364867091178894043e-03 -3.102363944053649902e-01
-8.222712278366088867e-01 2.209182530641555786e-01 3.251231908798217773e-01
-1.020514965057373047e+00 -2.570927143096923828e-03 1.324519813060760498e-01
-1.029502153396606445e+00 3.328885138034820557e-01 2.284511178731918335e-01
-2.775092422962188721e-01 3.037907481193542480e-01 1.491582244634628296e-01
-4.389682412147521973e-01 8.644223958253860474e-02 -3.535363972187042236e-01
-4.940578937530517578e-01 -1.197334676980972290e-01 -3.910226374864578247e-02
-1.134659051895141602e-01 1.875226199626922607e-01 -2.137075662612915039e-01
-2.878743410110473633e-02 2.247685492038726807e-01 -8.109943568706512451e-02
-1.393030047416687012e+00 1.648984104394912720e-01 1.081301644444465637e-01
-1.193509340286254883e+00 3.124661445617675781e-01 -1.443806439638137817e-01
-4.667347669601440430e-01 2.908229231834411621e-01 -1.990799307823181152e-01
-6.882349252700805664e-01 -5.563077330589294434e-02 1.440242975950241089e-01
-7.954745888710021973e-01 2.117226570844650269e-01 -3.167167305946350098e-01
-6.251636743545532227e-01 3.337861597537994385e-01 -1.513494700193405151e-01
-8.875005841255187988e-01 9.257264435291290283e-03 2.036189287900924683e-01
-8.283325433731079102e-01 3.531593680381774902e-01 -1.288115084171295166e-01
-8.018916845321655273e-01 -6.751349568367004395e-02 7.858101278543472290e-02
-1.386681914329528809e+00 1.032825782895088196e-01 -4.873070120811462402e-02
-3.126654922962188721e-01 3.268076777458190918e-01 1.706072688102722168e-02
-1.235757470130920410e+00 2.469756305217742920e-01 -2.061659991741180420e-01
-6.714648008346557617e-02 -3.988872468471527100e-02 1.227679476141929626e-01
-1.152675867080688477e+00 1.192170381546020508e-01 2.289240956306457520e-01
-5.589079856872558594e-02 2.336350381374359131e-01 1.255291700363159180e-01
-9.548698663711547852e-01 2.730900049209594727e-01 2.940729856491088867e-01
-2.781143188476562500e-01 3.051093220710754395e-01 -7.350681722164154053e-02
-5.592530965805053711e-01 2.670528739690780640e-02 2.687606811523437500e-01
-1.602324247360229492e-01 2.017786204814910889e-01 2.374191731214523315e-01
1.074598431587219238e-01 1.556553542613983154e-01 6.067268177866935730e-02
-1.033340454101562500e+00 3.692091107368469238e-01 -5.814533680677413940e-02
9.328180551528930664e-02 1.621907055377960205e-01 -7.333411276340484619e-02
-5.432075262069702148e-01 -7.695259153842926025e-02 -2.610074877738952637e-01
-7.799499630928039551e-01 3.149371445178985596e-01 -2.051333636045455933e-01
-3.783917725086212158e-01 3.259236812591552734e-01 1.553253829479217529e-01
-5.851656198501586914e-02 1.620533466339111328e-01 -2.126846015453338623e-01
-4.540234208106994629e-01 2.570061683654785156e-01 2.892588973045349121e-01
-1.105499148368835449e+00 -2.263788878917694092e-02 -1.146634481847286224e-02
-3.324418365955352783e-01 -8.531342446804046631e-02 1.035211309790611267e-01
-7.176427245140075684e-01 3.497778773307800293e-01 -1.281998455524444580e-01
-1.330004572868347168e+00 3.045859038829803467e-01 -7.359889149665832520e-02
-9.435039758682250977e-02 -2.509021759033203125e-02 1.544987559318542480e-01
-4.001147747039794922e-01 8.784324675798416138e-02 -3.490237891674041748e-01
-7.851994037628173828e-01 -8.167074620723724365e-02 3.627698123455047607e-02
-1.505613327026367188e-01 2.285757064819335938e-01 -1.755125671625137329e-01
-4.083386063575744629e-01 -2.939088642597198486e-02 -3.178468346595764160e-01
-1.513642072677612305e-02 9.688833355903625488e-02 -2.373833358287811279e-01
-3.649798929691314697e-01 2.511912286281585693e-01 -2.314625978469848633e-01
-7.784615755081176758e-01 3.689757287502288818e-01 1.736991703510284424e-01
-1.273603439331054688e+00 2.596135437488555908e-01 -1.775636523962020874e-01
-7.496947050094604492e-01 6.591817736625671387e-02 2.875624895095825195e-01
-1.126725435256958008e+00 2.424688041210174561e-01 -2.470053583383560181e-01
-5.944080948829650879e-01 -8.095818758010864258e-02 -2.470711022615432739e-01
-1.266846656799316406e+00 2.148173451423645020e-01 2.173337638378143311e-01
-2.093895971775054932e-01 2.600491642951965332e-01 -1.506053805351257324e-01
-4.988470673561096191e-01 -3.478267788887023926e-02 2.002644389867782593e-01
-5.891525149345397949e-01 3.588936328887939453e-01 -6.405777484178543091e-02
-1.452490091323852539e-01 -1.250341534614562988e-03 1.972861289978027344e-01
-1.014220714569091797e-02 9.846560657024383545e-03 1.578748971223831177e-01
-8.709554076194763184e-01 -7.632982730865478516e-02 -8.393982425332069397e-03
-7.005457878112792969e-01 3.788265585899353027e-01 1.080777347087860107e-01
-1.196301698684692383e+00 2.453194111585617065e-01 2.448030263185501099e-01
-1.005520820617675781e+00 1.728601604700088501e-01 -3.114762604236602783e-01
-1.142896175384521484e+00 3.104940950870513916e-01 2.243477553129196167e-01
-2.611024081707000732e-01 3.152504861354827881e-01 2.512699738144874573e-02
-1.176513433456420898e-01 2.712694704532623291e-01 -1.705562695860862732e-02
-9.404810070991516113e-01 5.538580566644668579e-02 2.436607629060745239e-01
-2.350991368293762207e-01 -2.193495631217956543e-02 1.957284510135650635e-01
-1.287694573402404785e-01 1.864444017410278320e-01 -2.224815785884857178e-01
-8.624988794326782227e-01 1.142747476696968079e-01 3.025265038013458252e-01
-3.974555134773254395e-01 2.931079864501953125e-01 -1.726271063089370728e-01
-9.425945281982421875e-01 -6.625552475452423096e-02 -9.489095211029052734e-02
-3.088238239288330078e-01 3.145418167114257812e-01 1.394733488559722900e-01
-4.424583017826080322e-01 3.099709749221801758e-01 2.246180027723312378e-01
-5.875546336174011230e-01 2.881698608398437500e-01 2.854978144168853760e-01
6.503063440322875977e-02 -1.982773840427398682e-02 7.562074810266494751e-02
-1.041583538055419922e+00 1.243899390101432800e-01 -3.103562891483306885e-01
-1.330237388610839844e+00 3.254854381084442139e-01 2.166941016912460327e-02
-6.786115169525146484e-01 3.647616505622863770e-01 1.689521670341491699e-01
-6.353061795234680176e-01 3.339220285415649414e-01 2.336411029100418091e-01
-1.191344976425170898e+00 2.984583377838134766e-03 -6.890647858381271362e-02
-7.830083966255187988e-01 -9.330530464649200439e-02 -1.185215339064598083e-01
-8.917832374572753906e-01 1.443243622779846191e-01 3.106895387172698975e-01
5.609929561614990234e-03 -4.274260997772216797e-02 7.904377579689025879e-02
-8.642648458480834961e-01 3.752920329570770264e-01 -5.801350995898246765e-02
-9.849634170532226562e-01 -5.058923363685607910e-02 9.909423999488353729e-03
-1.263352632522583008e+00 6.842327117919921875e-02 1.035340279340744019e-01
-3.572709560394287109e-01 8.833544701337814331e-02 -3.430424332618713379e-01
-8.345168232917785645e-01 2.838075160980224609e-03 2.086518108844757080e-01
-8.398467302322387695e-02 -4.031923413276672363e-02 1.290220767259597778e-01
-1.088564634323120117e+00 3.302256762981414795e-01 -1.475605368614196777e-01
-1.239758133888244629e-01 1.585912853479385376e-01 -2.476759105920791626e-01
-1.133013367652893066e+00 2.280982881784439087e-01 -2.553615272045135498e-01
-9.607417583465576172e-01 3.501259386539459229e-01 -1.298532038927078247e-01
-8.874607086181640625e-01 8.896502107381820679e-02 -3.399344384670257568e-01
-2.591807544231414795e-01 6.507396697998046875e-03 2.299049943685531616e-01
-4.328123927116394043e-01 -1.194272190332412720e-01 -2.160497941076755524e-02
-8.834793567657470703e-01 2.065698802471160889e-01 -3.139470815658569336e-01
-5.343261957168579102e-01 1.006719321012496948e-01 3.154405951499938965e-01
-7.282788753509521484e-01 -1.624527573585510254e-02 2.040290236473083496e-01
-1.328757643699645996e+00 2.190246880054473877e-01 1.821666806936264038e-01
-7.543611526489257812e-01 1.132362857460975647e-01 -3.557494282722473145e-01
-9.109628200531005859e-02 -5.255044996738433838e-02 1.112997755408287048e-01
1.750797033309936523e-01 5.152774602174758911e-02 1.002446096390485764e-02
-9.274607896804809570e-02 -9.128631651401519775e-02 7.309456355869770050e-03
-1.023726463317871094e+00 3.019278645515441895e-01 2.633817195892333984e-01
-7.390453815460205078e-01 3.422413468360900879e-01 -1.494471281766891479e-01
-6.876075863838195801e-01 1.277207583189010620e-02 -3.403502106666564941e-01
9.860372543334960938e-02 -3.193426132202148438e-02 9.670070372521877289e-03
-8.992938399314880371e-01 -7.550549507141113281e-02 -8.402254432439804077e-02
-1.173717021942138672e+00 3.676220774650573730e-03 1.770996674895286560e-02
-7.947944998741149902e-01 3.494095057249069214e-02 2.544977366924285889e-01
-5.931978821754455566e-01 3.726398944854736328e-01 6.292491406202316284e-02
-5.073862075805664062e-01 7.730010151863098145e-02 -3.593663573265075684e-01
-1.152073860168457031e+00 3.511211276054382324e-01 -7.390175014734268188e-02
-9.436177611351013184e-01 -3.001761436462402344e-02 1.115859970450401306e-01
-5.250908732414245605e-01 3.164440393447875977e-01 -1.656857579946517944e-01
-7.376118898391723633e-01 -2.760678529739379883e-03 -3.241798579692840576e-01
-1.163614511489868164e+00 2.289637327194213867e-01 -2.455661743879318237e-01
-8.072147369384765625e-01 4.530072212219238281e-03 2.171587347984313965e-01
-9.445374608039855957e-01 -5.496892333030700684e-02 3.190257400274276733e-02
-6.798684000968933105e-01 3.780025243759155273e-01 1.023140400648117065e-01
-7.005423903465270996e-01 2.756967395544052124e-02 2.603056430816650391e-01
-3.447666168212890625e-01 1.745189428329467773e-01 -3.039839863777160645e-01
-5.686714649200439453e-01 3.189201354980468750e-01 -1.715150922536849976e-01
-9.801499843597412109e-01 -5.032311379909515381e-02 -1.508626192808151245e-01
-7.771888971328735352e-01 3.048585951328277588e-01 -2.209268212318420410e-01
-8.301184177398681641e-01 -8.672413229942321777e-02 -4.183110967278480530e-02
-5.260226130485534668e-01 1.822022795677185059e-01 3.280275762081146240e-01
-1.285573959350585938e+00 1.019769459962844849e-01 -1.954580098390579224e-01
-5.206359624862670898e-01 3.503501415252685547e-01 1.577411442995071411e-01
-2.859969735145568848e-01 -1.137438565492630005e-01 -1.533855348825454712e-01
-9.480268359184265137e-01 1.809543520212173462e-01 3.105166852474212646e-01
-1.075140357017517090e+00 3.672029376029968262e-01 1.412521451711654663e-01
1.340235471725463867e-01 -4.756152629852294922e-03 -1.083407923579216003e-01
-1.230981349945068359e-01 -1.037089973688125610e-01 -1.002639383077621460e-01
-4.227685630321502686e-01 3.339654803276062012e-01 1.581558138132095337e-01
-6.925930976867675781e-01 -9.028163552284240723e-02 -1.978660672903060913e-01
-8.817651271820068359e-01 -7.893976569175720215e-02 -7.589579373598098755e-02
-3.087868094444274902e-01 3.175310492515563965e-01 -4.918710514903068542e-02
-4.440726935863494873e-01 3.476639986038208008e-01 -2.161990478634834290e-02
-3.924381136894226074e-01 -1.214370876550674438e-01 -3.819793462753295898e-02
-1.634534895420074463e-01 3.693791478872299194e-02 -3.038702607154846191e-01
-2.394929826259613037e-01 -1.156100034713745117e-01 -1.183708757162094116e-01
-8.935607671737670898e-01 -3.284536302089691162e-02 -2.508412599563598633e-01
-4.406633377075195312e-01 -5.164846777915954590e-02 1.748206019401550293e-01
-9.851086139678955078e-01 1.195336431264877319e-01 -3.236771821975708008e-01
-6.541007757186889648e-02 1.301007717847824097e-01 -2.432453334331512451e-01
-1.187526464462280273e+00 3.599469661712646484e-01 -8.899457752704620361e-03
-7.127140164375305176e-01 2.854224443435668945e-01 -2.455679029226303101e-01
-8.735418319702148438e-03 -7.292710244655609131e-02 7.201503030955791473e-03
-5.194804072380065918e-01 2.474944293498992920e-02 2.674417495727539062e-01
7.296234369277954102e-02 1.878581494092941284e-01 -1.648220419883728027e-02
-4.046300947666168213e-01 -7.391625642776489258e-02 -2.686842381954193115e-01
-9.059400558471679688e-01 -3.687626123428344727e-02 -2.384665310382843018e-01
-8.254833221435546875e-01 1.625453531742095947e-01 3.239011466503143311e-01
-7.960656881332397461e-01 2.677156627178192139e-01 3.102254271507263184e-01
-1.153692603111267090e-01 -9.464733302593231201e-02 9.215903468430042267e-03
-1.027441382408142090e+00 4.641966521739959717e-02 -2.887962460517883301e-01
-1.022348523139953613e+00 9.038821607828140259e-02 -3.106029331684112549e-01
9.596639871597290039e-02 3.820863366127014160e-02 1.136549785733222961e-01
-4.398930072784423828e-02 2.454818040132522583e-02 -2.602148056030273438e-01
-9.844938516616821289e-01 3.484576940536499023e-01 2.122734040021896362e-01
-2.523686289787292480e-01 -1.039119809865951538e-01 -1.833774745464324951e-01
-8.822815418243408203e-01 -7.832527160644531250e-02 -9.524960070848464966e-02
-1.440629065036773682e-01 8.992601931095123291e-02 -2.931648492813110352e-01
-1.321209430694580078e+00 6.032725423574447632e-02 -4.697070643305778503e-02
-4.578266143798828125e-01 -1.279070973396301270e-03 -3.385862410068511963e-01
-9.314726591110229492e-01 -6.028804183006286621e-02 -1.573217660188674927e-01
-1.233203172683715820e+00 2.932099103927612305e-01 2.042553275823593140e-01
-1.819089949131011963e-01 1.913840919733047485e-01 2.526236176490783691e-01
-1.125523447990417480e+00 1.482584178447723389e-01 -2.856095433235168457e-01
-3.710699379444122314e-01 6.030000001192092896e-02 2.846708595752716064e-01
-5.202161073684692383e-01 2.099131643772125244e-01 3.225426673889160156e-01
-3.276824951171875000e-01 3.254989683628082275e-01 1.085556969046592712e-01
-2.944903075695037842e-01 -3.313265740871429443e-02 -3.024497628211975098e-01
-1.016433119773864746e+00 3.733513504266738892e-02 1.991624534130096436e-01
-1.354997873306274414e+00 2.734206318855285645e-01 1.425484716892242432e-01
-2.348375320434570312e-02 2.382449805736541748e-01 2.402233704924583435e-02
-5.351917147636413574e-01 -4.161253571510314941e-03 2.383659034967422485e-01
-1.056720376014709473e+00 2.426600605249404907e-01 -2.637540698051452637e-01
-2.290787994861602783e-01 -5.857089161872863770e-02 1.417770981788635254e-01
-8.166608214378356934e-01 3.012363314628601074e-01 -2.265924513339996338e-01
-1.598470211029052734e-01 2.217376530170440674e-01 2.206808924674987793e-01
-6.470432281494140625e-01 -6.665684282779693604e-02 1.288267523050308228e-01
-5.340497493743896484e-01 1.070852205157279968e-01 -3.579023778438568115e-01
-3.653634190559387207e-01 1.895354390144348145e-01 3.048409819602966309e-01
5.309921503067016602e-02 2.554341405630111694e-02 1.359547674655914307e-01
-5.157101154327392578e-01 1.192276701331138611e-01 -3.540994822978973389e-01
-1.177170872688293457e+00 1.247894018888473511e-02 4.940963909029960632e-02
-8.481800556182861328e-03 2.189079821109771729e-01 -7.106811553239822388e-02
6.242573261260986328e-02 1.924424171447753906e-01 -2.931405603885650635e-02
5.572187900543212891e-02 1.772803962230682373e-01 -9.632173180580139160e-02
-4.387094676494598389e-01 2.861323058605194092e-01 2.577882111072540283e-01
-6.390482783317565918e-01 -1.094502359628677368e-01 -2.848030626773834229e-02
-3.356191515922546387e-01 2.894138097763061523e-01 2.167734056711196899e-01
-7.434753775596618652e-01 -6.504948437213897705e-02 1.079376712441444397e-01
-1.444987773895263672e+00 1.775364130735397339e-01 2.818945795297622681e-02
-6.625409126281738281e-01 -8.014900982379913330e-02 -2.350062727928161621e-01
-7.739325761795043945e-01 1.265331804752349854e-01 -3.526657223701477051e-01
-1.390311241149902344e+00 1.250863820314407349e-01 -1.049871519207954407e-01
-9.649276733398437500e-01 3.842671513557434082e-01 6.488057784736156464e-03
-1.057659029960632324e+00 6.859764456748962402e-03 1.312177628278732300e-01
-3.890672922134399414e-01 2.612864077091217041e-01 2.702929079532623291e-01
-1.053456783294677734e+00 2.671505510807037354e-02 1.685152351856231689e-01
-2.689868509769439697e-01 1.910679042339324951e-01 2.815104126930236816e-01
-9.381601810455322266e-01 3.500238060951232910e-01 2.160598337650299072e-01
-9.252921342849731445e-01 -3.889058530330657959e-02 9.878274053335189819e-02
-1.175631046295166016e+00 1.230109632015228271e-01 -2.657310664653778076e-01
-1.797970235347747803e-01 -1.120588630437850952e-01 -6.992177665233612061e-02
1.803833246231079102e-02 1.609055697917938232e-01 1.628533750772476196e-01
-9.327933788299560547e-01 3.848802447319030762e-01 2.612573094666004181e-03
-1.104034900665283203e+00 8.385217189788818359e-02 2.182833254337310791e-01
-1.423068284988403320e+00 2.381579428911209106e-01 -7.558985054492950439e-02
-1.013056993484497070e+00 -1.538047194480895996e-02 -2.236686944961547852e-01
-6.308472156524658203e-01 3.457635939121246338e-01 2.092915028333663940e-01
-1.040621638298034668e+00 9.219735860824584961e-02 -3.058781623840332031e-01
-2.059532999992370605e-01 -1.111157685518264771e-01 -2.152787707746028900e-02
-6.553642153739929199e-01 -1.004242897033691406e-01 -1.748772263526916504e-01
-8.580525517463684082e-01 -7.476519048213958740e-02 1.495378930121660233e-02
-1.261541128158569336e+00 2.620301544666290283e-01 2.108584642410278320e-01
-1.046806931495666504e+00 -2.126802504062652588e-02 6.864694505929946899e-02
-4.284224510192871094e-01 -1.133257746696472168e-01 -1.730613857507705688e-01
-1.397460699081420898e-02 2.265926003456115723e-01 8.449968695640563965e-02
-4.936836361885070801e-01 2.663321793079376221e-01 -2.428708821535110474e-01
-1.008774638175964355e+00 9.913650155067443848e-02 2.627349793910980225e-01
1.413171291351318359e-01 7.174913585186004639e-02 -1.265847831964492798e-01
-8.906790018081665039e-01 -7.706969976425170898e-02 -5.926045775413513184e-02
-4.960794746875762939e-01 3.595528900623321533e-01 8.014159649610519409e-02
-2.842420637607574463e-01 2.973689436912536621e-01 -1.049067378044128418e-01
-1.282420396804809570e+00 2.177438139915466309e-01 -2.040060758590698242e-01
-5.071988105773925781e-01 1.790496855974197388e-01 -3.272982835769653320e-01
-9.849517941474914551e-01 2.111909687519073486e-01 3.057513833045959473e-01
2.286374568939208984e-03 2.254875302314758301e-01 4.406085610389709473e-02
-7.528643608093261719e-01 -1.091998815536499023e-02 2.071233540773391724e-01
-1.332259654998779297e+00 8.502712845802307129e-02 5.957178398966789246e-02
-5.640841722488403320e-01 -1.178369373083114624e-01 -9.474897384643554688e-02
-4.969133436679840088e-01 3.389412760734558105e-01 1.826819181442260742e-01
4.367065429687500000e-02 1.647428125143051147e-01 1.368415057659149170e-01
-1.185971021652221680e+00 9.436025470495223999e-02 -2.512660622596740723e-01
-1.178006529808044434e-01 -8.057692646980285645e-02 -1.935810446739196777e-01
-1.866668462753295898e-02 1.857794672250747681e-01 1.687848269939422607e-01
-6.299661993980407715e-01 3.115412592887878418e-01 -1.972909122705459595e-01
-5.227668285369873047e-01 5.308274924755096436e-02 2.895436882972717285e-01
-3.743505477905273438e-01 2.145213633775711060e-01 -2.768550515174865723e-01
-8.858512639999389648e-01 3.870184421539306641e-01 1.909067109227180481e-02
-5.428674817085266113e-01 1.934072822332382202e-01 -3.216582238674163818e-01
-1.077381134033203125e+00 5.087901651859283447e-02 -2.729613184928894043e-01
-6.483131647109985352e-01 5.665242671966552734e-02 -3.588378429412841797e-01
-1.219209432601928711e+00 2.820009738206863403e-02 4.993629083037376404e-02
-4.080369770526885986e-01 -9.987922012805938721e-02 -2.176020294427871704e-01
-1.114226341247558594e+00 3.625248670578002930e-01 -5.220602452754974365e-02
-7.617620229721069336e-01 -5.695568025112152100e-02 1.219171956181526184e-01
-2.543668150901794434e-01 2.485613822937011719e-01 -1.950160115957260132e-01
-7.640764713287353516e-01 1.741357147693634033e-01 -3.387142121791839600e-01
-3.231397569179534912e-01 3.270795345306396484e-01 -7.091025821864604950e-03
-1.254278182983398438e+00 1.386839449405670166e-01 1.948306709527969360e-01
-2.585288584232330322e-01 2.547457218170166016e-01 2.315033823251724243e-01
-1.264867067337036133e+00 3.453487753868103027e-01 6.502538174390792847e-02
-6.982228755950927734e-01 3.038738965988159180e-01 -2.180976420640945435e-01
-6.833171844482421875e-01 3.486141562461853027e-01 -1.256761550903320312e-01
-5.655365586280822754e-01 3.194615840911865234e-01 2.437380701303482056e-01
-1.128858566284179688e+00 7.858425378799438477e-02 2.023881524801254272e-01
-1.910564303398132324e-01 2.308218926191329956e-02 -3.089368939399719238e-01
-7.409195899963378906e-01 2.965597510337829590e-01 -2.317730486392974854e-01
-1.271958351135253906e+00 3.758655488491058350e-02 -1.177585870027542114e-02
-9.540625810623168945e-01 -6.308630108833312988e-02 -3.527167439460754395e-02
-5.057500600814819336e-01 1.509407013654708862e-01 -3.421014547348022461e-01
-1.076611399650573730e+00 2.146667242050170898e-01 -2.780680954456329346e-01
-1.018079161643981934e+00 3.836578130722045898e-01 4.282141476869583130e-02
-3.901298940181732178e-01 -1.222091466188430786e-01 -1.133459955453872681e-01
-6.575286388397216797e-01 7.271450757980346680e-02 2.998094260692596436e-01
-1.190554976463317871e+00 6.063486635684967041e-02 1.462649255990982056e-01
-6.699307560920715332e-01 2.664397358894348145e-01 -2.662466764450073242e-01
-2.641399800777435303e-01 -1.192958503961563110e-01 -8.489481359720230103e-02
-7.153877615928649902e-01 -6.724344193935394287e-02 1.109564825892448425e-01
-8.735736012458801270e-01 -4.180121421813964844e-02 1.163141503930091858e-01
-3.067386150360107422e-02 -9.560585021972656250e-05 1.578167080879211426e-01
-9.516025185585021973e-01 -6.275862455368041992e-02 -1.141132265329360962e-01
-1.059924721717834473e+00 1.827203929424285889e-01 2.872433364391326904e-01
-2.289231121540069580e-01 -5.628505349159240723e-02 -2.681077718734741211e-01
-5.448901653289794922e-01 3.541761040687561035e-01 1.560146957635879517e-01
-1.974453330039978027e-01 2.974650561809539795e-01 3.228790126740932465e-03
-7.057012319564819336e-01 2.692634463310241699e-01 3.094040751457214355e-01
