-3.931168466806411743e-02 -2.884152904152870178e-02 2.369849234819412231e-01
-9.303347021341323853e-02 -7.077306509017944336e-02 -2.531739175319671631e-01
-1.087377741932868958e-01 -5.071306601166725159e-02 2.295901626348495483e-01
2.054416537284851074e-01 -3.861470520496368408e-02 2.999944686889648438e-01
-1.189490780234336853e-01 -7.585722208023071289e-02 1.643682271242141724e-01
-1.067221090197563171e-01 -6.893654912710189819e-02 3.271545767784118652e-01
-8.286384493112564087e-02 -4.047046601772308350e-02 8.149229735136032104e-02
4.575482755899429321e-02 -8.048624545335769653e-02 -2.940085232257843018e-01
-7.205121964216232300e-02 -7.731017470359802246e-02 3.225730657577514648e-01
7.473314553499221802e-02 -7.946663349866867065e-02 2.300630696117877960e-02
1.632843315601348877e-01 -6.056953221559524536e-02 1.639933139085769653e-01
1.216199249029159546e-02 -2.991451881825923920e-02 -2.566590905189514160e-01
2.289493680000305176e-01 -1.452925801277160645e-02 3.818504884839057922e-02
1.260241866111755371e-01 -1.051853969693183899e-02 -6.485050916671752930e-02
7.991620153188705444e-02 -6.294556707143783569e-02 -4.993083178997039795e-01
1.320464015007019043e-01 -8.739553391933441162e-03 2.519763410091400146e-01
-8.877495676279067993e-02 -7.691325992345809937e-02 2.946999669075012207e-01
-1.219555065035820007e-01 -5.870497599244117737e-02 3.045320138335227966e-02
4.522780328989028931e-02 -2.245637029409408569e-02 -2.082152813673019409e-01
1.029151231050491333e-01 -7.631962001323699951e-02 -8.198297023773193359e-02
-4.416192322969436646e-02 -8.647358417510986328e-02 8.756296336650848389e-02
-3.487751632928848267e-02 -8.099094033241271973e-02 2.755651772022247314e-01
-2.283991873264312744e-02 -7.806788384914398193e-02 3.341926932334899902e-01
1.722293049097061157e-01 -9.474094957113265991e-03 -4.585596546530723572e-02
1.695874929428100586e-01 -6.202632188796997070e-02 5.333782732486724854e-02
-1.021714583039283752e-01 -8.256879448890686035e-02 -3.621893748641014099e-02
2.263183593750000000e-01 -1.888234727084636688e-02 2.171038985252380371e-01
-2.806152403354644775e-02 -5.901927500963211060e-02 5.403381586074829102e-01
5.587481707334518433e-02 -1.356855407357215881e-02 2.328888475894927979e-01
1.312373578548431396e-01 -7.919009774923324585e-03 1.136960536241531372e-01
2.762137725949287415e-02 -8.154896646738052368e-02 1.690626591444015503e-01
1.062851250171661377e-01 -1.546220481395721436e-02 -1.872393935918807983e-01
3.568386659026145935e-02 -7.780644297599792480e-02 -3.765579462051391602e-01
-3.385622799396514893e-02 -2.750734612345695496e-02 1.340271085500717163e-01
6.761951744556427002e-02 -7.501832395792007446e-02 2.411676794290542603e-01
-9.998599439859390259e-02 -4.629017785191535950e-02 9.162907302379608154e-02
7.886968553066253662e-02 -1.130736246705055237e-02 9.207928180694580078e-02
7.075857371091842651e-03 -8.489870280027389526e-02 8.688395470380783081e-02
1.202954649925231934e-01 -7.282420992851257324e-02 1.127215847373008728e-02
1.483830511569976807e-01 -1.072500646114349365e-02 3.305935859680175781e-01
1.422849893569946289e-01 -6.018233671784400940e-02 -4.146221280097961426e-01
3.078141063451766968e-02 -3.475283458828926086e-02 -3.763869404792785645e-01
1.730450391769409180e-01 -4.163160920143127441e-02 4.083846807479858398e-01
3.377348929643630981e-02 -8.249852806329727173e-02 1.068761795759201050e-01
3.860481083393096924e-02 -8.397073298692703247e-02 -5.018242821097373962e-02
-2.786460518836975098e-02 -8.608028292655944824e-02 1.020747572183609009e-01
6.342342495918273926e-02 -1.731684990227222443e-02 4.269494414329528809e-01
-3.502193838357925415e-03 -8.112774044275283813e-02 2.486743181943893433e-01
5.425176769495010376e-02 -1.508412510156631470e-02 -2.301286906003952026e-03
-2.925843745470046997e-02 -3.061883524060249329e-02 -8.482359349727630615e-02
-9.993720799684524536e-02 -8.041463792324066162e-02 1.808434128761291504e-01
3.289317712187767029e-02 -7.523670047521591187e-02 3.258362412452697754e-01
8.944851905107498169e-02 -1.745542883872985840e-02 -2.045946717262268066e-01
-1.727500557899475098e-02 -8.540277183055877686e-02 1.215336918830871582e-01
2.316751480102539062e-01 -4.030231013894081116e-02 -1.676598340272903442e-01
-1.064113005995750427e-01 -8.065020292997360229e-02 1.304409354925155640e-01
1.209083646535873413e-01 -7.341843843460083008e-02 -9.152948856353759766e-02
1.449257731437683105e-01 -1.143889129161834717e-02 3.520259261131286621e-01
-6.976410746574401855e-03 -8.654978871345520020e-02 -1.450938433408737183e-01
1.649371981620788574e-01 -6.457147002220153809e-02 -1.135991662740707397e-01
-5.018900334835052490e-02 -8.369718492031097412e-02 -2.460225522518157959e-01
1.553816497325897217e-01 -1.485318318009376526e-02 -2.141987979412078857e-01
1.744937896728515625e-01 -1.143387332558631897e-02 -1.181495487689971924e-01
-3.458814322948455811e-02 -3.136874735355377197e-02 3.937250375747680664e-01
-7.594031840562820435e-02 -5.774376541376113892e-02 4.691137373447418213e-01
-2.716758102178573608e-02 -8.728893101215362549e-02 -1.115568131208419800e-01
-3.571651875972747803e-02 -3.336830064654350281e-02 -1.220674216747283936e-01
1.377711147069931030e-01 -6.172487139701843262e-02 2.768551707267761230e-01
1.354418694972991943e-01 -5.489509552717208862e-02 3.957192897796630859e-01
-7.140465825796127319e-02 -4.303573444485664368e-02 -1.252957880496978760e-01
2.123997509479522705e-01 -4.314830899238586426e-02 2.037584781646728516e-01
2.375458776950836182e-01 -2.386794611811637878e-02 1.631626486778259277e-01
1.506365463137626648e-02 -6.766287982463836670e-02 -4.808531701564788818e-01
-4.335993528366088867e-02 -8.108471333980560303e-02 -3.079992234706878662e-01
1.278461515903472900e-01 -5.602973699569702148e-02 -4.814402759075164795e-01
-8.382035046815872192e-02 -5.458579212427139282e-02 -2.269481122493743896e-01
5.510321632027626038e-02 -5.613605305552482605e-02 5.423822402954101562e-01
2.688492089509963989e-02 -4.284463450312614441e-02 -4.478388428688049316e-01
2.401678636670112610e-02 -7.908718287944793701e-02 -3.639338016510009766e-01
7.751114666461944580e-02 -6.705160439014434814e-02 3.794136643409729004e-01
-5.084060132503509521e-03 -8.455305546522140503e-02 1.369318962097167969e-01
1.146853268146514893e-01 -7.075523585081100464e-02 1.572294235229492188e-01
1.286303997039794922e-01 -6.871010363101959229e-02 -3.126676082611083984e-01
3.440362960100173950e-02 -4.410286247730255127e-02 6.035246253013610840e-01
2.366796731948852539e-01 -1.926733180880546570e-02 1.289069652557373047e-01
6.554573029279708862e-02 -1.326511427760124207e-02 3.240144252777099609e-02
-1.032663658261299133e-01 -8.265855908393859863e-02 1.861440949141979218e-02
2.762589976191520691e-02 -3.241821750998497009e-02 -3.392554521560668945e-01
7.354672998189926147e-02 -1.712576113641262054e-02 4.409052729606628418e-01
8.654343336820602417e-02 -1.844079606235027313e-02 -2.215677797794342041e-01
-1.205934509634971619e-01 -5.690655112266540527e-02 1.883111000061035156e-01
8.653435856103897095e-03 -2.416610345244407654e-02 -1.079925894737243652e-01
1.183315813541412354e-01 -7.342015951871871948e-02 -1.156757771968841553e-02
1.895700767636299133e-02 -2.316258661448955536e-02 -1.280779540538787842e-01
3.225866705179214478e-03 -2.218168415129184723e-02 3.353331089019775391e-01
1.427605152130126953e-01 -1.005428284406661987e-02 3.131656944751739502e-01
6.721765547990798950e-02 -2.144411578774452209e-02 -2.446848154067993164e-01
2.238004803657531738e-01 -1.582490652799606323e-02 1.884845793247222900e-01
6.562743335962295532e-03 -2.622763067483901978e-02 -1.559827774763107300e-01
3.493655472993850708e-03 -8.405736088752746582e-02 -2.576079368591308594e-01
3.285578638315200806e-02 -8.417409658432006836e-02 -1.568931490182876587e-01
7.936096191406250000e-02 -1.102380082011222839e-02 1.398120224475860596e-01
1.117778494954109192e-01 -7.458551228046417236e-02 -1.737453788518905640e-01
1.866120100021362305e-02 -1.991201937198638916e-02 -5.579989403486251831e-03
-1.151455566287040710e-01 -6.100408360362052917e-02 3.007373809814453125e-01
2.129478752613067627e-01 -4.858364164829254150e-02 -2.094202339649200439e-01
5.696276947855949402e-02 -1.637926138937473297e-02 -7.452937960624694824e-02
1.804703176021575928e-01 -6.013349071145057678e-02 -1.787595450878143311e-01
-6.411411613225936890e-02 -7.612656056880950928e-02 -3.226479589939117432e-01
2.393951714038848877e-01 -3.704826533794403076e-02 1.466725021600723267e-02
-4.092208296060562134e-02 -3.031803108751773834e-02 3.110411763191223145e-01
9.930334985256195068e-03 -3.649136424064636230e-02 -3.503329455852508545e-01
-1.074736565351486206e-02 -2.509517781436443329e-02 -1.729116588830947876e-02
9.866781532764434814e-02 -2.135537192225456238e-02 5.173921585083007812e-01
9.169225394725799561e-02 -3.188059478998184204e-02 5.797308683395385742e-01
2.019142210483551025e-01 -2.009640447795391083e-02 -2.547054290771484375e-01
3.306042402982711792e-02 -1.700152456760406494e-02 2.942816913127899170e-01
9.820528328418731689e-02 -6.045293807983398438e-02 4.266591966152191162e-01
-4.656127095222473145e-02 -3.021425195038318634e-02 1.580183207988739014e-01
7.362207025289535522e-02 -3.099814616143703461e-02 5.830994844436645508e-01
8.907282352447509766e-02 -2.127639204263687134e-02 -2.835011780261993408e-01
9.344920516014099121e-02 -1.990061439573764801e-02 -2.645043730735778809e-01
3.483311086893081665e-02 -1.594221219420433044e-02 1.319662034511566162e-01
-4.420343041419982910e-02 -3.146414458751678467e-02 7.071755826473236084e-03
1.340232938528060913e-01 -9.252618998289108276e-03 2.811497449874877930e-01
1.705536395311355591e-01 -6.298327445983886719e-02 -1.547023355960845947e-01
-1.729051023721694946e-02 -2.862732857465744019e-02 -9.948359429836273193e-02
-3.253535926342010498e-02 -6.622287631034851074e-02 4.897009134292602539e-01
-5.604338645935058594e-02 -8.118961751461029053e-02 -2.834369242191314697e-01
1.200202479958534241e-02 -8.188666403293609619e-02 -3.132101893424987793e-01
1.216403171420097351e-01 -1.803445070981979370e-02 -2.634254693984985352e-01
7.286737859249114990e-02 -5.369905382394790649e-02 5.400213599205017090e-01
4.533231258392333984e-01 3.450961410999298096e-02 -6.280556321144104004e-02
2.796947956085205078e-03 -3.158224374055862427e-02 4.018728435039520264e-02
4.119659066200256348e-01 -1.480869390070438385e-02 7.497949153184890747e-02
-3.883401155471801758e-01 1.311565190553665161e-02 2.830073237419128418e-03
5.424466133117675781e-01 -3.603402525186538696e-03 8.026531338691711426e-02
7.165941596031188965e-01 7.470287382602691650e-02 3.387962654232978821e-02
1.968678832054138184e-02 6.745272874832153320e-02 -2.701915800571441650e-02
2.191675752401351929e-01 3.641172498464584351e-02 -6.904897093772888184e-02
-1.366575062274932861e-01 2.532708458602428436e-02 7.921615242958068848e-02
3.164327144622802734e-01 -2.824343927204608917e-02 5.158812180161476135e-02
3.953697085380554199e-01 -1.902177371084690094e-02 6.857740879058837891e-02
3.846604228019714355e-01 -2.218536473810672760e-02 -2.973194420337677002e-02
4.189220070838928223e-01 6.069186329841613770e-02 -4.879169538617134094e-02
7.724998593330383301e-01 1.467764377593994141e-06 1.726431772112846375e-02
8.975592255592346191e-02 5.257321894168853760e-02 8.662170171737670898e-02
8.018457293510437012e-01 6.530662626028060913e-02 3.924002125859260559e-02
3.592074513435363770e-01 -1.859273947775363922e-02 -3.931411355733871460e-02
1.432169675827026367e-01 -1.389548741281032562e-02 8.133511245250701904e-02
7.355185747146606445e-01 2.507031895220279694e-02 -3.237403556704521179e-02
7.576748132705688477e-01 2.477164566516876221e-02 -2.801278978586196899e-02
-1.738177537918090820e-01 -6.467109546065330505e-03 -4.816391691565513611e-02
3.436182737350463867e-01 -3.281092643737792969e-02 1.689630560576915741e-02
-8.481371402740478516e-02 9.146867319941520691e-03 -6.292030215263366699e-02
2.666620910167694092e-02 4.598575085401535034e-02 -5.852996930480003357e-02
2.221308052539825439e-01 8.214051276445388794e-02 7.034931331872940063e-04
2.211376875638961792e-01 8.278767764568328857e-02 3.136597573757171631e-02
-5.626779794692993164e-02 6.446153670549392700e-02 -2.227440476417541504e-02
3.220581412315368652e-01 -2.657722681760787964e-03 -6.018995121121406555e-02
3.213401436805725098e-01 6.296394020318984985e-02 8.750773966312408447e-02
-1.519146859645843506e-01 -6.948618218302726746e-03 6.778083741664886475e-02
4.964944124221801758e-01 5.910213291645050049e-02 -4.646805301308631897e-02
-1.688742935657501221e-01 -2.708232589066028595e-02 -1.139329560101032257e-02
8.449278473854064941e-01 3.945958986878395081e-02 -7.393604144454002380e-03
1.763104796409606934e-01 7.888427376747131348e-02 4.648027569055557251e-02
1.929808706045150757e-01 6.864977627992630005e-02 7.408817112445831299e-02
7.093666791915893555e-01 6.514821946620941162e-02 6.628930568695068359e-02
-2.054445743560791016e-01 4.630643874406814575e-02 5.165341868996620178e-02
1.112730205059051514e-01 6.477037072181701660e-02 -4.113200306892395020e-02
2.092595547437667847e-01 -3.580838441848754883e-02 6.666772067546844482e-03
2.591432929039001465e-01 -3.417777270078659058e-02 2.936645783483982086e-02
7.635371088981628418e-01 3.389205783605575562e-03 5.031874403357505798e-02
3.150198757648468018e-01 5.515055358409881592e-02 -5.689794197678565979e-02
1.717579066753387451e-01 -3.628100454807281494e-02 1.750107854604721069e-02
-1.444997191429138184e-01 2.075587585568428040e-02 -5.835280939936637878e-02
7.386075854301452637e-01 1.008683070540428162e-02 -2.186513692140579224e-02
7.375780940055847168e-01 4.598251730203628540e-02 -2.989989519119262695e-02
-2.239435911178588867e-02 -3.488780558109283447e-02 4.964596591889858246e-03
5.891665220260620117e-01 1.387537457048892975e-02 -4.909015074372291565e-02
6.914939880371093750e-01 1.033220253884792328e-02 7.728815078735351562e-02
5.374401807785034180e-03 2.331668138504028320e-02 -6.807674467563629150e-02
-3.748134374618530273e-01 2.416007220745086670e-02 1.000602915883064270e-02
2.790977954864501953e-01 8.424221724271774292e-02 1.035283319652080536e-02
5.732008218765258789e-01 8.248601108789443970e-02 2.916377410292625427e-02
4.467008113861083984e-01 3.662626445293426514e-02 1.029568314552307129e-01
-3.201720118522644043e-02 6.595428287982940674e-02 -2.273574844002723694e-02
1.597632765769958496e-01 -4.655966535210609436e-03 9.086352586746215820e-02
6.624054908752441406e-01 3.072990663349628448e-02 9.078620374202728271e-02
-1.392654776573181152e-01 6.349227577447891235e-02 2.045044116675853729e-02
3.856432437896728516e-02 6.555312871932983398e-02 6.402837485074996948e-02
-2.175828814506530762e-01 2.440195903182029724e-02 -4.875415936112403870e-02
7.871773838996887207e-02 7.164291292428970337e-02 5.580874904990196228e-02
4.656321406364440918e-01 8.279502391815185547e-02 -4.482828080654144287e-04
5.255650877952575684e-01 -2.157680504024028778e-02 4.280360043048858643e-02
5.698321461677551270e-01 2.375342510640621185e-02 9.710752964019775391e-02
3.811584711074829102e-01 7.812013849616050720e-03 -6.348466873168945312e-02
2.628896534442901611e-01 8.303968608379364014e-02 1.497888937592506409e-03
-1.868256628513336182e-01 5.760648101568222046e-02 2.793341316282749176e-02
6.711438894271850586e-01 7.723376899957656860e-02 1.232044212520122528e-02
-3.094493746757507324e-01 -1.465340517461299896e-02 1.689025759696960449e-02
-2.817216515541076660e-02 -1.445542462170124054e-02 -5.147941038012504578e-02
3.353440165519714355e-01 -2.395244501531124115e-02 6.207456812262535095e-02
-1.238486170768737793e-01 -2.540468238294124603e-02 -2.589032053947448730e-02
2.397630214691162109e-01 8.096251636743545532e-02 -7.882542908191680908e-03
-2.982735633850097656e-02 3.048538789153099060e-02 -6.438773870468139648e-02
-2.482259869575500488e-01 3.074859641492366791e-02 -4.013185575604438782e-02
1.369099318981170654e-02 -2.092902548611164093e-02 6.621336191892623901e-02
1.447325497865676880e-01 -1.069089211523532867e-02 -5.839196220040321350e-02
6.626464128494262695e-01 6.327705830335617065e-02 -2.573217451572418213e-02
-2.809926867485046387e-01 -1.175334118306636810e-02 -2.444780617952346802e-02
1.007050722837448120e-01 7.398890703916549683e-02 -1.927616447210311890e-02
1.221733093261718750e-01 -5.061542615294456482e-03 -6.311735510826110840e-02
4.225788116455078125e-01 -9.704902768135070801e-04 9.132301807403564453e-02
8.391060233116149902e-01 1.181261241436004639e-02 2.268881723284721375e-02
3.118375837802886963e-01 -3.367530554533004761e-02 9.043468162417411804e-03
6.234205961227416992e-01 7.600329071283340454e-02 5.517954379320144653e-02
4.886844158172607422e-01 3.683843463659286499e-02 1.016896516084671021e-01
2.346895784139633179e-01 -1.871159113943576813e-02 7.543465495109558105e-02
-6.966066360473632812e-02 2.758403308689594269e-02 -6.279967725276947021e-02
8.826259970664978027e-01 4.885085672140121460e-02 2.892200835049152374e-02
5.864051580429077148e-01 -1.175150088965892792e-02 -2.063700556755065918e-02
6.292726993560791016e-01 5.306363105773925781e-03 8.084711432456970215e-02
-1.462303698062896729e-01 -2.953443862497806549e-02 -4.389703273773193359e-03
-3.253992199897766113e-01 -3.758221864700317383e-04 -2.623553201556205750e-02
8.872076869010925293e-02 -3.189924359321594238e-02 4.475735127925872803e-02
5.630806684494018555e-01 4.058354347944259644e-02 -5.338275805115699768e-02
8.595787882804870605e-01 4.776209592819213867e-02 5.079938471317291260e-02
4.391473531723022461e-02 -3.189078718423843384e-02 4.242976754903793335e-02
4.534454345703125000e-01 6.832066178321838379e-02 -3.759588673710823059e-02
-3.593525290489196777e-01 -5.189383402466773987e-03 1.238474622368812561e-02
3.020438253879547119e-01 -2.841513045132160187e-02 -2.239732816815376282e-02
3.429709672927856445e-01 8.319975435733795166e-02 -2.416547387838363647e-03
-4.315173625946044922e-02 -2.960309945046901703e-02 -2.301175519824028015e-02
8.108954429626464844e-01 6.450644880533218384e-02 1.762219704687595367e-02
7.756461203098297119e-02 -6.742019206285476685e-03 8.641986548900604248e-02
7.835532426834106445e-01 1.675194129347801208e-02 -1.712660118937492371e-02
3.429666161537170410e-02 -3.422749042510986328e-02 -1.035022363066673279e-02
6.530967950820922852e-01 5.095750093460083008e-02 8.705940842628479004e-02
6.280241012573242188e-01 7.968498021364212036e-02 3.723600506782531738e-02
-3.046649694442749023e-02 2.200143411755561829e-03 -6.372261047363281250e-02
5.239180326461791992e-01 -1.535272784531116486e-02 -2.481832355260848999e-02
7.706211805343627930e-01 6.991936266422271729e-02 2.063348330557346344e-02
6.329404115676879883e-01 6.961179524660110474e-02 6.881470978260040283e-02
-1.867556273937225342e-01 5.862624943256378174e-02 2.022778615355491638e-03
-1.531208157539367676e-01 4.462666064500808716e-02 6.499956548213958740e-02
-2.713111639022827148e-01 2.418463863432407379e-02 -3.986024111509323120e-02
5.141245126724243164e-01 2.332435920834541321e-03 8.897772431373596191e-02
6.152362227439880371e-01 6.462859362363815308e-02 7.799750566482543945e-02
5.453810095787048340e-03 4.873251914978027344e-02 -5.470728501677513123e-02
-1.391633450984954834e-01 5.224217846989631653e-02 -3.373551368713378906e-02
-9.967377781867980957e-02 6.578908115625381470e-02 3.059890121221542358e-02
4.767506122589111328e-01 -2.519063465297222137e-02 3.855267912149429321e-02
4.912296533584594727e-01 -9.693374857306480408e-03 -3.940986096858978271e-02
3.884493708610534668e-01 -2.896013669669628143e-02 3.961580246686935425e-02
-1.873064935207366943e-01 -2.261113934218883514e-02 -2.269985154271125793e-02
6.154571771621704102e-01 -1.703298650681972504e-02 9.598864242434501648e-03
3.959193825721740723e-03 -2.092120982706546783e-02 -4.431699961423873901e-02
2.589802443981170654e-01 7.952874898910522461e-02 -1.490428298711776733e-02
4.518671631813049316e-01 8.377876877784729004e-02 4.080851748585700989e-02
4.939047992229461670e-02 7.588591426610946655e-02 -1.961253583431243896e-04
-3.233686089515686035e-01 1.636906899511814117e-02 4.566755518317222595e-02
9.547397494316101074e-03 -3.342701494693756104e-02 -1.269001513719558716e-02
-2.061263620853424072e-01 -1.923608966171741486e-02 -2.705752849578857422e-02
2.404049038887023926e-02 -1.376708410680294037e-02 -5.414825305342674255e-02
2.795811891555786133e-01 -3.205347061157226562e-02 3.995285183191299438e-02
8.558176159858703613e-01 1.820535399019718170e-02 3.950437903404235840e-02
4.669996798038482666e-01 5.242431536316871643e-03 9.421195089817047119e-02
2.241707593202590942e-01 2.134694531559944153e-02 1.036263555288314819e-01
7.882214188575744629e-01 6.719023734331130981e-02 1.506944373250007629e-02
2.250568568706512451e-01 -2.963828854262828827e-02 5.226736143231391907e-02
-2.661513090133666992e-01 2.313919737935066223e-02 5.841373279690742493e-02
4.934947490692138672e-01 7.576647400856018066e-02 6.681467592716217041e-02
-7.006886601448059082e-02 -2.089252136647701263e-02 5.936080589890480042e-02
-1.667790412902832031e-01 -2.866864763200283051e-02 1.699812896549701691e-02
-9.111088514328002930e-02 -2.600936032831668854e-02 4.616806283593177795e-02
5.853964090347290039e-01 7.943679392337799072e-02 1.852773129940032959e-05
-2.548052072525024414e-01 -1.848492957651615143e-02 -1.698318123817443848e-02
7.593886256217956543e-01 4.352949559688568115e-02 7.767564058303833008e-02
5.485805273056030273e-01 4.731664434075355530e-02 9.606555104255676270e-02
5.846801400184631348e-01 -3.377206623554229736e-03 7.591351866722106934e-02
2.256435453891754150e-01 -2.821795456111431122e-02 -2.890850603580474854e-02
2.627572715282440186e-01 4.621200636029243469e-02 9.960065782070159912e-02
6.030061244964599609e-01 -1.504047028720378876e-02 4.734683409333229065e-02
5.457494258880615234e-01 7.505817711353302002e-02 -1.865280419588088989e-02
8.317631483078002930e-01 6.130079925060272217e-02 1.882880926132202148e-02
7.438491582870483398e-01 -1.631218940019607544e-03 2.506099641323089600e-03
6.972439289093017578e-01 3.193376958370208740e-02 8.716511726379394531e-02
-6.425285339355468750e-02 6.960517913103103638e-02 4.969230853021144867e-03
-1.811105906963348389e-01 4.500186070799827576e-02 -3.739782050251960754e-02
7.040483355522155762e-01 4.803357645869255066e-02 8.337296545505523682e-02
6.099811792373657227e-01 -5.309822037816047668e-03 6.947864592075347900e-02
7.912587523460388184e-01 5.961360037326812744e-02 5.829403549432754517e-02
-2.181725203990936279e-01 5.552520975470542908e-02 1.078023761510848999e-02
-2.010714709758758545e-01 2.050123922526836395e-02 7.100754231214523315e-02
5.264931917190551758e-01 -2.407539449632167816e-02 1.815091259777545929e-02
2.548897266387939453e-02 7.479214668273925781e-02 8.810274302959442139e-04
3.935288190841674805e-01 8.170438557863235474e-02 -8.950039744377136230e-03
-1.165645718574523926e-01 6.568946689367294312e-02 1.813481561839580536e-02
-1.163904070854187012e-01 -2.407112903892993927e-02 4.732864350080490112e-02
7.248049974441528320e-02 1.882858946919441223e-02 -7.065218687057495117e-02
4.181253314018249512e-01 -2.964258380234241486e-02 8.283393457531929016e-03
1.569797992706298828e-01 -3.639193624258041382e-02 7.435010746121406555e-03
2.005368620157241821e-01 8.272622525691986084e-02 1.261872798204421997e-02
4.215998053550720215e-01 6.888435781002044678e-02 8.065491914749145508e-02
3.085982799530029297e-02 -2.612477727234363556e-02 5.750748887658119202e-02
2.605034112930297852e-01 -2.963080443441867828e-02 5.081844702363014221e-02
-2.704536914825439453e-02 3.378440067172050476e-02 8.858260512351989746e-02
7.017391324043273926e-01 1.520168315619230270e-02 -3.375290334224700928e-02
-9.911879897117614746e-02 2.561767585575580597e-02 8.362078666687011719e-02
4.798490107059478760e-01 1.223375089466571808e-02 -5.885206535458564758e-02
-1.893728971481323242e-02 7.278357446193695068e-02 6.913014687597751617e-03
4.961169064044952393e-01 -6.322365254163742065e-03 8.098708093166351318e-02
6.926871836185455322e-02 -3.114639408886432648e-02 4.643127322196960449e-02
1.505492329597473145e-01 8.095955103635787964e-02 8.446255698800086975e-03
3.375948071479797363e-01 6.721016764640808105e-02 8.252252638339996338e-02
1.031176745891571045e-01 3.536869585514068604e-02 -6.807714700698852539e-02
6.938012838363647461e-01 4.428001493215560913e-02 -3.748584911227226257e-02
3.314884006977081299e-01 4.620908945798873901e-02 1.007313877344131470e-01
6.208961009979248047e-01 1.083383336663246155e-03 -3.484769910573959351e-02
-1.192898154258728027e-01 6.027939170598983765e-02 -1.997057721018791199e-02
-2.995826005935668945e-01 -1.648412458598613739e-02 -2.131965011358261108e-03
6.686367988586425781e-01 2.185913175344467163e-02 -4.213151708245277405e-02
9.013195335865020752e-02 -2.476719953119754791e-02 6.317912042140960693e-02
1.090684235095977783e-01 -2.865683101117610931e-02 5.504018813371658325e-02
5.438431501388549805e-01 8.333908021450042725e-02 1.809775270521640778e-02
5.968827009201049805e-02 -3.516148775815963745e-02 2.773001044988632202e-02
-1.059113740921020508e-01 -2.991764061152935028e-02 -1.345361955463886261e-02
7.465897798538208008e-01 2.209724672138690948e-02 7.730844616889953613e-02
4.409393072128295898e-01 5.357878655195236206e-02 -5.436327680945396423e-02
-1.999017596244812012e-01 -2.636695094406604767e-02 1.733382418751716614e-02
-1.391410231590270996e-01 -2.718046493828296661e-02 3.432827442884445190e-02
1.180164217948913574e-01 -3.411560505628585815e-02 3.655614703893661499e-02
7.666183710098266602e-01 4.366514086723327637e-02 -2.568205818533897400e-02
5.352584719657897949e-01 8.157683163881301880e-02 1.592154614627361298e-03
-1.889498829841613770e-01 3.754049539566040039e-02 6.526798754930496216e-02
1.472305953502655029e-01 -3.480066359043121338e-02 -8.674455806612968445e-03
3.488948941230773926e-02 4.441494494676589966e-02 8.855728805065155029e-02
-2.021960318088531494e-01 3.374730050563812256e-02 -4.563649371266365051e-02
5.815099477767944336e-01 -2.010436542332172394e-02 2.541037835180759430e-02
3.013606965541839600e-01 4.825268685817718506e-02 9.928539395332336426e-02
2.029337435960769653e-01 -3.127453476190567017e-02 -2.115793898701667786e-02
-1.024750173091888428e-01 4.105829820036888123e-02 -5.232419446110725403e-02
1.678657978773117065e-01 6.878399848937988281e-02 7.195457816123962402e-02
4.012543857097625732e-01 6.332866102457046509e-02 -4.643882438540458679e-02
7.237480282783508301e-01 6.935003399848937988e-02 5.501141771674156189e-02
-2.102762758731842041e-01 -1.011872664093971252e-03 -4.766264185309410095e-02
3.674194514751434326e-01 -2.729233540594577789e-02 4.977710172533988953e-02
6.701630353927612305e-02 6.476280093193054199e-02 6.908842176198959351e-02
1.856227219104766846e-01 8.151892572641372681e-02 2.964141778647899628e-03
1.748736500740051270e-01 1.026045717298984528e-02 9.986239671707153320e-02
7.280952930450439453e-01 8.585048839449882507e-03 6.896715611219406128e-02
6.012378931045532227e-01 7.443018257617950439e-02 -1.365871913731098175e-02
6.719284653663635254e-01 6.668025627732276917e-03 7.650221884250640869e-02
9.578821063041687012e-02 -3.592210263013839722e-02 -1.293642446398735046e-03
3.186275362968444824e-01 7.721777260303497314e-02 6.360002607107162476e-02
3.343645930290222168e-01 -1.414944045245647430e-02 -4.786421731114387512e-02
-3.702605962753295898e-01 2.117030322551727295e-02 -9.273376315832138062e-03
-7.233905792236328125e-02 5.007996782660484314e-02 7.184343785047531128e-02
1.175859868526458740e-01 7.923015952110290527e-02 3.143521025776863098e-02
4.042055010795593262e-01 -1.130381040275096893e-02 -4.621728137135505676e-02
1.582605540752410889e-01 4.863586276769638062e-02 -6.162325665354728699e-02
-2.623200416564941406e-02 5.786149948835372925e-02 6.819718331098556519e-02
3.794046044349670410e-01 7.122372090816497803e-02 7.703943550586700439e-02
3.425683379173278809e-01 -2.718981169164180756e-02 -2.159786969423294067e-02
-1.054715812206268311e-01 5.533319711685180664e-02 -3.401998057961463928e-02
5.143500566482543945e-01 5.629893392324447632e-02 9.209491312503814697e-02
1.982688754796981812e-01 -3.467955440282821655e-02 3.205498680472373962e-02
3.882606029510498047e-01 5.119942128658294678e-02 -5.828028544783592224e-02
2.253425121307373047e-01 -3.385725617408752441e-02 3.524791449308395386e-02
-2.441599369049072266e-01 -1.464244164526462555e-02 4.246012121438980103e-02
-1.617317199707031250e-01 5.949079990386962891e-02 -8.656611666083335876e-03
-8.533820509910583496e-02 4.761383309960365295e-02 -4.773705080151557922e-02
-8.232611417770385742e-02 -6.846209987998008728e-03 7.552097737789154053e-02
-1.283850371837615967e-01 6.432189047336578369e-02 2.702116034924983978e-03
5.092060565948486328e-02 8.770871907472610474e-03 -6.881216168403625488e-02
4.447090029716491699e-01 8.483176678419113159e-02 1.234085299074649811e-02
6.726328134536743164e-01 3.905015438795089722e-02 -4.212415218353271484e-02
3.127723038196563721e-01 8.427947014570236206e-02 6.236065179109573364e-03
-2.251453995704650879e-01 -1.886464096605777740e-02 -2.395042777061462402e-02
4.322980046272277832e-01 6.740243732929229736e-02 -3.991091623902320862e-02
-1.240313053131103516e-02 6.084083765745162964e-02 -3.700230643153190613e-02
2.419600039720535278e-01 1.974650658667087555e-02 1.037326604127883911e-01
5.155584812164306641e-01 1.950868032872676849e-02 -5.832024291157722473e-02
1.816600561141967773e-01 -3.498914837837219238e-02 -5.470193922519683838e-03
4.173894822597503662e-01 4.396152496337890625e-02 1.014807969331741333e-01
6.514360308647155762e-01 -2.004871144890785217e-03 -2.517931535840034485e-02
-1.294818520545959473e-02 -3.142040222883224487e-02 -1.939848810434341431e-02
-5.981591343879699707e-02 1.344104763120412827e-02 -6.508891284465789795e-02
1.024936586618423462e-01 -2.183490805327892303e-02 -4.475265368819236755e-02
4.571357369422912598e-01 -1.655587367713451385e-02 -3.248654305934906006e-02
8.165100812911987305e-01 5.701745301485061646e-02 -1.441167667508125305e-03
3.767324984073638916e-02 -2.538431622087955475e-02 -3.760558366775512695e-02
5.065475702285766602e-01 8.125513046979904175e-02 4.988792538642883301e-02
2.274669259786605835e-01 -3.563021868467330933e-02 9.268924593925476074e-03
2.734040319919586182e-01 6.059601157903671265e-02 8.883702754974365234e-02
3.256660699844360352e-01 1.950639486312866211e-02 1.042010188102722168e-01
6.582586765289306641e-01 -1.361432112753391266e-02 1.602123677730560303e-02
4.468302130699157715e-01 7.652854174375534058e-02 6.647614389657974243e-02
9.742677211761474609e-04 2.209598198533058167e-03 -6.501631438732147217e-02
5.543482899665832520e-01 7.886715978384017944e-02 5.450943484902381897e-02
6.383310556411743164e-01 -1.124773733317852020e-02 -8.408404886722564697e-03
-1.203242540359497070e-01 1.449703797698020935e-02 8.170311152935028076e-02
4.497099518775939941e-01 6.035406887531280518e-02 9.038592875003814697e-02
2.939464151859283447e-01 -3.375411778688430786e-02 2.758637070655822754e-03
3.689469993114471436e-01 -9.032865986227989197e-03 8.524297177791595459e-02
8.390800654888153076e-02 -2.810108847916126251e-02 -3.255009278655052185e-02
1.816807985305786133e-01 6.623667478561401367e-02 -4.228888452053070068e-02
8.227310776710510254e-01 1.003519445657730103e-02 1.048521790653467178e-02
-1.502179503440856934e-01 5.801604688167572021e-02 4.211942479014396667e-02
5.098308324813842773e-01 8.390708267688751221e-02 1.382780633866786957e-02
4.654841423034667969e-01 5.590359121561050415e-02 -5.122294649481773376e-02
9.351953864097595215e-02 6.544031202793121338e-02 7.085202634334564209e-02
8.596129715442657471e-02 4.194774106144905090e-02 -6.418478488922119141e-02
-1.487933993339538574e-01 -2.983185835182666779e-02 1.586188934743404388e-02
7.455698251724243164e-01 -3.030266612768173218e-03 3.544978797435760498e-02
-7.172676920890808105e-02 -2.944195084273815155e-02 -2.054530009627342224e-02
2.845080792903900146e-01 4.162696003913879395e-02 1.021162420511245728e-01
2.986747026443481445e-01 8.408297598361968994e-02 3.435317426919937134e-02
7.866098880767822266e-01 2.243831194937229156e-02 6.988294422626495361e-02
2.476791441440582275e-01 7.422668486833572388e-02 6.698925793170928955e-02
-8.177435398101806641e-02 6.472039967775344849e-02 4.215150699019432068e-02
3.358756899833679199e-01 -3.049426339566707611e-02 4.071938619017601013e-02
7.031424045562744141e-01 -3.696408122777938843e-03 5.277539417147636414e-02
-2.554060220718383789e-01 -2.729644998908042908e-03 -3.994068503379821777e-02
5.217467546463012695e-01 -1.490721665322780609e-02 6.391693651676177979e-02
-2.814330458641052246e-01 3.832019865512847900e-02 -2.350530773401260376e-02
3.054081797599792480e-01 8.126816153526306152e-02 5.042538419365882874e-02
3.203828036785125732e-01 8.478601276874542236e-02 2.992005646228790283e-02
9.605731070041656494e-02 7.903506606817245483e-02 1.126960851252079010e-02
7.953411340713500977e-02 2.418380975723266602e-02 9.829719364643096924e-02
7.387639284133911133e-01 5.377364903688430786e-02 7.513409852981567383e-02
6.711795330047607422e-01 -1.034552045166492462e-02 1.182922162115573883e-03
4.766775965690612793e-01 -2.370141632854938507e-02 -1.014106720685958862e-02
1.177632510662078857e-01 2.313666418194770813e-02 -7.135292887687683105e-02
-1.099701821804046631e-01 4.081565514206886292e-02 7.526746392250061035e-02
5.113647580146789551e-01 7.545663416385650635e-02 6.670022010803222656e-02
-5.557101964950561523e-02 5.082929134368896484e-02 -4.717526212334632874e-02
8.579991459846496582e-01 1.686405949294567108e-02 1.999222859740257263e-02
8.043338656425476074e-01 1.570186950266361237e-02 -9.728580713272094727e-03
6.692824363708496094e-01 4.023429006338119507e-03 -2.974313870072364807e-02
6.513157486915588379e-01 1.465642452239990234e-02 -4.147458821535110474e-02
-9.310296177864074707e-02 -1.552246697247028351e-02 -4.634072259068489075e-02
1.241878867149353027e-01 5.746422335505485535e-03 9.640471637248992920e-02
7.247443199157714844e-01 7.354338467121124268e-02 1.392253860831260681e-02
-1.680459082126617432e-01 6.026624888181686401e-02 2.404541149735450745e-02
3.147178888320922852e-02 1.194145809859037399e-02 9.413264691829681396e-02
7.951884269714355469e-01 5.802085250616073608e-02 -6.676804274320602417e-03
-3.095855116844177246e-01 -5.242584273219108582e-03 3.902779519557952881e-02
2.487427890300750732e-01 -7.405744865536689758e-03 8.935585618019104004e-02
5.117514729499816895e-01 1.673053950071334839e-03 -4.953836277127265930e-02
2.688134014606475830e-01 -4.056243225932121277e-03 9.234997630119323730e-02
5.909660458564758301e-02 7.287621498107910156e-02 -1.696568727493286133e-02
2.452586144208908081e-01 1.379171200096607208e-02 -7.045143842697143555e-02
4.950090646743774414e-01 -2.122224681079387665e-02 5.121466889977455139e-02
3.530535101890563965e-01 3.009250387549400330e-02 -6.817062199115753174e-02
4.726796746253967285e-01 8.470019698143005371e-02 1.543894410133361816e-02
4.309324622154235840e-01 -2.684048004448413849e-02 -7.681082934141159058e-03
3.350368738174438477e-01 3.599904850125312805e-02 -6.745956838130950928e-02
1.314437687397003174e-01 7.978616654872894287e-02 3.030441701412200928e-03
4.903157949447631836e-01 4.504615068435668945e-02 -5.698510631918907166e-02
-1.702523231506347656e-02 6.617896258831024170e-02 5.351017415523529053e-02
1.391625702381134033e-01 -3.653665632009506226e-02 1.470145490020513535e-02
7.900013923645019531e-01 3.723517432808876038e-02 -2.264482155442237854e-02
4.006824493408203125e-01 -2.695816941559314728e-02 -1.362675055861473083e-02
1.531486362218856812e-01 1.358361076563596725e-02 -7.119809091091156006e-02
4.181411862373352051e-01 1.382575463503599167e-02 -6.370721757411956787e-02
2.533937096595764160e-01 6.129612028598785400e-02 8.737437427043914795e-02
-8.809033036231994629e-02 6.621292978525161743e-02 -7.118906825780868530e-03
-3.188055753707885742e-01 3.604813665151596069e-02 2.933702245354652405e-02
7.732896804809570312e-01 6.370285898447036743e-02 5.563087016344070435e-02
6.094572544097900391e-01 2.071971446275711060e-02 9.317465126514434814e-02
8.147391080856323242e-01 3.601550310850143433e-02 -1.681737229228019714e-02
5.544860959053039551e-01 -8.706113323569297791e-03 -3.215608373284339905e-02
-3.456491231918334961e-01 3.020381554961204529e-02 -1.033067516982555389e-02
2.143707275390625000e-01 6.796170771121978760e-02 7.661631703376770020e-02
1.135139912366867065e-01 3.314064443111419678e-02 9.885519742965698242e-02
1.990310847759246826e-01 7.980224490165710449e-02 -9.167144075036048889e-03
2.853689789772033691e-01 7.475163042545318604e-02 6.791352480649948120e-02
6.972555518150329590e-01 7.642948627471923828e-02 2.791852131485939026e-02
-2.779700160026550293e-01 -9.530292823910713196e-03 4.228338971734046936e-02
1.620999276638031006e-01 3.299810364842414856e-02 1.011438816785812378e-01
5.057898163795471191e-01 -1.473684422671794891e-02 -2.908176183700561523e-02
2.713801264762878418e-01 1.495831552892923355e-02 -7.012951374053955078e-02
-3.412761092185974121e-01 -9.529029950499534607e-03 -1.241425052285194397e-03
3.735317587852478027e-01 8.511003106832504272e-02 3.085027262568473816e-02
4.206459522247314453e-01 8.466541767120361328e-02 3.555919975042343140e-02
1.340450346469879150e-01 -2.046361379325389862e-02 -4.675140604376792908e-02
6.425198316574096680e-01 4.163565486669540405e-02 -4.505511373281478882e-02
2.958638072013854980e-01 -2.036562375724315643e-02 -4.106225818395614624e-02
-8.159905672073364258e-03 -1.805108040571212769e-04 8.636900782585144043e-02
2.091775983572006226e-01 -2.469743974506855011e-02 6.490088999271392822e-02
1.404335647821426392e-01 8.063367754220962524e-02 2.615523897111415863e-02
5.867967009544372559e-01 5.283887684345245361e-02 -4.482887685298919678e-02
-3.661247491836547852e-01 1.710471883416175842e-02 2.871572412550449371e-02
-3.752766251564025879e-01 4.352917894721031189e-03 2.028789371252059937e-02
2.792870104312896729e-01 2.234665118157863617e-02 1.045318543910980225e-01
6.395330429077148438e-01 5.728121846914291382e-02 -3.555436059832572937e-02
-6.823492050170898438e-02 1.905161887407302856e-02 8.738291263580322266e-02
3.532655239105224609e-01 2.989303320646286011e-03 9.668424725532531738e-02
7.358363270759582520e-01 6.113166362047195435e-02 -1.639164611697196960e-02
3.087337911128997803e-01 8.060971274971961975e-03 1.002711802721023560e-01
6.411414146423339844e-01 7.702556997537612915e-02 4.846104979515075684e-02
-6.090331077575683594e-02 -3.335540741682052612e-02 -2.000335603952407837e-03
1.444466114044189453e-01 5.365258455276489258e-02 8.945631980895996094e-02
7.083380818367004395e-01 -5.319053307175636292e-03 -1.518096774816513062e-03
1.910721361637115479e-01 5.332859978079795837e-02 -5.832156911492347717e-02
8.815273642539978027e-03 5.952892452478408813e-02 -4.149118065834045410e-02
3.682479262351989746e-01 8.493690937757492065e-02 9.709492325782775879e-03
2.579146623611450195e-01 8.333779871463775635e-02 3.437466919422149658e-02
8.246781229972839355e-01 1.526386477053165436e-02 5.107200518250465393e-02
6.329860687255859375e-01 7.480818778276443481e-02 -7.701601833105087280e-03
4.630168080329895020e-01 -2.747575379908084869e-02 2.551843225955963135e-02
3.457151055335998535e-01 1.036165375262498856e-02 -6.630018353462219238e-02
3.440985083580017090e-01 7.816488295793533325e-02 6.201260909438133240e-02
3.310770392417907715e-01 -2.383517101407051086e-03 9.301973879337310791e-02
4.782311618328094482e-02 -3.619860112667083740e-02 1.236806809902191162e-02
1.638173907995223999e-01 7.504519075155258179e-02 -2.263044565916061401e-02
3.568205237388610840e-02 7.394570857286453247e-02 3.888411447405815125e-02
6.096402406692504883e-01 -1.753322966396808624e-02 3.059225529432296753e-02
5.845755338668823242e-01 6.598537415266036987e-02 -3.131356462836265564e-02
2.306519150733947754e-01 5.085265263915061951e-02 9.581622481346130371e-02
8.031579852104187012e-01 6.827516481280326843e-03 4.093969613313674927e-02
4.023918807506561279e-01 6.919540464878082275e-02 8.028307557106018066e-02
2.588386833667755127e-01 5.717413872480392456e-02 -5.530903860926628113e-02
2.625614106655120850e-01 -2.326810546219348907e-02 6.684444844722747803e-02
3.926165997982025146e-01 -3.087330050766468048e-02 1.028464362025260925e-02
6.957927942276000977e-01 6.099631637334823608e-02 -2.375625073909759521e-02
3.752922117710113525e-01 7.494415342807769775e-02 -2.847550436854362488e-02
3.565382957458496094e-01 5.218767002224922180e-02 9.746423363685607910e-02
1.802567839622497559e-01 -1.015342213213443756e-02 8.618095517158508301e-02
-1.569169759750366211e-02 -2.814850024878978729e-02 4.915365949273109436e-02
1.265998184680938721e-02 7.453133910894393921e-02 2.525718882679939270e-02
2.876104414463043213e-01 2.714429982006549835e-02 -7.037398219108581543e-02
1.183209419250488281e-01 -3.658767789602279663e-02 1.348979398608207703e-02
4.376615881919860840e-01 -1.230438239872455597e-02 -4.170950129628181458e-02
-8.985865116119384766e-02 -2.844869531691074371e-02 -2.157626301050186157e-02
5.018221139907836914e-01 -2.552058733999729156e-02 2.215581387281417847e-02
6.189928054809570312e-01 -8.743604645133018494e-03 -1.998647302389144897e-02
3.085905611515045166e-01 -1.288195513188838959e-02 -5.103098973631858826e-02
1.719633042812347412e-01 2.636629156768321991e-02 -7.150493562221527100e-02
-5.914333462715148926e-02 6.538638472557067871e-02 4.628349840641021729e-02
3.190154433250427246e-01 -3.262776881456375122e-02 3.062965162098407745e-02
-2.566327452659606934e-01 4.994325339794158936e-02 5.118548870086669922e-04
4.367230236530303955e-01 2.990322932600975037e-02 -6.442299485206604004e-02
4.399071931838989258e-01 1.561988238245248795e-02 1.009935885667800903e-01
-2.896414995193481445e-01 1.146181859076023102e-02 -3.918624669313430786e-02
3.950490355491638184e-01 -9.177466854453086853e-03 8.393533527851104736e-02
6.841622591018676758e-01 6.032619625329971313e-02 7.618457078933715820e-02
4.056492149829864502e-01 8.090271800756454468e-02 5.474836006760597229e-02
-1.621198654174804688e-01 3.405611589550971985e-02 -5.090177431702613831e-02
4.921804666519165039e-01 6.674833595752716064e-02 8.219887316226959229e-02
-1.294002234935760498e-01 3.567116707563400269e-02 -5.357895419001579285e-02
1.602882146835327148e-02 5.903157591819763184e-02 7.206042855978012085e-02
4.939197301864624023e-01 8.422458171844482422e-02 3.244436532258987427e-02
8.378646969795227051e-01 5.953583866357803345e-02 3.891018778085708618e-02
4.135684967041015625e-01 -2.955691330134868622e-02 2.839774638414382935e-02
-5.106085538864135742e-02 -3.191901743412017822e-02 3.182880207896232605e-02
3.807988166809082031e-01 8.210265636444091797e-02 5.008804053068161011e-02
-1.249104738235473633e-03 7.276314496994018555e-02 -2.987448126077651978e-03
5.111443400382995605e-01 8.027259260416030884e-02 -6.984684616327285767e-03
-3.541613221168518066e-01 -1.588892191648483276e-04 -1.581107452511787415e-02
6.142893433570861816e-02 -1.473825238645076752e-02 -5.390240624547004700e-02
1.424471586942672729e-01 -2.851026318967342377e-02 -3.125967085361480713e-02
1.199482679367065430e-01 6.766432523727416992e-02 6.964130699634552002e-02
1.562558263540267944e-01 6.320285797119140625e-02 -4.591098055243492126e-02
5.457848906517028809e-01 6.165546923875808716e-02 -4.026115313172340393e-02
-6.381872296333312988e-02 -3.359904140233993530e-02 1.580730639398097992e-02
6.052149534225463867e-01 6.249596178531646729e-02 -3.376448154449462891e-02
-2.417142987251281738e-01 4.927490651607513428e-02 -1.259344071149826050e-02
6.811207532882690430e-01 7.251887768507003784e-02 -4.715930670499801636e-03
2.398799210786819458e-01 -3.542715311050415039e-02 1.735154166817665100e-02
-3.398894071578979492e-01 3.261972963809967041e-02 2.405824512243270874e-02
1.558286249637603760e-01 7.720372825860977173e-02 4.998467490077018738e-02
5.168699622154235840e-01 2.861030213534832001e-02 1.008798480033874512e-01
2.771114706993103027e-01 -1.604582183063030243e-02 -4.868440702557563782e-02
5.866798162460327148e-01 3.891235217452049255e-02 9.654985368251800537e-02
6.404259204864501953e-01 -1.179016567766666412e-02 4.759832099080085754e-02
1.395692527294158936e-01 7.709909230470657349e-02 -1.327182538807392120e-02
2.574392855167388916e-01 -1.748169027268886566e-02 -4.765281453728675842e-02
7.568147182464599609e-01 5.396587774157524109e-03 -1.014910638332366943e-02
1.119091808795928955e-01 -3.237392753362655640e-02 -2.027326822280883789e-02
4.207170009613037109e-02 7.645360380411148071e-02 2.107825502753257751e-02
7.014521956443786621e-02 6.445600092411041260e-02 -3.868668898940086365e-02
7.708467245101928711e-01 1.443278230726718903e-02 6.651392579078674316e-02
-2.918878197669982910e-01 4.397618025541305542e-02 -3.022292628884315491e-03
-6.534990668296813965e-02 -2.225067652761936188e-02 -3.839672356843948364e-02
2.732024788856506348e-01 7.471547275781631470e-02 -2.888673171401023865e-02
6.437436938285827637e-01 3.146200627088546753e-02 9.261268377304077148e-02
-1.127033829689025879e-01 -1.557211019098758698e-02 -4.470852762460708618e-02
-1.183519661426544189e-01 -3.161521255970001221e-02 1.181332394480705261e-02
7.870253920555114746e-02 -3.486733138561248779e-02 -8.759321644902229309e-03
1.665005087852478027e-01 7.999209314584732056e-02 -3.688130527734756470e-03
-1.399112641811370850e-01 5.301048606634140015e-02 5.597500875592231750e-02
7.092430591583251953e-01 -8.375199511647224426e-03 1.902897655963897705e-02
-6.098359823226928711e-03 -1.777220331132411957e-02 6.965903937816619873e-02
3.122953772544860840e-01 -1.054812036454677582e-02 8.521459996700286865e-02
5.845659971237182617e-01 6.216376274824142456e-02 8.316239714622497559e-02
3.516433238983154297e-01 5.562753230333328247e-02 -5.580232664942741394e-02
6.436187624931335449e-01 7.959083467721939087e-02 2.860718593001365662e-02
5.379068255424499512e-01 1.427937764674425125e-02 -5.465363338589668274e-02
4.696927666664123535e-01 5.173246562480926514e-02 9.664377570152282715e-02
4.770520329475402832e-01 -1.746887899935245514e-02 -2.786765247583389282e-02
4.529169797897338867e-01 -2.443094365298748016e-02 -1.278116554021835327e-02
5.613406300544738770e-01 -1.206006295979022980e-02 6.423345208168029785e-02
-3.212800621986389160e-02 -3.599867224693298340e-03 8.235545456409454346e-02
3.785734176635742188e-01 2.668654359877109528e-02 1.047296822071075439e-01
-5.041658878326416016e-03 7.371381670236587524e-02 2.163281291723251343e-02
4.722061157226562500e-01 2.299839258193969727e-02 1.019773632287979126e-01
5.633233487606048584e-02 4.316966235637664795e-02 9.105971455574035645e-02
1.715534031391143799e-01 -2.212467230856418610e-02 -4.352936521172523499e-02
-1.893742680549621582e-01 5.388701707124710083e-02 -1.834146678447723389e-02
-3.226327896118164062e-02 -3.266845643520355225e-02 3.116309456527233124e-02
4.620508551597595215e-01 -2.311322279274463654e-02 5.069869756698608398e-02
9.999556839466094971e-02 -1.136677153408527374e-02 8.290684223175048828e-02
6.079387664794921875e-01 7.945144921541213989e-02 4.437148571014404297e-02
3.115050792694091797e-01 7.576085627079010010e-02 -2.702579274773597717e-02
8.156646788120269775e-02 7.806835323572158813e-02 2.688553556799888611e-02
2.450192570686340332e-01 8.372917771339416504e-02 1.171506661921739578e-02
3.672637939453125000e-01 8.117318153381347656e-02 -1.138694398105144501e-02
-3.727310895919799805e-01 -4.106853157281875610e-04 -1.829789951443672180e-03
5.257174372673034668e-02 1.380780059844255447e-02 9.583683311939239502e-02
4.497762024402618408e-02 6.116126477718353271e-02 -4.215663671493530273e-02
4.008370637893676758e-01 7.512593269348144531e-02 -2.745820581912994385e-02
1.721970587968826294e-01 5.148769915103912354e-02 9.280912578105926514e-02
5.411747694015502930e-01 -1.830722950398921967e-02 -1.354887150228023529e-02
-3.291253447532653809e-01 -1.094106771051883698e-02 1.836094260215759277e-02
7.199934124946594238e-02 7.619234174489974976e-02 -5.125254392623901367e-03
7.198999524116516113e-01 -6.020650267601013184e-03 3.664897382259368896e-02
5.225210189819335938e-01 8.364465087652206421e-02 3.279493376612663269e-02
