-6.508314609527587891e-01 1.845003217458724976e-01 -1.875480413436889648e-01
-2.466078400611877441e-01 -4.575082659721374512e-02 8.245803415775299072e-02
-3.852947950363159180e-01 -6.237068027257919312e-02 -2.121021896600723267e-01
-1.396512836217880249e-01 -9.671919792890548706e-02 -2.146000117063522339e-01
-7.282991409301757812e-01 2.398694753646850586e-01 9.115472435951232910e-02
4.173482656478881836e-01 9.013027697801589966e-02 7.182267308235168457e-02
-7.081362605094909668e-01 2.611996233463287354e-01 -6.006643176078796387e-03
1.402652263641357422e-01 5.559343844652175903e-02 1.369776576757431030e-01
-2.722996473312377930e-02 -1.028199270367622375e-01 3.170482814311981201e-03
2.788973152637481689e-01 1.495231986045837402e-01 -1.761746406555175781e-01
4.167440533638000488e-01 1.324088573455810547e-01 -1.543075442314147949e-01
-1.024827718734741211e+00 6.520912796258926392e-02 -3.077072277665138245e-02
-2.100403606891632080e-01 1.831766366958618164e-01 -2.056692242622375488e-01
-8.860127329826354980e-01 1.942459046840667725e-01 1.134630739688873291e-01
4.129661321640014648e-01 1.486903429031372070e-01 -1.044095158576965332e-01
2.609309256076812744e-01 9.332508593797683716e-02 -2.508440911769866943e-01
5.524397492408752441e-01 1.124602556228637695e-01 -1.012906432151794434e-01
-7.036254405975341797e-01 2.375004291534423828e-01 -1.049468815326690674e-01
-5.356951355934143066e-01 -1.056686788797378540e-02 -2.303617447614669800e-01
-8.902892470359802246e-02 2.329184114933013916e-02 1.449234187602996826e-01
-2.165524214506149292e-01 -7.564499974250793457e-04 1.299793273210525513e-01
-1.352824866771697998e-01 1.657226979732513428e-01 1.452431976795196533e-01
-1.513105332851409912e-01 1.430037617683410645e-01 -2.461991310119628906e-01
-1.668243110179901123e-01 3.899513185024261475e-02 1.538692712783813477e-01
-4.103645086288452148e-01 -4.119046032428741455e-03 -2.609297633171081543e-01
5.761222839355468750e-01 8.591265976428985596e-02 6.586238741874694824e-04
2.604405581951141357e-01 -1.131633147597312927e-01 -2.238710224628448486e-01
-6.112632751464843750e-01 -2.096661925315856934e-02 5.260202288627624512e-02
6.331781148910522461e-01 -9.888526052236557007e-02 -1.637825518846511841e-01
-2.192817181348800659e-01 2.490132153034210205e-01 -7.040843367576599121e-03
-6.687629222869873047e-02 1.879410445690155029e-01 -1.859040260314941406e-01
-9.654338359832763672e-01 4.005321115255355835e-02 -2.708639577031135559e-02
2.703002393245697021e-01 -2.276746928691864014e-02 -2.895818650722503662e-01
-8.150012046098709106e-02 8.809439837932586670e-02 1.613214313983917236e-01
-8.526667952537536621e-03 -1.187587454915046692e-01 -1.877572089433670044e-01
4.295680522918701172e-01 -1.891877502202987671e-02 6.800180673599243164e-02
-7.381721735000610352e-01 1.931395530700683594e-01 -1.658235639333724976e-01
5.717605352401733398e-01 8.216518908739089966e-03 -2.384311556816101074e-01
-7.113856822252273560e-02 2.139579504728317261e-03 1.325381994247436523e-01
-2.433308660984039307e-01 -4.653889685869216919e-02 -2.604146003723144531e-01
8.554935455322265625e-03 1.595543324947357178e-02 -2.992285490036010742e-01
-2.924314439296722412e-01 1.886162534356117249e-02 -2.839789986610412598e-01
1.866591870784759521e-01 1.663228273391723633e-01 -1.725562214851379395e-01
1.362813711166381836e-01 5.768106877803802490e-02 -2.862417995929718018e-01
-4.317952692508697510e-01 1.425028145313262939e-01 1.703380197286605835e-01
-1.069389581680297852e+00 1.107223778963088989e-01 -7.718910276889801025e-02
-3.505440354347229004e-01 -4.769551008939743042e-02 6.700870394706726074e-02
-2.083330005407333374e-01 1.165178492665290833e-01 -2.663297653198242188e-01
-3.984336853027343750e-01 -3.602609783411026001e-02 7.694172859191894531e-02
-4.302961230278015137e-01 2.540436983108520508e-01 5.539748072624206543e-02
1.268987357616424561e-01 -9.025313705205917358e-02 3.194794803857803345e-02
-6.408666372299194336e-01 -3.397553414106369019e-02 -1.604105234146118164e-01
9.319308400154113770e-02 -1.284301578998565674e-01 -6.918477267026901245e-02
-1.743683218955993652e-01 2.436423599720001221e-01 1.276458799839019775e-02
-1.110457420349121094e+00 1.619665622711181641e-01 -1.826718077063560486e-02
6.008287072181701660e-01 -1.402558386325836182e-02 -2.358529865741729736e-01
-8.700146675109863281e-01 2.195657491683959961e-01 9.552080929279327393e-02
-6.423388719558715820e-01 2.060493826866149902e-01 1.380696445703506470e-01
-2.775470018386840820e-01 1.921350061893463135e-01 -1.966830939054489136e-01
-1.390595734119415283e-02 3.702294826507568359e-02 1.471970677375793457e-01
8.191508054733276367e-02 1.976876258850097656e-01 -1.329765915870666504e-01
2.725315988063812256e-01 -1.243638768792152405e-01 -5.122530832886695862e-02
-7.124848365783691406e-01 -1.234614104032516479e-02 -1.643799990415573120e-01
-4.238915443420410156e-01 2.124390900135040283e-01 -1.692968606948852539e-01
4.159550666809082031e-01 -1.219655200839042664e-01 -1.887206137180328369e-01
4.616760015487670898e-01 7.149764895439147949e-02 -2.273939996957778931e-01
-5.156934857368469238e-01 1.539981812238693237e-01 -2.273878455162048340e-01
-6.368861794471740723e-01 2.593932151794433594e-01 -4.459865391254425049e-02
1.201761960983276367e-01 1.509087383747100830e-01 -2.120675593614578247e-01
-3.655011951923370361e-01 -7.662519067525863647e-02 4.999190568923950195e-03
3.407252430915832520e-01 -1.157731339335441589e-01 -2.146605104207992554e-01
7.385665178298950195e-01 1.982335001230239868e-02 -1.382627487182617188e-01
1.695981621742248535e-01 -2.620364725589752197e-02 -2.936954498291015625e-01
-2.296264320611953735e-01 2.497920393943786621e-01 -2.398582920432090759e-02
-3.628832697868347168e-01 7.345076650381088257e-02 1.656485944986343384e-01
7.045465707778930664e-01 2.821778133511543274e-02 -1.630598455667495728e-01
-6.082012057304382324e-01 -8.849143981933593750e-03 7.341428101062774658e-02
-4.531115293502807617e-03 -1.282716691493988037e-01 -9.935559332370758057e-02
-4.543388187885284424e-01 -5.749783664941787720e-02 -1.976917386054992676e-01
-7.260320782661437988e-01 1.750948131084442139e-01 -1.847233772277832031e-01
-2.869473397731781006e-01 1.275243163108825684e-01 -2.581366002559661865e-01
-1.014945581555366516e-01 -7.898055762052536011e-02 4.484186321496963501e-02
-4.378669857978820801e-01 1.954898238182067871e-01 1.482744812965393066e-01
4.781967401504516602e-01 -2.426611632108688354e-02 -2.649922370910644531e-01
-3.897459506988525391e-01 1.939465105533599854e-01 -1.954280883073806763e-01
-3.013019263744354248e-01 2.270752489566802979e-01 -1.382570266723632812e-01
4.981832206249237061e-02 -5.885364860296249390e-02 7.671073079109191895e-02
-2.934449613094329834e-01 4.781571030616760254e-02 -2.852684855461120605e-01
-5.931500196456909180e-01 1.509594917297363281e-01 1.639139503240585327e-01
4.181127250194549561e-02 -2.934926003217697144e-02 -2.931351363658905029e-01
3.187045753002166748e-01 -1.322638094425201416e-01 -9.389646351337432861e-02
-7.363010644912719727e-01 -2.543334662914276123e-02 -2.796729281544685364e-02
6.493102312088012695e-01 -9.460568428039550781e-03 4.836797714233398438e-03
6.215466260910034180e-01 -1.054820343852043152e-01 -1.243239641189575195e-01
-7.558540701866149902e-01 1.059545278549194336e-01 -2.118654400110244751e-01
2.625576853752136230e-01 7.127788662910461426e-02 1.175424456596374512e-01
-4.662168323993682861e-01 2.076363563537597656e-01 1.391915082931518555e-01
4.728511571884155273e-01 -1.037896648049354553e-01 -3.325681760907173157e-02
5.954876542091369629e-02 9.934083372354507446e-02 1.462239772081375122e-01
4.290786981582641602e-01 5.919196456670761108e-02 -2.457391321659088135e-01
-7.795947045087814331e-02 -4.053600132465362549e-02 -2.827054858207702637e-01
5.760025382041931152e-01 1.023951470851898193e-01 -1.153507903218269348e-01
-2.538586854934692383e-01 2.458043694496154785e-01 -7.238536328077316284e-02
-3.574145138263702393e-01 2.138157188892364502e-01 -1.665728986263275146e-01
-1.148178279399871826e-01 -1.097613647580146790e-01 -2.965229004621505737e-02
-3.203292489051818848e-01 1.533222943544387817e-02 -2.803448140621185303e-01
-1.044878005981445312e+00 1.860941499471664429e-01 -7.178008556365966797e-02
4.640538990497589111e-02 3.021680936217308044e-02 1.405996531248092651e-01
-2.116001695394515991e-01 2.440667450428009033e-01 3.317405283451080322e-02
6.208477020263671875e-01 9.068545699119567871e-02 -8.445631712675094604e-02
-9.953293204307556152e-01 2.072688639163970947e-01 6.593006849288940430e-02
2.420275211334228516e-01 1.056026592850685120e-01 -2.429626733064651489e-01
-1.022793531417846680e+00 1.196088418364524841e-01 -1.165599972009658813e-01
-7.751299738883972168e-01 2.534970939159393311e-01 -3.927660733461380005e-02
8.938160538673400879e-02 2.143022119998931885e-01 -4.076202586293220520e-02
3.219873607158660889e-01 -1.302728652954101562e-01 -1.728553473949432373e-01
-8.460267186164855957e-01 2.314307391643524170e-01 8.447925746440887451e-02
-7.489992380142211914e-01 -6.782315671443939209e-03 2.581904828548431396e-02
-1.598746627569198608e-01 2.318618595600128174e-01 -1.025023609399795532e-01
-1.024655461311340332e+00 1.492956429719924927e-01 7.894818484783172607e-02
-1.415977925062179565e-01 -1.090390160679817200e-01 -1.828471124172210693e-01
3.085811138153076172e-01 1.763440072536468506e-01 -5.736866593360900879e-02
4.053582549095153809e-01 1.400504112243652344e-01 -1.413871049880981445e-01
3.204724490642547607e-01 1.718514561653137207e-01 -8.311896026134490967e-02
-1.017962217330932617e+00 8.327919244766235352e-02 -1.012017726898193359e-01
-5.285068154335021973e-01 1.003424525260925293e-01 -2.524962127208709717e-01
-3.571795821189880371e-01 3.937107697129249573e-02 -2.793918251991271973e-01
6.384812295436859131e-02 7.808404415845870972e-02 1.474683731794357300e-01
-1.053362011909484863e+00 9.783498942852020264e-02 2.587394416332244873e-02
-5.329214334487915039e-01 7.022693753242492676e-03 1.086374670267105103e-01
2.345006167888641357e-01 -9.845882654190063477e-03 -2.929689884185791016e-01
-4.141303300857543945e-01 -5.906891822814941406e-02 -2.085787206888198853e-01
-3.685345053672790527e-01 -9.426002949476242065e-02 -1.130596101284027100e-01
-1.780499368906021118e-01 1.202482357621192932e-02 1.396409422159194946e-01
2.361384034156799316e-01 -1.247563436627388000e-01 -1.972151994705200195e-01
-3.256837129592895508e-01 2.495457231998443604e-01 -7.352959364652633667e-02
-4.970907270908355713e-01 2.483321726322174072e-01 8.025325834751129150e-02
4.859082102775573730e-01 8.791774511337280273e-02 4.736144840717315674e-02
6.226407289505004883e-01 -3.848867118358612061e-02 2.611756324768066406e-03
-3.360410928726196289e-01 -4.202287644147872925e-02 7.752028107643127441e-02
4.910119771957397461e-01 1.191686838865280151e-01 -1.419952809810638428e-01
-7.900187373161315918e-01 -1.164555549621582031e-03 1.595656573772430420e-02
3.333721160888671875e-01 -6.882778555154800415e-02 4.437873512506484985e-02
-4.153608083724975586e-01 -8.307022601366043091e-02 -1.463573276996612549e-01
-4.317513108253479004e-01 -6.155512481927871704e-02 -1.983863413333892822e-01
-1.621526330709457397e-01 2.338756620883941650e-01 5.460809171199798584e-02
-9.019587635993957520e-01 2.407634556293487549e-01 -3.273437917232513428e-02
1.990543603897094727e-01 1.312931627035140991e-02 -2.941474616527557373e-01
-3.009407520294189453e-01 2.483874857425689697e-01 -7.313010096549987793e-02
-5.378184318542480469e-01 -6.324618309736251831e-02 -3.002984449267387390e-02
2.810335755348205566e-01 -8.719644695520401001e-02 -2.577808499336242676e-01
-7.063006758689880371e-01 1.467653214931488037e-01 1.545589566230773926e-01
-3.118414282798767090e-01 2.111385464668273926e-01 -1.694830358028411865e-01
-9.290336370468139648e-01 1.657060682773590088e-01 1.128296852111816406e-01
-1.814417988061904907e-01 -9.956421703100204468e-02 -1.151259616017341614e-02
3.364858031272888184e-01 1.032582521438598633e-01 8.939476311206817627e-02
-9.933733344078063965e-01 5.109244585037231445e-02 -2.822808176279067993e-02
6.156098246574401855e-01 8.968859910964965820e-02 -1.111485064029693604e-01
-4.213874936103820801e-01 -8.738590031862258911e-02 -9.026213735342025757e-02
-4.244734644889831543e-01 -2.862858772277832031e-02 8.315061032772064209e-02
-2.697601914405822754e-01 2.149544656276702881e-01 -1.603039205074310303e-01
-1.449576765298843384e-01 4.882245138287544250e-02 -2.933641076087951660e-01
5.885438919067382812e-01 6.393102556467056274e-02 -1.892877817153930664e-01
-9.697133898735046387e-01 1.624297499656677246e-01 -1.299665421247482300e-01
2.417306303977966309e-01 -1.121021732687950134e-01 -1.496858522295951843e-02
-6.477098464965820312e-01 -4.785863310098648071e-02 -5.888617783784866333e-02
-1.159580051898956299e-02 -8.633855730295181274e-02 -2.501614093780517578e-01
-8.165163397789001465e-01 1.759791672229766846e-01 1.347843408584594727e-01
-8.054619431495666504e-01 2.686187997460365295e-02 -1.716445684432983398e-01
-9.589199423789978027e-01 1.344206929206848145e-01 1.019324660301208496e-01
-2.532819509506225586e-01 -1.008789613842964172e-01 -1.674390733242034912e-01
-4.690793156623840332e-02 2.401083707809448242e-03 1.320801377296447754e-01
-1.801815778017044067e-01 -1.055902317166328430e-01 -1.809440255165100098e-01
-3.567211031913757324e-01 2.546263635158538818e-01 -5.409536510705947876e-02
-6.646217107772827148e-01 2.079718708992004395e-01 -1.594374328851699829e-01
-2.794989049434661865e-01 3.594804555177688599e-02 -2.866567373275756836e-01
-4.566663205623626709e-01 -7.714069634675979614e-02 -3.886748105287551880e-02
5.199256539344787598e-01 1.018106192350387573e-01 1.482819020748138428e-02
-6.136474609375000000e-01 9.702438861131668091e-02 -2.410451620817184448e-01
-8.921307325363159180e-01 2.255353927612304688e-01 -8.295792341232299805e-02
1.043938696384429932e-01 1.608509421348571777e-01 -2.008112519979476929e-01
-8.992817252874374390e-02 -9.612648934125900269e-02 -2.253857851028442383e-01
-9.720822572708129883e-01 2.068368196487426758e-01 -8.368615806102752686e-02
3.069396018981933594e-01 9.936469793319702148e-02 9.954692423343658447e-02
-9.358941912651062012e-01 6.826033443212509155e-02 6.433175504207611084e-02
1.419802308082580566e-01 1.996915638446807861e-01 -9.772399812936782837e-02
-1.287672221660614014e-01 2.003353536128997803e-01 1.125549674034118652e-01
-1.249498873949050903e-01 8.084736019372940063e-02 -2.847354412078857422e-01
-6.390728950500488281e-01 -5.516178905963897705e-03 7.011131942272186279e-02
-3.845981955528259277e-01 -7.249239832162857056e-02 1.027443259954452515e-02
-6.124672889709472656e-01 2.460870444774627686e-01 8.753636479377746582e-02
1.064577400684356689e-01 -1.334823369979858398e-01 -1.100724339485168457e-01
-6.939411759376525879e-01 1.797398924827575684e-01 1.490857899188995361e-01
3.697419762611389160e-01 9.160575270652770996e-02 8.599993586540222168e-02
-3.653167188167572021e-02 -1.165147945284843445e-01 -3.808615356683731079e-02
-2.467397749423980713e-01 -8.049217611551284790e-02 2.399617433547973633e-02
2.103301584720611572e-01 2.922740578651428223e-02 1.229645758867263794e-01
1.668824851512908936e-01 1.658059656620025635e-01 -1.789440214633941650e-01
5.317797064781188965e-01 8.985541015863418579e-02 2.334972470998764038e-02
5.998644828796386719e-01 3.576747328042984009e-02 -2.132302075624465942e-01
2.933036088943481445e-01 1.368582844734191895e-01 -1.935738772153854370e-01
1.768449544906616211e-01 1.970053613185882568e-01 -8.435940742492675781e-02
-3.222765922546386719e-01 2.235027551651000977e-01 -1.473506540060043335e-01
-1.135843694210052490e-01 -4.554676264524459839e-02 9.084746241569519043e-02
-1.406479477882385254e-01 2.058966159820556641e-01 -1.640479862689971924e-01
-1.537829935550689697e-01 -6.494703143835067749e-02 -2.567425370216369629e-01
-4.135935306549072266e-01 -7.207200676202774048e-02 1.771911978721618652e-03
-6.781181097030639648e-01 1.030722260475158691e-01 -2.285517156124114990e-01
-2.121649980545043945e-01 2.171924412250518799e-01 -1.504426300525665283e-01
-6.740927696228027344e-03 1.843323707580566406e-01 -1.828983277082443237e-01
-1.131927967071533203e-01 -1.212543621659278870e-01 -1.004137545824050903e-01
-3.707457780838012695e-01 -1.613657176494598389e-02 -2.611763477325439453e-01
2.440454065799713135e-01 -1.354835033416748047e-01 -1.383005380630493164e-01
1.306517422199249268e-01 9.896741062402725220e-02 -2.631673812866210938e-01
-9.377447962760925293e-01 6.424130499362945557e-02 -1.390625238418579102e-01
-5.671302080154418945e-01 1.882309168577194214e-01 1.527970433235168457e-01
-9.457110762596130371e-01 2.150736153125762939e-01 -8.167006820440292358e-02
5.745462775230407715e-01 -1.080241128802299500e-01 -8.436542004346847534e-02
-8.537569642066955566e-01 1.669479906558990479e-01 -1.639326810836791992e-01
4.196113348007202148e-01 1.215533018112182617e-01 -1.754424721002578735e-01
1.182632148265838623e-01 2.028345167636871338e-01 -9.875969588756561279e-02
1.199643611907958984e-01 -8.884754031896591187e-02 -2.563384771347045898e-01
4.849788546562194824e-01 -1.249253973364830017e-01 -1.219922453165054321e-01
4.890637397766113281e-01 1.331518888473510742e-01 -7.910764217376708984e-02
5.338601768016815186e-02 -2.959624677896499634e-02 1.054022014141082764e-01
-8.366942405700683594e-01 2.248411178588867188e-01 -1.018509715795516968e-01
7.721286416053771973e-01 -2.202983945608139038e-02 -1.120181828737258911e-01
-7.247758507728576660e-01 -2.430079132318496704e-02 -1.275264471769332886e-01
2.848699092864990234e-01 -1.093974485993385315e-01 -2.297218888998031616e-01
-2.290713936090469360e-01 2.480046749114990234e-01 1.763862371444702148e-02
5.720577239990234375e-01 1.819628849625587463e-02 3.926551342010498047e-02
-3.828542232513427734e-01 2.560476064682006836e-01 3.523235023021697998e-02
-5.781166553497314453e-01 2.547643780708312988e-01 -7.077815383672714233e-02
-4.810473322868347168e-01 -4.414652287960052490e-02 4.664526879787445068e-02
-1.646602153778076172e-02 -1.172169074416160583e-01 -3.720419853925704956e-02
-1.674955040216445923e-01 -9.502194076776504517e-02 3.854103386402130127e-03
-9.864491820335388184e-01 1.122118830680847168e-01 -1.353131532669067383e-01
-5.821131467819213867e-01 -2.630136907100677490e-03 -2.243059575557708740e-01
4.484514594078063965e-01 1.254713535308837891e-02 -2.653973698616027832e-01
-6.782349944114685059e-01 1.480172127485275269e-01 1.574716866016387939e-01
-4.390567839145660400e-01 1.088363528251647949e-01 1.710397899150848389e-01
-1.052408218383789062e+00 1.111987754702568054e-01 4.353508353233337402e-02
-2.445280253887176514e-01 -2.719127386808395386e-02 1.046039313077926636e-01
6.889109015464782715e-01 -7.828775793313980103e-02 -1.711187958717346191e-01
5.361959338188171387e-01 1.098434999585151672e-01 -1.326452568173408508e-02
8.681228756904602051e-02 4.991883039474487305e-02 1.423028707504272461e-01
-8.910093307495117188e-01 2.320175170898437500e-01 6.998285651206970215e-02
4.827748537063598633e-01 -1.153730675578117371e-01 -1.910359859466552734e-01
-2.560959160327911377e-01 1.150943785905838013e-01 1.704999208450317383e-01
1.979804039001464844e-01 1.934526860713958740e-01 -8.552760630846023560e-02
7.690911889076232910e-01 -3.335122764110565186e-02 -1.258582472801208496e-01
-4.565039575099945068e-01 2.623026371002197266e-01 -8.609332144260406494e-03
-1.469653844833374023e-02 -1.217348203063011169e-01 -5.552881211042404175e-02
-9.805837273597717285e-01 4.955598339438438416e-02 -7.875528186559677124e-02
3.715783357620239258e-01 -6.678438931703567505e-02 -2.668684124946594238e-01
-8.148222416639328003e-02 6.064699590206146240e-02 1.578654944896697998e-01
5.174966454505920410e-01 -3.353014588356018066e-03 5.312764644622802734e-02
2.365471422672271729e-01 6.332456320524215698e-02 1.229068934917449951e-01
-4.950326681137084961e-01 4.730314388871192932e-02 -2.621103525161743164e-01
-4.135337769985198975e-01 2.608067393302917480e-01 -1.330666244029998779e-03
-7.296898961067199707e-01 2.051468789577484131e-01 -1.535244286060333252e-01
-8.650342822074890137e-01 6.463956087827682495e-02 8.891649544239044189e-02
-8.920926600694656372e-02 6.466952711343765259e-02 -2.906234860420227051e-01
-5.439918637275695801e-01 1.118946522474288940e-01 -2.468605041503906250e-01
6.959304809570312500e-01 4.741182923316955566e-02 -4.921098053455352783e-02
3.733849525451660156e-01 7.028337568044662476e-03 9.004034101963043213e-02
4.627059698104858398e-01 -1.121378615498542786e-01 -2.040590196847915649e-01
-4.619390517473220825e-02 5.489488691091537476e-02 -2.934626340866088867e-01
2.247718572616577148e-01 -7.566937059164047241e-02 -2.694189548492431641e-01
-1.510134488344192505e-01 -1.402794569730758667e-02 1.208527237176895142e-01
-2.919470965862274170e-01 2.413278818130493164e-01 6.929472088813781738e-02
1.492647230625152588e-01 1.091182082891464233e-01 1.298115700483322144e-01
1.647774279117584229e-01 1.733377873897552490e-01 7.330781221389770508e-02
-7.800296545028686523e-01 5.141511559486389160e-03 3.654626756906509399e-02
-4.545330405235290527e-01 1.259127706289291382e-01 -2.499394863843917847e-01
-3.212011158466339111e-01 -3.163114935159683228e-02 9.296856820583343506e-02
-9.430412948131561279e-02 -9.736160188913345337e-02 8.967466652393341064e-03
-4.264105260372161865e-01 6.918600201606750488e-02 -2.707708477973937988e-01
-5.375146269798278809e-01 2.531480789184570312e-01 6.919191777706146240e-02
-1.157180070877075195e-01 2.396670281887054443e-01 -1.738163083791732788e-02
4.528676271438598633e-01 3.251101821660995483e-02 -2.567673325538635254e-01
-3.126038610935211182e-01 -1.015635654330253601e-01 -9.194001555442810059e-02
-6.122438311576843262e-01 1.027026325464248657e-01 1.591933518648147583e-01
-1.010241270065307617e+00 6.489343196153640747e-02 3.185130655765533447e-03
-9.675640612840652466e-02 -9.611748158931732178e-03 -2.934327721595764160e-01
5.489102005958557129e-01 1.042849868535995483e-01 -1.381142735481262207e-01
-1.061223864555358887e+00 1.266047358512878418e-01 4.962187260389328003e-02
-3.708343505859375000e-01 -8.357138186693191528e-02 -1.887501031160354614e-02
6.541549563407897949e-01 -3.522946685552597046e-02 -2.183765769004821777e-01
-6.775791943073272705e-02 -1.243069842457771301e-01 -1.321426033973693848e-01
-3.630203604698181152e-01 1.310127377510070801e-01 1.716883480548858643e-01
-4.120680689811706543e-02 2.014342546463012695e-01 -1.566499769687652588e-01
-1.330696344375610352e-01 6.449085474014282227e-02 -2.901864051818847656e-01
-4.625700712203979492e-01 4.702014848589897156e-02 -2.668493986129760742e-01
-7.814479470252990723e-01 1.477677822113037109e-01 1.445193439722061157e-01
-5.989916622638702393e-02 1.538580954074859619e-01 -2.305717021226882935e-01
-9.475811719894409180e-01 3.498415648937225342e-02 -1.747506856918334961e-02
-8.348932862281799316e-01 2.415680885314941406e-01 -6.353829801082611084e-02
-1.277561932802200317e-01 -1.195268556475639343e-01 -1.326197683811187744e-01
6.629877686500549316e-01 3.031205013394355774e-02 -5.171634256839752197e-03
-6.334248781204223633e-01 2.635789215564727783e-01 1.657657325267791748e-03
1.956098973751068115e-01 1.244391202926635742e-01 1.132694780826568604e-01
-3.466385602951049805e-01 2.562238276004791260e-01 1.934047788381576538e-02
-2.158224880695343018e-01 8.416232466697692871e-02 1.678058952093124390e-01
-3.323773741722106934e-01 -9.504624456167221069e-02 -1.473986208438873291e-01
-5.596079826354980469e-01 1.886040270328521729e-01 -1.931805163621902466e-01
-6.236619949340820312e-01 -4.940032958984375000e-03 -2.099453210830688477e-01
-4.392223954200744629e-01 2.586851119995117188e-01 3.479112684726715088e-02
-3.048518300056457520e-02 -9.305296093225479126e-02 2.400188893079757690e-02
-2.448173463344573975e-01 7.885664701461791992e-03 -2.865259051322937012e-01
-1.029999971389770508e+00 2.152119874954223633e-01 -1.520553603768348694e-02
-3.541572391986846924e-01 -7.186146825551986694e-02 2.036044001579284668e-02
-5.923124551773071289e-01 2.508304715156555176e-01 -8.342961221933364868e-02
-3.323873877525329590e-01 -8.105089515447616577e-02 2.725206315517425537e-03
1.333876252174377441e-01 -1.198710873723030090e-01 -3.271069750189781189e-02
-8.730781078338623047e-02 2.338346540927886963e-01 -6.292914599180221558e-02
-5.618439912796020508e-01 -1.809076964855194092e-02 -2.162211239337921143e-01
6.205174922943115234e-01 -1.044956669211387634e-01 -1.499518603086471558e-01
6.638357639312744141e-01 -6.059851497411727905e-02 -2.054008990526199341e-01
-5.851594805717468262e-01 -5.856162309646606445e-02 -1.148636639118194580e-01
-1.028419584035873413e-01 1.677230000495910645e-01 -2.180420607328414917e-01
2.520367503166198730e-01 -9.449843317270278931e-02 1.837493479251861572e-02
4.946954846382141113e-01 -1.198017522692680359e-01 -1.715486049652099609e-01
-8.097867965698242188e-01 2.447768449783325195e-01 -6.211646273732185364e-02
-4.146233201026916504e-01 -9.808309376239776611e-03 1.073638796806335449e-01
-8.966157436370849609e-01 1.476757973432540894e-02 -6.283044070005416870e-02
-2.739009559154510498e-01 -1.023386344313621521e-01 -5.630842596292495728e-02
4.355056285858154297e-01 -9.940741211175918579e-02 -1.586616411805152893e-02
-1.393154114484786987e-01 8.063532412052154541e-03 -2.943908572196960449e-01
-3.593732714653015137e-01 1.328862756490707397e-01 -2.520839869976043701e-01
-1.503490507602691650e-01 -1.162010952830314636e-01 -7.444422692060470581e-02
-7.609109282493591309e-01 2.400429546833038330e-01 -8.842228353023529053e-02
-2.451772838830947876e-01 2.459013164043426514e-01 3.887439519166946411e-02
-1.022209227085113525e-02 1.123170852661132812e-01 1.524029523134231567e-01
-1.949792206287384033e-01 1.042263805866241455e-01 -2.733868658542633057e-01
-3.612008690834045410e-01 1.741532981395721436e-01 1.587002277374267578e-01
-4.227036833763122559e-01 9.081616997718811035e-03 -2.645892202854156494e-01
-3.514932394027709961e-01 -9.418053179979324341e-02 -1.368776261806488037e-01
2.196856737136840820e-01 1.124521940946578979e-01 -2.400078475475311279e-01
-8.152593374252319336e-01 2.317392826080322266e-01 -9.406761080026626587e-02
-3.531867265701293945e-01 1.680779457092285156e-02 -2.767662107944488525e-01
-1.056811928749084473e+00 1.536969095468521118e-01 6.204058229923248291e-02
-8.697754889726638794e-02 -1.211473569273948669e-01 -1.492139101028442383e-01
-8.406961560249328613e-01 2.451480627059936523e-01 5.408672243356704712e-02
4.833406209945678711e-01 -5.894266068935394287e-03 -2.629916071891784668e-01
1.437219977378845215e-01 -8.726861327886581421e-02 -2.587971687316894531e-01
3.205285370349884033e-01 1.482411026954650879e-01 4.991134256124496460e-02
-2.587660253047943115e-01 -8.539939671754837036e-02 1.007194072008132935e-02
-6.863623857498168945e-03 -1.001772508025169373e-01 1.078066229820251465e-02
-2.692644000053405762e-01 -7.147472351789474487e-02 3.870608657598495483e-02
-5.089082717895507812e-01 -2.183809131383895874e-02 7.730051875114440918e-02
-7.334030270576477051e-01 2.586860358715057373e-01 2.864744514226913452e-02
-7.491602301597595215e-01 -2.555396407842636108e-02 -8.586356788873672485e-02
-4.092288613319396973e-01 2.518366277217864990e-01 5.997546017169952393e-02
8.735686540603637695e-03 1.736139357089996338e-01 1.155986040830612183e-01
-1.902808696031570435e-01 2.093493342399597168e-01 -1.635048836469650269e-01
5.998783111572265625e-01 -1.088203266263008118e-01 -1.481631398200988770e-01
-2.685674130916595459e-01 5.433209612965583801e-02 1.605107039213180542e-01
-3.406123816967010498e-02 2.154694199562072754e-01 -1.193591058254241943e-01
-3.753864169120788574e-01 -3.305511176586151123e-02 -2.484453618526458740e-01
4.073017239570617676e-01 1.546833217144012451e-01 -5.770499631762504578e-02
-9.071409702301025391e-03 6.560654938220977783e-02 -2.895969748497009277e-01
-1.609064638614654541e-01 1.824538111686706543e-01 -2.035953104496002197e-01
-1.459726840257644653e-01 2.049952447414398193e-01 1.096026301383972168e-01
-2.537439763545989990e-02 -1.048414930701255798e-01 -2.197857797145843506e-01
1.117925643920898438e-01 -1.284159123897552490e-01 -1.747277677059173584e-01
5.928966403007507324e-01 8.933202177286148071e-02 -1.925365254282951355e-02
-7.856613397598266602e-01 -1.507652550935745239e-02 -9.493766725063323975e-02
1.183082163333892822e-01 -1.322810649871826172e-01 -1.531289964914321899e-01
4.834908246994018555e-02 2.026460468769073486e-01 6.085023283958435059e-02
-1.977322101593017578e-01 -2.964917570352554321e-02 -2.775690555572509766e-01
2.463459968566894531e-04 -6.629738956689834595e-02 6.781876087188720703e-02
-5.031720399856567383e-01 4.792256280779838562e-02 1.457398682832717896e-01
7.275395393371582031e-01 -6.632208824157714844e-04 -1.723168641328811646e-01
3.280442953109741211e-02 1.965471804141998291e-01 7.878310978412628174e-02
-9.856970310211181641e-01 1.716905683279037476e-01 -1.171311214566230774e-01
1.482781171798706055e-01 1.180571168661117554e-01 -2.450764179229736328e-01
1.582380235195159912e-01 1.514710783958435059e-01 1.019446402788162231e-01
5.208646059036254883e-01 -9.917654842138290405e-02 -3.761660680174827576e-02
-9.467784762382507324e-01 2.366604208946228027e-01 -7.698986679315567017e-03
6.382175683975219727e-01 -4.278272390365600586e-02 -2.229804992675781250e-01
1.110907196998596191e-01 5.780984461307525635e-02 -2.877711653709411621e-01
-8.381577134132385254e-01 7.576373219490051270e-02 1.069226264953613281e-01
2.813324332237243652e-01 -1.318225264549255371e-01 -1.687671542167663574e-01
-7.886120080947875977e-01 8.770801872014999390e-02 -2.046815007925033569e-01
-4.439949691295623779e-01 7.400786876678466797e-02 -2.681680321693420410e-01
-8.498572707176208496e-01 2.292649075388908386e-02 3.626173734664916992e-02
-1.429788917303085327e-01 8.850485086441040039e-02 -2.814189493656158447e-01
5.670337378978729248e-02 1.895038783550262451e-01 8.334085345268249512e-02
4.310227632522583008e-01 4.204593598842620850e-02 -2.562611401081085205e-01
-7.140137553215026855e-01 4.814545437693595886e-02 1.144554466009140015e-01
-7.024809718132019043e-01 -2.222183346748352051e-02 1.140087097883224487e-02
1.495325565338134766e-01 1.899808943271636963e-01 4.687323421239852905e-02
2.839825153350830078e-01 1.944588869810104370e-02 -2.862928211688995361e-01
3.275834918022155762e-01 -1.953245699405670166e-02 -2.852611839771270752e-01
-1.235044449567794800e-01 -1.065484955906867981e-01 -1.956756711006164551e-01
-2.274170815944671631e-01 -1.093591526150703430e-01 -1.376034021377563477e-01
-9.338726997375488281e-01 8.691891282796859741e-02 8.451521396636962891e-02
-7.989459633827209473e-01 1.744604557752609253e-01 1.380474418401718140e-01
-4.367393851280212402e-01 2.442893385887145996e-01 8.492428064346313477e-02
-8.226158022880554199e-01 1.003876179456710815e-01 1.259847432374954224e-01
8.282893896102905273e-02 -8.991681784391403198e-02 3.307060152292251587e-02
-8.678179979324340820e-01 1.833944618701934814e-01 1.226793080568313599e-01
-5.940612554550170898e-01 7.915130257606506348e-02 1.528089493513107300e-01
2.081303894519805908e-01 -1.026319041848182678e-01 6.956458091735839844e-03
-6.532882452011108398e-01 1.768289506435394287e-01 1.535265445709228516e-01
2.648363411426544189e-01 -9.333332628011703491e-02 -2.520605325698852539e-01
3.088817000389099121e-01 -2.493773400783538818e-02 8.555962145328521729e-02
-3.793815970420837402e-01 2.592694759368896484e-01 -1.527833938598632812e-02
3.088192641735076904e-01 -1.183655187487602234e-01 -3.681009262800216675e-02
3.966853022575378418e-01 -1.302527189254760742e-01 -1.050990670919418335e-01
1.255827546119689941e-01 7.289525866508483887e-02 1.397621333599090576e-01
7.203376293182373047e-01 -7.290446013212203979e-02 -1.470785737037658691e-01
2.099120020866394043e-01 -1.356798112392425537e-01 -1.214971095323562622e-01
5.690975189208984375e-01 6.408957391977310181e-02 -1.980079710483551025e-01
-8.824782371520996094e-01 2.088617086410522461e-01 1.036508828401565552e-01
-3.365324139595031738e-01 2.247497141361236572e-01 1.102750897407531738e-01
6.586383581161499023e-01 5.311711505055427551e-02 -1.932133361697196960e-02
-7.651668190956115723e-01 1.641582995653152466e-01 -1.858148276805877686e-01
-6.504192352294921875e-01 2.500682771205902100e-01 7.643011212348937988e-02
5.798577070236206055e-01 -3.253486752510070801e-02 2.149280160665512085e-02
3.216260671615600586e-02 8.319109678268432617e-03 1.319457739591598511e-01
-7.863477617502212524e-02 2.356301248073577881e-01 -3.156887739896774292e-02
-5.152651071548461914e-01 2.604911327362060547e-01 3.729728609323501587e-02
-7.898491621017456055e-01 -1.606718450784683228e-02 -6.875962018966674805e-02
-1.031884431838989258e+00 1.997798681259155273e-01 -6.024794653058052063e-02
-7.583255767822265625e-01 1.931210160255432129e-01 -1.622508466243743896e-01
4.996876716613769531e-01 9.251981973648071289e-02 -1.897197961807250977e-01
3.669643998146057129e-01 1.997065171599388123e-02 -2.762824892997741699e-01
-1.016613006591796875e+00 1.948805153369903564e-01 6.834918260574340820e-02
-2.857007086277008057e-02 7.600188255310058594e-02 -2.859011590480804443e-01
3.815624117851257324e-01 -1.250706017017364502e-01 -1.851205676794052124e-01
2.717545628547668457e-01 -7.731936126947402954e-02 4.149794578552246094e-02
-9.583517909049987793e-03 1.232384741306304932e-01 -2.559621632099151611e-01
-3.280929327011108398e-01 3.998253494501113892e-03 1.284417659044265747e-01
-5.693897008895874023e-01 -4.296571761369705200e-02 -1.780452430248260498e-01
-6.583414077758789062e-01 2.608543634414672852e-01 3.353559225797653198e-02
-3.046532869338989258e-01 2.020975947380065918e-01 -1.834725439548492432e-01
-7.685497999191284180e-01 2.533971667289733887e-01 4.736235737800598145e-02
4.015184640884399414e-01 5.799343809485435486e-02 -2.524251341819763184e-01
-2.953312397003173828e-01 2.001033425331115723e-01 1.357194632291793823e-01
-1.957923173904418945e-02 2.289421558380126953e-01 -2.842646092176437378e-02
5.024967789649963379e-01 -1.075603738427162170e-01 -2.037581056356430054e-01
5.860664844512939453e-01 -9.794921427965164185e-02 -6.029255688190460205e-02
-1.102259874343872070e+00 1.760898679494857788e-01 -4.404410719871520996e-03
4.865700602531433105e-01 4.568249732255935669e-02 6.586265563964843750e-02
-9.383711814880371094e-01 1.398786604404449463e-01 1.096821427345275879e-01
-6.975608468055725098e-01 1.110941916704177856e-01 1.516192853450775146e-01
-3.596129715442657471e-01 -5.000171065330505371e-02 -2.353505939245223999e-01
-4.963377714157104492e-01 -4.917103052139282227e-02 -1.968819200992584229e-01
3.680041432380676270e-01 -7.257992774248123169e-02 3.505985438823699951e-02
-4.634159803390502930e-01 -7.072999328374862671e-02 -1.513185352087020874e-02
3.334615826606750488e-01 8.620928227901458740e-02 9.823738038539886475e-02
1.643680036067962646e-01 1.829948723316192627e-01 5.597994476556777954e-02
-2.834786474704742432e-01 -8.411616832017898560e-02 -2.029722034931182861e-01
4.970882833003997803e-02 7.834923267364501953e-02 -2.819355130195617676e-01
4.305206537246704102e-01 -5.852331966161727905e-02 3.913983702659606934e-02
-1.985578387975692749e-01 -1.087478473782539368e-01 -5.228617414832115173e-02
-4.051145613193511963e-01 -8.871989697217941284e-02 -7.183136790990829468e-02
5.428955554962158203e-01 3.360284119844436646e-02 4.885508120059967041e-02
3.724735975265502930e-01 1.624670475721359253e-01 -4.279116541147232056e-02
-8.541409373283386230e-01 2.341884970664978027e-01 -7.693845033645629883e-02
4.050710797309875488e-01 7.562856376171112061e-02 8.254283666610717773e-02
4.229730963706970215e-01 -7.423334568738937378e-02 2.373816817998886108e-02
7.436273992061614990e-02 1.030175089836120605e-01 -2.653225064277648926e-01
-4.162355065345764160e-01 -4.484736174345016479e-02 -2.275500446557998657e-01
-6.892321109771728516e-01 -1.785226911306381226e-02 2.939087152481079102e-02
7.029262185096740723e-02 3.885891288518905640e-03 1.271402835845947266e-01
1.951668262481689453e-01 4.202079772949218750e-02 1.277817636728286743e-01
-5.534070730209350586e-01 2.624704539775848389e-01 -3.006865456700325012e-02
-5.287142395973205566e-01 4.148637503385543823e-02 1.388829946517944336e-01
4.091113805770874023e-04 9.446936100721359253e-02 -2.755602598190307617e-01
3.021939098834991455e-01 4.478294402360916138e-03 -2.870810627937316895e-01
2.534075677394866943e-01 -1.209205463528633118e-01 -2.074878364801406860e-01
1.060896813869476318e-01 -4.549548029899597168e-04 1.221356242895126343e-01
-4.497498273849487305e-02 3.052254021167755127e-02 -2.979249358177185059e-01
-5.532665848731994629e-01 2.635637521743774414e-01 1.439301669597625732e-02
-5.005671977996826172e-01 9.920252859592437744e-02 -2.562016248703002930e-01
6.132611632347106934e-01 8.998409658670425415e-02 -4.681531339883804321e-02
-1.291568279266357422e-01 1.813542842864990234e-01 -2.025773525238037109e-01
-7.431881427764892578e-01 -1.163762807846069336e-02 -1.478165090084075928e-01
2.736191153526306152e-01 1.787662506103515625e-01 9.160488843917846680e-05
-1.214650496840476990e-01 -7.936508208513259888e-02 -2.452213913202285767e-01
-5.885841846466064453e-01 -3.691368550062179565e-02 -1.808465123176574707e-01
-2.243801951408386230e-03 -1.253213584423065186e-01 -7.173429429531097412e-02
3.758043050765991211e-01 -1.318821907043457031e-01 -1.483347415924072266e-01
-5.504922866821289062e-01 2.117291688919067383e-01 1.362672597169876099e-01
2.281787991523742676e-01 -5.765447020530700684e-02 -2.807804644107818604e-01
-3.473756313323974609e-01 2.488147020339965820e-01 -8.081202208995819092e-02
4.506189227104187012e-01 1.356727927923202515e-01 -1.221442669630050659e-01
-4.606838524341583252e-01 8.667075634002685547e-02 -2.639540731906890869e-01
-6.614170074462890625e-01 2.538457810878753662e-01 -6.590426713228225708e-02
-7.868964076042175293e-01 1.085750013589859009e-01 1.366947144269943237e-01
-6.553248167037963867e-01 2.491995394229888916e-01 -8.219107985496520996e-02
-9.622789174318313599e-02 5.927775055170059204e-03 1.354082226753234863e-01
2.907564938068389893e-01 1.538586765527725220e-01 5.428165942430496216e-02
7.116451859474182129e-01 2.351881191134452820e-02 -3.742344304919242859e-02
-1.081945180892944336e+00 1.829902231693267822e-01 -4.182008281350135803e-02
4.526777863502502441e-01 1.398322433233261108e-01 -2.440051361918449402e-02
-3.471773266792297363e-01 2.292381823062896729e-01 -1.368468552827835083e-01
-2.759177684783935547e-01 -5.000304430723190308e-02 7.358621060848236084e-02
2.765145897865295410e-01 1.792416423559188843e-01 -8.973466604948043823e-02
-6.463244557380676270e-03 -2.646767348051071167e-02 -2.926908135414123535e-01
3.941482901573181152e-01 -6.646604090929031372e-02 -2.647118866443634033e-01
9.128054976463317871e-02 -6.681365519762039185e-02 -2.752343416213989258e-01
-5.929583311080932617e-01 -3.502496331930160522e-02 3.039219230413436890e-02
1.382298767566680908e-02 1.426321864128112793e-01 1.379136890172958374e-01
-7.095520198345184326e-02 -7.273990660905838013e-02 -2.590919733047485352e-01
2.827116847038269043e-02 2.217590510845184326e-01 -4.493147134780883789e-03
7.617939710617065430e-01 5.438119173049926758e-03 -1.154917031526565552e-01
4.082812070846557617e-01 -3.331457078456878662e-02 -2.747259140014648438e-01
-3.391627669334411621e-01 -6.551177054643630981e-02 -2.201820611953735352e-01
-1.024654865264892578e+00 2.179317176342010498e-01 6.564460694789886475e-03
-5.740666985511779785e-01 1.398226171731948853e-01 1.661268919706344604e-01
-4.897454679012298584e-01 2.623782753944396973e-01 -2.420357242226600647e-02
-2.235046029090881348e-02 -1.277308464050292969e-01 -1.233437284827232361e-01
5.773813724517822266e-01 4.189033806324005127e-02 -2.167496085166931152e-01
2.500145137310028076e-01 1.720382720232009888e-01 -1.359251439571380615e-01
-3.872333168983459473e-01 1.766802966594696045e-01 1.583676934242248535e-01
-1.267919987440109253e-01 2.244515717029571533e-01 -1.178888827562332153e-01
5.923417210578918457e-01 -8.881040662527084351e-02 -4.371678829193115234e-02
5.006707906723022461e-01 7.991471886634826660e-02 -2.061199694871902466e-01
-9.287326931953430176e-01 4.809593409299850464e-02 -1.274371147155761719e-01
1.978233456611633301e-01 -6.355573982000350952e-02 6.442940235137939453e-02
-3.405275046825408936e-01 2.561680078506469727e-01 -3.556187450885772705e-02
-4.761634171009063721e-01 -6.122299283742904663e-02 -1.815175712108612061e-01
-1.085231304168701172e+00 1.892795860767364502e-01 1.006843149662017822e-02
6.178589463233947754e-01 -9.202446788549423218e-02 -6.255535781383514404e-02
-6.282377839088439941e-01 -4.899131506681442261e-02 -3.721358627080917358e-02
-3.370291590690612793e-01 1.309607028961181641e-01 1.713012307882308960e-01
3.535509109497070312e-03 -7.159920781850814819e-02 -2.668818235397338867e-01
-6.220383048057556152e-01 2.074777483940124512e-01 -1.650371849536895752e-01
2.513014972209930420e-01 -5.732551217079162598e-03 1.043223291635513306e-01
-3.207604885101318359e-01 2.076769769191741943e-01 1.304475963115692139e-01
-1.311048865318298340e-03 -1.071751937270164490e-01 -5.246426910161972046e-03
2.505037784576416016e-01 1.865175068378448486e-01 -1.965299993753433228e-02
5.091919302940368652e-01 -7.522604614496231079e-02 3.483258187770843506e-03
1.031219959259033203e-02 9.075595438480377197e-02 1.530397385358810425e-01
1.108158230781555176e-01 -1.314267218112945557e-01 -8.529531955718994141e-02
-1.918789744377136230e-01 -5.848463624715805054e-02 6.975102424621582031e-02
-6.881945133209228516e-01 6.845158338546752930e-02 -2.280262708663940430e-01
4.559876918792724609e-01 7.442659139633178711e-02 6.699082255363464355e-02
-3.956142067909240723e-01 -8.908697217702865601e-02 -1.282190978527069092e-01
-2.866320312023162842e-02 1.456925272941589355e-01 1.426962167024612427e-01
-2.343479692935943604e-01 2.008796334266662598e-01 1.282219737768173218e-01
2.533655762672424316e-01 -1.353993117809295654e-01 -1.142079010605812073e-01
-9.676494598388671875e-01 1.464441418647766113e-01 -1.386654227972030640e-01
-5.944163799285888672e-01 1.548706889152526855e-01 -2.186402827501296997e-01
-6.044706106185913086e-01 2.601491510868072510e-01 4.276800155639648438e-02
-2.290196716785430908e-01 2.350670695304870605e-01 7.124157249927520752e-02
1.478607654571533203e-01 1.963925957679748535e-01 2.922089397907257080e-02
2.377953529357910156e-01 -1.167154982686042786e-01 -2.171411067247390747e-01
-4.619630575180053711e-01 1.505579948425292969e-01 -2.341380864381790161e-01
-2.303270995616912842e-02 1.499324142932891846e-01 -2.316937595605850220e-01
1.867051124572753906e-01 1.869154870510101318e-01 -1.213726624846458435e-01
3.877909481525421143e-02 -1.135668233036994934e-01 -1.908128708600997925e-02
7.458378374576568604e-02 -1.326150894165039062e-01 -1.219519972801208496e-01
-3.867695927619934082e-01 1.393055617809295654e-01 -2.465496063232421875e-01
3.026728332042694092e-02 -1.267135739326477051e-01 -1.643859446048736572e-01
-8.345188945531845093e-02 1.257687062025070190e-01 1.571293771266937256e-01
-2.779807448387145996e-01 2.240677475929260254e-01 -1.427634060382843018e-01
-5.349685251712799072e-02 1.691835522651672363e-01 -2.116985321044921875e-01
-2.991188466548919678e-01 -1.016645208001136780e-01 -7.135732471942901611e-02
1.102603971958160400e-02 -5.056523531675338745e-02 8.658969402313232422e-02
2.879172265529632568e-01 1.793958544731140137e-01 -7.245353609323501587e-02
-9.663337469100952148e-01 1.941989362239837646e-01 9.052281081676483154e-02
3.438007235527038574e-01 -9.861478954553604126e-02 1.352176070213317871e-03
2.199841141700744629e-01 1.510249972343444824e-01 8.459258079528808594e-02
-5.885853767395019531e-01 -5.590532720088958740e-02 -3.586570546030998230e-02
-1.654970496892929077e-01 2.444204688072204590e-01 -2.435143664479255676e-02
-3.120419979095458984e-01 -2.820946276187896729e-03 -2.760899662971496582e-01
-3.953403234481811523e-02 2.260200381278991699e-01 2.784942090511322021e-02
1.258122920989990234e-01 -5.726143717765808105e-04 -2.979336977005004883e-01
5.999242067337036133e-01 8.771217614412307739e-02 -1.384143978357315063e-01
3.719694614410400391e-01 -1.887453347444534302e-02 7.908555865287780762e-02
-3.932844996452331543e-01 -8.830291777849197388e-02 -5.467694997787475586e-02
5.579691529273986816e-01 7.829130440950393677e-02 -1.843494921922683716e-01
-5.996035337448120117e-01 2.003009915351867676e-01 -1.763170808553695679e-01
4.078936576843261719e-01 -9.004647284746170044e-02 5.135729908943176270e-03
6.890907287597656250e-01 -8.762613683938980103e-02 -1.199398636817932129e-01
-1.521587222814559937e-01 -1.107694283127784729e-01 -4.396848380565643311e-02
6.617004275321960449e-01 -1.639834791421890259e-02 -2.147401124238967896e-01
-7.766578793525695801e-01 1.509932056069374084e-02 5.665240436792373657e-02
-4.398179650306701660e-01 -7.465224713087081909e-02 -1.633808612823486328e-01
-4.368245005607604980e-01 1.655982434749603271e-01 -2.237157970666885376e-01
-9.778319597244262695e-01 2.129604518413543701e-01 6.686697900295257568e-02
-9.522992372512817383e-01 1.757726669311523438e-01 -1.272140741348266602e-01
6.119765043258666992e-01 -7.754874974489212036e-02 -3.321365639567375183e-02
6.977684795856475830e-02 -1.019943132996559143e-01 1.036803424358367920e-02
-8.113334178924560547e-01 2.180848419666290283e-01 -1.196355968713760376e-01
-7.005129456520080566e-01 1.540105491876602173e-01 -2.041435092687606812e-01
-4.976302683353424072e-01 1.795981824398040771e-01 -2.070965766906738281e-01
4.017235636711120605e-01 -1.164875179529190063e-02 -2.768455147743225098e-01
-2.660889923572540283e-01 -1.929932832717895508e-02 -2.748263180255889893e-01
7.124783396720886230e-01 -6.894431263208389282e-02 -8.069059252738952637e-02
-3.501640558242797852e-01 2.578913569450378418e-01 -1.201774924993515015e-02
5.188882350921630859e-01 1.711961627006530762e-02 -2.489189207553863525e-01
-1.298670321702957153e-01 -1.650004833936691284e-02 -2.893343567848205566e-01
5.115775465965270996e-01 1.268822401762008667e-01 -5.708333849906921387e-02
2.104114592075347900e-01 -1.206341013312339783e-01 -2.079749107360839844e-01
-5.274951457977294922e-02 9.074217081069946289e-02 1.590675562620162964e-01
-1.056917905807495117e+00 1.125704422593116760e-01 -9.050833433866500854e-02
-8.254675865173339844e-01 -5.133524537086486816e-03 -8.578094840049743652e-02
5.199171304702758789e-01 -2.819708734750747681e-02 4.167801886796951294e-02
-4.634495675563812256e-01 -1.754116266965866089e-02 -2.422299981117248535e-01
3.603548407554626465e-01 1.651068627834320068e-01 -6.699954718351364136e-02
-5.405844449996948242e-01 2.815502882003784180e-02 -2.502755522727966309e-01
-4.720830619335174561e-01 2.223030924797058105e-01 1.239167898893356323e-01
-1.163566112518310547e-01 1.469425708055496216e-01 -2.412023693323135376e-01
-1.579312086105346680e-01 2.408896982669830322e-01 2.140051871538162231e-02
-8.662249445915222168e-01 2.389644086360931396e-01 -5.928805470466613770e-02
6.377983093261718750e-01 8.396563678979873657e-02 -8.000595867633819580e-02
-1.969737410545349121e-01 -1.120509430766105652e-01 -7.279831916093826294e-02
-6.260886192321777344e-01 1.788082420825958252e-01 -1.959488838911056519e-01
-4.562394320964813232e-01 2.613253146409988403e-02 -2.644949555397033691e-01
-9.074320197105407715e-01 2.387240156531333923e-02 -7.033035159111022949e-03
4.315603971481323242e-01 -8.987850695848464966e-02 9.064525365829467773e-04
-7.612072825431823730e-01 1.324953138828277588e-01 1.467387378215789795e-01
-1.055796369910240173e-01 2.272168695926666260e-01 5.495710670948028564e-02
-4.877105951309204102e-01 -3.532937914133071899e-02 -2.192017287015914917e-01
-6.462738513946533203e-01 1.153071224689483643e-01 1.586163491010665894e-01
-5.696018934249877930e-01 -2.757890522480010986e-02 -2.027118951082229614e-01
4.958673119544982910e-01 -9.575069695711135864e-02 -2.371083199977874756e-02
-7.048701643943786621e-01 1.805748417973518372e-02 8.480171859264373779e-02
-1.683581024408340454e-01 -1.024567112326622009e-01 -1.941062211990356445e-01
-7.693435549736022949e-01 -9.640581905841827393e-03 5.535617470741271973e-03
