4.758063554763793945e-01 4.984991252422332764e-02 -2.065489441156387329e-02
2.474160492420196533e-01 -4.484031349420547485e-03 -1.255912035703659058e-01
7.949415594339370728e-02 8.387771993875503540e-02 -1.214774176478385925e-01
1.266218274831771851e-01 -1.893040351569652557e-02 -1.268995404243469238e-01
-7.730919122695922852e-02 8.627679944038391113e-02 5.629889667034149170e-02
2.838184237480163574e-01 1.374952215701341629e-02 9.992364794015884399e-02
-1.046890020370483398e-01 1.316254120320081711e-02 -1.084672734141349792e-01
-1.249403357505798340e-01 1.438699476420879364e-02 -1.020673438906669617e-01
4.854163229465484619e-01 3.565584868192672729e-02 -3.538244217634201050e-02
5.530058592557907104e-02 -2.095823921263217926e-02 -1.216958984732627869e-01
-1.108213067054748535e-01 1.275752782821655273e-01 -3.687309101223945618e-02
5.525142699480056763e-02 -5.099098384380340576e-02 5.029477924108505249e-02
4.437562227249145508e-01 -4.813826829195022583e-02 5.206675827503204346e-02
4.355556368827819824e-01 6.798684597015380859e-02 -3.114701248705387115e-02
4.971041083335876465e-01 -2.562723867595195770e-02 4.111973196268081665e-02
1.375726759433746338e-01 1.513659674674272537e-02 1.001018285751342773e-01
5.788671970367431641e-02 -2.673877961933612823e-02 7.415241003036499023e-02
3.143663406372070312e-01 8.420693874359130859e-02 -8.117190748453140259e-02
-1.216163933277130127e-01 1.224821060895919800e-01 -5.060965195298194885e-03
3.692643642425537109e-01 -3.594602644443511963e-02 -9.426654130220413208e-02
-1.427401602268218994e-02 -6.154250353574752808e-02 -3.405630588531494141e-02
-3.901633620262145996e-02 -2.540321834385395050e-02 -1.009075939655303955e-01
1.960891485214233398e-02 1.210188493132591248e-01 -8.708144724369049072e-02
-5.698944628238677979e-02 -4.776027798652648926e-02 -5.259592086076736450e-02
2.397519648075103760e-01 2.522389777004718781e-02 1.019001379609107971e-01
4.282232522964477539e-01 -2.217544056475162506e-02 -8.188399672508239746e-02
-1.057174503803253174e-01 -1.479087956249713898e-02 -8.654958754777908325e-02
2.273856103420257568e-01 -3.001504205167293549e-02 -1.189053505659103394e-01
8.650881052017211914e-02 7.934252917766571045e-02 8.506642282009124756e-02
2.757078409194946289e-01 1.188011541962623596e-01 -1.909117773175239563e-02
1.707701534032821655e-01 8.342418819665908813e-02 -1.147684082388877869e-01
2.346541583538055420e-01 -9.245333075523376465e-02 -1.848261803388595581e-02
2.885316610336303711e-01 -3.602353483438491821e-02 -1.094721183180809021e-01
4.266377091407775879e-01 3.893669322133064270e-02 -7.383039593696594238e-02
2.874465584754943848e-01 -1.373661123216152191e-02 -1.183313131332397461e-01
3.026137351989746094e-01 9.913661330938339233e-02 -6.467065960168838501e-02
2.063389122486114502e-01 -8.391247689723968506e-02 2.691182307898998260e-02
-6.990674138069152832e-02 1.196287646889686584e-01 -7.895487546920776367e-02
4.187269508838653564e-01 -3.059857897460460663e-02 7.148733735084533691e-02
-1.057542562484741211e-01 -2.813733182847499847e-02 -6.445441395044326782e-02
5.965822935104370117e-02 2.185369469225406647e-02 -1.357978284358978271e-01
3.623662889003753662e-02 1.410771906375885010e-01 -1.497077103704214096e-02
2.025401294231414795e-01 9.671522304415702820e-03 -1.318378746509552002e-01
8.286995440721511841e-02 -1.096241734921932220e-02 8.736012876033782959e-02
2.295469641685485840e-01 -9.139058738946914673e-02 7.058270275592803955e-04
4.648186266422271729e-01 5.889739841222763062e-02 -1.025894656777381897e-03
-8.061733841896057129e-02 3.912781178951263428e-02 6.554174423217773438e-02
2.887063920497894287e-01 1.137712895870208740e-01 -3.490225225687026978e-02
7.553179562091827393e-02 3.100434318184852600e-02 -1.366180479526519775e-01
-1.272010505199432373e-01 2.425770461559295654e-02 4.544173926115036011e-02
1.963423788547515869e-01 1.008071303367614746e-01 -9.527991712093353271e-02
-7.007271051406860352e-03 1.397969722747802734e-01 -3.024502471089363098e-02
1.276638060808181763e-01 -3.176650404930114746e-02 8.219559490680694580e-02
5.252180695533752441e-01 -2.179055474698543549e-02 -7.857822813093662262e-03
3.439758419990539551e-01 4.219339415431022644e-02 8.708395808935165405e-02
8.401665836572647095e-02 -7.775110751390457153e-02 2.615144476294517517e-03
5.053104162216186523e-01 -3.906487673521041870e-02 2.165162377059459686e-02
-4.273094236850738525e-02 -1.521377079188823700e-02 5.548070371150970459e-02
1.817436218261718750e-01 -7.171156257390975952e-02 4.822830110788345337e-02
1.350232958793640137e-01 1.372526288032531738e-01 -5.279888398945331573e-03
-5.544126033782958984e-04 6.689271330833435059e-02 8.038256317377090454e-02
5.392119288444519043e-03 -6.558929383754730225e-02 -3.723584860563278198e-02
2.235600948333740234e-01 -7.903078570961952209e-03 -1.272414028644561768e-01
4.352176189422607422e-02 1.163455545902252197e-01 -9.361573308706283569e-02
3.739560842514038086e-01 9.456000477075576782e-02 -1.635890454053878784e-02
4.568991065025329590e-01 -5.550737679004669189e-02 -4.542474821209907532e-02
1.419769376516342163e-01 1.318706423044204712e-01 1.997166685760021210e-02
-5.469307303428649902e-02 -2.831330709159374237e-02 3.786647319793701172e-02
2.348040938377380371e-01 -8.195465058088302612e-02 -6.411565840244293213e-02
-1.063067018985748291e-01 8.768372237682342529e-02 4.683531820774078369e-02
9.578858315944671631e-02 1.399590075016021729e-01 -1.238384842872619629e-02
1.990360021591186523e-01 1.303180158138275146e-01 2.046491950750350952e-03
1.099507957696914673e-01 2.503744512796401978e-02 9.876915812492370605e-02
2.694294154644012451e-01 1.132158041000366211e-01 3.001674078404903412e-02
3.808996379375457764e-01 -5.187169462442398071e-02 -8.064254373311996460e-02
-8.793506026268005371e-02 1.062045991420745850e-01 3.809939324855804443e-02
4.053477048873901367e-01 -1.295346580445766449e-02 8.049504458904266357e-02
3.359202742576599121e-01 4.407741129398345947e-02 -1.042945608496665955e-01
3.133764863014221191e-01 1.090073734521865845e-01 1.374682411551475525e-02
4.116611182689666748e-01 8.234058320522308350e-02 -9.891390800476074219e-04
9.875248372554779053e-02 -4.316409677267074585e-02 6.889995932579040527e-02
1.609371304512023926e-01 1.242892220616340637e-01 -6.704926490783691406e-02
7.064878940582275391e-03 -1.040652953088283539e-02 7.310901582241058350e-02
-1.170499026775360107e-01 4.917301237583160400e-02 -1.124480813741683960e-01
-7.635259628295898438e-02 4.257071763277053833e-02 -1.218640282750129700e-01
-8.175285160541534424e-02 9.467311203479766846e-02 -1.038579493761062622e-01
-7.549804449081420898e-02 1.338669210672378540e-01 -2.793515846133232117e-02
-2.876524627208709717e-02 1.304397732019424438e-01 1.763362623751163483e-02
1.174862682819366455e-01 8.234198391437530518e-02 -1.205945461988449097e-01
1.408613473176956177e-01 9.333585202693939209e-02 7.739064097404479980e-02
2.524616718292236328e-01 -6.324631720781326294e-02 -9.191770851612091064e-02
-1.512236595153808594e-01 1.172412112355232239e-01 -2.009467221796512604e-02
3.131986856460571289e-01 7.119094580411911011e-02 -9.422974288463592529e-02
2.574715018272399902e-01 -9.079673141241073608e-02 -3.530344367027282715e-02
-1.282866299152374268e-02 -4.488261044025421143e-02 3.410375863313674927e-02
2.658894956111907959e-01 6.903927773237228394e-02 8.570606261491775513e-02
3.522819280624389648e-01 -7.633529603481292725e-02 -5.806411802768707275e-02
5.812391638755798340e-03 9.301444143056869507e-02 6.903075426816940308e-02
3.397915959358215332e-01 7.935253530740737915e-02 6.161374598741531372e-02
1.884274184703826904e-01 7.967439293861389160e-02 -1.149668768048286438e-01
3.705630451440811157e-02 5.261081084609031677e-02 -1.333120763301849365e-01
-1.258250772953033447e-01 7.804715633392333984e-02 -1.297076791524887085e-01
5.971403419971466064e-02 -2.240988425910472870e-02 -1.347374618053436279e-01
3.007779419422149658e-01 1.189007461071014404e-01 1.043265312910079956e-01
5.519986152648925781e-03 1.188818365335464478e-01 -8.063086122274398804e-02
3.445622324943542480e-01 2.260735630989074707e-02 1.359264701604843140e-01
3.041929304599761963e-01 -6.860182434320449829e-02 4.569212719798088074e-02
-1.049110516905784607e-01 -3.421948850154876709e-02 5.563009157776832581e-02
2.110635936260223389e-01 -8.120311796665191650e-02 1.829470694065093994e-02
2.647257968783378601e-02 1.036144644021987915e-01 8.908079564571380615e-02
-4.115656763315200806e-02 -1.445333473384380341e-02 8.217825740575790405e-02
2.343726158142089844e-01 6.824338808655738831e-03 1.266951858997344971e-01
1.775398850440979004e-01 8.255759626626968384e-02 1.229997873306274414e-01
5.701225250959396362e-02 1.441994607448577881e-01 -4.648459609597921371e-03
-2.353243529796600342e-01 -5.593162775039672852e-02 -7.027322426438331604e-03
-1.184481754899024963e-01 -8.272714912891387939e-04 7.248893380165100098e-02
4.039120078086853027e-01 -5.461107939481735229e-02 5.732687190175056458e-02
-3.293906152248382568e-01 -2.551734633743762970e-02 -9.345742873847484589e-03
3.931683599948883057e-01 -4.860261827707290649e-02 7.468968629837036133e-02
5.102205276489257812e-02 1.243690773844718933e-02 1.088806465268135071e-01
-1.349939107894897461e-01 3.716843947768211365e-02 7.640290260314941406e-02
-3.513891994953155518e-01 5.077848210930824280e-03 -1.440409421920776367e-01
3.012199401855468750e-01 -3.589820861816406250e-02 1.001968458294868469e-01
-3.345260322093963623e-01 -3.955687582492828369e-02 -2.894303947687149048e-02
4.041634202003479004e-01 1.269801110029220581e-01 2.403397113084793091e-02
2.968717217445373535e-01 1.226195096969604492e-01 -2.996270358562469482e-02
5.763626098632812500e-01 -1.113618724048137665e-02 5.905884876847267151e-02
2.498681098222732544e-02 1.118970662355422974e-01 -8.953043818473815918e-02
7.865232974290847778e-02 -4.960161447525024414e-02 -1.173887699842453003e-01
4.895435273647308350e-01 -4.086222499608993530e-02 4.968923702836036682e-02
-4.406022280454635620e-02 -6.123778969049453735e-02 3.964162245392799377e-02
4.780900478363037109e-01 1.068540848791599274e-02 -4.107103496789932251e-02
-1.010201945900917053e-01 6.142335385084152222e-02 -1.402293592691421509e-01
4.458390176296234131e-01 -2.688899636268615723e-03 1.203679740428924561e-01
-1.586443930864334106e-02 1.145224124193191528e-01 6.973116099834442139e-02
7.656206190586090088e-02 6.686685979366302490e-02 1.148846149444580078e-01
-3.724596798419952393e-01 1.256631314754486084e-02 -1.394026577472686768e-01
-2.799116373062133789e-01 -4.824168980121612549e-02 -1.274280846118927002e-01
5.816648006439208984e-01 -2.325601875782012939e-03 2.779285982251167297e-02
-7.160491496324539185e-02 6.462680548429489136e-02 8.796941488981246948e-02
-3.116346895694732666e-01 4.023877903819084167e-02 2.063104882836341858e-02
5.834622979164123535e-01 2.197623252868652344e-04 8.287353068590164185e-02
4.106840118765830994e-02 -5.107060074806213379e-02 -1.215170845389366150e-01
2.504696249961853027e-01 -8.056931942701339722e-02 -1.210008095949888229e-02
-4.441219568252563477e-01 1.677198894321918488e-02 -6.172948330640792847e-02
8.738198876380920410e-02 1.325333416461944580e-01 6.518568098545074463e-02
-4.950334876775741577e-02 -8.856204152107238770e-02 -3.491078689694404602e-02
-4.049691259860992432e-01 4.928731173276901245e-02 -3.445829451084136963e-02
4.355949759483337402e-01 -4.270883649587631226e-02 7.555600255727767944e-02
2.522778511047363281e-01 -1.278222911059856415e-02 -1.032305583357810974e-01
1.100314036011695862e-01 -7.820555567741394043e-02 3.114668652415275574e-02
-4.493826627731323242e-01 1.840613037347793579e-02 -9.480012953281402588e-02
-2.281195223331451416e-01 1.093457043170928955e-01 -7.516192272305488586e-04
-1.404234468936920166e-01 -6.908303499221801758e-02 -1.130473762750625610e-01
1.118162572383880615e-01 1.154561564326286316e-01 9.299846738576889038e-02
2.204923629760742188e-01 -7.740315049886703491e-02 -4.622484371066093445e-02
5.945724248886108398e-01 3.108327649533748627e-02 1.802457869052886963e-02
2.762247249484062195e-02 -9.045310318470001221e-02 -3.443583101034164429e-02
3.960681259632110596e-01 1.074743047356605530e-01 -2.222390472888946533e-02
6.467655301094055176e-03 1.422382891178131104e-01 2.518908120691776276e-03
-1.438587009906768799e-01 8.363444358110427856e-02 -1.248755678534507751e-01
4.705030322074890137e-01 1.908882334828376770e-02 1.292156279087066650e-01
-3.900731503963470459e-01 -3.294065594673156738e-02 -1.062846407294273376e-01
2.501832246780395508e-01 -3.032744117081165314e-02 -9.634723514318466187e-02
7.165256142616271973e-02 4.539275541901588440e-02 -1.328667402267456055e-01
4.484584033489227295e-01 1.091360524296760559e-01 1.971270889043807983e-03
-4.184020310640335083e-02 1.339063942432403564e-01 -4.636245965957641602e-02
-6.796769052743911743e-02 1.110983267426490784e-01 6.030944362282752991e-02
-2.231035828590393066e-01 5.956988781690597534e-02 4.846246913075447083e-02
-3.163854181766510010e-01 -5.567406117916107178e-02 -1.010574549436569214e-01
1.614440679550170898e-01 7.358671724796295166e-02 1.242797076702117920e-01
2.067299634218215942e-01 1.012378111481666565e-01 -7.788468897342681885e-02
4.543944001197814941e-01 1.062064394354820251e-01 1.073159128427505493e-01
-2.185288965702056885e-01 1.160977035760879517e-01 -5.650934949517250061e-02
5.933538675308227539e-01 6.997525691986083984e-02 3.752196952700614929e-02
2.111655473709106445e-02 7.489494979381561279e-02 1.035584732890129089e-01
5.087670683860778809e-01 1.106845587491989136e-01 5.922273918986320496e-02
3.178544715046882629e-02 -6.585897505283355713e-02 -1.080848574638366699e-01
-2.071239948272705078e-01 1.972356811165809631e-02 5.558516457676887512e-02
1.329071074724197388e-02 1.033809036016464233e-01 -1.006100475788116455e-01
1.094955950975418091e-01 1.446859389543533325e-01 3.014702722430229187e-02
-4.365525394678115845e-02 1.019005551934242249e-01 7.541517168283462524e-02
-2.111612558364868164e-01 -2.146158367395401001e-04 4.874403029680252075e-02
2.851507663726806641e-01 -7.883729413151741028e-03 -9.687056392431259155e-02
-3.423487395048141479e-02 1.216971427202224731e-01 -7.674774527549743652e-02
1.937549114227294922e-01 -2.245008759200572968e-02 -1.124035343527793884e-01
1.006022691726684570e-01 5.714073032140731812e-02 1.199708282947540283e-01
-1.105973869562149048e-02 1.360506266355514526e-01 -4.203196987509727478e-02
1.717103421688079834e-01 -7.437963783740997314e-02 -6.903586536645889282e-02
1.417342573404312134e-01 1.376933008432388306e-01 6.250697374343872070e-02
-1.580165922641754150e-01 1.271144449710845947e-01 -2.675458788871765137e-02
-1.086525693535804749e-01 1.325829923152923584e-01 -2.975261956453323364e-02
-5.023039877414703369e-03 -8.903925120830535889e-02 -5.688682198524475098e-02
-2.081277966499328613e-01 4.574025049805641174e-02 -1.484247744083404541e-01
1.163021624088287354e-01 7.617714256048202515e-02 -1.124251261353492737e-01
1.433482170104980469e-01 -4.046971350908279419e-02 8.921656757593154907e-02
5.043079257011413574e-01 3.832670301198959351e-02 -3.070165216922760010e-02
-2.776663303375244141e-01 8.590979874134063721e-02 -1.092134639620780945e-01
2.155737280845642090e-01 4.320944100618362427e-02 -1.108283326029777527e-01
3.815123438835144043e-01 8.850951492786407471e-02 1.293485015630722046e-01
-1.845366954803466797e-01 1.043072491884231567e-01 -9.731499850749969482e-02
3.530909717082977295e-01 -4.521807283163070679e-02 8.624702692031860352e-02
3.638393878936767578e-01 1.149532347917556763e-01 1.074053198099136353e-01
-2.889873087406158447e-01 -6.004289537668228149e-02 -1.033916324377059937e-01
3.231935203075408936e-01 6.353702396154403687e-03 -9.003671258687973022e-02
5.476412177085876465e-01 8.781632035970687866e-02 2.447766065597534180e-02
-9.715035557746887207e-03 -4.045133292675018311e-02 -1.346342861652374268e-01
9.292279183864593506e-02 -6.805421411991119385e-02 -9.613901376724243164e-02
5.376741290092468262e-01 7.841357588768005371e-02 1.149518787860870361e-01
-2.635548710823059082e-01 1.061797440052032471e-01 -1.891162060201168060e-02
2.304771840572357178e-01 1.128902807831764221e-01 -6.013062596321105957e-02
-4.504895806312561035e-01 9.888362139463424683e-03 -7.924199849367141724e-02
6.061417460441589355e-01 7.084723562002182007e-02 5.886350199580192566e-02
-3.905860334634780884e-02 1.380441039800643921e-01 -2.715586125850677490e-02
5.215609669685363770e-01 2.088101394474506378e-02 -2.385728992521762848e-02
1.568554639816284180e-01 -4.028910398483276367e-02 -1.105365455150604248e-01
5.156288743019104004e-01 5.449761450290679932e-02 -2.103473618626594543e-02
-1.872727572917938232e-01 8.407779783010482788e-02 4.826290532946586609e-02
4.498931765556335449e-01 -5.017264187335968018e-02 1.165608037263154984e-02
-2.984630465507507324e-01 -1.555187068879604340e-02 1.171189453452825546e-02
-1.743890941143035889e-01 -5.270563066005706787e-02 1.873403415083885193e-02
4.868389964103698730e-01 1.158155724406242371e-01 6.036559119820594788e-02
-1.230259016156196594e-01 -8.307238668203353882e-02 -7.740128785371780396e-02
-3.365740925073623657e-02 9.647542238235473633e-02 -1.107238978147506714e-01
-1.482122540473937988e-01 -9.388005360960960388e-03 6.154232099652290344e-02
-6.707770377397537231e-02 -5.585713684558868408e-02 4.199026152491569519e-02
-2.587362229824066162e-01 -2.828533016145229340e-02 1.690694317221641541e-02
-3.842430710792541504e-01 -9.918207302689552307e-03 -1.325312256813049316e-01
1.442495882511138916e-01 1.179673746228218079e-01 -6.845334917306900024e-02
4.917289614677429199e-01 -3.739533945918083191e-03 -3.039965778589248657e-02
-2.956776320934295654e-01 -4.540826380252838135e-02 -1.714793592691421509e-02
2.063781172037124634e-01 1.134076565504074097e-01 1.059770137071609497e-01
9.715405851602554321e-02 -3.353182971477508545e-02 -1.246790364384651184e-01
3.237816318869590759e-02 -1.228657178580760956e-02 -1.410201936960220337e-01
4.875811934471130371e-02 9.814225882291793823e-02 9.713080525398254395e-02
-6.591799110174179077e-02 -8.500041067600250244e-02 -7.668489962816238403e-02
7.903520017862319946e-02 1.517795398831367493e-02 1.136699244379997253e-01
-3.162849247455596924e-01 8.597283065319061279e-02 -9.722887724637985229e-02
1.456243544816970825e-01 1.441269218921661377e-01 -5.159681197255849838e-03
5.319439247250556946e-02 -3.479588776826858521e-02 8.387788385152816772e-02
-1.009717360138893127e-01 4.405131563544273376e-02 -1.480789333581924438e-01
1.644220054149627686e-01 1.287133097648620605e-01 -4.783322662115097046e-02
3.567513525485992432e-01 -1.050662808120250702e-02 -7.680984586477279663e-02
1.812711358070373535e-03 1.601249538362026215e-02 1.019371822476387024e-01
2.770552635192871094e-01 1.415224224328994751e-01 4.747349023818969727e-02
1.907441765069961548e-01 1.366199702024459839e-01 -2.538212388753890991e-02
-2.284675836563110352e-01 9.880441427230834961e-02 -9.944333881139755249e-02
-3.708128929138183594e-01 -3.633925318717956543e-02 -1.137229502201080322e-01
-2.556772232055664062e-01 7.054048031568527222e-02 -1.297784149646759033e-01
-3.609070479869842529e-01 -4.611059278249740601e-02 -9.518847614526748657e-02
5.225226283073425293e-02 -7.854226976633071899e-02 -8.542438596487045288e-02
-1.421590745449066162e-01 1.195941045880317688e-01 -7.291321456432342529e-02
-3.430605530738830566e-01 -4.607734829187393188e-02 -1.105364859104156494e-01
-4.877313226461410522e-02 -3.363112360239028931e-02 -1.417801827192306519e-01
1.459594666957855225e-01 1.163901463150978088e-01 9.666453301906585693e-02
1.341772973537445068e-01 5.544807389378547668e-02 1.244716793298721313e-01
-2.932717502117156982e-01 9.739627689123153687e-02 -8.103244751691818237e-02
-9.308188408613204956e-02 -5.648320913314819336e-02 3.542377054691314697e-02
-1.754609942436218262e-01 3.868117928504943848e-02 -1.515740603208541870e-01
1.221925839781761169e-01 -2.256816439330577850e-02 -1.253896355628967285e-01
5.007367134094238281e-01 2.366500720381736755e-02 1.270021796226501465e-01
5.894985198974609375e-01 7.719208300113677979e-02 8.932741731405258179e-02
-2.212606370449066162e-02 5.189354717731475830e-02 1.004110947251319885e-01
-3.797850310802459717e-01 7.529228925704956055e-02 -5.376537889242172241e-02
-6.128900498151779175e-02 -7.916828244924545288e-02 -9.421782195568084717e-02
-8.893471211194992065e-02 5.221298336982727051e-02 8.643286675214767456e-02
4.063694179058074951e-02 1.151423901319503784e-01 8.120081573724746704e-02
3.430686891078948975e-02 -8.826150000095367432e-02 -5.848631635308265686e-02
1.142714694142341614e-01 1.326563954353332520e-01 6.951219588518142700e-02
3.424783051013946533e-01 1.370262354612350464e-01 3.802993521094322205e-02
3.331464529037475586e-01 4.067422077059745789e-02 -8.548490703105926514e-02
3.150522708892822266e-01 1.321800500154495239e-01 8.037026971578598022e-02
1.434049308300018311e-01 1.377445012331008911e-01 -3.030466288328170776e-02
-3.869214653968811035e-01 5.392099916934967041e-02 -2.383514121174812317e-02
-1.207661703228950500e-01 9.161929041147232056e-02 6.331105530261993408e-02
1.115071251988410950e-01 5.921602249145507812e-02 -1.222478449344635010e-01
9.215198457241058350e-03 -1.873685978353023529e-02 8.858302235603332520e-02
-1.375922560691833496e-01 -5.039636790752410889e-02 -1.352305561304092407e-01
4.875730574131011963e-01 8.929865062236785889e-02 -7.881639525294303894e-03
-3.265409171581268311e-02 2.634081430733203888e-02 -1.483973562717437744e-01
1.280772984027862549e-01 2.647342160344123840e-02 -1.293267458677291870e-01
5.187711715698242188e-01 9.334578365087509155e-02 1.067888960242271423e-01
-9.009069949388504028e-02 -4.008130729198455811e-02 -1.410359591245651245e-01
-2.563107609748840332e-01 1.065737977623939514e-01 -7.266045361757278442e-02
-6.328109651803970337e-02 -7.024397701025009155e-02 -1.107063367962837219e-01
1.324546337127685547e-01 1.459906548261642456e-01 1.297885272651910782e-02
3.140855431556701660e-01 1.605475693941116333e-02 1.335123926401138306e-01
1.179596781730651855e-01 1.229255273938179016e-01 -6.457548588514328003e-02
3.561252653598785400e-01 3.007198683917522430e-02 -8.133702725172042847e-02
3.183496296405792236e-01 -2.471741475164890289e-02 1.104787811636924744e-01
-2.348995506763458252e-01 6.419468671083450317e-02 -1.366863399744033813e-01
-5.661783367395401001e-02 1.166882812976837158e-01 -8.535594493150711060e-02
4.995461404323577881e-01 -2.081912942230701447e-02 -1.366462185978889465e-02
4.792244732379913330e-01 8.962523192167282104e-02 1.198940724134445190e-01
4.762149751186370850e-01 1.029960736632347107e-01 1.067327409982681274e-01
-4.334547519683837891e-01 3.831227868795394897e-02 -5.551983788609504700e-02
-3.330931663513183594e-01 -5.430233478546142578e-02 -9.015480428934097290e-02
-3.080318868160247803e-01 -5.880296230316162109e-02 -5.695253983139991760e-02
4.286832809448242188e-01 -2.306748181581497192e-03 -5.628206953406333923e-02
-9.107828140258789062e-03 3.738116472959518433e-02 1.031814068555831909e-01
2.967554330825805664e-02 -8.109515160322189331e-02 1.549322996288537979e-02
8.399643003940582275e-02 6.662903726100921631e-02 -1.222727969288825989e-01
-8.346926420927047729e-02 1.290145814418792725e-01 2.437900379300117493e-02
1.791769564151763916e-01 1.435236036777496338e-01 4.623572900891304016e-02
-1.962994635105133057e-01 8.975447714328765869e-02 -1.161450594663619995e-01
-6.697235256433486938e-02 -7.554149255156517029e-03 -1.513217091560363770e-01
4.389740824699401855e-01 3.279101848602294922e-02 -5.599721148610115051e-02
2.042574435472488403e-01 -4.560316354036331177e-02 -9.691493958234786987e-02
1.427368819713592529e-01 -8.805783838033676147e-02 -2.069131657481193542e-02
-1.439364552497863770e-01 -1.890640705823898315e-03 -1.558366715908050537e-01
2.835935056209564209e-01 1.112318709492683411e-01 -5.039178580045700073e-02
3.011895343661308289e-02 5.751224607229232788e-02 1.091700419783592224e-01
-2.972590327262878418e-01 9.729830920696258545e-02 -2.157084271311759949e-02
-2.452932596206665039e-01 9.627406299114227295e-02 1.369151379913091660e-02
-3.368748724460601807e-01 3.125846758484840393e-02 -1.426252871751785278e-01
3.712352514266967773e-01 1.338852345943450928e-01 5.456081405282020569e-02
-1.162612810730934143e-01 1.240363791584968567e-01 -6.579254567623138428e-02
-1.719746589660644531e-01 2.866623550653457642e-02 6.649909168481826782e-02
4.029685854911804199e-01 -2.972433529794216156e-02 -5.056451633572578430e-02
-2.807846069335937500e-01 1.047547832131385803e-01 -5.973226949572563171e-02
-2.238930165767669678e-01 3.003662079572677612e-02 -1.533740013837814331e-01
5.846180021762847900e-03 -8.968682587146759033e-02 -2.549734339118003845e-02
-2.192500233650207520e-02 -6.371758878231048584e-02 4.034121334552764893e-02
4.430566132068634033e-01 3.899204730987548828e-02 1.364593803882598877e-01
3.697964251041412354e-01 -3.700897842645645142e-02 9.563722461462020874e-02
3.888850808143615723e-01 1.027993112802505493e-01 1.189088374376296997e-01
-1.916055679321289062e-01 -4.104946553707122803e-02 -1.420402079820632935e-01
-1.601076126098632812e-01 -2.017392776906490326e-02 5.244338512420654297e-02
-2.563102245330810547e-01 5.344165861606597900e-02 -1.419930756092071533e-01
-2.956722974777221680e-01 3.111992590129375458e-02 2.752384170889854431e-02
6.271757185459136963e-02 1.444079875946044922e-01 1.600774005055427551e-02
2.428152859210968018e-01 -7.375577092170715332e-02 4.059309139847755432e-02
9.287730604410171509e-02 9.702830016613006592e-02 -9.929978102445602417e-02
4.479259848594665527e-01 1.233039051294326782e-01 5.896336957812309265e-02
1.280898004770278931e-01 8.980115503072738647e-02 -1.009534969925880432e-01
1.386252939701080322e-01 -8.450300991535186768e-02 1.207814086228609085e-02
3.280380666255950928e-01 -6.019820272922515869e-02 -4.250685870647430420e-02
1.535792052745819092e-01 -8.517380058765411377e-02 -4.271021485328674316e-02
7.682398706674575806e-02 -1.250544376671314240e-02 -1.352315098047256470e-01
-3.435158133506774902e-01 8.189359307289123535e-02 -9.205280244350433350e-02
1.184352487325668335e-01 1.416410952806472778e-01 4.710602760314941406e-02
-1.104415953159332275e-02 -8.725335448980331421e-02 -1.312708668410778046e-02
4.621556773781776428e-02 -6.167501956224441528e-02 5.415097251534461975e-02
1.104409098625183105e-01 1.223590038716793060e-02 -1.330458223819732666e-01
3.896841034293174744e-02 1.432712525129318237e-01 -1.005416642874479294e-02
1.075435727834701538e-01 8.402132987976074219e-02 1.138920187950134277e-01
1.266844570636749268e-03 -2.606021426618099213e-02 -1.404120773077011108e-01
-7.410780340433120728e-02 7.113741710782051086e-03 8.503594249486923218e-02
5.224668979644775391e-01 9.176741540431976318e-02 1.362124551087617874e-02
-2.608168125152587891e-01 -5.204241722822189331e-02 -1.260220408439636230e-01
-1.203172132372856140e-01 4.978214204311370850e-02 -1.465234011411666870e-01
3.028518557548522949e-01 2.047278918325901031e-02 -9.569086879491806030e-02
4.724999070167541504e-01 1.050409376621246338e-01 6.824264302849769592e-03
-1.721878349781036377e-01 2.141482755541801453e-02 -1.557267755270004272e-01
4.234711825847625732e-01 -3.466083854436874390e-02 9.177785366773605347e-02
-2.994183897972106934e-01 8.390001207590103149e-02 1.442483626306056976e-03
-3.202572464942932129e-01 -2.680431492626667023e-02 -1.393431127071380615e-01
-3.914372622966766357e-01 3.634608909487724304e-02 -1.834209449589252472e-02
-1.157184764742851257e-01 -4.214423894882202148e-02 -1.408724188804626465e-01
-1.097288653254508972e-01 -8.511973917484283447e-02 -3.822452202439308167e-02
1.530527174472808838e-01 2.756173536181449890e-02 1.254825443029403687e-01
-6.557592004537582397e-02 4.442711547017097473e-02 9.216087311506271362e-02
1.511175930500030518e-02 2.921565435826778412e-02 -1.434461474418640137e-01
4.074399173259735107e-01 4.161051288247108459e-02 -6.453679502010345459e-02
-7.100979238748550415e-02 -8.504099398851394653e-02 -1.993030682206153870e-02
2.022939026355743408e-01 1.307182013988494873e-02 1.265870183706283569e-01
-9.711905568838119507e-02 2.078240737318992615e-03 7.839409261941909790e-02
8.275932818651199341e-02 -8.660772442817687988e-02 -5.738220363855361938e-02
5.840370059013366699e-01 4.820664972066879272e-02 1.333812717348337173e-02
-4.342722296714782715e-01 2.199722826480865479e-02 -1.119624227285385132e-01
2.512055337429046631e-01 1.053953841328620911e-01 -6.467965245246887207e-02
-2.662103772163391113e-01 8.225535601377487183e-02 1.959770545363426208e-02
2.158828675746917725e-01 -2.186957560479640961e-02 -1.080616563558578491e-01
5.598679184913635254e-01 -1.117722131311893463e-02 8.038718998432159424e-02
-7.832803577184677124e-02 -7.122286409139633179e-02 1.601971685886383057e-02
2.943024039268493652e-03 1.350496262311935425e-01 3.940449655055999756e-02
-3.382368385791778564e-01 5.347027629613876343e-02 -1.303946971893310547e-01
2.964428365230560303e-01 1.323509365320205688e-01 8.143118768930435181e-02
4.178125560283660889e-01 -4.819079488515853882e-02 6.918472051620483398e-02
-2.969824969768524170e-01 8.594543486833572388e-02 -1.041294559836387634e-01
4.148087203502655029e-01 1.966560631990432739e-02 -6.460732221603393555e-02
1.319832205772399902e-01 2.625053934752941132e-02 1.228923499584197998e-01
2.148792743682861328e-01 1.261161714792251587e-01 -4.340206831693649292e-02
-1.775800883769989014e-01 -7.602649927139282227e-02 -2.912625670433044434e-02
4.408681392669677734e-01 1.224239617586135864e-01 3.339746221899986267e-02
-2.154296636581420898e-01 -4.669999331235885620e-02 -1.365631371736526489e-01
2.848573029041290283e-01 1.378193646669387817e-01 4.542265087366104126e-03
1.242601871490478516e-02 -7.194574922323226929e-02 -1.021150797605514526e-01
3.785938024520874023e-01 -6.498682498931884766e-02 1.698013767600059509e-02
2.590816020965576172e-01 -7.188017666339874268e-02 -4.603062197566032410e-02
4.347292482852935791e-01 9.651513397693634033e-02 1.204826384782791138e-01
-7.191374897956848145e-04 -8.172481507062911987e-02 8.803750388324260712e-03
1.610496789216995239e-01 7.386328279972076416e-02 -1.071385517716407776e-01
-2.114079296588897705e-01 -5.221105366945266724e-02 7.471279241144657135e-03
2.784959375858306885e-01 1.232774481177330017e-01 -3.373682126402854919e-02
-2.124051451683044434e-01 -7.267033308744430542e-02 -9.463405609130859375e-02
1.386222541332244873e-01 1.447853147983551025e-01 3.495034575462341309e-02
-2.948559224605560303e-01 1.161620579659938812e-02 -1.519513428211212158e-01
3.834133744239807129e-01 -4.311881959438323975e-02 -4.495171085000038147e-02
5.224457979202270508e-01 -1.421189494431018829e-02 -6.693360861390829086e-03
3.533326089382171631e-01 -6.317547708749771118e-02 -2.294257655739784241e-02
9.596125781536102295e-02 1.078350618481636047e-01 9.768614172935485840e-02
2.352503836154937744e-01 -5.366862565279006958e-02 -8.203700184822082520e-02
1.671135127544403076e-01 5.289774388074874878e-03 -1.236105784773826599e-01
1.675057709217071533e-01 -2.240143530070781708e-02 -1.175067722797393799e-01
1.950148791074752808e-01 7.247047871351242065e-02 1.280386000871658325e-01
2.739556729793548584e-01 -3.147035092115402222e-02 1.044439971446990967e-01
3.614816963672637939e-01 -6.754101812839508057e-02 8.512848056852817535e-03
-9.476218372583389282e-02 7.885310798883438110e-02 7.753145694732666016e-02
4.900047481060028076e-01 6.245436519384384155e-02 1.310685127973556519e-01
3.786946237087249756e-01 -1.036018319427967072e-02 -7.015554606914520264e-02
3.187205791473388672e-01 -7.326345890760421753e-02 -1.050774008035659790e-03
1.811832934617996216e-02 7.655162364244461060e-03 -1.449596285820007324e-01
2.169802188873291016e-01 -7.281696796417236328e-02 4.514845833182334900e-02
3.920966386795043945e-01 3.952806815505027771e-03 -7.007570564746856689e-02
5.630452632904052734e-01 -1.219395361840724945e-02 2.386502549052238464e-02
1.890160739421844482e-01 1.247157379984855652e-01 9.140427410602569580e-02
2.834314703941345215e-01 1.384032666683197021e-01 6.418311595916748047e-02
-1.240889728069305420e-02 1.534116268157958984e-02 -1.478796154260635376e-01
9.202264249324798584e-02 6.352739408612251282e-03 -1.356331557035446167e-01
3.399659693241119385e-01 5.842040479183197021e-02 -7.793053984642028809e-02
4.225360155105590820e-01 -1.811102963984012604e-02 1.106200516223907471e-01
3.611752390861511230e-01 6.249739974737167358e-02 1.384240239858627319e-01
-2.358982563018798828e-01 -4.486653208732604980e-02 8.292996324598789215e-03
-2.717811167240142822e-01 -2.235011197626590729e-02 -1.480232179164886475e-01
1.443860828876495361e-01 9.528757631778717041e-02 -9.389831125736236572e-02
4.011403918266296387e-01 7.732776552438735962e-02 1.338346004486083984e-01
4.318005740642547607e-01 -5.347979813814163208e-02 4.514637961983680725e-02
3.356810808181762695e-01 1.003326252102851868e-01 -4.958095028996467590e-02
-3.281127512454986572e-01 9.294849634170532227e-02 -4.457021877169609070e-02
-3.005646169185638428e-02 -7.813817262649536133e-02 -9.508528560400009155e-02
-2.382143139839172363e-01 -5.028954893350601196e-02 -1.311363428831100464e-01
-3.414161503314971924e-01 6.600953638553619385e-02 -4.235010594129562378e-03
2.340554893016815186e-01 6.381291896104812622e-02 1.332152336835861206e-01
-3.927753120660781860e-02 4.773894697427749634e-02 -1.431254893541336060e-01
-8.068553358316421509e-02 9.667968004941940308e-02 7.038380205631256104e-02
3.221981227397918701e-01 1.375409513711929321e-01 5.884532257914543152e-02
1.567900329828262329e-01 9.252098947763442993e-02 1.161308735609054565e-01
5.779450386762619019e-02 -4.214314371347427368e-02 -1.256014853715896606e-01
3.631925880908966064e-01 1.348195970058441162e-01 3.833792358636856079e-02
-2.029361426830291748e-01 7.481361180543899536e-02 4.869224131107330322e-02
9.092247486114501953e-02 -5.043594539165496826e-02 7.368824630975723267e-02
5.587408542633056641e-01 -3.605708479881286621e-04 5.030853673815727234e-03
-1.300579905509948730e-01 -2.370745502412319183e-02 5.760532990097999573e-02
4.654577970504760742e-01 8.052103221416473389e-02 1.276257783174514771e-01
-4.066053628921508789e-01 6.387048214673995972e-02 -7.453855127096176147e-02
5.786123871803283691e-01 2.910988964140415192e-02 6.661249324679374695e-03
2.518717646598815918e-01 3.716726973652839661e-02 -1.050436869263648987e-01
-5.688965320587158203e-04 -5.092007666826248169e-02 6.032014265656471252e-02
2.288392782211303711e-01 1.362297534942626953e-01 -1.802380383014678955e-02
-3.852269053459167480e-01 -8.921777829527854919e-03 -2.512117475271224976e-02
-2.533708214759826660e-01 -6.988486647605895996e-02 -8.460694551467895508e-02
1.566360741853713989e-01 1.459345668554306030e-01 1.508219260722398758e-02
-8.452758193016052246e-03 -3.716103732585906982e-02 7.233153283596038818e-02
3.411670923233032227e-01 -4.660335928201675415e-02 -5.714303255081176758e-02
4.640442430973052979e-01 1.127519011497497559e-01 9.365992993116378784e-02
-2.594076693058013916e-01 8.277399092912673950e-02 -1.167844682931900024e-01
4.385532140731811523e-01 8.808226883411407471e-02 -2.914574742317199707e-02
1.965105980634689331e-01 9.953875839710235596e-02 1.161529719829559326e-01
-2.472529411315917969e-01 -6.279900670051574707e-02 -1.111442223191261292e-01
-2.631666660308837891e-01 -5.027914047241210938e-02 -9.653889574110507965e-03
5.412783026695251465e-01 3.965714201331138611e-02 1.234270036220550537e-01
4.002238810062408447e-01 -3.821307420730590820e-02 9.051704406738281250e-02
5.083405971527099609e-01 6.301980465650558472e-02 1.282214969396591187e-01
2.797423303127288818e-01 2.485664747655391693e-02 -1.008195802569389343e-01
2.195610105991363525e-01 -1.909978687763214111e-03 -1.127960905432701111e-01
5.427179336547851562e-01 1.377043873071670532e-02 -1.194620691239833832e-02
2.194729745388031006e-01 1.423271149396896362e-01 5.252476409077644348e-02
1.823023557662963867e-01 2.225899137556552887e-02 1.273547112941741943e-01
4.594889283180236816e-02 -9.042547643184661865e-02 -3.129670396447181702e-02
8.316443860530853271e-02 -8.437799662351608276e-02 1.151164341717958450e-02
-4.174859523773193359e-01 5.265806615352630615e-02 -5.191151797771453857e-02
1.744883209466934204e-01 -6.455595791339874268e-02 -8.425397425889968872e-02
1.091462597250938416e-01 -6.995315104722976685e-02 4.821305721998214722e-02
-2.010743618011474609e-01 -6.045393645763397217e-02 -1.222735345363616943e-01
5.485743284225463867e-01 -9.448360651731491089e-04 1.004831567406654358e-01
5.348408818244934082e-01 1.026672571897506714e-01 5.208001658320426941e-02
-1.177304163575172424e-01 7.322701066732406616e-02 7.415500283241271973e-02
-2.264478802680969238e-01 -1.577842980623245239e-03 -1.558547168970108032e-01
-2.807996571063995361e-01 -1.706889830529689789e-02 1.739074289798736572e-02
-4.175148010253906250e-01 2.737624943256378174e-02 -3.482761606574058533e-02
2.577309012413024902e-01 9.509134292602539062e-02 1.235583573579788208e-01
5.800042748451232910e-01 2.650735154747962952e-02 1.083936616778373718e-01
-1.386713385581970215e-01 2.311765775084495544e-02 -1.548635065555572510e-01
1.656520068645477295e-01 -8.327051997184753418e-02 1.558205205947160721e-02
2.924178540706634521e-01 3.572770208120346069e-02 1.372084021568298340e-01
9.989877790212631226e-02 -8.929197490215301514e-02 -3.430594131350517273e-02
-5.775178223848342896e-02 -6.724055111408233643e-02 2.774458006024360657e-02
4.602915942668914795e-01 -3.827571123838424683e-02 -1.323641650378704071e-02
1.832160800695419312e-01 -8.405520766973495483e-02 -3.560408949851989746e-02
-1.808997988700866699e-02 7.450273633003234863e-02 -1.278408318758010864e-01
2.311746180057525635e-01 1.162678152322769165e-01 1.049384474754333496e-01
4.904787838459014893e-01 -3.872260451316833496e-02 1.239292602986097336e-02
4.677087664604187012e-01 1.157021299004554749e-01 2.926745638251304626e-02
-2.193931043148040771e-01 -7.306379824876785278e-02 -4.244631528854370117e-02
4.996547102928161621e-01 9.694416821002960205e-02 8.161389268934726715e-03
3.269993066787719727e-01 1.372145265340805054e-01 2.323291450738906860e-02
-3.993452787399291992e-01 9.968960657715797424e-03 -2.409804612398147583e-02
3.523083031177520752e-01 -6.177368760108947754e-02 5.382530763745307922e-02
-1.273177564144134521e-03 6.122043728828430176e-02 -1.341735869646072388e-01
-2.658584415912628174e-01 9.326282888650894165e-03 -1.544037759304046631e-01
-4.019637405872344971e-01 7.220642641186714172e-03 -1.305160373449325562e-01
3.061024546623229980e-01 -1.017332635819911957e-02 1.210542172193527222e-01
5.623003244400024414e-01 2.092801220715045929e-02 1.121743395924568176e-01
3.347828984260559082e-01 -4.539711773395538330e-02 8.755654096603393555e-02
3.838566839694976807e-01 3.801595792174339294e-02 -7.232805341482162476e-02
3.283404186367988586e-02 1.331405490636825562e-01 -5.158201605081558228e-02
-3.637392222881317139e-01 8.222904056310653687e-02 -5.932503566145896912e-02
-9.510525315999984741e-02 -8.606426417827606201e-02 -6.615633517503738403e-02
-1.826495230197906494e-01 6.137453019618988037e-02 -1.409202963113784790e-01
-5.981304496526718140e-02 -2.735639177262783051e-02 7.045032083988189697e-02
-9.892410784959793091e-02 1.027123928070068359e-01 6.034757569432258606e-02
9.983253479003906250e-02 1.318165957927703857e-01 -5.017174407839775085e-02
1.999451816082000732e-01 1.216343045234680176e-02 -1.178830638527870178e-01
-4.148858189582824707e-01 2.660416066646575928e-03 -3.779872134327888489e-02
-1.161933764815330505e-01 -7.389265298843383789e-02 2.770153805613517761e-04
-1.925399005413055420e-01 7.396729290485382080e-02 -1.317097693681716919e-01
3.532492518424987793e-01 -6.725600361824035645e-02 3.191063180565834045e-02
-1.332846879959106445e-01 1.296075135469436646e-01 -1.024304516613483429e-02
1.859179139137268066e-01 1.384311765432357788e-01 6.519890576601028442e-02
5.451686978340148926e-01 6.358581036329269409e-02 -1.981919631361961365e-03
-1.129224523901939392e-01 2.192280255258083344e-02 8.023203164339065552e-02
4.493366777896881104e-01 -2.704236097633838654e-02 9.719099849462509155e-02
-6.480284035205841064e-03 -8.260010927915573120e-02 -8.296783268451690674e-02
1.770229637622833252e-02 8.956486731767654419e-02 -1.136861890554428101e-01
3.070815205574035645e-01 -7.310608774423599243e-02 2.650112286210060120e-02
-4.466833919286727905e-02 1.288595199584960938e-01 3.942180424928665161e-02
5.024966225028038025e-02 4.974682629108428955e-02 1.131994277238845825e-01
6.206353306770324707e-01 4.600396007299423218e-02 4.747933894395828247e-02
2.151073515415191650e-01 -5.257944762706756592e-02 8.023670315742492676e-02
2.339116930961608887e-01 4.114583879709243774e-02 -1.077929586172103882e-01
-1.996976137161254883e-01 5.560362339019775391e-02 5.688833817839622498e-02
6.173583865165710449e-01 1.686034724116325378e-02 5.681063607335090637e-02
2.584884762763977051e-01 -4.839207977056503296e-04 1.248671561479568481e-01
-8.746839314699172974e-02 1.922968588769435883e-02 -1.532132327556610107e-01
3.816496431827545166e-01 5.885728448629379272e-02 1.387853920459747314e-01
2.487857341766357422e-01 -5.023869127035140991e-02 8.383290469646453857e-02
2.089403867721557617e-01 6.374308466911315918e-02 -1.043180376291275024e-01
-3.623628914356231689e-01 -2.405920810997486115e-02 -2.508297562599182129e-02
8.761648833751678467e-02 -3.017627634108066559e-02 9.205225110054016113e-02
2.276173830032348633e-01 8.912122249603271484e-02 1.246937513351440430e-01
5.023545622825622559e-01 -3.087621740996837616e-02 7.402654737234115601e-02
5.524378418922424316e-01 3.320959955453872681e-02 -8.732662536203861237e-03
5.501199513673782349e-02 -8.709954470396041870e-02 -6.077873706817626953e-02
-6.837276369333267212e-02 1.303498893976211548e-01 -5.467129498720169067e-02
-1.684525012969970703e-01 1.027480736374855042e-01 3.793666511774063110e-02
-4.282543808221817017e-02 -3.477551043033599854e-02 6.810091435909271240e-02
-1.619759798049926758e-01 -6.558301299810409546e-02 -1.176139414310455322e-01
3.148805797100067139e-01 4.599675536155700684e-02 -8.861885219812393188e-02
-2.175621688365936279e-01 -2.515233866870403290e-02 3.290176019072532654e-02
5.482060313224792480e-01 -2.297499589622020721e-02 5.537262931466102600e-02
7.843001931905746460e-02 -8.991643041372299194e-02 -3.476572409272193909e-02
-2.302216887474060059e-01 1.584266498684883118e-02 4.797235131263732910e-02
-4.266418814659118652e-01 5.155672878026962280e-02 -6.932798773050308228e-02
2.310570776462554932e-01 -3.597391396760940552e-02 -9.755378216505050659e-02
-3.140955269336700439e-01 6.665722280740737915e-02 9.587212465703487396e-03
2.339317202568054199e-01 -6.651805341243743896e-02 5.824590846896171570e-02
2.828758656978607178e-01 -7.760370522737503052e-02 5.057225935161113739e-03
-1.321357786655426025e-01 -1.574629358947277069e-02 -1.530342698097229004e-01
-1.692367792129516602e-01 8.848164975643157959e-02 -1.193288117647171021e-01
2.152449786663055420e-01 3.607243299484252930e-02 1.325197219848632812e-01
4.043556451797485352e-01 6.484194099903106689e-02 -5.685706064105033875e-02
-1.859901249408721924e-01 -2.696574293076992035e-02 4.080683365464210510e-02
3.593110740184783936e-01 6.120558828115463257e-02 -7.159466296434402466e-02
-1.090336516499519348e-01 1.308738887310028076e-01 3.762393258512020111e-03
-2.742384970188140869e-01 -1.953491941094398499e-03 2.797250077128410339e-02
-3.918971866369247437e-02 -7.110071927309036255e-02 2.497106045484542847e-02
9.659129381179809570e-02 1.412841230630874634e-01 4.429322853684425354e-02
-2.309776544570922852e-01 8.461531251668930054e-02 -1.185595616698265076e-01
4.444279372692108154e-01 2.066342346370220184e-02 1.321888715028762817e-01
-2.666307240724563599e-02 1.388966888189315796e-01 1.201412733644247055e-02
4.814764112234115601e-02 1.156320869922637939e-01 -8.271118998527526855e-02
4.347618222236633301e-01 -2.333886362612247467e-02 -4.292258247733116150e-02
3.814112842082977295e-01 -5.823004245758056641e-02 -1.950181834399700165e-02
-6.946351379156112671e-02 9.470621496438980103e-02 -1.138481050729751587e-01
-3.990615606307983398e-01 -1.915880478918552399e-02 -4.433804005384445190e-02
-3.747086524963378906e-01 4.097857326269149780e-02 -9.610564447939395905e-03
3.234263062477111816e-01 9.301900118589401245e-02 1.271995306015014648e-01
2.870245873928070068e-01 -1.755222864449024200e-02 1.158456951379776001e-01
3.445265889167785645e-01 -6.854819506406784058e-02 -8.092529140412807465e-03
5.120474100112915039e-01 1.018676906824111938e-01 2.503846958279609680e-02
6.052302122116088867e-01 3.197055682539939880e-02 9.767494350671768188e-02
6.095684170722961426e-01 1.258466672152280807e-02 7.540591806173324585e-02
-3.189306855201721191e-01 4.531402140855789185e-02 -1.392631083726882935e-01
4.707267284393310547e-01 -2.325063012540340424e-02 9.753271192312240601e-02
1.328071802854537964e-01 -6.596310436725616455e-02 5.684053525328636169e-02
-1.654531061649322510e-02 1.394927501678466797e-01 -2.480578422546386719e-02
5.363690257072448730e-01 9.293778985738754272e-02 1.002740114927291870e-01
-2.594637870788574219e-01 9.840045124292373657e-02 -9.270064532756805420e-02
1.519742310047149658e-01 -6.448277086019515991e-02 -8.939275145530700684e-02
-1.470100283622741699e-01 -7.929395884275436401e-02 -2.657721191644668579e-02
-1.822759509086608887e-01 6.917106360197067261e-02 5.781758949160575867e-02
5.483949184417724609e-01 -2.165328152477741241e-02 3.007649257779121399e-02
1.274723708629608154e-01 -6.534636020660400391e-02 -9.331808239221572876e-02
4.241897165775299072e-01 1.156676337122917175e-01 2.994967624545097351e-03
2.286770641803741455e-01 -1.158239133656024933e-02 1.173608303070068359e-01
1.447279006242752075e-01 -2.990046702325344086e-02 -1.184993088245391846e-01
-2.472112774848937988e-01 -6.863833218812942505e-02 -4.384198412299156189e-02
3.088710308074951172e-01 9.257113933563232422e-02 -6.401518732309341431e-02
3.000579178333282471e-01 -7.463777065277099609e-02 -1.256978325545787811e-02
2.309028208255767822e-01 1.440928578376770020e-01 3.779310360550880432e-02
-2.779622077941894531e-01 -6.355615705251693726e-02 -4.796451330184936523e-02
6.652709096670150757e-02 1.401864439249038696e-01 -2.924175933003425598e-02
2.824293673038482666e-01 -6.518494337797164917e-02 5.782278999686241150e-02
-9.377201646566390991e-02 1.345833539962768555e-01 -1.606376096606254578e-02
-3.980387449264526367e-01 6.601107120513916016e-02 -5.265674367547035217e-02
4.622387886047363281e-01 -9.498516097664833069e-03 1.131967976689338684e-01
3.694282472133636475e-01 1.005808636546134949e-01 -3.953852504491806030e-02
1.824892014265060425e-01 -7.204265147447586060e-02 4.762392863631248474e-02
-1.639558970928192139e-01 5.431497842073440552e-02 6.742645055055618286e-02
-8.866687864065170288e-02 1.167452409863471985e-01 4.690195247530937195e-02
4.954563081264495850e-01 9.368285536766052246e-02 1.130332425236701965e-01
2.359117567539215088e-01 -8.171746879816055298e-02 4.515949636697769165e-03
-3.650765120983123779e-01 5.877853184938430786e-02 -1.277140527963638306e-02
-1.876378655433654785e-01 1.207039132714271545e-01 -9.112921543419361115e-03
7.197305560111999512e-03 1.283542811870574951e-01 -6.323929876089096069e-02
-1.636794209480285645e-01 1.245233565568923950e-01 -4.856787249445915222e-02
-5.472610145807266235e-02 7.803677022457122803e-02 8.724740147590637207e-02
-2.058171331882476807e-01 1.189518123865127563e-01 -1.868348941206932068e-02
-2.297523021697998047e-01 -7.280696183443069458e-02 -8.570846915245056152e-02
5.405269861221313477e-01 1.246546767652034760e-02 1.137940883636474609e-01
1.668727099895477295e-01 -5.963504314422607422e-02 6.863219290971755981e-02
1.260320544242858887e-01 -8.807322382926940918e-02 -8.254706859588623047e-03
4.861525595188140869e-01 7.391019910573959351e-02 -2.245118282735347748e-02
1.677046567201614380e-01 -8.653056621551513672e-02 -2.478304132819175720e-02
6.942160427570343018e-02 1.397838741540908813e-01 4.345760494470596313e-02
-2.950107157230377197e-01 -6.351501494646072388e-02 -7.489668577909469604e-02
1.693182736635208130e-01 -4.649946093559265137e-02 8.515308797359466553e-02
