5.036363601684570312e-01 1.475629210472106934e-01 -8.377104252576828003e-02
2.158526778221130371e-01 -1.742717176675796509e-01 -8.289192616939544678e-02
2.694667875766754150e-01 2.278289347887039185e-01 -2.602119743824005127e-02
-5.606424808502197266e-01 -8.711361885070800781e-02 1.316859871149063110e-01
1.279429197311401367e-01 6.620930135250091553e-02 -3.203537166118621826e-01
6.145125031471252441e-01 -8.077444136142730713e-02 -4.491771012544631958e-02
-1.825903058052062988e-01 -1.743194311857223511e-01 -2.526393346488475800e-02
1.855349242687225342e-01 1.468001678586006165e-02 -3.244031965732574463e-01
-2.772472500801086426e-01 -1.386376023292541504e-01 -2.309733480215072632e-01
4.225993752479553223e-01 9.160827845335006714e-02 1.688388288021087646e-01
-1.986334919929504395e-01 1.622803360223770142e-01 2.810066938400268555e-01
-3.803840875625610352e-01 2.662308216094970703e-01 1.969780027866363525e-01
-7.702993750572204590e-01 -6.315486133098602295e-02 9.019542485475540161e-02
-2.826530039310455322e-01 3.027687370777130127e-01 4.999471455812454224e-02
-1.920486092567443848e-01 -4.096279665827751160e-02 -3.359533548355102539e-01
8.302152156829833984e-02 7.027430087327957153e-02 -3.246886432170867920e-01
-2.233714610338211060e-01 -1.571696847677230835e-01 4.633414745330810547e-02
2.914572954177856445e-01 2.222685813903808594e-01 -3.031073324382305145e-02
-4.311165213584899902e-01 2.888567447662353516e-01 -9.351710230112075806e-02
-8.066162467002868652e-02 -1.800555139780044556e-01 -1.208253875374794006e-01
4.961562156677246094e-01 -8.094619959592819214e-03 -2.436237633228302002e-01
-5.219410061836242676e-01 1.257623285055160522e-01 2.860690355300903320e-01
3.337785601615905762e-03 2.679170370101928711e-01 -7.053211331367492676e-02
-3.800475895404815674e-01 -1.477183699607849121e-01 3.588025271892547607e-02
1.749426126480102539e-01 -1.570399850606918335e-03 -3.265956342220306396e-01
-8.408523797988891602e-01 6.221966445446014404e-02 -2.433428019285202026e-01
2.770596146583557129e-01 2.117734551429748535e-01 -1.032588779926300049e-01
-8.734921813011169434e-01 2.394476905465126038e-02 -2.189943343400955200e-01
4.467355012893676758e-01 1.587082445621490479e-01 8.466209471225738525e-02
-3.221404254436492920e-01 2.785965204238891602e-01 1.680596172809600830e-01
-8.867042064666748047e-01 4.003417491912841797e-02 1.792765259742736816e-01
6.057994365692138672e-01 -6.406193971633911133e-02 1.554760523140430450e-02
-1.061821699142456055e+00 2.431278675794601440e-02 3.937900066375732422e-03
-3.025045990943908691e-01 5.640826746821403503e-02 -3.412252068519592285e-01
-9.973567724227905273e-02 -1.030011624097824097e-01 -2.986001968383789062e-01
-9.583198428153991699e-01 4.214471578598022461e-02 -1.835851222276687622e-01
-5.210907459259033203e-01 -3.705302253365516663e-02 -2.977865934371948242e-01
1.513067483901977539e-01 -5.824844166636466980e-02 1.980533897876739502e-01
-4.463784694671630859e-01 2.270695269107818604e-01 -2.188574373722076416e-01
-4.743049442768096924e-01 3.724894672632217407e-02 -3.271407485008239746e-01
-5.276818871498107910e-01 3.743916749954223633e-02 2.655405402183532715e-01
-8.405877649784088135e-02 -8.357572555541992188e-02 1.925406605005264282e-01
1.595841944217681885e-01 -1.672876477241516113e-01 5.555277690291404724e-03
-8.279880285263061523e-01 2.504329681396484375e-01 -1.061927899718284607e-01
-2.730154991149902344e-02 -1.820174604654312134e-01 -6.265525519847869873e-02
-1.012012660503387451e-01 -1.798821687698364258e-01 -1.163145080208778381e-01
-1.044624149799346924e-01 2.895395457744598389e-01 5.092548206448554993e-03
-9.940094947814941406e-01 2.080420553684234619e-01 1.328573226928710938e-01
-4.607267379760742188e-01 3.002740740776062012e-01 1.067825779318809509e-01
2.811976075172424316e-01 -1.673937141895294189e-01 -6.399279832839965820e-02
2.241089642047882080e-01 5.464465916156768799e-02 2.372964918613433838e-01
-1.027395129203796387e+00 1.005602777004241943e-01 -1.538793593645095825e-01
-8.543811440467834473e-01 3.862943500280380249e-02 -2.333667278289794922e-01
-1.382991522550582886e-01 1.313982456922531128e-01 2.860282063484191895e-01
6.440021395683288574e-01 -6.330455839633941650e-02 -7.471520453691482544e-02
-4.696998000144958496e-01 -5.572885647416114807e-02 1.984119862318038940e-01
-5.955835580825805664e-01 -1.200849413871765137e-01 -1.503077596426010132e-01
-2.708011865615844727e-01 2.443177402019500732e-01 -1.925108581781387329e-01
-7.848340272903442383e-01 2.843707203865051270e-01 7.370412349700927734e-02
-8.451583981513977051e-01 8.184343576431274414e-02 -2.421076446771621704e-01
6.397077441215515137e-02 1.236108094453811646e-01 -2.974678575992584229e-01
-2.118830531835556030e-01 -4.218867793679237366e-02 -3.345009982585906982e-01
-3.842193186283111572e-01 6.245752051472663879e-02 -3.348868489265441895e-01
-3.607131242752075195e-01 -1.614527851343154907e-01 -1.193564161658287048e-01
-1.047990918159484863e+00 1.574991494417190552e-01 1.338037699460983276e-01
-2.383419573307037354e-01 -1.705359220504760742e-01 -2.058082632720470428e-02
-2.001355588436126709e-02 1.996880024671554565e-01 -2.327015399932861328e-01
-2.687973082065582275e-01 -2.849848195910453796e-02 -3.362218439579010010e-01
5.173611640930175781e-01 -1.158277317881584167e-02 -2.340632379055023193e-01
-7.594885230064392090e-01 -9.319131076335906982e-02 -1.338349655270576477e-02
-5.594015121459960938e-01 4.877035319805145264e-02 -3.144248425960540771e-01
2.903580069541931152e-01 -1.664722710847854614e-01 -1.065068319439888000e-01
-9.899510145187377930e-01 2.329050004482269287e-02 -1.474854797124862671e-01
2.656526863574981689e-01 -1.638114154338836670e-01 -1.495069265365600586e-01
-4.410772025585174561e-01 3.018216490745544434e-01 9.854912757873535156e-02
-2.426362931728363037e-01 2.229184806346893311e-01 -2.247090488672256470e-01
-1.481673419475555420e-01 2.580650448799133301e-01 -1.509451270103454590e-01
2.287642955780029297e-01 -9.458358585834503174e-02 1.460875719785690308e-01
-1.701388657093048096e-01 1.740732192993164062e-01 2.732827365398406982e-01
3.079934716224670410e-01 1.137781888246536255e-01 2.044345736503601074e-01
-5.514588952064514160e-02 -1.578642800450325012e-02 2.507034540176391602e-01
-1.537617743015289307e-01 -1.743973493576049805e-01 -1.443480402231216431e-01
-9.116043448448181152e-01 1.033077761530876160e-02 -1.901576817035675049e-01
-1.170142665505409241e-01 1.326228827238082886e-01 2.838963866233825684e-01
-6.140977740287780762e-01 2.663704454898834229e-01 -1.341399252414703369e-01
-2.203074097633361816e-02 -1.230376809835433960e-01 1.350363343954086304e-01
-5.656814575195312500e-01 9.798344224691390991e-03 -3.085491657257080078e-01
-7.821258306503295898e-01 2.811172604560852051e-01 9.545851498842239380e-02
-8.400571346282958984e-02 2.793005704879760742e-01 -6.344630569219589233e-02
-9.874759912490844727e-01 2.093205899000167847e-01 -9.742889553308486938e-02
-2.896058559417724609e-02 5.918982252478599548e-02 2.778647541999816895e-01
-1.067829847335815430e+00 4.101734980940818787e-02 -8.260684460401535034e-02
2.571891546249389648e-01 -1.689436137676239014e-01 -1.205143406987190247e-01
1.049494743347167969e-02 -1.292065382003784180e-01 -2.689101696014404297e-01
-6.515222787857055664e-02 -1.716114580631256104e-01 -1.735088378190994263e-01
3.183665871620178223e-01 -2.126116678118705750e-02 -2.991235554218292236e-01
2.850463986396789551e-01 1.429726034402847290e-01 -2.296313047409057617e-01
-3.036038875579833984e-01 1.357489675283432007e-01 -3.104234337806701660e-01
5.568141937255859375e-01 -1.052200049161911011e-01 -1.204265803098678589e-01
-7.563794255256652832e-01 1.019196957349777222e-02 2.005798518657684326e-01
3.859502077102661133e-01 1.569303870201110840e-01 -1.653534173965454102e-01
-3.680785894393920898e-01 2.854886353015899658e-01 -1.034668758511543274e-01
3.816781044006347656e-01 -1.054134517908096313e-01 8.806851506233215332e-02
2.502873837947845459e-01 -1.471779495477676392e-01 -2.085707634687423706e-01
-5.435189604759216309e-02 1.500691100955009460e-02 2.668118774890899658e-01
-4.513580203056335449e-01 2.411287277936935425e-01 -1.980076879262924194e-01
-4.575362801551818848e-01 -1.476530581712722778e-01 -1.312378197908401489e-01
2.383227944374084473e-01 -1.215649098157882690e-01 -2.545921504497528076e-01
-8.052443861961364746e-01 2.837381660938262939e-01 4.638560116291046143e-02
-1.085199356079101562e+00 1.077800691127777100e-01 1.026053354144096375e-01
-8.925402760505676270e-01 -4.968743398785591125e-02 -1.001036018133163452e-01
-9.985038042068481445e-01 5.207984894514083862e-02 1.311706453561782837e-01
-7.579629421234130859e-01 -4.971979930996894836e-02 -2.090369164943695068e-01
-5.594034194946289062e-01 -1.370455324649810791e-01 -6.593615561723709106e-02
-5.523843169212341309e-01 -1.342410743236541748e-01 -9.189696982502937317e-03
-7.059795856475830078e-01 2.508511245250701904e-01 1.931730806827545166e-01
-9.540945887565612793e-01 -1.920565590262413025e-02 -1.135426238179206848e-01
-4.863021373748779297e-01 1.462573185563087463e-02 2.578648626804351807e-01
4.839759469032287598e-01 -1.279738545417785645e-01 -1.295675635337829590e-01
6.092156767845153809e-01 4.637733846902847290e-02 6.924871355295181274e-02
-9.358594417572021484e-01 -1.346828415989875793e-02 8.184118568897247314e-02
2.358624041080474854e-01 1.026770249009132385e-01 -2.805917561054229736e-01
-8.018338680267333984e-01 9.279412031173706055e-02 -2.549740374088287354e-01
-1.089529991149902344e+00 1.797636151313781738e-01 -4.670681059360504150e-02
-4.782889187335968018e-01 -1.476207226514816284e-01 -1.084629446268081665e-01
4.409229755401611328e-01 3.740070015192031860e-02 -2.563530504703521729e-01
5.024634599685668945e-01 8.905577659606933594e-02 1.280877292156219482e-01
-5.335061550140380859e-01 4.636276885867118835e-02 -3.186575770378112793e-01
-1.017016649246215820e+00 -2.168666571378707886e-03 -1.518605276942253113e-03
1.911082863807678223e-01 -4.114453867077827454e-02 2.053764760494232178e-01
-5.458461046218872070e-01 2.543572485446929932e-01 -1.679154187440872192e-01
-5.486480593681335449e-01 -1.352420151233673096e-01 -1.180607751011848450e-01
-8.843284249305725098e-01 2.124584466218948364e-01 1.844420433044433594e-01
-6.612328886985778809e-01 1.649186164140701294e-01 2.636915445327758789e-01
5.960774421691894531e-01 3.830442577600479126e-02 8.305092155933380127e-02
2.939453721046447754e-01 -1.451363265514373779e-01 -1.998588889837265015e-01
-8.949549496173858643e-02 1.272820234298706055e-01 2.824478745460510254e-01
2.201358973979949951e-01 -1.563577502965927124e-01 2.833276055753231049e-02
5.451614260673522949e-01 6.801890581846237183e-02 1.113291457295417786e-01
3.485313653945922852e-01 2.086575776338577271e-01 -5.297474563121795654e-04
-6.227053403854370117e-01 -5.893448367714881897e-02 -2.534277141094207764e-01
4.782335758209228516e-01 -1.076063662767410278e-01 3.702735900878906250e-02
-3.552971780300140381e-01 2.934387922286987305e-01 1.289502829313278198e-01
-1.516080498695373535e-01 2.939761877059936523e-01 6.517017260193824768e-03
-3.311669230461120605e-01 1.717508584260940552e-01 -2.832297384738922119e-01
-4.462472200393676758e-01 -1.513544470071792603e-01 -1.158172413706779480e-01
-4.965527057647705078e-01 3.038147687911987305e-01 -1.986153237521648407e-02
-3.619371950626373291e-01 -1.636308431625366211e-01 -6.281511485576629639e-02
6.184401512145996094e-01 7.655788958072662354e-02 -1.084048599004745483e-01
-4.229095876216888428e-01 1.287107616662979126e-01 2.921900749206542969e-01
-8.806486725807189941e-01 1.768298298120498657e-01 -1.884031146764755249e-01
5.106742978096008301e-01 -6.593650579452514648e-02 8.403816074132919312e-02
2.080911099910736084e-01 1.500405371189117432e-01 -2.447729408740997314e-01
-4.244700372219085693e-01 1.071815639734268188e-01 2.926679849624633789e-01
1.720812022686004639e-01 2.055506855249404907e-01 1.719775795936584473e-01
-7.302904725074768066e-01 -2.279852703213691711e-02 1.743917167186737061e-01
-7.293726503849029541e-02 -1.044226288795471191e-01 1.653752774000167847e-01
-6.573363542556762695e-01 1.561370939016342163e-01 -2.629592418670654297e-01
6.477857828140258789e-01 6.967235356569290161e-02 -5.049492418766021729e-02
-4.602699875831604004e-01 -1.289914548397064209e-01 6.819433718919754028e-02
4.002344608306884766e-01 -4.730844870209693909e-02 -2.714765071868896484e-01
-2.142836302518844604e-01 2.981393635272979736e-01 5.666308850049972534e-02
3.940728306770324707e-01 1.938491314649581909e-01 2.211701683700084686e-02
-9.904374480247497559e-01 6.443358212709426880e-02 1.467726230621337891e-01
3.945448398590087891e-01 1.888117790222167969e-01 5.313014239072799683e-02
6.630151271820068359e-01 4.536850005388259888e-02 -9.726397693157196045e-03
-2.463686913251876831e-01 -3.771630302071571350e-02 -3.343007564544677734e-01
-2.258117347955703735e-01 3.655614703893661499e-02 2.821242809295654297e-01
-1.266950666904449463e-01 2.861483022570610046e-02 2.765251100063323975e-01
-5.458331108093261719e-02 -1.757697463035583496e-01 -9.596940129995346069e-03
-3.434500396251678467e-01 -9.901280701160430908e-02 -2.790015935897827148e-01
-7.488602995872497559e-01 -9.807832539081573486e-02 -5.214382708072662354e-02
6.954252719879150391e-02 -1.252458244562149048e-01 -2.714645564556121826e-01
-6.668348312377929688e-01 2.978078722953796387e-01 6.830523163080215454e-02
-8.014675378799438477e-01 1.414126604795455933e-01 2.399687469005584717e-01
-5.410405397415161133e-01 2.264474630355834961e-01 2.428771555423736572e-01
-9.935761094093322754e-01 3.713867068290710449e-02 1.185471490025520325e-01
-3.096461296081542969e-02 1.546302288770675659e-01 2.661704123020172119e-01
-1.060324907302856445e+00 6.113225221633911133e-02 -1.158989742398262024e-01
1.292854547500610352e-01 1.219582259654998779e-01 -2.882409989833831787e-01
-7.273259162902832031e-01 -5.402902141213417053e-02 1.301867663860321045e-01
-5.124554634094238281e-01 1.895580738782882690e-01 2.701537907123565674e-01
6.818241477012634277e-01 -7.490206509828567505e-03 -5.268978327512741089e-02
3.496602177619934082e-01 2.033021003007888794e-01 5.231019109487533569e-02
-7.020108699798583984e-01 2.631762325763702393e-01 -1.216236054897308350e-01
4.047152996063232422e-01 1.573021262884140015e-01 -1.530763506889343262e-01
1.186387240886688232e-02 2.708699703216552734e-01 8.071657270193099976e-02
-3.501853346824645996e-01 2.115925401449203491e-01 2.598275244235992432e-01
4.343348741531372070e-01 7.041748613119125366e-03 1.666595339775085449e-01
-7.066145539283752441e-03 -1.719209253787994385e-01 1.015306077897548676e-02
-8.397604823112487793e-01 2.744100093841552734e-01 8.132603764533996582e-02
3.703835606575012207e-01 1.928497850894927979e-01 -8.416753262281417847e-02
-4.113882184028625488e-01 -9.359976649284362793e-02 1.560260653495788574e-01
-1.375336945056915283e-02 2.763784825801849365e-01 -3.233518823981285095e-02
-1.269392222166061401e-01 2.657666206359863281e-01 -1.268519759178161621e-01
-7.915745675563812256e-02 2.396185398101806641e-01 -1.777526736259460449e-01
-6.921172142028808594e-02 2.262775599956512451e-01 2.154860943555831909e-01
-5.392730236053466797e-05 -1.373811513185501099e-01 1.075543090701103210e-01
-5.714928507804870605e-01 -4.640893265604972839e-02 1.898076236248016357e-01
3.449209332466125488e-01 -1.424617022275924683e-01 2.278274111449718475e-02
-3.378380239009857178e-01 -1.272888779640197754e-01 1.058473512530326843e-01
1.772208809852600098e-01 -1.697967350482940674e-01 -1.163798943161964417e-02
-2.816557884216308594e-01 2.765009999275207520e-01 -1.233646050095558167e-01
-6.897260546684265137e-01 2.274601012468338013e-01 -1.869364827871322632e-01
-4.506930112838745117e-01 -4.752027615904808044e-02 2.106165587902069092e-01
-5.277690291404724121e-02 8.373473584651947021e-02 2.826739549636840820e-01
-7.843288779258728027e-01 1.033776402473449707e-01 -2.578641474246978760e-01
-8.732019364833831787e-02 -1.412854939699172974e-01 1.008670702576637268e-01
-8.156635165214538574e-01 -8.005894720554351807e-02 -3.744939342141151428e-02
1.618964970111846924e-01 2.286281585693359375e-01 1.331091374158859253e-01
1.772837936878204346e-01 -1.743622422218322754e-01 -4.107705503702163696e-02
1.206943690776824951e-01 2.509242296218872070e-01 -6.963837891817092896e-02
-1.056177258491516113e+00 1.047329008579254150e-01 1.264901608228683472e-01
-1.132749557495117188e+00 1.457119137048721313e-01 1.036581210792064667e-02
-4.225943684577941895e-01 -1.122199296951293945e-01 1.200279220938682556e-01
-7.058238387107849121e-01 1.222174167633056641e-01 2.612721025943756104e-01
2.154668569564819336e-01 2.337748408317565918e-01 7.674515247344970703e-02
4.174727797508239746e-01 -8.067797869443893433e-03 -2.729071378707885742e-01
-1.909995824098587036e-01 2.955254614353179932e-01 6.634262949228286743e-02
-7.545769214630126953e-01 1.216762810945510864e-01 2.513002455234527588e-01
-1.573785543441772461e-01 -1.742987483739852905e-01 -1.693351566791534424e-02
3.642544746398925781e-01 9.368009865283966064e-02 -2.507691979408264160e-01
2.387448549270629883e-01 -1.294718086719512939e-01 8.946462720632553101e-02
-4.529964327812194824e-01 3.068284094333648682e-01 7.847448810935020447e-03
-8.191505670547485352e-01 2.043930143117904663e-01 -1.819794028997421265e-01
-3.871335089206695557e-01 -9.531180560588836670e-02 -2.752364575862884521e-01
-1.129559278488159180e-01 2.429033964872360229e-01 -1.774184852838516235e-01
-7.349689602851867676e-01 1.250994801521301270e-01 2.556183338165283203e-01
-7.668927907943725586e-01 -4.167582839727401733e-03 -2.475877106189727783e-01
-1.588371098041534424e-01 -1.198237761855125427e-02 -3.453928828239440918e-01
-3.004692494869232178e-01 -1.665081828832626343e-03 -3.409923017024993896e-01
-3.686264157295227051e-03 2.765149474143981934e-01 5.419585853815078735e-02
-2.686027288436889648e-01 1.429854184389114380e-01 2.906887233257293701e-01
2.313640713691711426e-01 1.429129987955093384e-01 2.139431536197662354e-01
-6.116430759429931641e-01 -1.244523525238037109e-01 -1.156680844724178314e-02
3.210222721099853516e-01 -1.441967487335205078e-01 2.864358760416507721e-02
4.844183921813964844e-01 -1.306983232498168945e-01 -5.114853009581565857e-02
-2.980406284332275391e-01 -7.557828724384307861e-02 1.956952959299087524e-01
-6.814298629760742188e-01 1.015546470880508423e-01 -2.837524712085723877e-01
-1.865245848894119263e-01 2.969059348106384277e-01 4.153577983379364014e-02
-1.350197196006774902e-02 1.378701478242874146e-01 2.702104747295379639e-01
-6.043798923492431641e-01 -7.999633252620697021e-02 -2.344273626804351807e-01
-8.351801335811614990e-02 1.852083653211593628e-01 2.565648853778839111e-01
-1.090585470199584961e+00 1.827916502952575684e-01 6.832702457904815674e-02
1.345752477645874023e-01 -1.261677592992782593e-01 1.154218390583992004e-01
-6.851955652236938477e-01 1.580031514167785645e-01 2.616156935691833496e-01
-7.894402742385864258e-01 -5.402763560414314270e-02 9.913963824510574341e-02
3.264931440353393555e-01 2.114801555871963501e-01 -4.839541018009185791e-02
4.498053789138793945e-01 -5.875152722001075745e-02 -2.497782409191131592e-01
-1.583799719810485840e-02 7.095333933830261230e-02 -3.341066837310791016e-01
-6.214232444763183594e-01 3.024822771549224854e-01 2.487434633076190948e-02
5.962690114974975586e-01 6.922406703233718872e-02 6.872095167636871338e-02
-2.606117129325866699e-01 2.786079943180084229e-01 -1.147694438695907593e-01
-2.875293195247650146e-01 9.454716742038726807e-02 2.950466275215148926e-01
-2.650346755981445312e-01 -1.179953813552856445e-01 1.354674249887466431e-01
-3.207926452159881592e-02 2.302415370941162109e-01 2.018060684204101562e-01
-5.852627754211425781e-02 2.812428772449493408e-01 -3.533891588449478149e-02
-4.002184867858886719e-01 -2.124676480889320374e-02 -3.256648182868957520e-01
-3.580174744129180908e-01 2.971430718898773193e-01 -5.808524042367935181e-02
-1.047402545809745789e-01 1.909295618534088135e-01 2.555184960365295410e-01
6.419450640678405762e-01 4.818590730428695679e-02 -1.184127032756805420e-01
-4.740651249885559082e-01 -7.954061031341552734e-02 1.659300923347473145e-01
-7.399355173110961914e-01 1.292037218809127808e-01 -2.603895068168640137e-01
-8.182160854339599609e-01 2.359707057476043701e-01 1.826219558715820312e-01
-8.016604781150817871e-01 2.800847887992858887e-01 8.551727980375289917e-02
-4.779211580753326416e-01 -1.475606262683868408e-01 -2.852222509682178497e-02
-1.305915266275405884e-01 2.863763272762298584e-01 -4.877365380525588989e-02
-9.423251748085021973e-01 6.373395770788192749e-02 -2.000092267990112305e-01
-2.504783868789672852e-01 2.578303217887878418e-01 -1.651513129472732544e-01
-4.397190809249877930e-01 -1.048070192337036133e-01 -2.510057091712951660e-01
-1.941372901201248169e-01 9.685410559177398682e-02 2.929359674453735352e-01
2.079463005065917969e-01 2.140600085258483887e-01 1.402867883443832397e-01
-4.133391380310058594e-02 -1.712188124656677246e-01 1.339167542755603790e-02
-1.035115003585815430e+00 1.949745714664459229e-01 -8.339556306600570679e-02
-5.579832792282104492e-01 2.445083856582641602e-01 -1.833744198083877563e-01
-7.481341361999511719e-01 2.543506920337677002e-01 -1.272199153900146484e-01
2.480972409248352051e-01 9.684976190328598022e-03 2.219484299421310425e-01
4.038739204406738281e-02 1.903967261314392090e-01 -2.343464493751525879e-01
2.048212289810180664e-02 -1.785261034965515137e-01 -2.744022384285926819e-02
-2.052342891693115234e-02 -1.821044087409973145e-01 -1.051460653543472290e-01
-2.911217808723449707e-01 1.183847784996032715e-01 -3.206205368041992188e-01
3.740717172622680664e-01 1.560959964990615845e-01 1.423482149839401245e-01
-1.040981292724609375e+00 2.773974090814590454e-02 5.889393389225006104e-02
3.593413233757019043e-01 1.518124938011169434e-01 -1.879659295082092285e-01
1.514427959918975830e-01 2.525743842124938965e-01 -1.948502473533153534e-02
-1.035721659660339355e+00 2.153411656618118286e-01 8.017148077487945557e-02
3.686190843582153320e-01 1.772647947072982788e-01 1.123449876904487610e-01
-5.208794474601745605e-01 -1.421790570020675659e-01 -9.645263850688934326e-02
-5.495907664299011230e-01 -1.094649881124496460e-01 8.717998862266540527e-02
-8.947923779487609863e-01 -1.182740554213523865e-02 1.148690655827522278e-01
2.398024797439575195e-01 -6.587269902229309082e-02 1.754046976566314697e-01
-5.529651045799255371e-01 4.734830558300018311e-02 2.669339776039123535e-01
-1.052437305450439453e+00 2.160969376564025879e-02 2.080260775983333588e-02
-2.887457609176635742e-01 -1.653650701045989990e-01 -1.426073908805847168e-01
-2.312913388013839722e-01 -1.712555289268493652e-01 -1.343389451503753662e-01
1.883454024791717529e-01 2.113216817378997803e-01 -1.556558012962341309e-01
-6.550341844558715820e-01 2.668780088424682617e-01 -1.248034015297889709e-01
-8.649087548255920410e-01 1.694729477167129517e-01 2.165032029151916504e-01
-5.352206230163574219e-01 1.757517755031585693e-01 2.746176123619079590e-01
-2.528753280639648438e-01 1.539499014616012573e-01 2.870647311210632324e-01
1.563893258571624756e-02 -7.060329616069793701e-02 -3.220525979995727539e-01
2.432029545307159424e-01 -1.543016582727432251e-01 2.757045812904834747e-02
1.456831991672515869e-01 -1.112377196550369263e-01 1.378900557756423950e-01
6.485044360160827637e-01 1.610992103815078735e-02 -1.360416710376739502e-01
5.432463884353637695e-01 -7.737818360328674316e-02 -1.897930055856704712e-01
-4.372248351573944092e-01 -5.431113019585609436e-02 -3.028814494609832764e-01
-9.419721961021423340e-01 2.318859249353408813e-01 -8.506735414266586304e-02
1.408768296241760254e-01 8.670546859502792358e-02 2.547256648540496826e-01
4.179567694664001465e-01 3.653138503432273865e-02 -2.648731470108032227e-01
-1.680426299571990967e-01 -1.523743420839309692e-01 6.900702416896820068e-02
-8.744148015975952148e-01 2.531059384346008301e-01 -7.587415724992752075e-02
-1.078302145004272461e+00 2.009763419628143311e-01 -2.976955845952033997e-03
-4.900196194648742676e-01 -1.389888375997543335e-01 1.683986373245716095e-02
-1.443154215812683105e-01 2.265242189168930054e-01 -2.108834385871887207e-01
1.750573515892028809e-03 5.477499961853027344e-02 -3.377785384654998779e-01
4.972118735313415527e-01 1.586163341999053955e-01 -1.148330699652433395e-02
5.277341604232788086e-02 1.581922024488449097e-01 2.499869465827941895e-01
-4.915339052677154541e-01 1.699221134185791016e-01 2.798349261283874512e-01
-1.658712029457092285e-01 -9.984956681728363037e-02 1.713124215602874756e-01
-5.820906758308410645e-01 2.645779028534889221e-02 -3.087358176708221436e-01
-1.472891867160797119e-02 -8.627820014953613281e-02 1.866287738084793091e-01
6.402124166488647461e-01 5.226668342947959900e-02 2.923710830509662628e-02
-4.840366244316101074e-01 3.624330833554267883e-02 2.699529528617858887e-01
6.140209436416625977e-01 -8.764836937189102173e-03 6.227387487888336182e-02
6.210562586784362793e-01 6.106820330023765564e-02 4.776377975940704346e-02
-1.682013273239135742e-03 9.031385183334350586e-03 -3.440659642219543457e-01
2.079357206821441650e-02 9.878172725439071655e-02 -3.184672594070434570e-01
-1.031119108200073242e+00 7.367578893899917603e-02 -1.479337066411972046e-01
-7.585427761077880859e-01 9.617200493812561035e-02 -2.666512727737426758e-01
-6.878426074981689453e-01 2.810648977756500244e-01 1.377907097339630127e-01
-3.856858909130096436e-01 1.673092991113662720e-01 -2.851908802986145020e-01
-1.833576261997222900e-01 1.148964464664459229e-02 2.707759737968444824e-01
5.710491538047790527e-01 -4.338001832365989685e-02 -1.975503414869308472e-01
6.694821715354919434e-01 4.316707700490951538e-02 -5.638356506824493408e-02
4.494093060493469238e-01 -1.390232741832733154e-01 -1.155851408839225769e-01
2.039553821086883545e-01 -1.749480068683624268e-01 -1.005699187517166138e-01
-5.430979728698730469e-01 -7.504567503929138184e-02 1.571048945188522339e-01
-6.036698818206787109e-01 3.034301996231079102e-01 4.470727592706680298e-02
7.365232706069946289e-02 2.590832710266113281e-01 9.098678827285766602e-02
4.484738707542419434e-01 9.161417186260223389e-02 -2.190075367689132690e-01
4.300313591957092285e-01 -1.445858627557754517e-01 -6.570354104042053223e-02
-8.276214003562927246e-01 8.776266872882843018e-02 2.262262105941772461e-01
8.190053701400756836e-02 2.382738292217254639e-01 1.503412127494812012e-01
4.243524670600891113e-01 5.893256142735481262e-02 -2.525219023227691650e-01
1.866999864578247070e-01 1.975492835044860840e-01 -1.839143186807632446e-01
-5.242238640785217285e-01 -1.212317198514938354e-01 -1.900074332952499390e-01
1.206329464912414551e-02 -1.464649587869644165e-01 8.736731857061386108e-02
-2.847671508789062500e-01 2.427558153867721558e-01 2.256015837192535400e-01
-1.771342754364013672e-01 -1.326061636209487915e-01 1.152776554226875305e-01
-1.411848813295364380e-01 -7.739955186843872070e-02 2.002212703227996826e-01
4.050816893577575684e-01 -1.449394971132278442e-01 -1.384413391351699829e-01
-6.221532225608825684e-01 -1.015196144580841064e-01 -1.880421340465545654e-01
-8.734968304634094238e-01 -1.157167926430702209e-02 -1.919480115175247192e-01
-1.643087267875671387e-01 2.657689750194549561e-01 -1.348072141408920288e-01
-9.656746387481689453e-01 2.141124904155731201e-01 -1.039625033736228943e-01
-3.160705864429473877e-01 1.622892022132873535e-01 2.861432135105133057e-01
-5.137890577316284180e-02 2.833279669284820557e-01 -5.201241001486778259e-03
-4.991518557071685791e-01 -1.079660505056381226e-01 -2.281850874423980713e-01
-7.217124700546264648e-01 1.376368105411529541e-02 -2.714550495147705078e-01
-1.099478721618652344e+00 1.372069120407104492e-01 -8.228996396064758301e-02
-4.860682487487792969e-01 1.181796938180923462e-01 -3.083149790763854980e-01
-9.702302217483520508e-01 1.854694932699203491e-01 1.671649664640426636e-01
5.963839292526245117e-01 1.064408794045448303e-01 1.876654103398323059e-03
-5.073584318161010742e-01 -7.725828886032104492e-02 1.622529625892639160e-01
-1.066586256027221680e+00 1.414947807788848877e-01 -1.126891523599624634e-01
3.251186609268188477e-01 -1.588748842477798462e-01 -3.439192101359367371e-02
-1.398152112960815430e-02 -1.693738996982574463e-01 -1.843992620706558228e-01
-9.215213060379028320e-01 2.447659969329833984e-01 -6.745315343141555786e-02
4.087502360343933105e-01 -1.311365962028503418e-01 -1.821103543043136597e-01
-2.284337580204010010e-02 2.804278433322906494e-01 3.167266398668289185e-02
-8.170892596244812012e-01 6.735597550868988037e-02 2.211570739746093750e-01
-3.436443805694580078e-01 2.716352045536041260e-01 -1.404029577970504761e-01
4.366899728775024414e-01 -1.234247237443923950e-01 2.565904147922992706e-02
-5.083284378051757812e-01 -1.113186031579971313e-01 9.784930944442749023e-02
6.278228759765625000e-02 -9.499798715114593506e-02 -3.028887212276458740e-01
1.680757999420166016e-01 2.127990126609802246e-01 -1.609586179256439209e-01
-1.627808958292007446e-01 3.245300427079200745e-02 2.793565392494201660e-01
2.463622391223907471e-01 1.508153975009918213e-01 2.036182880401611328e-01
-4.477400183677673340e-01 -2.829908207058906555e-02 2.300320267677307129e-01
2.118230164051055908e-01 6.170556694269180298e-02 -3.083123266696929932e-01
3.217577338218688965e-01 1.768888682126998901e-01 -1.633195728063583374e-01
-4.386958479881286621e-01 1.956061422824859619e-01 -2.565563619136810303e-01
2.455383539199829102e-03 -4.699661210179328918e-02 -3.336792886257171631e-01
-3.068451881408691406e-01 2.185874283313751221e-01 -2.328985929489135742e-01
-1.119571685791015625e+00 1.413094848394393921e-01 6.226108223199844360e-02
6.677722334861755371e-01 2.561772614717483521e-02 -9.870646148920059204e-02
5.238409638404846191e-01 -1.203536838293075562e-01 -6.081182509660720825e-02
1.095090508460998535e-01 -1.743396669626235962e-01 -1.592761836946010590e-02
1.875748634338378906e-01 1.685051172971725464e-01 2.088274061679840088e-01
-4.603914618492126465e-01 2.379477024078369141e-01 2.358033955097198486e-01
-8.573380112648010254e-01 9.946916252374649048e-03 -2.184669822454452515e-01
4.202246665954589844e-02 2.708976566791534424e-01 4.246262460947036743e-02
7.358962297439575195e-02 3.925416991114616394e-02 -3.349682092666625977e-01
-4.902151525020599365e-01 -1.386280357837677002e-01 -1.521430164575576782e-01
-9.290636181831359863e-01 8.404830098152160645e-02 1.888641715049743652e-01
-3.879234194755554199e-03 9.589371830224990845e-02 -3.224043846130371094e-01
4.131618738174438477e-01 1.639623045921325684e-01 -1.326605826616287231e-01
6.048917174339294434e-01 -5.170312896370887756e-02 3.476697206497192383e-02
5.098924040794372559e-01 1.516711115837097168e-01 -4.777798056602478027e-02
-8.062747716903686523e-01 2.542722225189208984e-01 -1.067391857504844666e-01
1.294448971748352051e-02 -1.506247520446777344e-01 -2.333442121744155884e-01
-6.333656907081604004e-01 1.935147121548652649e-02 2.381178140640258789e-01
-6.639580726623535156e-01 4.672078788280487061e-02 2.484757006168365479e-01
-3.854157924652099609e-01 6.883230060338973999e-02 2.890184819698333740e-01
-7.271858453750610352e-01 -8.968786895275115967e-02 -1.482245624065399170e-01
-1.339701712131500244e-01 2.713880240917205811e-01 1.493346840143203735e-01
-8.927024602890014648e-01 2.437276244163513184e-01 1.394391804933547974e-01
-8.189102411270141602e-01 1.844202876091003418e-01 -2.025385051965713501e-01
4.913112521171569824e-02 -6.421522796154022217e-02 -3.237122595310211182e-01
-2.106862068176269531e-01 2.547578215599060059e-01 1.999724656343460083e-01
-8.734647035598754883e-01 2.388379871845245361e-01 -1.096904799342155457e-01
-7.552972435951232910e-02 -1.506319642066955566e-01 7.908902317285537720e-02
-1.001584410667419434e+00 8.074426651000976562e-02 1.510879546403884888e-01
-1.681681722402572632e-01 6.046757102012634277e-02 2.876820564270019531e-01
-3.502201139926910400e-01 -6.061318889260292053e-02 2.084453254938125610e-01
6.529538035392761230e-01 -4.667382687330245972e-03 2.316661737859249115e-02
-1.936188340187072754e-01 2.197648137807846069e-01 2.422547340393066406e-01
2.585747241973876953e-01 -1.572714745998382568e-01 -1.788627654314041138e-01
-4.191347956657409668e-01 2.576770484447479248e-01 -1.706662029027938843e-01
-5.554071068763732910e-01 -8.307728171348571777e-02 -2.472250610589981079e-01
-9.371259808540344238e-01 2.085052430629730225e-01 -1.290439069271087646e-01
1.754392385482788086e-01 -1.307214051485061646e-01 -2.529546022415161133e-01
-6.666882038116455078e-01 2.937673628330230713e-01 9.697727113962173462e-02
-6.512356400489807129e-01 1.269326657056808472e-01 2.706225514411926270e-01
-7.426150441169738770e-01 5.647198855876922607e-02 2.360936403274536133e-01
-9.308175742626190186e-02 2.647320330142974854e-01 -1.211029812693595886e-01
1.511958241462707520e-01 2.410876899957656860e-01 -8.977507799863815308e-02
-6.711418628692626953e-01 2.911595702171325684e-01 -4.358317703008651733e-02
4.442746639251708984e-01 2.788147702813148499e-02 1.676287353038787842e-01
-9.597384929656982422e-01 -2.480847015976905823e-02 -8.638487756252288818e-02
2.029377222061157227e-01 -2.218751981854438782e-02 2.158458083868026733e-01
-6.730031967163085938e-01 -9.480415284633636475e-02 6.612239778041839600e-02
3.094579577445983887e-01 -1.356576234102249146e-01 -2.148123234510421753e-01
2.072737514972686768e-01 2.253832221031188965e-01 -1.081651449203491211e-01
2.749992012977600098e-01 -5.679884180426597595e-02 1.759682148694992065e-01
8.928930759429931641e-02 -1.807599812746047974e-01 -6.706464290618896484e-02
3.715860247611999512e-01 8.922291547060012817e-02 1.907629668712615967e-01
-5.152078866958618164e-01 2.281257212162017822e-01 -2.122766673564910889e-01
-7.568266391754150391e-01 1.611896008253097534e-01 2.472038865089416504e-01
1.503280699253082275e-01 -1.352884024381637573e-01 9.592582285404205322e-02
1.242198646068572998e-01 2.398099452257156372e-01 -1.108015999197959900e-01
-2.109097540378570557e-01 -1.695974320173263550e-01 -1.529846191406250000e-01
-9.750957489013671875e-01 1.642228662967681885e-02 1.041533127427101135e-01
-1.095807075500488281e+00 1.569120585918426514e-01 8.954872190952301025e-02
-1.293086111545562744e-01 -1.801219135522842407e-01 -6.943178921937942505e-02
-3.206331431865692139e-01 3.049776554107666016e-01 3.513348102569580078e-02
4.636132717132568359e-01 5.936493724584579468e-02 -2.366000264883041382e-01
3.686497807502746582e-01 -1.163295060396194458e-01 7.408837974071502686e-02
-1.065708160400390625e+00 2.011000365018844604e-01 7.120096683502197266e-02
3.636174798011779785e-01 -6.225011870265007019e-02 1.474722623825073242e-01
-5.480427145957946777e-01 2.287424355745315552e-01 -2.080108672380447388e-01
-3.272344470024108887e-01 3.039807081222534180e-01 6.196258962154388428e-02
-3.815336525440216064e-02 1.375488489866256714e-01 2.737230956554412842e-01
-5.849508047103881836e-01 3.005117475986480713e-01 8.812922239303588867e-02
1.682962477207183838e-02 2.313876450061798096e-01 1.867472529411315918e-01
-8.129391670227050781e-01 2.500328421592712402e-01 1.639810353517532349e-01
-7.678124308586120605e-01 2.853362560272216797e-01 -1.834988221526145935e-02
-2.467838376760482788e-01 2.922552525997161865e-01 1.119192019104957581e-01
-1.106945633888244629e+00 1.811700016260147095e-01 1.453693397343158722e-02
-2.966876626014709473e-01 -9.085215628147125244e-02 1.757266819477081299e-01
-1.016541719436645508e+00 5.479637905955314636e-02 -1.509229093790054321e-01
-5.736286640167236328e-01 2.781204879283905029e-01 -1.125613003969192505e-01
-9.215117990970611572e-02 -1.656998395919799805e-01 3.313854336738586426e-02
-1.907933503389358521e-01 -1.540061980485916138e-01 6.160028278827667236e-02
-5.994242429733276367e-01 4.069165512919425964e-02 2.569218575954437256e-01
-3.524439036846160889e-02 -8.271171152591705322e-02 -3.158499598503112793e-01
2.867434620857238770e-01 -1.183147281408309937e-01 -2.481258362531661987e-01
1.815282404422760010e-01 1.833576112985610962e-01 1.966082155704498291e-01
-4.833639860153198242e-01 -7.873809337615966797e-02 -2.724193930625915527e-01
-9.750551581382751465e-01 1.405606269836425781e-01 1.796396076679229736e-01
-1.421694159507751465e-01 6.699027866125106812e-02 2.877043783664703369e-01
-9.837606549263000488e-01 1.586038619279861450e-01 1.723242700099945068e-01
-3.735610246658325195e-01 4.554111510515213013e-02 -3.377695381641387939e-01
-7.585320472717285156e-01 2.741256058216094971e-01 1.327831298112869263e-01
1.556760072708129883e-01 1.617676913738250732e-01 2.235460132360458374e-01
6.156013011932373047e-01 8.130171895027160645e-02 3.043977729976177216e-02
8.165621757507324219e-02 1.174340471625328064e-01 2.607344090938568115e-01
-4.563409090042114258e-01 3.044921457767486572e-01 8.110509812831878662e-02
8.854296803474426270e-02 1.593174189329147339e-01 -2.619431912899017334e-01
-7.131092548370361328e-01 1.558622866868972778e-01 -2.519146800041198730e-01
-8.894274234771728516e-01 7.853557914495468140e-02 2.021408975124359131e-01
-4.750491976737976074e-01 2.597552537918090820e-01 -1.641181111335754395e-01
-3.027241528034210205e-01 2.980477213859558105e-01 -4.431469738483428955e-02
-1.978272795677185059e-01 2.926292121410369873e-01 -4.279136657714843750e-02
4.486455917358398438e-01 1.651097685098648071e-01 6.606973707675933838e-02
-5.790535211563110352e-01 1.100840717554092407e-01 -2.996199131011962891e-01
-3.511095345020294189e-01 -1.542027443647384644e-01 2.073699049651622772e-02
-8.356980085372924805e-01 2.676559090614318848e-01 1.131662204861640930e-01
5.644541978836059570e-01 8.133650571107864380e-02 8.865585923194885254e-02
-9.537569284439086914e-01 -3.158833459019660950e-02 -6.185095757246017456e-02
-6.590182781219482422e-01 2.583695948123931885e-01 -1.421197652816772461e-01
-5.494489669799804688e-01 1.549070626497268677e-01 -2.804223299026489258e-01
-6.027743816375732422e-01 9.145687520503997803e-02 2.743462026119232178e-01
3.283773064613342285e-01 1.008713841438293457e-01 2.025656253099441528e-01
-3.876927495002746582e-01 -1.550514101982116699e-01 -2.504479140043258667e-03
1.522948741912841797e-01 -8.620935678482055664e-02 1.696491241455078125e-01
-2.430813610553741455e-01 -1.347345262765884399e-01 -2.445572614669799805e-01
2.905756831169128418e-01 9.691165387630462646e-02 -2.708819508552551270e-01
3.683194518089294434e-03 2.192968428134918213e-01 -1.981379985809326172e-01
5.563582777976989746e-01 6.575771421194076538e-02 -1.820605844259262085e-01
-1.125504612922668457e+00 1.555238515138626099e-01 3.255393356084823608e-02
4.780720472335815430e-01 9.561911225318908691e-03 -2.496105581521987915e-01
-5.305933952331542969e-01 1.493610143661499023e-01 -2.863647937774658203e-01
4.730861186981201172e-01 -1.087815612554550171e-01 -1.904664635658264160e-01
2.009482085704803467e-01 4.878791049122810364e-02 2.416993081569671631e-01
-4.120681285858154297e-01 2.719370722770690918e-01 1.875874996185302734e-01
-4.273737967014312744e-02 2.662542760372161865e-01 -9.954089671373367310e-02
-6.435247063636779785e-01 2.601473033428192139e-01 1.911819428205490112e-01
-5.884174108505249023e-01 1.267895102500915527e-01 -2.911063432693481445e-01
2.865964174270629883e-01 2.467593550682067871e-02 -3.043235242366790771e-01
-4.791738986968994141e-01 -1.019409596920013428e-01 -2.442940771579742432e-01
7.259780168533325195e-02 2.579699158668518066e-01 -7.231104373931884766e-02
-1.882494688034057617e-01 5.053183436393737793e-02 -3.453378379344940186e-01
-5.935695767402648926e-02 2.815425693988800049e-01 7.313274592161178589e-02
1.061358451843261719e-01 1.848261803388595581e-01 2.182934582233428955e-01
-3.210455775260925293e-01 -1.546544209122657776e-02 -3.361437916755676270e-01
-1.848343610763549805e-01 -1.583392173051834106e-01 -2.015696167945861816e-01
-1.030055165290832520e+00 2.270412892103195190e-01 3.062763623893260956e-02
-6.936942338943481445e-01 -1.026325225830078125e-01 -1.324612200260162354e-01
-6.900981068611145020e-01 2.974547147750854492e-01 2.716095559298992157e-02
3.819732069969177246e-01 -1.518007218837738037e-01 -4.615559428930282593e-02
-3.829165697097778320e-01 3.068175613880157471e-01 2.464521490037441254e-02
-1.988998055458068848e-01 -6.702320277690887451e-02 2.108222544193267822e-01
-3.089432120323181152e-01 -7.160152494907379150e-02 -3.094479441642761230e-01
-3.818482160568237305e-03 2.696611583232879639e-01 9.867130964994430542e-02
-4.370238482952117920e-01 2.825693786144256592e-01 -1.127320602536201477e-01
-7.782476544380187988e-01 2.789552807807922363e-01 -4.498275741934776306e-02
-1.745776683092117310e-01 -1.290617436170578003e-01 -2.625543475151062012e-01
-3.364776968955993652e-01 3.020637631416320801e-01 8.303726464509963989e-02
-9.123455286026000977e-01 2.909977734088897705e-02 -2.025003582239151001e-01
2.758921980857849121e-01 -9.757915139198303223e-02 1.316629797220230103e-01
5.160239338874816895e-02 1.620634794235229492e-01 -2.656620740890502930e-01
-3.616855740547180176e-01 -1.401596218347549438e-01 -2.060806453227996826e-01
-6.100302338600158691e-01 4.625560343265533447e-02 -3.051131069660186768e-01
-5.571420192718505859e-01 -1.256624460220336914e-01 -1.575777530670166016e-01
-1.871872246265411377e-01 2.495785951614379883e-01 -1.751637905836105347e-01
1.667365431785583496e-01 1.879046559333801270e-01 -2.067207992076873779e-01
-3.220208883285522461e-01 2.873168587684631348e-01 1.449602991342544556e-01
-8.674801588058471680e-01 2.694010734558105469e-01 -1.832682639360427856e-02
-1.148232445120811462e-01 1.062408983707427979e-01 2.877798080444335938e-01
9.788396954536437988e-02 1.429674774408340454e-01 2.484965026378631592e-01
2.802227735519409180e-01 1.897457987070083618e-01 -1.588401347398757935e-01
1.396281123161315918e-01 1.697620153427124023e-01 -2.391359955072402954e-01
-9.693802595138549805e-01 2.485834509134292603e-01 3.773456066846847534e-02
-1.685245782136917114e-01 2.242355048656463623e-01 -2.170815020799636841e-01
-8.354974985122680664e-01 -1.435078307986259460e-02 -2.099564522504806519e-01
-2.776899635791778564e-01 -9.310823678970336914e-02 -2.947999835014343262e-01
-2.127027362585067749e-01 2.266539186239242554e-01 -2.172894924879074097e-01
5.084902644157409668e-01 -2.069224044680595398e-02 1.229340210556983948e-01
-1.041030049324035645e+00 1.957941502332687378e-01 1.105774566531181335e-01
3.369004130363464355e-01 1.275647729635238647e-01 -2.288387566804885864e-01
-6.503746509552001953e-01 2.734355926513671875e-01 1.655839383602142334e-01
7.907330989837646484e-02 1.382725685834884644e-01 2.543705999851226807e-01
5.745180249214172363e-01 -7.523659616708755493e-03 9.232037514448165894e-02
1.016437113285064697e-01 2.326765954494476318e-01 -1.415040194988250732e-01
7.584494352340698242e-02 1.640120595693588257e-01 2.417210936546325684e-01
2.348497509956359863e-02 -1.695424765348434448e-01 -1.833925843238830566e-01
2.521497309207916260e-01 -1.354671567678451538e-01 7.380589097738265991e-02
5.424222350120544434e-01 1.369867771863937378e-01 4.808144643902778625e-03
-5.603539943695068359e-02 -1.675150394439697266e-01 2.804523892700672150e-02
-5.445035099983215332e-01 -4.468068853020668030e-02 1.976220905780792236e-01
2.982508540153503418e-01 -1.661450415849685669e-01 -8.477128297090530396e-02
4.564067721366882324e-01 1.637361347675323486e-01 -9.085021913051605225e-02
-4.170624315738677979e-01 2.346891164779663086e-01 2.398584187030792236e-01
3.368395566940307617e-02 2.516681551933288574e-01 -1.165476515889167786e-01
-2.185091227293014526e-01 -1.587124019861221313e-01 -1.936879754066467285e-01
5.059285759925842285e-01 1.389362066984176636e-01 -1.086360588669776917e-01
3.821612596511840820e-01 -6.472854316234588623e-02 -2.692065238952636719e-01
-4.370274543762207031e-01 -1.545790731906890869e-01 -9.156294912099838257e-02
6.612578034400939941e-02 2.675674855709075928e-01 3.627779334783554077e-02
5.032435059547424316e-02 2.626242637634277344e-01 -6.542396545410156250e-02
1.579279303550720215e-01 1.023948565125465393e-02 2.397122979164123535e-01
-2.993400692939758301e-01 -1.697755157947540283e-01 -7.897012680768966675e-02
2.040775120258331299e-01 3.636575490236282349e-02 -3.178246617317199707e-01
-1.518786549568176270e-01 2.708944380283355713e-01 -1.178694888949394226e-01
2.743951678276062012e-01 2.255943715572357178e-01 4.078992456197738647e-02
-1.759614050388336182e-02 -5.292716249823570251e-02 -3.320577144622802734e-01
-7.364286780357360840e-01 5.459487438201904297e-03 2.022714018821716309e-01
-2.374421209096908569e-01 2.918713688850402832e-01 -6.080134212970733643e-02
-7.265505790710449219e-01 2.097149640321731567e-01 2.309599816799163818e-01
4.099636077880859375e-01 6.444240361452102661e-02 1.814147979021072388e-01
-1.587053090333938599e-01 8.882349729537963867e-02 -3.342341780662536621e-01
1.752364933490753174e-01 1.161773055791854858e-01 2.415974736213684082e-01
5.873692631721496582e-01 2.338350191712379456e-02 -1.883676052093505859e-01
2.836369872093200684e-01 -4.013374820351600647e-02 1.871645599603652954e-01
-5.387643575668334961e-01 1.515954732894897461e-02 2.513759136199951172e-01
-1.004914760589599609e+00 2.296729534864425659e-01 -3.181374445557594299e-02
1.275313496589660645e-01 -1.445741504430770874e-01 -2.368586957454681396e-01
3.080270886421203613e-01 -1.639873981475830078e-01 -6.023223698139190674e-02
2.508873343467712402e-01 4.370545595884323120e-02 2.298927903175354004e-01
-2.923848032951354980e-01 -1.476913392543792725e-01 -2.068038731813430786e-01
-6.327019333839416504e-01 7.028564810752868652e-02 2.641358971595764160e-01
-7.944846153259277344e-01 2.139995396137237549e-01 2.119606733322143555e-01
3.403760194778442383e-01 1.855550408363342285e-01 1.162331327795982361e-01
-1.022581577301025391e+00 1.020575165748596191e-01 1.485861688852310181e-01
-7.539529204368591309e-01 2.877975702285766602e-01 7.867106050252914429e-02
-1.666377335786819458e-01 2.941040992736816406e-01 5.997096002101898193e-02
-1.307783126831054688e-01 -1.257578134536743164e-01 1.308128535747528076e-01
-6.784702539443969727e-01 1.313240230083465576e-01 -2.730186283588409424e-01
3.329063057899475098e-01 1.996399313211441040e-01 -9.743249416351318359e-02
-1.031162023544311523e+00 4.001900181174278259e-02 9.143093228340148926e-02
9.542164206504821777e-02 1.723482757806777954e-01 -2.459741234779357910e-01
-5.884797871112823486e-02 1.226096302270889282e-01 2.801310420036315918e-01
8.746388554573059082e-02 -5.571398511528968811e-02 2.087939083576202393e-01
-4.028652906417846680e-01 1.886325627565383911e-01 2.748897671699523926e-01
-7.293107509613037109e-01 1.038465127348899841e-01 2.547633945941925049e-01
1.621741056442260742e-01 2.452300786972045898e-01 7.737984508275985718e-02
9.650510549545288086e-02 1.331777125597000122e-01 -2.849744558334350586e-01
2.422007918357849121e-01 -1.345534622669219971e-01 -2.348205596208572388e-01
-3.946721553802490234e-03 -1.824395209550857544e-01 -7.124024629592895508e-02
5.218501091003417969e-01 -1.161064654588699341e-01 -1.301306784152984619e-01
-7.566134929656982422e-01 2.153412848711013794e-01 -1.869977861642837524e-01
4.053732156753540039e-01 1.327530592679977417e-01 -1.930753290653228760e-01
-1.356545388698577881e-01 1.229694783687591553e-01 -3.162681758403778076e-01
3.950402736663818359e-01 2.532564848661422729e-02 -2.757454216480255127e-01
5.428563356399536133e-01 1.186885684728622437e-01 -1.171521618962287903e-01
-3.468650579452514648e-01 -8.265665173530578613e-02 -2.951955795288085938e-01
3.836959600448608398e-01 -1.433684229850769043e-01 -1.622558832168579102e-01
-6.796088814735412598e-01 2.462735176086425781e-01 2.045826464891433716e-01
3.433457016944885254e-01 -3.422546759247779846e-02 1.758478283882141113e-01
-1.090759754180908203e+00 4.754484444856643677e-02 -4.517326876521110535e-02
-8.728336691856384277e-01 1.108576804399490356e-01 -2.274666130542755127e-01
-4.771210551261901855e-01 -1.926632598042488098e-02 2.341619431972503662e-01
-5.964921712875366211e-01 8.976107090711593628e-02 -3.030524849891662598e-01
-1.036787152290344238e+00 1.405127048492431641e-01 1.452582925558090210e-01
2.504301071166992188e-01 2.319511473178863525e-01 -2.832469344139099121e-02
4.747989773750305176e-02 2.558378875255584717e-01 -9.619960188865661621e-02
