4.599901735782623291e-01 2.170062065124511719e-02 6.569752097129821777e-02
-1.942282021045684814e-01 3.906729072332382202e-02 1.093042083084583282e-03
-3.002306073904037476e-02 1.196065321564674377e-01 -6.261149048805236816e-02
-2.590838074684143066e-01 4.959451779723167419e-02 -8.590164035558700562e-02
3.642792999744415283e-01 5.410967394709587097e-02 7.316805422306060791e-04
-1.143460050225257874e-01 1.482232660055160522e-01 6.045227125287055969e-02
3.379234969615936279e-01 6.951227039098739624e-02 7.066181395202875137e-03
2.215509116649627686e-01 8.684266358613967896e-02 1.431326866149902344e-01
8.675976842641830444e-02 1.405323892831802368e-01 4.348514229059219360e-02
6.203051283955574036e-02 1.092992424964904785e-01 -5.529586225748062134e-02
3.107012212276458740e-01 -2.744890749454498291e-02 5.798658728599548340e-02
-5.070917308330535889e-02 8.098010718822479248e-02 -1.114630773663520813e-01
3.822300434112548828e-01 -1.775198429822921753e-02 7.342208921909332275e-02
2.368064224720001221e-01 9.610086679458618164e-02 -5.783353466540575027e-03
-1.933675259351730347e-02 -1.719884574413299561e-02 -7.876264303922653198e-02
1.861607655882835388e-02 2.454405464231967926e-02 8.127096295356750488e-02
6.962343305349349976e-02 -3.071259707212448120e-02 -5.913180857896804810e-02
3.322800099849700928e-01 5.901657044887542725e-02 1.376855522394180298e-01
-2.248482704162597656e-01 1.132621467113494873e-01 -8.599416166543960571e-02
3.320944011211395264e-01 -2.810864895582199097e-02 5.573949217796325684e-02
-1.493777632713317871e-01 1.846617460250854492e-02 -1.089960858225822449e-01
-3.148429095745086670e-02 1.511312127113342285e-01 3.324499353766441345e-02
2.513551712036132812e-01 -1.899644732475280762e-02 -7.371843606233596802e-02
1.850514858961105347e-02 1.459151506423950195e-01 7.742188125848770142e-02
-2.266029715538024902e-01 4.439958930015563965e-02 -1.057749316096305847e-01
3.472751379013061523e-01 1.729778572916984558e-02 -4.106827825307846069e-02
2.474843263626098633e-01 1.020958051085472107e-01 1.271731406450271606e-01
-6.511688977479934692e-02 3.791523352265357971e-02 -1.306454390287399292e-01
1.916253566741943359e-01 1.017513424158096313e-01 1.370806396007537842e-01
1.254827380180358887e-01 -4.515722393989562988e-03 7.124339044094085693e-02
3.011236488819122314e-01 2.122983708977699280e-02 1.263039559125900269e-01
-6.074576824903488159e-02 1.381651610136032104e-01 -3.191979974508285522e-02
1.740909069776535034e-01 1.271322518587112427e-01 4.781588539481163025e-02
-2.890384942293167114e-02 1.007122173905372620e-01 -8.883871138095855713e-02
2.519887685775756836e-02 9.188394993543624878e-02 -8.804801106452941895e-02
2.990737855434417725e-01 -3.898119926452636719e-02 1.487315073609352112e-02
1.210075169801712036e-01 1.113776713609695435e-01 1.325909793376922607e-01
5.731091648340225220e-02 -2.968606352806091309e-02 -3.866140916943550110e-02
2.802487313747406006e-01 8.520051836967468262e-02 1.367903351783752441e-01
-3.491715341806411743e-02 1.337255835533142090e-01 -3.641076758503913879e-02
4.327797293663024902e-01 -1.170840114355087280e-02 1.625030301511287689e-02
2.710208296775817871e-03 3.715712577104568481e-03 4.383688047528266907e-02
-2.500492930412292480e-01 6.093137711286544800e-02 -4.511951003223657608e-03
-1.437842547893524170e-01 3.406926989555358887e-02 -1.249442473053932190e-01
1.388784945011138916e-01 5.711808055639266968e-02 -9.188034385442733765e-02
1.557864993810653687e-01 -1.842339336872100830e-02 -9.369003772735595703e-02
-2.190829515457153320e-01 7.812839746475219727e-02 3.698636218905448914e-02
-5.952625721693038940e-02 5.630015581846237183e-02 -1.266921013593673706e-01
-1.222949102520942688e-01 6.695932894945144653e-02 -1.250763833522796631e-01
-1.254715919494628906e-01 2.588938921689987183e-03 -7.348141074180603027e-02
-1.696751415729522705e-01 1.818512007594108582e-02 -3.351709246635437012e-02
-1.277984380722045898e-01 1.106305643916130066e-01 8.888290077447891235e-02
-1.648991703987121582e-01 1.511562466621398926e-01 2.075932919979095459e-02
-1.967073082923889160e-01 9.984116256237030029e-02 6.045501679182052612e-02
2.974650859832763672e-01 9.070272743701934814e-02 1.261212527751922607e-01
-1.908014118671417236e-01 2.888889051973819733e-02 -1.049121469259262085e-01
-2.219452857971191406e-01 7.128395140171051025e-02 -1.158170476555824280e-01
-1.741152107715606689e-01 1.634689047932624817e-02 -8.230311423540115356e-02
4.424457550048828125e-01 2.898907475173473358e-02 3.576469793915748596e-02
2.698822617530822754e-01 -3.496433794498443604e-02 3.338833898305892944e-02
2.351428866386413574e-01 5.159491300582885742e-02 1.418160796165466309e-01
3.830974400043487549e-01 -3.013157099485397339e-02 5.021385382860898972e-03
4.001642167568206787e-01 5.130661278963088989e-02 2.513037435710430145e-02
-3.039315342903137207e-03 1.340194419026374817e-02 -1.252471059560775757e-01
2.604936361312866211e-01 -3.937009721994400024e-02 -3.541586175560951233e-02
-2.427868843078613281e-01 1.346400380134582520e-01 -4.422552138566970825e-02
2.473234236240386963e-01 1.109481006860733032e-01 1.076889708638191223e-01
-5.443699657917022705e-03 6.053175032138824463e-02 1.077814996242523193e-01
2.924466431140899658e-01 -8.538842201232910156e-03 -6.595421582460403442e-02
2.893050611019134521e-01 9.213288128376007080e-02 1.980646699666976929e-02
-1.394269764423370361e-01 1.166677474975585938e-01 -8.277207612991333008e-02
1.601883471012115479e-01 -3.060919046401977539e-02 2.242886088788509369e-02
-5.522040277719497681e-02 1.123026758432388306e-01 1.092466190457344055e-01
-2.699054181575775146e-01 8.545929193496704102e-02 9.432332590222358704e-03
2.292306721210479736e-01 -2.199829369783401489e-02 6.208737939596176147e-02
1.328569799661636353e-01 1.343254446983337402e-01 8.575316518545150757e-02
-1.647479832172393799e-01 9.435157477855682373e-02 -1.082482337951660156e-01
5.194053053855895996e-03 1.245302036404609680e-01 -4.510605335235595703e-02
2.811910808086395264e-01 -3.594914823770523071e-02 -4.096968099474906921e-02
-2.866277396678924561e-01 1.135053336620330811e-01 6.521133705973625183e-03
4.251261949539184570e-01 -1.386626809835433960e-02 6.498463451862335205e-02
2.532014846801757812e-01 -2.377104014158248901e-03 9.860023856163024902e-02
-2.114101052284240723e-01 5.741621926426887512e-02 1.926831156015396118e-02
-2.299709320068359375e-01 4.762664809823036194e-02 -1.134398765861988068e-02
-1.932809650897979736e-01 2.304178848862648010e-02 -4.636101052165031433e-02
2.527415379881858826e-02 5.154131352901458740e-02 -1.191692575812339783e-01
-6.142022460699081421e-02 1.491310894489288330e-01 4.785705357789993286e-03
3.332330286502838135e-02 1.136036217212677002e-01 -5.672474205493927002e-02
9.790135920047760010e-02 3.958735615015029907e-02 1.171304881572723389e-01
-1.813143491744995117e-01 1.492447108030319214e-01 -1.831272151321172714e-03
3.605793043971061707e-02 1.466984152793884277e-01 6.116677820682525635e-02
2.739215195178985596e-01 6.602910906076431274e-02 1.440729051828384399e-01
1.614255607128143311e-01 5.063759535551071167e-02 -9.021924436092376709e-02
4.479685425758361816e-01 3.397139906883239746e-02 5.453401058912277222e-02
2.775507867336273193e-01 1.044979766011238098e-01 1.062798202037811279e-01
1.311284452676773071e-01 -3.712702542543411255e-02 -3.536586835980415344e-02
-1.799421310424804688e-01 1.272252351045608521e-01 6.547612696886062622e-02
1.886579096317291260e-01 5.479291453957557678e-02 -7.899682968854904175e-02
2.424892187118530273e-01 -3.500808030366897583e-02 -5.443042889237403870e-02
1.360931247472763062e-01 2.794561721384525299e-02 1.146060675382614136e-01
-8.001879602670669556e-02 6.985901296138763428e-02 9.129740297794342041e-02
-1.795186698436737061e-01 3.927581012248992920e-02 -1.200133487582206726e-01
9.495331346988677979e-02 5.763661116361618042e-03 -1.151753738522529602e-01
-4.931595921516418457e-02 9.822377562522888184e-02 -9.508261084556579590e-02
-8.825867623090744019e-02 1.077474281191825867e-01 -8.945707231760025024e-02
7.324504852294921875e-02 4.356075823307037354e-02 1.149804592132568359e-01
9.245795011520385742e-02 8.733272552490234375e-02 -7.629595696926116943e-02
1.345370262861251831e-01 1.149100363254547119e-01 -1.813452877104282379e-02
1.378503739833831787e-01 -1.716065406799316406e-02 5.077063292264938354e-02
1.424639672040939331e-01 -2.631005644798278809e-02 2.957302331924438477e-02
3.099009096622467041e-01 9.503030776977539062e-02 1.097784563899040222e-01
2.521796226501464844e-01 1.130459904670715332e-01 6.706738471984863281e-02
-1.309307217597961426e-01 9.530654549598693848e-02 -1.065449938178062439e-01
3.362494409084320068e-01 9.099315106868743896e-02 8.473820984363555908e-02
-7.050115615129470825e-02 2.325173839926719666e-02 4.535485804080963135e-02
4.019817709922790527e-02 3.262915462255477905e-02 9.681497514247894287e-02
6.495061516761779785e-02 1.438802778720855713e-01 6.540004163980484009e-02
5.976210534572601318e-02 7.285658270120620728e-02 1.290342360734939575e-01
1.367486417293548584e-01 -3.184663504362106323e-02 -7.310167700052261353e-02
3.043358922004699707e-01 -4.002615809440612793e-02 -5.027043167501688004e-03
2.042923271656036377e-01 6.300667673349380493e-02 -6.652881205081939697e-02
1.605121940374374390e-01 1.013446673750877380e-01 1.386872380971908569e-01
1.211105883121490479e-01 -2.269626408815383911e-02 -9.181509166955947876e-02
1.975250840187072754e-01 1.112267374992370605e-02 -9.581419825553894043e-02
-2.770816683769226074e-01 1.326360851526260376e-01 -2.226465381681919098e-02
2.878601551055908203e-01 -4.018120467662811279e-02 -1.916866563260555267e-02
1.334027945995330811e-01 -3.559817373752593994e-02 -1.252220198512077332e-02
-1.734971106052398682e-01 6.100314483046531677e-02 -1.247113719582557678e-01
-2.676956951618194580e-01 5.917218327522277832e-02 -2.641637623310089111e-02
-1.826204359531402588e-01 5.794078484177589417e-02 3.709322959184646606e-02
2.788716554641723633e-01 8.582985401153564453e-02 -1.373441424220800400e-03
-5.062057077884674072e-02 1.229745373129844666e-01 -6.119185686111450195e-02
-1.533442735671997070e-01 1.205696910619735718e-01 7.846086472272872925e-02
-7.651010900735855103e-02 6.788518279790878296e-02 -1.226753219962120056e-01
1.638635993003845215e-03 1.492986679077148438e-01 4.041784256696701050e-02
-1.102649644017219543e-01 3.053101524710655212e-02 3.765217959880828857e-02
7.415794581174850464e-02 1.676957309246063232e-02 -1.196001991629600525e-01
2.432004809379577637e-01 -3.759769350290298462e-02 1.903837360441684723e-02
-1.138007640838623047e-02 4.056124761700630188e-02 8.954577893018722534e-02
4.222159981727600098e-01 1.754919439554214478e-02 1.067850142717361450e-01
3.270751237869262695e-01 1.099511981010437012e-02 1.173018366098403931e-01
-3.386240452527999878e-02 1.480810940265655518e-01 7.314149290323257446e-02
-1.740769147872924805e-01 1.079106330871582031e-01 7.177758961915969849e-02
-1.259098351001739502e-01 1.083214953541755676e-02 -1.436426118016242981e-02
-5.481649190187454224e-02 1.416694670915603638e-01 8.713339269161224365e-02
-1.145714893937110901e-01 1.205200776457786560e-01 -7.497633993625640869e-02
3.104386925697326660e-01 -2.872733771800994873e-02 -4.440826177597045898e-02
-3.100515902042388916e-01 8.837810158729553223e-02 -3.377518430352210999e-02
-2.254421114921569824e-01 3.265996649861335754e-02 -7.517611235380172729e-02
3.731243312358856201e-01 6.632623076438903809e-02 1.206467747688293457e-01
1.079533100128173828e-01 1.043759882450103760e-01 -4.819292202591896057e-02
3.130765259265899658e-01 9.776188433170318604e-02 7.422461360692977905e-02
2.096243500709533691e-01 -3.461021929979324341e-02 2.360479533672332764e-02
-2.008328735828399658e-01 3.109541162848472595e-02 -2.415212988853454590e-02
6.106086075305938721e-03 1.027145832777023315e-01 -7.933153212070465088e-02
3.036685287952423096e-01 5.602138862013816833e-02 -3.206718340516090393e-02
-1.382536292076110840e-01 3.868760913610458374e-02 3.555093333125114441e-02
1.613732725381851196e-01 1.284258812665939331e-01 9.731667488813400269e-02
3.464365378022193909e-02 8.215777575969696045e-03 6.380150467157363892e-02
2.819902300834655762e-01 4.524990171194076538e-02 -5.243988335132598877e-02
1.165145263075828552e-02 -2.025376260280609131e-02 -8.359960466623306274e-02
-3.205621987581253052e-02 5.741365253925323486e-03 -1.202627494931221008e-01
1.860407590866088867e-01 8.128289133310317993e-02 1.446764022111892700e-01
1.759736537933349609e-01 1.283745616674423218e-01 8.129265904426574707e-02
-9.537722915410995483e-02 8.763271570205688477e-02 -1.107843741774559021e-01
-1.066016629338264465e-01 -1.402653753757476807e-03 -7.743799686431884766e-02
3.785394728183746338e-01 7.608107477426528931e-02 8.067158609628677368e-02
1.356932520866394043e-02 1.382731646299362183e-01 9.953837096691131592e-02
1.016031801700592041e-01 1.086647510528564453e-01 1.336397975683212280e-01
4.427815079689025879e-01 1.542223989963531494e-02 9.459605813026428223e-02
-2.429769039154052734e-01 7.237496972084045410e-02 1.644376479089260101e-02
-1.094786003232002258e-01 3.043715283274650574e-02 -1.279407292604446411e-01
-2.005462050437927246e-01 1.114993616938591003e-01 -9.014192223548889160e-02
9.785383939743041992e-02 1.318198591470718384e-01 8.804053999483585358e-03
3.686817288398742676e-01 3.368480503559112549e-02 1.285188943147659302e-01
-3.021836578845977783e-01 1.025311052799224854e-01 -1.036817952990531921e-02
4.109122455120086670e-01 -8.658528327941894531e-03 8.240523934364318848e-02
-1.857406497001647949e-01 1.485284715890884399e-01 2.658957988023757935e-02
4.123912155628204346e-01 -1.242865622043609619e-02 -3.497003111988306046e-03
2.905870079994201660e-01 -2.460096031427383423e-02 6.394228339195251465e-02
1.275553405284881592e-01 1.235902756452560425e-01 -3.178869374096393585e-04
3.429748415946960449e-01 4.657236486673355103e-02 -2.169318683445453644e-02
-8.970522135496139526e-02 4.648742824792861938e-02 6.769445538520812988e-02
-1.494807898998260498e-01 1.088235527276992798e-02 -4.025723785161972046e-02
2.713729441165924072e-01 8.553832769393920898e-03 1.134352162480354309e-01
1.625063866376876831e-01 1.254294514656066895e-01 2.785126678645610809e-02
3.150266408920288086e-02 1.430567800998687744e-01 1.623515412211418152e-02
4.493428021669387817e-02 1.361255943775177002e-01 -3.379988949745893478e-03
-2.625910043716430664e-01 1.364224255084991455e-01 -1.384652685374021530e-03
-7.890755683183670044e-02 -1.829784363508224487e-03 -9.943842887878417969e-02
3.768321871757507324e-01 -1.837281137704849243e-02 -2.339737117290496826e-02
-6.076779216527938843e-02 1.146017163991928101e-01 -7.627047598361968994e-02
-1.697683632373809814e-01 1.425630152225494385e-01 -3.329871594905853271e-02
-3.118092715740203857e-01 1.019841283559799194e-01 -6.106404215097427368e-02
5.847848951816558838e-02 8.351666480302810669e-02 -8.928050100803375244e-02
-8.642643690109252930e-03 1.443150341510772705e-01 2.680464647710323334e-03
1.128262951970100403e-01 -3.520150482654571533e-02 -5.068021640181541443e-02
-5.201645195484161377e-02 5.105462297797203064e-02 8.618143945932388306e-02
1.603483706712722778e-01 1.056371480226516724e-01 -2.540246397256851196e-02
7.486126571893692017e-02 9.355092048645019531e-02 1.349662691354751587e-01
1.949773728847503662e-01 1.250885128974914551e-01 6.695584952831268311e-02
4.095510542392730713e-01 2.479126863181591034e-02 1.052501611411571503e-04
5.688935145735740662e-02 1.113272756338119507e-01 1.288445293903350830e-01
2.929305732250213623e-01 1.023304015398025513e-01 6.295415014028549194e-02
3.883937299251556396e-01 3.093195892870426178e-02 -9.522771462798118591e-03
2.202456593513488770e-01 1.198953390121459961e-01 8.784832060337066650e-02
1.180020272731781006e-01 2.811259776353836060e-02 -1.110977306962013245e-01
1.359037756919860840e-01 -3.149490058422088623e-02 9.703982621431350708e-03
-1.534289121627807617e-01 1.281209439039230347e-01 -6.559411436319351196e-02
-7.152826339006423950e-02 9.393613785505294800e-02 1.044914349913597107e-01
1.405384019017219543e-02 1.338720321655273438e-01 -2.163691632449626923e-02
-2.214795053005218506e-01 9.152515232563018799e-02 -1.069794520735740662e-01
-2.922806739807128906e-01 6.610994786024093628e-02 -5.254803225398063660e-02
-1.854300498962402344e-03 7.783421874046325684e-02 1.177591457962989807e-01
-2.756237089633941650e-01 5.515274405479431152e-02 -6.829972565174102783e-02
-9.970543533563613892e-02 6.159583479166030884e-02 -1.267447471618652344e-01
-2.169430255889892578e-01 1.429750621318817139e-01 -2.444039657711982727e-02
1.931168735027313232e-01 -2.645554393529891968e-02 -7.908319681882858276e-02
1.768168807029724121e-01 -3.946486860513687134e-02 -1.639490015804767609e-02
7.589687407016754150e-02 -3.078816831111907959e-02 -2.451394870877265930e-02
3.569084703922271729e-01 7.117476314306259155e-03 1.119735687971115112e-01
2.399410605430603027e-01 -3.134911507368087769e-02 4.080123826861381531e-02
9.480051696300506592e-02 7.608529925346374512e-02 1.358784884214401245e-01
-8.578538894653320312e-03 6.862031668424606323e-02 -1.146815493702888489e-01
-4.057443141937255859e-02 1.497438251972198486e-01 1.583511941134929657e-02
-1.617022454738616943e-01 1.485849618911743164e-01 -1.074844412505626678e-02
-3.715640306472778320e-02 8.487832546234130859e-02 1.114113479852676392e-01
-1.121746674180030823e-01 1.477419137954711914e-01 -1.237762160599231720e-02
2.103532552719116211e-01 -4.089989513158798218e-02 -1.330933533608913422e-02
2.922748029232025146e-01 4.700192809104919434e-02 1.404583603143692017e-01
-4.305104166269302368e-02 1.172310486435890198e-02 3.841885179281234741e-02
3.631397783756256104e-01 7.892487198114395142e-02 5.625605955719947815e-02
-9.404256194829940796e-02 -4.268687218427658081e-03 -4.962943494319915771e-02
-1.188706681132316589e-01 1.529272347688674927e-01 3.140819817781448364e-02
2.800743281841278076e-01 2.421644330024719238e-02 -6.660816818475723267e-02
-3.635506331920623779e-02 1.435247063636779785e-01 -9.979242458939552307e-03
2.400706112384796143e-01 1.094012185931205750e-01 3.133697807788848877e-02
3.509905934333801270e-01 -9.155794978141784668e-03 -4.193941503763198853e-02
-8.202604204416275024e-02 1.186368763446807861e-01 -7.366387546062469482e-02
-4.264049977064132690e-02 1.514297127723693848e-01 5.418475717306137085e-02
-6.061651557683944702e-02 8.611664175987243652e-03 -1.198900416493415833e-01
1.865998059511184692e-01 9.173790365457534790e-02 -3.788820281624794006e-02
1.401982009410858154e-01 5.882949382066726685e-02 1.363436281681060791e-01
7.991149276494979858e-02 1.307027935981750488e-01 1.118374839425086975e-01
-2.457942366600036621e-01 4.892406240105628967e-02 -2.483023330569267273e-02
9.326080232858657837e-02 -1.402887701988220215e-02 -1.037717312574386597e-01
3.490552306175231934e-01 7.779428362846374512e-02 3.454860672354698181e-02
-2.674495428800582886e-02 -1.771957427263259888e-02 -5.142602324485778809e-02
1.476271450519561768e-02 8.121143281459808350e-02 -1.008929237723350525e-01
5.662767589092254639e-02 -2.541166543960571289e-02 -8.306344971060752869e-03
-6.340035051107406616e-02 1.526575684547424316e-01 3.514530509710311890e-02
-9.427917748689651489e-02 1.521503627300262451e-01 1.464153639972209930e-02
-2.497503757476806641e-01 4.481228440999984741e-02 -4.427113011479377747e-02
1.845884323120117188e-01 1.228587478399276733e-01 1.057166978716850281e-01
1.214023679494857788e-02 -1.404839009046554565e-02 6.274533923715353012e-03
-9.591066092252731323e-02 1.531325280666351318e-01 3.457886725664138794e-02
7.465461641550064087e-02 -2.429653704166412354e-02 6.917285732924938202e-03
-5.122442543506622314e-02 -2.788141369819641113e-03 8.784732781350612640e-04
2.230699658393859863e-01 1.126249134540557861e-01 1.164420619606971741e-01
3.886626958847045898e-01 2.077092230319976807e-02 1.185587346553802490e-01
2.701623737812042236e-01 -2.556347846984863281e-02 -6.238022446632385254e-02
-2.556663155555725098e-01 6.769481301307678223e-02 -1.058671846985816956e-01
1.837256997823715210e-01 1.148285269737243652e-01 1.239483803510665894e-01
1.831425428390502930e-01 5.095024779438972473e-02 1.377850472927093506e-01
4.618313163518905640e-02 5.739178508520126343e-02 1.186193674802780151e-01
2.235509753227233887e-01 5.967440828680992126e-02 -6.271795183420181274e-02
-6.487213820219039917e-02 8.622992783784866333e-03 2.125598862767219543e-02
-1.389036476612091064e-01 8.319050073623657227e-03 -9.026697278022766113e-02
-6.390802562236785889e-03 -1.490946859121322632e-02 -9.378650784492492676e-02
-2.679444253444671631e-01 8.318421244621276855e-02 -1.002250015735626221e-01
-1.489290595054626465e-01 5.688803270459175110e-02 5.302831530570983887e-02
9.637582302093505859e-02 -3.401932120323181152e-02 -3.591846302151679993e-02
-1.840951144695281982e-01 1.833416149020195007e-02 -6.538399308919906616e-02
4.365240037441253662e-02 1.952243968844413757e-02 -1.234107986092567444e-01
2.581697702407836914e-01 5.812257155776023865e-02 -5.057285353541374207e-02
-1.515147387981414795e-01 1.388940811157226562e-01 6.631451845169067383e-02
1.008779108524322510e-01 -1.896363496780395508e-02 3.418490290641784668e-02
2.378907799720764160e-01 7.575561106204986572e-02 1.450846344232559204e-01
3.436898812651634216e-02 8.629186451435089111e-02 1.279156208038330078e-01
1.204958409070968628e-01 -5.162574350833892822e-03 -1.077403500676155090e-01
3.019068837165832520e-01 7.422710210084915161e-02 1.388873755931854248e-01
2.493235468864440918e-01 -1.608788222074508667e-02 7.672056555747985840e-02
-2.787640690803527832e-01 7.118529826402664185e-02 -1.580995880067348480e-02
7.009944319725036621e-02 9.543858468532562256e-02 -7.269824296236038208e-02
2.066248953342437744e-01 6.063194200396537781e-02 1.433592140674591064e-01
7.400602847337722778e-02 -9.389877319335937500e-03 4.601199552416801453e-02
3.200553357601165771e-01 -4.417486488819122314e-03 -5.640953034162521362e-02
1.627707108855247498e-02 -2.147328108549118042e-02 -2.028708904981613159e-02
2.211033105850219727e-01 1.168871223926544189e-01 4.413272440433502197e-02
1.844633519649505615e-01 -1.492567360401153564e-03 8.948896080255508423e-02
1.640809178352355957e-01 2.312121540307998657e-02 1.150634512305259705e-01
3.473600000143051147e-02 -2.669002860784530640e-02 -6.092448532581329346e-02
2.673263549804687500e-01 9.810183942317962646e-02 1.266499459743499756e-01
3.293321728706359863e-01 -3.664901852607727051e-02 2.345941402018070221e-02
1.184126064181327820e-01 8.670011162757873535e-02 1.401229500770568848e-01
-1.994203925132751465e-01 1.234067156910896301e-01 -7.367829978466033936e-02
-1.631963551044464111e-01 3.640385717153549194e-02 1.755974255502223969e-02
-2.865935117006301880e-02 -1.157621294260025024e-02 -1.260403729975223541e-02
-2.863648831844329834e-01 8.940678834915161133e-02 -1.424254383891820908e-03
4.281962215900421143e-01 2.996168099343776703e-02 2.079715766012668610e-02
-4.097475856542587280e-02 2.221503108739852905e-02 5.655813962221145630e-02
3.556092083454132080e-01 -3.326265513896942139e-02 3.305716067552566528e-02
-5.789638310670852661e-02 1.491071581840515137e-01 6.807111948728561401e-02
2.140498459339141846e-01 -3.737188130617141724e-02 -5.285118147730827332e-02
-1.081712022423744202e-01 1.390019059181213379e-02 7.183249574154615402e-03
-1.246256306767463684e-01 7.742161303758621216e-02 8.010768890380859375e-02
1.966239959001541138e-01 1.137714907526969910e-01 1.251254882663488388e-02
3.324136137962341309e-01 -3.088281303644180298e-02 -3.091383352875709534e-02
1.824329048395156860e-02 -1.366586238145828247e-02 -1.018419563770294189e-01
1.272778213024139404e-01 8.902354538440704346e-02 -6.366889923810958862e-02
4.054493010044097900e-01 5.973056331276893616e-02 1.043424606323242188e-01
-8.989103138446807861e-03 2.640431374311447144e-02 7.436978816986083984e-02
-1.380753815174102783e-01 1.446054577827453613e-01 -2.615878731012344360e-02
4.972421005368232727e-02 1.993424072861671448e-02 8.511471003293991089e-02
7.832287997007369995e-02 1.201167926192283630e-01 -3.022007271647453308e-02
1.823405921459197998e-01 7.167461514472961426e-02 -6.543008983135223389e-02
-8.554273098707199097e-02 2.853506803512573242e-02 -1.291060596704483032e-01
-1.037602499127388000e-01 1.385774165391921997e-01 8.140737563371658325e-02
2.798426449298858643e-01 -5.563598126173019409e-03 9.663854539394378662e-02
-1.094631329178810120e-01 9.395664930343627930e-02 9.281556308269500732e-02
3.936488926410675049e-01 9.689014405012130737e-03 -1.877079717814922333e-02
6.116829067468643188e-02 5.035370215773582458e-02 -1.137066856026649475e-01
-7.456526905298233032e-02 -5.920808762311935425e-03 -3.061698377132415771e-02
1.418616175651550293e-01 1.271140277385711670e-01 1.928334124386310577e-02
-1.404049098491668701e-01 6.947809457778930664e-02 6.832566857337951660e-02
7.657349109649658203e-03 3.229725360870361328e-02 -1.268127262592315674e-01
3.020325601100921631e-01 2.929609268903732300e-02 -5.529385060071945190e-02
1.568333208560943604e-01 1.186974421143531799e-01 2.166494261473417282e-03
-3.117946386337280273e-01 1.118813902139663696e-01 -4.070341214537620544e-02
1.054176166653633118e-01 -9.624026715755462646e-04 7.152885943651199341e-02
-2.611303329467773438e-01 1.144451349973678589e-01 2.676889672875404358e-02
2.166626751422882080e-01 -2.946923673152923584e-02 4.159838333725929260e-02
3.570006489753723145e-01 8.398361504077911377e-02 7.744711637496948242e-02
-1.895190477371215820e-01 1.429817080497741699e-01 -3.065662458539009094e-02
-1.755685806274414062e-01 8.529605716466903687e-02 6.377495080232620239e-02
2.569026947021484375e-01 -4.092072695493698120e-02 1.200581900775432587e-04
-4.363991320133209229e-02 3.011901676654815674e-02 -1.299440860748291016e-01
3.749447464942932129e-01 6.579355150461196899e-02 3.018074668943881989e-02
5.414083600044250488e-03 -2.282572537660598755e-02 -4.734276980161666870e-02
-1.179537177085876465e-02 -1.673676073551177979e-02 -2.114458940923213959e-02
8.421902358531951904e-02 2.446670457720756531e-02 9.975398331880569458e-02
-1.451605558395385742e-02 1.105026081204414368e-01 -7.326908409595489502e-02
4.710912331938743591e-02 -1.055274158716201782e-02 3.286277130246162415e-02
-4.799853265285491943e-02 -1.399213820695877075e-02 -5.415112152695655823e-02
-1.164331808686256409e-01 9.594123810529708862e-03 -1.077504307031631470e-01
3.901381045579910278e-03 1.399574335664510727e-02 -3.790925443172454834e-01
-1.426759064197540283e-01 -7.139441557228565216e-03 -5.941728353500366211e-01
-2.563598752021789551e-02 -2.830101177096366882e-02 -2.659370005130767822e-01
-1.112693771719932556e-01 3.457943722605705261e-02 -6.942019462585449219e-01
-1.717692315578460693e-01 3.219891805201768875e-04 -7.349960803985595703e-01
1.100560352206230164e-01 -9.330281056463718414e-03 -4.327089488506317139e-01
-4.592368006706237793e-02 2.548412606120109558e-02 -9.121021032333374023e-01
-4.286661744117736816e-02 -2.599649131298065186e-02 -3.524869382381439209e-01
-3.640978038311004639e-02 -2.286593243479728699e-02 -6.661341190338134766e-01
-1.400789320468902588e-01 -7.280955091118812561e-03 -6.636170744895935059e-01
9.643796831369400024e-02 -3.647163882851600647e-02 -4.051145911216735840e-01
-6.967668235301971436e-02 -1.459369901567697525e-02 -1.206324696540832520e-01
-3.610271960496902466e-03 -2.744390070438385010e-02 -5.939519405364990234e-02
-2.191721498966217041e-01 3.947790712118148804e-02 -7.834730148315429688e-01
-1.081789284944534302e-01 3.530577942728996277e-02 -9.605669379234313965e-01
-1.436540484428405762e-01 3.715371340513229370e-02 -1.111044168472290039e+00
-1.954711973667144775e-01 1.559020858258008957e-02 -1.091600418090820312e+00
-2.439043819904327393e-01 3.868666663765907288e-02 -1.073909401893615723e+00
9.468165785074234009e-02 -4.420476499944925308e-03 -4.841815829277038574e-01
-9.770290553569793701e-02 -1.578246802091598511e-02 -6.017315387725830078e-01
-9.978701174259185791e-02 -1.334948651492595673e-02 -7.283083796501159668e-01
-1.956109330058097839e-02 -2.514781430363655090e-02 -7.952046394348144531e-02
-1.745338737964630127e-01 2.407172229140996933e-03 -8.340700864791870117e-01
2.479911595582962036e-02 -2.387689054012298584e-02 -7.410843968391418457e-01
-1.474289596080780029e-01 3.963660076260566711e-02 -1.004093527793884277e+00
7.195036858320236206e-02 -3.323398157954216003e-02 -5.201274156570434570e-01
7.930573076009750366e-02 1.291241496801376343e-04 -4.964168369770050049e-01
-2.770260535180568695e-02 -2.717455103993415833e-02 -2.027029097080230713e-01
-2.272762954235076904e-01 2.864338085055351257e-02 -6.445010900497436523e-01
-1.154033318161964417e-01 -9.278919547796249390e-03 -7.996246814727783203e-01
1.061494871973991394e-01 -1.090301480144262314e-02 -2.008710205554962158e-01
6.653572618961334229e-02 -3.853412345051765442e-02 -2.291808426380157471e-01
-1.748318225145339966e-01 3.864639624953269958e-02 -7.111213803291320801e-01
-1.363346278667449951e-01 3.888500109314918518e-02 -8.897831439971923828e-01
1.132803782820701599e-01 -2.913080900907516479e-02 3.436362743377685547e-02
3.354486823081970215e-02 1.023564673960208893e-02 -4.439740180969238281e-01
5.498538911342620850e-02 -2.306007966399192810e-02 -7.379527091979980469e-01
-1.065059974789619446e-01 -1.477369572967290878e-02 -4.649014770984649658e-01
-1.839839816093444824e-01 1.032601483166217804e-02 -4.305575489997863770e-01
1.270208656787872314e-01 -3.648429363965988159e-02 -3.222166597843170166e-01
-1.954960823059082031e-01 1.332301180809736252e-02 -1.044345378875732422e+00
-2.568886801600456238e-02 2.009873092174530029e-02 -9.458028674125671387e-01
-1.324407756328582764e-03 -2.705065533518791199e-02 -6.273559927940368652e-01
-1.590475440025329590e-03 -1.693827286362648010e-02 -8.647178411483764648e-01
-5.342126637697219849e-02 1.117442920804023743e-02 -1.715874969959259033e-01
-1.197952553629875183e-01 3.838621778413653374e-03 -1.096015453338623047e+00
-2.369187474250793457e-01 2.258675172924995422e-02 -9.608945846557617188e-01
-1.263738274574279785e-01 3.727227076888084412e-02 -7.893573045730590820e-01
-9.566301107406616211e-02 3.370101004838943481e-02 -7.545557022094726562e-01
-1.726391017436981201e-01 3.701438382267951965e-02 -6.567029953002929688e-01
1.859141886234283447e-02 -3.421545401215553284e-02 -2.931389212608337402e-01
-2.027557417750358582e-02 -2.932393923401832581e-02 -3.489019870758056641e-01
-1.448793411254882812e-01 3.199001029133796692e-02 -5.259141921997070312e-01
-1.935124993324279785e-01 6.507672369480133057e-03 -6.088858842849731445e-01
-2.410717606544494629e-01 3.777996450662612915e-02 -1.106107473373413086e+00
-2.187945544719696045e-01 4.296232014894485474e-02 -9.656231403350830078e-01
6.629337370395660400e-02 -1.722384709864854813e-03 -2.033539116382598877e-01
-1.146221831440925598e-01 -1.318869832903146744e-02 -5.082106590270996094e-01
-3.061890415847301483e-02 -2.428748458623886108e-02 -6.334035992622375488e-01
-5.004484206438064575e-02 2.667185291647911072e-02 -6.446004509925842285e-01
5.234394967555999756e-02 -3.133781999349594116e-02 3.625637292861938477e-02
5.585217475891113281e-02 -2.965211123228073120e-02 -6.152996420860290527e-01
-9.640062600374221802e-02 7.983886171132326126e-04 -1.081709504127502441e+00
-1.111796498298645020e-02 1.892639324069023132e-02 -5.048771500587463379e-01
-2.101314440369606018e-02 -2.893819287419319153e-02 -4.106932878494262695e-01
-1.440607905387878418e-01 3.501635044813156128e-02 -6.141246557235717773e-01
4.571516066789627075e-02 -3.696222975850105286e-02 -2.399763166904449463e-01
6.067793816328048706e-02 -5.103081930428743362e-03 -9.702536463737487793e-02
-1.350094228982925415e-01 1.423400477506220341e-03 -1.020055174827575684e+00
-6.825666874647140503e-02 -8.327613584697246552e-03 -9.681489467620849609e-01
-2.856705151498317719e-02 2.155071496963500977e-02 -9.210093021392822266e-01
-1.094351559877395630e-01 3.052115812897682190e-02 -1.139373540878295898e+00
-1.482775807380676270e-01 2.658975124359130859e-02 -4.169734716415405273e-01
2.773452550172805786e-03 -3.236778825521469116e-02 -2.745768129825592041e-01
-1.773167699575424194e-01 4.152605310082435608e-02 -8.547473549842834473e-01
4.777467995882034302e-02 5.579837597906589508e-03 -7.524303197860717773e-01
1.390172541141510010e-02 -2.737696841359138489e-02 -6.478295326232910156e-01
-1.957586109638214111e-01 4.288266226649284363e-02 -1.026590585708618164e+00
2.688686549663543701e-02 -2.610822021961212158e-02 -6.934597492218017578e-01
-2.251989245414733887e-01 2.200040221214294434e-02 -1.061171174049377441e+00
-1.574068069458007812e-01 2.763067185878753662e-02 -4.417317509651184082e-01
-5.138372629880905151e-02 2.434884384274482727e-02 -4.998107254505157471e-01
-1.355283558368682861e-01 1.136034261435270309e-02 -1.171246647834777832e+00
-1.591513454914093018e-01 1.998460385948419571e-03 -3.700324296951293945e-01
-4.878662154078483582e-02 -3.832446411252021790e-03 -3.180229663848876953e-02
-7.965622842311859131e-02 2.037547528743743896e-02 -3.130947351455688477e-01
-4.477177932858467102e-02 -3.048736136406660080e-03 -1.052149057388305664e+00
1.465086936950683594e-01 -3.167804330587387085e-02 -1.440662443637847900e-01
-1.418605446815490723e-01 -6.877196021378040314e-03 -4.840863645076751709e-01
-4.736361652612686157e-02 6.542591378092765808e-03 -1.115567386150360107e-01
1.258090734481811523e-01 -2.231606096029281616e-02 -7.035338878631591797e-02
-4.102018103003501892e-02 1.471503823995590210e-02 -1.093917608261108398e+00
-7.118262350559234619e-02 -1.786863058805465698e-02 -7.051419615745544434e-01
8.699189871549606323e-03 8.815692737698554993e-03 -2.365534007549285889e-01
-1.450823545455932617e-01 2.417757734656333923e-02 -3.772784173488616943e-01
-1.514866501092910767e-01 3.440017625689506531e-02 -1.191747784614562988e+00
1.109745278954505920e-01 -1.163874566555023193e-02 -2.240287959575653076e-01
-4.220560193061828613e-02 -2.114173257723450661e-04 -1.075846433639526367e+00
2.953948080539703369e-02 1.164302695542573929e-02 -4.925601780414581299e-01
-7.550845295190811157e-02 2.172877267003059387e-02 -1.143677234649658203e+00
-1.648308485746383667e-01 4.137314110994338989e-02 -9.752771258354187012e-01
-1.063437312841415405e-01 2.411682903766632080e-02 -1.199344992637634277e+00
-2.256913781166076660e-01 4.245989397168159485e-02 -1.049608826637268066e+00
-8.434583246707916260e-02 -1.902009546756744385e-02 -4.399127960205078125e-01
6.753924489021301270e-02 1.123524270951747894e-05 -2.700061798095703125e-01
8.126776665449142456e-03 -2.688067033886909485e-02 -6.254255771636962891e-03
-1.304379105567932129e-01 -8.068311959505081177e-03 -3.793779015541076660e-01
1.276809275150299072e-01 -3.323448821902275085e-02 -3.998590111732482910e-01
-1.587394773960113525e-01 -3.366291988641023636e-03 -6.345413923263549805e-01
-1.162028089165687561e-01 2.833859249949455261e-02 -4.552245438098907471e-01
5.984716117382049561e-02 4.796732217073440552e-03 -6.164220571517944336e-01
-1.759731322526931763e-01 1.113106962293386459e-03 -7.072355747222900391e-01
-1.411055922508239746e-01 5.804551765322685242e-03 -2.528091371059417725e-01
-1.491896212100982666e-01 -4.301261156797409058e-03 -7.532993555068969727e-01
1.281945705413818359e-01 -1.742764189839363098e-02 -4.275398850440979004e-01
-1.374079883098602295e-01 3.877595067024230957e-02 -9.802095890045166016e-01
-2.113977372646331787e-01 1.417496707290410995e-02 -5.984430313110351562e-01
-1.484747529029846191e-01 -4.696598742157220840e-03 -4.560093879699707031e-01
7.698503881692886353e-02 -2.872621640563011169e-03 -6.905947923660278320e-01
-1.925654336810112000e-02 2.207053825259208679e-02 -7.319869399070739746e-01
8.367236703634262085e-02 -3.860966861248016357e-02 -8.028286695480346680e-02
-1.884275674819946289e-01 3.344959765672683716e-02 -5.815929174423217773e-01
-2.397183515131473541e-02 2.277424186468124390e-02 -7.789298295974731445e-01
-2.425894513726234436e-02 -2.867225557565689087e-02 -2.909993231296539307e-01
-2.528174817562103271e-01 3.413252159953117371e-02 -9.349616765975952148e-01
-1.195236742496490479e-01 3.064248338341712952e-02 -1.168709039688110352e+00
-1.040464192628860474e-01 2.714344859123229980e-02 -4.393921494483947754e-01
1.071655005216598511e-02 4.742027260363101959e-03 -1.498822867870330811e-01
3.801527619361877441e-02 -1.589535549283027649e-02 6.438612937927246094e-02
1.706741750240325928e-02 -3.369854763150215149e-02 -3.577131032943725586e-01
-1.077221930027008057e-01 2.224247157573699951e-02 -3.318366408348083496e-01
-4.205274581909179688e-02 1.866476982831954956e-02 -1.061007261276245117e+00
4.927344620227813721e-02 -3.291443735361099243e-02 -5.207636356353759766e-01
-4.174173250794410706e-02 -2.537019923329353333e-02 -2.457005381584167480e-01
-1.893558204174041748e-01 3.112332895398139954e-02 -1.236868381500244141e+00
-5.820220336318016052e-02 -1.879516988992691040e-02 -1.362629830837249756e-01
1.270714998245239258e-01 -3.452320769429206848e-02 -3.756680488586425781e-01
-5.869114398956298828e-02 2.579196542501449585e-02 -1.004969120025634766e+00
-1.139469891786575317e-01 5.917862290516495705e-04 -1.053957581520080566e+00
1.172401681542396545e-01 -1.678580790758132935e-02 -1.225298941135406494e-01
-7.917097210884094238e-02 2.012613415718078613e-02 -1.164190053939819336e+00
-9.988933801651000977e-02 1.818668842315673828e-02 -2.660730183124542236e-01
-2.133949846029281616e-02 -1.145364623516798019e-02 -9.474077224731445312e-01
1.708057522773742676e-02 -3.086961433291435242e-02 -5.333254933357238770e-01
-1.381017267704010010e-03 -1.402386184781789780e-02 -9.080979228019714355e-01
-2.108740061521530151e-02 2.211171016097068787e-02 -6.344287395477294922e-01
-9.228558838367462158e-02 4.175243666395545006e-04 -1.158235371112823486e-01
-7.598571479320526123e-02 6.122022168710827827e-04 -8.586379885673522949e-02
-1.778680980205535889e-01 4.092130810022354126e-02 -1.098421454429626465e+00
-2.675486169755458832e-02 -2.285976335406303406e-02 -6.986823081970214844e-01
-7.263326644897460938e-02 -1.279045268893241882e-02 -8.630445003509521484e-01
-1.835773885250091553e-02 2.110253274440765381e-02 -8.315758705139160156e-01
-9.300230443477630615e-02 -1.497287582606077194e-02 -2.684812843799591064e-01
3.606062382459640503e-02 -3.290779143571853638e-02 -4.987928867340087891e-01
-8.570273965597152710e-02 -1.876088976860046387e-02 -4.682610332965850830e-01
7.028206437826156616e-02 -3.581384941935539246e-02 -1.156836748123168945e-02
1.472801566123962402e-01 -2.959794178605079651e-02 -2.624154984951019287e-01
8.602369576692581177e-02 -2.116170246154069901e-03 -5.372736454010009766e-01
-9.485670924186706543e-02 2.974937669932842255e-03 -1.110892415046691895e+00
-8.945351839065551758e-02 3.262554854154586792e-02 -9.523352384567260742e-01
-1.439798250794410706e-02 -2.767984196543693542e-02 -1.215416193008422852e-01
-1.087830737233161926e-01 3.224372118711471558e-02 -5.911642313003540039e-01
-1.942430138587951660e-01 1.104632206261157990e-02 -9.934425354003906250e-01
-1.839500963687896729e-01 4.083247482776641846e-02 -1.118425250053405762e+00
8.386684209108352661e-02 -8.070593699812889099e-03 -7.117931842803955078e-01
8.721726387739181519e-02 -3.988587297499179840e-03 -2.864167690277099609e-01
-1.436745524406433105e-01 3.479553759098052979e-02 -1.167582631111145020e+00
6.449598819017410278e-02 -5.510793998837471008e-03 -8.021429777145385742e-01
1.692462712526321411e-02 -1.464048866182565689e-02 -8.882874250411987305e-01
2.505736052989959717e-02 -2.283477783203125000e-02 -7.613614201545715332e-01
9.228280931711196899e-02 -3.125114366412162781e-02 6.032973527908325195e-02
-6.828922033309936523e-02 -2.162240818142890930e-02 -4.879423379898071289e-01
-1.636331975460052490e-01 3.043543547391891479e-02 -4.962444901466369629e-01
-7.628288120031356812e-02 2.923836559057235718e-02 -5.954331159591674805e-01
2.197872847318649292e-03 -6.351837888360023499e-03 9.489893913269042969e-03
1.479098200798034668e-02 -3.144285827875137329e-02 -8.327054977416992188e-02
4.167868942022323608e-02 -3.651563078165054321e-02 -2.761097848415374756e-01
-1.581393033266067505e-01 4.047582671046257019e-02 -1.024140119552612305e+00
1.033822968602180481e-01 -1.605384051799774170e-02 -5.853474140167236328e-02
6.262180209159851074e-02 -1.620711293071508408e-03 -7.785769104957580566e-01
9.605508297681808472e-02 -5.899913609027862549e-03 -5.547139644622802734e-01
-2.142981886863708496e-01 1.368318125605583191e-02 -9.021441340446472168e-01
-2.120201662182807922e-02 -2.770983800292015076e-02 -1.713578104972839355e-01
2.843989431858062744e-02 -3.518863022327423096e-02 -2.073129415512084961e-01
-8.219908177852630615e-02 9.987396188080310822e-03 -1.577205061912536621e-01
-2.036827504634857178e-01 4.315784573554992676e-02 -1.007218360900878906e+00
-4.481149837374687195e-02 2.575859054923057556e-02 -8.817755579948425293e-01
-4.205383360385894775e-03 -2.165428549051284790e-02 -7.724114060401916504e-01
-6.774672865867614746e-02 -2.278009196743369102e-04 -1.084287047386169434e+00
-4.746527969837188721e-02 -2.478758245706558228e-02 -4.820216000080108643e-01
1.249848678708076477e-01 -1.725430786609649658e-02 -1.794620156288146973e-01
-7.038590312004089355e-02 2.433946728706359863e-02 -4.284007549285888672e-01
-1.535610556602478027e-01 4.050304368138313293e-02 -9.536168575286865234e-01
2.963608503341674805e-02 -3.311967477202415466e-02 -6.717306375503540039e-02
-8.762800693511962891e-02 -1.451948191970586777e-02 -2.151313424110412598e-01
-5.508124828338623047e-02 2.525253593921661377e-02 -5.203077793121337891e-01
4.971627146005630493e-02 -2.886921167373657227e-02 -6.343286633491516113e-01
-1.386423110961914062e-01 -7.894772104918956757e-03 -5.099183917045593262e-01
2.721180021762847900e-02 1.123582199215888977e-02 -7.698864936828613281e-01
-1.203692629933357239e-01 3.718787431716918945e-02 -8.786178231239318848e-01
-2.372013218700885773e-02 2.934112679213285446e-03 -7.553142309188842773e-02
-1.805828511714935303e-01 6.166119594126939774e-03 -9.350206851959228516e-01
3.876540809869766235e-03 -3.141096979379653931e-02 -1.532042622566223145e-01
1.184098049998283386e-01 -3.875809535384178162e-02 -2.613993287086486816e-01
-1.218365281820297241e-01 -1.169837266206741333e-02 -5.324943065643310547e-01
-3.363396972417831421e-02 -2.425651252269744873e-02 -1.312977969646453857e-01
5.181063711643218994e-02 6.319583393633365631e-03 -6.703857183456420898e-01
8.749053627252578735e-02 -1.450683642178773880e-02 -2.307730913162231445e-02
-1.792261004447937012e-01 4.087485745549201965e-02 -8.069540262222290039e-01
-1.207889840006828308e-01 -3.363538999110460281e-03 -9.559717178344726562e-01
9.472139924764633179e-02 -3.092509135603904724e-02 -5.469675660133361816e-01
3.301392495632171631e-02 -1.783974841237068176e-02 -8.334804773330688477e-01
-2.316928468644618988e-02 2.107307687401771545e-02 -8.903856277465820312e-01
-1.363620162010192871e-01 2.995618060231208801e-02 -4.802225530147552490e-01
-5.880444124341011047e-02 -2.344795688986778259e-02 -4.136313796043395996e-01
5.752826482057571411e-02 3.930738195776939392e-03 -3.526626825332641602e-01
-8.955372124910354614e-02 3.332204371690750122e-02 -8.343545198440551758e-01
-2.525966763496398926e-01 3.331087529659271240e-02 -9.753621816635131836e-01
-2.271273732185363770e-01 1.789945736527442932e-02 -7.207034230232238770e-01
-2.252182364463806152e-01 1.883107051253318787e-02 -9.773027896881103516e-01
-5.643320456147193909e-02 -2.187013253569602966e-02 -2.121122777462005615e-01
-3.534004837274551392e-02 -2.692069485783576965e-02 -4.267292618751525879e-01
-3.031518310308456421e-03 -1.085211755707859993e-03 -3.999865055084228516e-02
-2.225884795188903809e-01 1.523309946060180664e-02 -7.878955006599426270e-01
3.100024908781051636e-02 -3.493969514966011047e-02 -1.474172174930572510e-01
-1.048254221677780151e-02 -2.387217059731483459e-02 -2.157580852508544922e-02
-9.023255854845046997e-02 2.409513294696807861e-02 -3.827250003814697266e-01
-4.743855446577072144e-02 -1.114402152597904205e-02 -9.409551620483398438e-01
-5.298040807247161865e-02 -2.145299687981605530e-02 -6.479354500770568848e-01
-1.080799996852874756e-01 -6.071017123758792877e-03 -9.303144216537475586e-01
-1.395668089389801025e-01 -7.861503399908542633e-03 -5.686354637145996094e-01
-9.390349686145782471e-02 -6.722833029925823212e-03 -9.538518190383911133e-01
-7.743101567029953003e-03 -3.102130442857742310e-02 -3.294290900230407715e-01
-1.246654465794563293e-01 -8.982381783425807953e-03 -7.453462481498718262e-01
1.740403473377227783e-02 2.769436687231063843e-03 -1.271874904632568359e-01
9.879351407289505005e-02 -3.941570594906806946e-02 -2.566257119178771973e-01
-1.984997987747192383e-01 2.083537355065345764e-02 -4.763686656951904297e-01
-3.365819901227951050e-02 -4.678010009229183197e-05 -4.391181468963623047e-02
-1.614734530448913574e-01 4.943012259900569916e-03 -1.005315184593200684e+00
-6.738870590925216675e-02 2.877750620245933533e-02 -9.567219614982604980e-01
-1.959363520145416260e-01 3.551410883665084839e-02 -6.354959011077880859e-01
-1.977458894252777100e-01 3.420966118574142456e-02 -6.120709180831909180e-01
-6.267055869102478027e-04 1.823785901069641113e-02 -7.508471012115478516e-01
-7.336383312940597534e-02 1.723195612430572510e-02 -2.582813203334808350e-01
-5.053830519318580627e-02 -1.897597312927246094e-02 -7.510700225830078125e-01
5.806776136159896851e-02 -3.786092251539230347e-02 -2.596400082111358643e-01
-2.085099518299102783e-01 4.277684912085533142e-02 -9.150286912918090820e-01
-1.090243905782699585e-01 -8.708003908395767212e-03 -8.527621030807495117e-01
-2.243094444274902344e-01 3.716916590929031372e-02 -7.413415908813476562e-01
-1.715551912784576416e-01 3.240539133548736572e-02 -5.412800312042236328e-01
-1.358422487974166870e-01 -5.221953149884939194e-03 -8.281890749931335449e-01
-1.707572937011718750e-01 1.277233287692070007e-02 -1.126692771911621094e+00
6.987376511096954346e-02 -3.750764578580856323e-02 -3.514541983604431152e-01
-4.733555018901824951e-03 1.634284108877182007e-02 -8.966605067253112793e-01
-3.251419961452484131e-02 -1.572964340448379517e-02 -8.753836154937744141e-03
1.213209331035614014e-02 -3.106217831373214722e-02 -5.075807571411132812e-01
5.692671239376068115e-02 -3.091787453740835190e-03 -1.254243254661560059e-01
-1.413028538227081299e-01 1.549653429538011551e-02 -1.204284906387329102e+00
-5.095251649618148804e-02 2.725517004728317261e-02 -8.491964340209960938e-01
-8.343346416950225830e-04 -3.116293251514434814e-02 -4.256274998188018799e-01
7.733304053544998169e-02 -3.876907750964164734e-02 -1.153494119644165039e-01
-7.750573754310607910e-02 2.664883434772491455e-02 -4.824160337448120117e-01
-1.148154735565185547e-01 -1.198977231979370117e-02 -6.682888865470886230e-01
-1.048519760370254517e-01 -1.387371122837066650e-02 -3.439533412456512451e-01
6.559504568576812744e-02 -2.315865457057952881e-02 -7.210302352905273438e-01
-5.932870507240295410e-02 -2.115537598729133606e-02 -6.237768530845642090e-01
-1.808837950229644775e-01 5.435718223452568054e-03 -9.064214229583740234e-01
-7.009104639291763306e-02 2.417977899312973022e-02 -1.096929550170898438e+00
-7.570222020149230957e-03 1.483626570552587509e-02 -9.512966871261596680e-01
9.270057827234268188e-02 -3.927695378661155701e-02 -9.897863864898681641e-02
-3.788306191563606262e-02 -2.515744417905807495e-02 -5.506120324134826660e-01
-1.019530743360519409e-01 -1.529729645699262619e-02 -5.771454572677612305e-01
9.776856750249862671e-02 -7.238859310746192932e-03 -2.579127848148345947e-01
-1.444451361894607544e-01 3.859998285770416260e-02 -1.055856347084045410e+00
-1.453090608119964600e-01 3.863545507192611694e-02 -7.749140858650207520e-01
4.144053161144256592e-02 -3.551720827817916870e-02 -3.805190920829772949e-01
-1.825651526451110840e-01 4.196430742740631104e-02 -1.057101964950561523e+00
6.145303696393966675e-02 -3.092024102807044983e-02 -5.835928916931152344e-01
-3.870565444231033325e-03 1.915761455893516541e-02 -6.535702943801879883e-01
6.712216883897781372e-03 -2.527391538023948669e-02 -6.962546706199645996e-01
-1.848033443093299866e-02 2.149810642004013062e-02 -6.126076579093933105e-01
