1.681672334671020508e-01 -6.974126398563385010e-02 5.161096155643463135e-02
2.372826635837554932e-01 -6.994677335023880005e-02 -3.863470256328582764e-02
-3.504163026809692383e-01 3.232732042670249939e-02 -1.025054156780242920e-01
1.327548921108245850e-01 1.271296441555023193e-01 7.755023241043090820e-02
-5.100718140602111816e-02 8.732853829860687256e-02 1.029106453061103821e-01
-4.939070343971252441e-01 8.587114512920379639e-03 -5.831257253885269165e-02
2.072312235832214355e-01 -7.847311347723007202e-02 2.428230829536914825e-02
-3.702162206172943115e-02 -2.787223458290100098e-02 8.408240228891372681e-02
2.741999030113220215e-01 1.071119904518127441e-01 1.089294850826263428e-01
1.462709158658981323e-02 -3.456325083971023560e-02 8.514115959405899048e-02
-2.103283256292343140e-01 1.287343800067901611e-01 1.578680798411369324e-02
-5.051347017288208008e-01 6.739540398120880127e-02 -5.434755235910415649e-02
-2.510101199150085449e-01 -3.572047501802444458e-02 -7.911594957113265991e-02
7.611670494079589844e-01 -5.409859120845794678e-03 3.369669616222381592e-02
-9.859673678874969482e-02 1.091511845588684082e-01 8.073870092630386353e-02
3.063518404960632324e-01 -7.320673018693923950e-02 -2.171877212822437286e-02
1.949945837259292603e-01 1.803005859255790710e-02 1.317929774522781372e-01
-1.607377976179122925e-01 1.024273857474327087e-01 7.711828500032424927e-02
9.619615972042083740e-03 -5.966203659772872925e-02 -6.575199961662292480e-02
6.346232295036315918e-01 6.211183965206146240e-02 1.302944496273994446e-03
-3.815728425979614258e-02 1.375102400779724121e-01 1.178213860839605331e-02
6.822810769081115723e-01 4.884455353021621704e-03 1.164811775088310242e-01
-4.888430237770080566e-01 7.902726531028747559e-02 -8.356750011444091797e-03
1.153685078024864197e-01 -7.035634666681289673e-02 4.371850937604904175e-02
1.184429451823234558e-01 -5.001614987850189209e-02 8.038821071386337280e-02
1.330642104148864746e-01 1.180533245205879211e-01 -3.790238499641418457e-02
-4.952837228775024414e-01 8.040038496255874634e-02 -3.161761164665222168e-02
-6.810081005096435547e-02 1.233602464199066162e-01 -4.181063920259475708e-02
4.512202143669128418e-01 5.782525241374969482e-02 -4.870862513780593872e-02
2.276118099689483643e-01 6.894368678331375122e-03 1.304970383644104004e-01
-1.437233835458755493e-01 8.849284052848815918e-02 -8.667979389429092407e-02
1.703172922134399414e-02 2.964021451771259308e-02 1.188454106450080872e-01
2.268372178077697754e-01 -1.226068288087844849e-02 1.218162104487419128e-01
3.421448171138763428e-02 -3.335482627153396606e-02 8.885067701339721680e-02
4.998764991760253906e-01 6.033921241760253906e-02 -3.718768805265426636e-02
-4.974004030227661133e-01 4.145747795701026917e-02 6.284049712121486664e-03
-3.135673403739929199e-01 8.481401950120925903e-02 -8.312863111495971680e-02
2.583731412887573242e-01 -2.299498766660690308e-02 1.168246269226074219e-01
-6.907682120800018311e-02 1.115163266658782959e-01 -6.124739348888397217e-02
-4.066820144653320312e-01 8.481989800930023193e-02 2.986595779657363892e-02
-8.130788803100585938e-03 8.952771127223968506e-02 1.066711544990539551e-01
-3.371395468711853027e-01 1.835279539227485657e-02 5.532982200384140015e-02
2.335588037967681885e-01 -1.782415434718132019e-02 -8.664716780185699463e-02
4.171894192695617676e-01 1.013890057802200317e-01 -1.384247466921806335e-02
-2.791556715965270996e-01 -1.587250456213951111e-02 -9.509210288524627686e-02
-4.000132679939270020e-01 -1.635975018143653870e-02 -6.990125775337219238e-02
-3.657239079475402832e-01 -7.200807332992553711e-03 2.925715968012809753e-02
3.789278864860534668e-01 -5.694269388914108276e-02 8.471715450286865234e-02
1.211169436573982239e-01 6.155738234519958496e-02 1.280262023210525513e-01
7.105213403701782227e-01 6.482554972171783447e-02 8.692226558923721313e-02
4.853206276893615723e-01 1.007598042488098145e-01 1.011351421475410461e-01
5.670166015625000000e-02 2.945948205888271332e-02 1.229036822915077209e-01
3.381520509719848633e-01 6.241856887936592102e-02 -6.535416096448898315e-02
2.215547859668731689e-01 1.089797988533973694e-01 1.066805496811866760e-01
-3.302391171455383301e-01 7.106019556522369385e-02 -9.185031801462173462e-02
-2.325527220964431763e-01 1.276172250509262085e-01 -7.750684395432472229e-03
-1.921608299016952515e-01 7.765972614288330078e-02 8.644221723079681396e-02
1.282700300216674805e-01 -3.267673403024673462e-02 -8.844961971044540405e-02
7.095924019813537598e-01 4.194239899516105652e-02 1.379523891955614090e-02
1.123442202806472778e-01 4.874372109770774841e-02 -9.683661907911300659e-02
-2.798717617988586426e-01 1.326838135719299316e-02 -1.070522442460060120e-01
-3.052970170974731445e-01 2.020063251256942749e-02 6.394329667091369629e-02
6.335429549217224121e-01 8.813934773206710815e-02 5.321636050939559937e-02
3.169816732406616211e-02 -6.676369160413742065e-02 -5.282499641180038452e-02
-1.564145535230636597e-01 1.303571164608001709e-01 -1.832694001495838165e-02
-2.886422276496887207e-01 1.097442954778671265e-01 4.029629006981849670e-02
-8.953233063220977783e-02 5.263713002204895020e-02 -1.060149222612380981e-01
2.732216715812683105e-01 1.276241540908813477e-01 7.113985717296600342e-02
-2.827078700065612793e-01 6.994183361530303955e-02 7.148610800504684448e-02
6.526803970336914062e-01 -7.953848689794540405e-03 1.152098178863525391e-01
-8.424805104732513428e-02 -6.002926826477050781e-02 2.952194958925247192e-02
-2.843298017978668213e-02 4.744928702712059021e-02 -1.057113260030746460e-01
-4.017023444175720215e-01 6.597643345594406128e-02 -8.633165806531906128e-02
-2.437689155340194702e-01 1.264380514621734619e-01 8.964817970991134644e-03
-1.626195162534713745e-01 -9.664118289947509766e-03 7.755500823259353638e-02
2.963392138481140137e-01 9.475633502006530762e-02 -4.622715711593627930e-02
1.006469056010246277e-01 6.402687728404998779e-02 1.259722411632537842e-01
6.539439558982849121e-01 4.496955871582031250e-02 -5.560470744967460632e-03
5.272807478904724121e-01 3.244131058454513550e-02 -4.419980198144912720e-02
2.299223691225051880e-01 1.212100163102149963e-01 8.947551250457763672e-02
6.389506459236145020e-01 4.188073426485061646e-02 1.255488544702529907e-01
1.299126893281936646e-01 -5.956433713436126709e-02 -6.377845257520675659e-02
7.645717263221740723e-02 6.986736506223678589e-02 -9.022957086563110352e-02
1.259379982948303223e-01 1.360110193490982056e-01 1.021265238523483276e-02
-4.840589165687561035e-01 -2.455692738294601440e-04 -4.531104862689971924e-02
5.480055809020996094e-01 7.864646613597869873e-03 1.324245631694793701e-01
4.115830063819885254e-01 1.187065541744232178e-01 7.256510853767395020e-02
4.263283014297485352e-01 1.194370612502098083e-01 4.423590749502182007e-02
3.290838748216629028e-02 1.291680335998535156e-01 6.731852144002914429e-02
4.558502882719039917e-02 -5.264050513505935669e-02 -7.529463618993759155e-02
-2.529783248901367188e-01 -5.104485154151916504e-02 -3.859803080558776855e-02
-2.067925781011581421e-01 -4.928115010261535645e-02 -6.375660747289657593e-02
5.412762761116027832e-01 4.973736777901649475e-02 -3.408799320459365845e-02
6.996465325355529785e-01 2.316407859325408936e-03 1.119582951068878174e-01
-2.099922150373458862e-01 1.250680685043334961e-01 3.209193050861358643e-02
-2.415661960840225220e-01 3.237487375736236572e-02 8.103482425212860107e-02
-5.122873187065124512e-01 7.123391330242156982e-02 -2.069237641990184784e-02
1.109038144350051880e-01 4.877221211791038513e-02 1.287388056516647339e-01
7.783113718032836914e-01 -6.093468517065048218e-03 5.934119224548339844e-02
2.772978544235229492e-01 -4.997249692678451538e-02 9.243301302194595337e-02
6.245049238204956055e-01 8.367884159088134766e-02 2.889867126941680908e-02
3.380486369132995605e-01 7.620818912982940674e-02 -5.635853856801986694e-02
1.821235269308090210e-01 -6.670228391885757446e-02 -4.958268254995346069e-02
4.109820723533630371e-01 7.209365814924240112e-02 1.328516453504562378e-01
3.644422888755798340e-01 9.618128091096878052e-02 1.180242002010345459e-01
1.249677911400794983e-01 -7.674510776996612549e-02 -2.429507113993167877e-02
-5.277992486953735352e-01 6.096262484788894653e-02 -3.983223438262939453e-02
-1.738215833902359009e-01 -5.428928881883621216e-02 -5.895805358886718750e-02
4.319912195205688477e-01 -9.977992624044418335e-03 1.287407577037811279e-01
7.626538276672363281e-01 4.598678648471832275e-02 7.769580185413360596e-02
4.565201997756958008e-01 -1.357213780283927917e-02 -5.768459290266036987e-02
1.434074044227600098e-01 -7.233998924493789673e-02 -3.945163637399673462e-02
8.044210076332092285e-02 9.062504768371582031e-02 1.142961829900741577e-01
3.517076969146728516e-01 1.111348792910575867e-01 1.007155179977416992e-01
-2.973274886608123779e-02 -8.491870015859603882e-03 -1.060478761792182922e-01
-3.081924915313720703e-01 1.201390326023101807e-01 -1.900305971503257751e-03
2.668777406215667725e-01 -7.954581826925277710e-02 1.270775496959686279e-02
5.191890597343444824e-01 -5.527048557996749878e-02 7.868023961782455444e-02
-2.783497571945190430e-01 -2.930579707026481628e-02 3.082841262221336365e-02
-1.749323457479476929e-01 -6.053303927183151245e-02 -1.276703365147113800e-02
-4.003732204437255859e-01 3.703814744949340820e-02 4.359894245862960815e-02
5.682905316352844238e-01 5.024187266826629639e-04 -3.802380710840225220e-02
-8.583924174308776855e-02 4.208028316497802734e-03 -1.101076155900955200e-01
-1.534245461225509644e-01 1.210348010063171387e-01 5.566300451755523682e-02
-1.964080184698104858e-01 3.586053848266601562e-03 7.931277155876159668e-02
1.803461909294128418e-01 9.398717433214187622e-02 1.183970272541046143e-01
3.690758645534515381e-01 -7.185570895671844482e-02 -1.357004418969154358e-02
-4.199959635734558105e-01 8.206485211849212646e-02 -6.980145722627639771e-02
-1.839257925748825073e-01 -5.926430970430374146e-02 -3.540246188640594482e-02
-2.493562847375869751e-01 -4.187466204166412354e-02 1.860762573778629303e-02
5.788249373435974121e-01 -4.584713280200958252e-02 -7.976535707712173462e-03
3.743782639503479004e-01 -1.673135161399841309e-02 1.247223839163780212e-01
-3.340223431587219238e-01 -3.782042115926742554e-02 -1.622458919882774353e-02
4.069566130638122559e-01 8.654365688562393188e-02 1.243440657854080200e-01
5.374699831008911133e-04 -3.942672908306121826e-02 7.813679426908493042e-02
6.107403635978698730e-01 -5.349778383970260620e-02 5.764483660459518433e-02
-1.895241588354110718e-01 1.299272775650024414e-01 1.972261257469654083e-02
5.475273132324218750e-01 -4.411517828702926636e-02 9.397801756858825684e-02
-2.483914941549301147e-01 3.769468888640403748e-02 -1.088146194815635681e-01
4.076884686946868896e-02 1.230252236127853394e-01 -3.777425736188888550e-02
5.145070552825927734e-01 2.016276679933071136e-02 -4.940392076969146729e-02
-1.580875664949417114e-01 -6.073059141635894775e-02 -4.143014550209045410e-02
3.247368335723876953e-01 -6.950148940086364746e-02 -2.824356593191623688e-02
-3.578910231590270996e-01 1.043180599808692932e-01 2.467603236436843872e-02
3.221629261970520020e-01 -7.355973124504089355e-02 4.829255491495132446e-02
2.341126352548599243e-01 -3.384273499250411987e-02 -7.918287068605422974e-02
-2.424343377351760864e-01 -4.951694607734680176e-02 -5.269910395145416260e-02
4.411262869834899902e-01 -3.107355907559394836e-02 1.142116114497184753e-01
4.776251912117004395e-01 -5.733111500740051270e-02 -1.975548453629016876e-02
-2.188310772180557251e-01 -2.503872290253639221e-02 5.248071253299713135e-02
-7.652752101421356201e-02 1.295844912528991699e-01 5.220913887023925781e-02
-5.854460597038269043e-02 3.879108652472496033e-02 1.110499501228332520e-01
-3.286666870117187500e-01 -3.203745186328887939e-02 6.468751467764377594e-03
-7.225279510021209717e-02 1.218703761696815491e-01 6.838127225637435913e-02
-2.365434020757675171e-01 1.092072501778602600e-01 5.495010316371917725e-02
4.214121103286743164e-01 1.115057691931724548e-01 9.181055426597595215e-02
3.866202235221862793e-01 2.098331786692142487e-02 1.392976194620132446e-01
7.002435922622680664e-01 7.201105356216430664e-02 6.382228434085845947e-02
1.842024922370910645e-01 -7.568451762199401855e-02 -2.753116376698017120e-02
1.793363839387893677e-01 -5.316358059644699097e-02 -6.843293458223342896e-02
3.607177138328552246e-01 -7.690262049436569214e-02 1.190748624503612518e-02
1.232375204563140869e-02 -5.366805195808410645e-02 6.136385351419448853e-02
2.001876085996627808e-01 5.945800244808197021e-02 -8.442646265029907227e-02
-4.478912949562072754e-01 7.441075146198272705e-02 2.116877026855945587e-02
7.719799131155014038e-02 -4.890171438455581665e-02 7.711075246334075928e-02
-3.891827464103698730e-01 1.083638370037078857e-01 -1.307915709912776947e-02
-3.240104019641876221e-02 5.714110657572746277e-02 1.140231564640998840e-01
5.947989225387573242e-01 8.745991438627243042e-02 9.774429351091384888e-02
6.265808939933776855e-01 1.092850044369697571e-02 -2.387648262083530426e-02
-3.706987500190734863e-01 1.115448847413063049e-01 -1.405157521367073059e-02
1.684543788433074951e-01 1.349332034587860107e-01 1.361198630183935165e-02
1.837918609380722046e-01 -3.188539296388626099e-03 1.236488670110702515e-01
-1.845491677522659302e-01 -3.100338578224182129e-02 -9.145299345254898071e-02
-4.615329504013061523e-01 9.193716943264007568e-02 -1.922337152063846588e-02
1.033495664596557617e-01 1.369243264198303223e-01 1.201983727514743805e-02
4.512861371040344238e-01 -4.729121178388595581e-02 9.677341580390930176e-02
3.762968778610229492e-01 1.207436807453632355e-02 -7.387863099575042725e-02
2.979739904403686523e-01 -6.148026883602142334e-02 -4.639250785112380981e-02
-4.048981666564941406e-01 1.053595319390296936e-01 -2.049632929265499115e-02
2.443521767854690552e-01 1.004472896456718445e-01 -4.775828123092651367e-02
4.987576603889465332e-02 -7.565221935510635376e-02 9.430863894522190094e-03
1.862201988697052002e-01 9.036171436309814453e-02 -6.541603803634643555e-02
6.892882287502288818e-03 1.208442002534866333e-01 7.977226376533508301e-02
4.435725212097167969e-01 -5.877903848886489868e-02 7.930443435907363892e-02
4.505074024200439453e-01 2.445515990257263184e-02 -6.084468960762023926e-02
-4.610030055046081543e-01 7.102884352207183838e-03 -7.463402301073074341e-02
7.146894931793212891e-01 -3.084957227110862732e-02 7.015648484230041504e-02
4.516360163688659668e-01 5.725381895899772644e-03 -6.176225841045379639e-02
9.398032724857330322e-02 1.205681934952735901e-01 -3.772878646850585938e-02
-2.852103114128112793e-02 -1.401196047663688660e-02 9.598121792078018188e-02
2.561956346035003662e-01 1.317158490419387817e-01 2.353785187005996704e-02
2.077639997005462646e-01 9.889087826013565063e-02 -5.443932861089706421e-02
3.105560541152954102e-01 -2.329781278967857361e-02 1.188686415553092957e-01
1.629268676042556763e-01 1.105610281229019165e-01 -4.574402421712875366e-02
5.344985723495483398e-01 9.136714041233062744e-02 1.065434589982032776e-01
1.687271296977996826e-01 7.879482209682464600e-02 -7.648412138223648071e-02
3.982914090156555176e-01 -3.742967545986175537e-02 1.087916791439056396e-01
1.286008954048156738e-02 -6.793141365051269531e-02 3.218078985810279846e-02
5.840674042701721191e-01 4.723632335662841797e-02 1.311088204383850098e-01
1.365217119455337524e-01 2.868214063346385956e-02 1.297439634799957275e-01
5.342788100242614746e-01 -5.279461294412612915e-02 -1.152772270143032074e-02
-7.828764617443084717e-02 -1.814939454197883606e-02 8.577547222375869751e-02
-1.891596764326095581e-01 4.850744456052780151e-02 -1.079200729727745056e-01
-2.170483916997909546e-01 -3.027162328362464905e-02 -8.947589993476867676e-02
3.587146997451782227e-01 -5.393572151660919189e-02 8.928467333316802979e-02
6.199591755867004395e-01 -2.912106737494468689e-02 -1.264890283346176147e-02
1.495021432638168335e-01 5.317614227533340454e-02 1.312497854232788086e-01
5.565152764320373535e-01 -1.979916170239448547e-02 -3.517912328243255615e-02
2.021363377571105957e-01 3.203399851918220520e-02 -9.312050044536590576e-02
5.180929601192474365e-02 -6.666398793458938599e-02 4.308161512017250061e-02
5.833398103713989258e-01 -2.925138175487518311e-02 -2.317490987479686737e-02
7.593266963958740234e-01 -9.980510920286178589e-03 8.119037747383117676e-02
1.400274336338043213e-01 -3.583607822656631470e-02 9.803190082311630249e-02
4.912469983100891113e-01 1.106361001729965210e-01 3.719191253185272217e-02
1.877840757369995117e-01 1.173667982220649719e-01 -3.210756927728652954e-02
1.376943886280059814e-01 1.061872616410255432e-01 1.066300496459007263e-01
9.169152379035949707e-02 -3.830869495868682861e-02 -8.684129267930984497e-02
-3.141189217567443848e-01 3.807909414172172546e-02 6.659856438636779785e-02
-1.095353364944458008e-01 5.100408941507339478e-02 -1.069492995738983154e-01
1.575022488832473755e-01 -7.597964257001876831e-02 3.120604157447814941e-02
5.901303142309188843e-02 8.806229382753372192e-02 1.139348447322845459e-01
3.325622528791427612e-02 -1.589969545602798462e-02 1.025571897625923157e-01
6.841914057731628418e-01 -7.225546985864639282e-03 -3.485752269625663757e-03
3.646539896726608276e-02 6.396993249654769897e-02 -9.600477665662765503e-02
1.369346827268600464e-01 3.129910677671432495e-03 -9.989057481288909912e-02
-2.076821774244308472e-01 3.273894637823104858e-02 8.746150135993957520e-02
-1.262517124414443970e-01 -6.125099211931228638e-02 1.243172492831945419e-02
-1.387543976306915283e-02 6.130943074822425842e-02 -9.996289759874343872e-02
6.641498208045959473e-01 8.120657503604888916e-02 5.539284646511077881e-02
2.247396111488342285e-01 -6.380815058946609497e-02 -5.099036544561386108e-02
6.994248628616333008e-01 1.063033752143383026e-02 -8.459901437163352966e-04
2.623921036720275879e-01 1.075971797108650208e-01 -3.592477738857269287e-02
-3.565948009490966797e-01 -3.106923401355743408e-02 -7.173128426074981689e-03
-3.956288099288940430e-03 1.176215708255767822e-01 -4.987303167581558228e-02
-5.254867672920227051e-01 4.210822284221649170e-02 -5.778379738330841064e-02
-3.195203840732574463e-02 1.707076653838157654e-02 1.102391332387924194e-01
6.452592611312866211e-01 7.427534461021423340e-02 2.118146233260631561e-02
4.031515717506408691e-01 1.219052895903587341e-01 4.653818160295486450e-02
6.215337514877319336e-01 1.970549486577510834e-02 1.288112998008728027e-01
5.849888920783996582e-02 -7.666382193565368652e-02 -1.593341119587421417e-02
7.804286479949951172e-01 2.953324653208255768e-02 8.119216561317443848e-02
4.776468873023986816e-01 9.469279646873474121e-02 -8.080542087554931641e-03
-5.763083696365356445e-03 -5.573777854442596436e-02 -7.142832875251770020e-02
6.471762061119079590e-01 2.625140175223350525e-02 1.260526478290557861e-01
6.878061294555664062e-01 2.635511569678783417e-02 -2.489188686013221741e-03
5.924955010414123535e-01 9.532645344734191895e-02 7.642494887113571167e-02
6.290502548217773438e-01 -1.849246770143508911e-02 1.113625764846801758e-01
2.586199045181274414e-01 -5.439559370279312134e-02 -5.992572754621505737e-02
6.951619386672973633e-01 -3.671527653932571411e-02 3.347155824303627014e-02
8.287097513675689697e-02 -7.485880702733993530e-02 -3.093030489981174469e-02
6.303978562355041504e-01 -5.161529034376144409e-02 3.432008251547813416e-02
2.096018493175506592e-01 7.822678238153457642e-02 1.282233446836471558e-01
1.308988481760025024e-01 5.677196383476257324e-02 -9.227453172206878662e-02
2.790201902389526367e-01 2.923249267041683197e-02 -8.517003059387207031e-02
1.908250451087951660e-01 3.947037085890769958e-02 1.343973278999328613e-01
-2.785414457321166992e-01 1.174984723329544067e-01 -3.881385922431945801e-02
5.790650248527526855e-01 7.070811092853546143e-02 -8.397979661822319031e-03
5.329856872558593750e-01 9.099788218736648560e-02 3.297347575426101685e-03
2.568025290966033936e-01 -4.262727499008178711e-02 9.982228279113769531e-02
-2.079331129789352417e-01 9.013477712869644165e-02 7.758703827857971191e-02
5.344682335853576660e-01 -1.748635619878768921e-02 -4.110616445541381836e-02
5.418782234191894531e-01 3.650078177452087402e-02 1.362576931715011597e-01
6.312609314918518066e-01 -4.153525829315185547e-02 8.324436098337173462e-02
-4.155716896057128906e-01 -2.045050263404846191e-02 -5.061011016368865967e-02
-2.484768480062484741e-01 -1.969877630472183228e-02 -9.542071819305419922e-02
-4.483694434165954590e-01 7.929864525794982910e-02 -6.521444767713546753e-02
6.079478263854980469e-01 8.846521377563476562e-02 3.125839680433273315e-02
3.824893832206726074e-01 1.016803756356239319e-01 -2.154972590506076813e-02
-3.111979365348815918e-01 1.128334701061248779e-01 -4.360119998455047607e-02
-2.297722548246383667e-01 9.495475888252258301e-02 7.013723999261856079e-02
-1.843418627977371216e-01 -3.815101832151412964e-02 4.456458985805511475e-02
1.408068835735321045e-01 -7.265909016132354736e-02 4.062759131193161011e-02
4.994015693664550781e-01 -6.176021695137023926e-02 6.648822873830795288e-02
4.622754454612731934e-01 -6.473047286272048950e-02 -8.951880037784576416e-03
-2.007600218057632446e-01 -3.904759883880615234e-02 3.897146508097648621e-02
4.078721404075622559e-01 -6.441204994916915894e-02 -2.328186668455600739e-02
7.203780412673950195e-01 -1.383451744914054871e-02 1.494149118661880493e-02
2.979239821434020996e-01 7.236482948064804077e-02 1.332313716411590576e-01
7.516860365867614746e-01 5.112790316343307495e-02 5.409847199916839600e-02
-1.347782164812088013e-01 -5.917234718799591064e-02 -5.402635782957077026e-02
6.658580303192138672e-01 2.453999966382980347e-02 1.231691762804985046e-01
5.366149544715881348e-01 7.468031346797943115e-02 -1.659308560192584991e-02
-2.457519918680191040e-01 5.693949759006500244e-02 8.147639036178588867e-02
-4.457315802574157715e-02 -6.259528547525405884e-02 -5.775180459022521973e-02
-4.309556484222412109e-01 5.521128326654434204e-02 -8.668810129165649414e-02
3.852965831756591797e-01 -7.303208112716674805e-02 -5.195334553718566895e-03
-3.998252153396606445e-01 1.014337465167045593e-01 -4.373071342706680298e-02
-2.118741720914840698e-01 -5.393001437187194824e-02 -4.887186735868453979e-02
3.040004372596740723e-01 1.292136907577514648e-01 2.995636686682701111e-02
5.243575572967529297e-01 1.044680029153823853e-01 3.166271746158599854e-02
4.218940734863281250e-01 -4.890135675668716431e-02 9.559337794780731201e-02
3.208285868167877197e-01 1.242499798536300659e-01 1.126969233155250549e-02
2.767847180366516113e-01 8.700247853994369507e-03 1.335304677486419678e-01
-1.259371638298034668e-02 7.493548095226287842e-02 1.124364733695983887e-01
-3.951521217823028564e-02 1.354137063026428223e-01 -6.157999858260154724e-03
-3.339987993240356445e-02 -3.193733841180801392e-02 -9.488268196582794189e-02
5.411066114902496338e-02 1.279248297214508057e-01 -2.641071937978267670e-02
1.905725896358489990e-01 1.286774575710296631e-01 -6.946973502635955811e-03
-1.056167483329772949e-01 -6.369090080261230469e-02 1.140616647899150848e-02
-2.732673287391662598e-01 -4.725228250026702881e-02 -4.592930525541305542e-02
-4.142881631851196289e-01 9.342228621244430542e-02 -5.559961497783660889e-02
1.380501240491867065e-01 1.185337305068969727e-01 9.247798472642898560e-02
5.437654256820678711e-01 1.029815748333930969e-01 7.659776508808135986e-02
2.076616734266281128e-01 -5.988983064889907837e-02 -5.815278738737106323e-02
5.177118182182312012e-01 -1.074742898344993591e-02 -4.683850705623626709e-02
3.477605432271957397e-02 -7.575886696577072144e-02 1.159640029072761536e-03
3.924109339714050293e-01 1.288651302456855774e-02 -7.145167142152786255e-02
-2.249361127614974976e-01 -5.527915060520172119e-02 -2.781541459262371063e-02
2.311779111623764038e-01 -7.782823592424392700e-02 -1.487673074007034302e-02
5.575749278068542480e-01 6.632354110479354858e-02 -1.869080401957035065e-02
1.574925631284713745e-01 -5.259367823600769043e-02 8.088222891092300415e-02
-3.076207637786865234e-01 5.831629782915115356e-02 6.836098432540893555e-02
-3.072399497032165527e-01 -4.147831350564956665e-03 4.961308091878890991e-02
-2.159906178712844849e-01 -4.110017418861389160e-02 3.126272559165954590e-02
-2.064678221940994263e-01 -5.739413201808929443e-02 -2.904891781508922577e-02
3.013041019439697266e-01 -7.887616753578186035e-02 1.647768542170524597e-02
9.354200959205627441e-02 3.939107060432434082e-03 -1.030497774481773376e-01
-9.894824028015136719e-02 8.298479020595550537e-03 9.792730212211608887e-02
-2.324058860540390015e-01 4.913335293531417847e-02 -1.068564802408218384e-01
-2.601256370544433594e-01 1.412568148225545883e-02 7.158198952674865723e-02
2.097883522510528564e-01 1.347967386245727539e-01 4.202433675527572632e-02
3.528293967247009277e-01 -6.890479475259780884e-03 1.297366321086883545e-01
4.607921838760375977e-01 -3.592964261770248413e-02 1.092689484357833862e-01
-2.194412797689437866e-01 1.132838353514671326e-01 5.349863320589065552e-02
4.277547597885131836e-01 -7.327182590961456299e-02 3.272067010402679443e-02
4.890720248222351074e-01 -3.498436510562896729e-02 1.091073304414749146e-01
-2.501131296157836914e-01 7.474479079246520996e-02 7.671724259853363037e-02
-3.514603376388549805e-01 4.805379360914230347e-02 5.835385620594024658e-02
-4.339575171470642090e-01 -9.154293686151504517e-03 -4.137894138693809509e-03
1.671167463064193726e-02 6.188467517495155334e-02 -9.813942760229110718e-02
3.823064565658569336e-01 1.225694194436073303e-01 3.091555088758468628e-02
4.006462097167968750e-01 -1.132066175341606140e-02 1.280737370252609253e-01
-4.265013337135314941e-01 -1.811682060360908508e-02 -2.385078556835651398e-02
-1.739200502634048462e-01 -5.792511999607086182e-02 4.003252834081649780e-03
4.213954806327819824e-01 1.000640913844108582e-01 1.103988662362098694e-01
-3.117271661758422852e-01 -3.670086711645126343e-02 3.510877490043640137e-03
-2.235902398824691772e-01 -4.402703791856765747e-02 -7.086067646741867065e-02
7.190124392509460449e-01 -3.571864217519760132e-03 1.040795296430587769e-01
-5.044852495193481445e-01 8.461294695734977722e-03 -3.635121881961822510e-02
4.220749139785766602e-01 -7.124619930982589722e-02 4.775354266166687012e-02
6.385362148284912109e-01 8.297309279441833496e-02 8.903868496417999268e-02
6.798899769783020020e-01 5.219244211912155151e-02 1.135296672582626343e-01
-7.077556848526000977e-02 -2.742080390453338623e-02 -9.791746735572814941e-02
-4.177057147026062012e-01 -4.581127315759658813e-03 -7.872578501701354980e-02
6.855039298534393311e-02 1.343236267566680908e-01 -6.168622523546218872e-03
-5.271170735359191895e-01 5.578485131263732910e-02 -1.770270802080631256e-02
2.969717234373092651e-02 3.408560529351234436e-02 -1.060430780053138733e-01
1.548325717449188232e-01 -7.893680036067962646e-02 -1.109603792428970337e-02
8.298714458942413330e-02 1.055566594004631042e-01 1.037545055150985718e-01
4.092964529991149902e-02 3.751167282462120056e-02 1.222813352942466736e-01
-2.628861069679260254e-01 -4.831001162528991699e-02 -7.556397467851638794e-03
1.692743599414825439e-02 1.299225986003875732e-01 -2.403517998754978180e-02
2.228177189826965332e-01 4.023191705346107483e-02 -8.910751342773437500e-02
-2.695013880729675293e-01 4.824078828096389771e-02 7.712139189243316650e-02
-5.439940094947814941e-02 9.357529878616333008e-02 -8.062627911567687988e-02
5.743067860603332520e-01 -4.871475696563720703e-02 8.258194476366043091e-02
-1.279520541429519653e-01 -4.554387927055358887e-02 4.700771719217300415e-02
-4.690364599227905273e-01 1.121823862195014954e-02 4.042269662022590637e-03
6.667940318584442139e-02 -4.692756384611129761e-02 -8.075296878814697266e-02
5.167899280786514282e-02 1.652777753770351410e-02 -1.063289791345596313e-01
-3.176261782646179199e-01 9.932328015565872192e-02 4.520908743143081665e-02
2.988185882568359375e-01 1.159135103225708008e-01 -1.562872529029846191e-02
1.698289513587951660e-01 1.254250109195709229e-01 8.174373954534530640e-02
3.800246715545654297e-01 -3.517524152994155884e-02 1.108628734946250916e-01
3.550691306591033936e-01 8.342306315898895264e-02 -4.760812968015670776e-02
-4.805097579956054688e-01 2.847081236541271210e-02 -7.831328362226486206e-02
3.527202010154724121e-01 1.247344315052032471e-01 6.501735001802444458e-02
-1.700801998376846313e-01 6.393370032310485840e-02 -1.022854298353195190e-01
-2.307002395391464233e-01 6.650766730308532715e-02 8.281484991312026978e-02
-1.555515974760055542e-01 3.734225779771804810e-02 -1.106364205479621887e-01
5.490913391113281250e-01 8.019580692052841187e-02 -6.880998611450195312e-03
3.443037271499633789e-01 6.216059625148773193e-02 1.371274739503860474e-01
6.193279474973678589e-02 -3.421641141176223755e-02 9.141189604997634888e-02
-2.812018990516662598e-01 -4.773576557636260986e-02 -2.852965332567691803e-02
-5.751588940620422363e-02 9.093781933188438416e-03 1.041455268859863281e-01
3.665086925029754639e-01 -4.518437385559082031e-02 -5.499666184186935425e-02
5.284966230392456055e-01 -4.185051470994949341e-02 -2.681181766092777252e-02
-2.923462986946105957e-01 4.483116045594215393e-02 -1.053368449211120605e-01
4.338535070419311523e-01 5.281803756952285767e-02 -5.459783971309661865e-02
-8.996866643428802490e-02 2.343570254743099213e-02 -1.114819869399070740e-01
1.349741220474243164e-02 1.370965838432312012e-01 3.620998933911323547e-03
-4.984598755836486816e-01 2.255115658044815063e-02 -3.082025796175003052e-03
9.213192760944366455e-02 1.210451573133468628e-01 8.646491169929504395e-02
4.268116354942321777e-01 -2.459700778126716614e-02 -5.866242200136184692e-02
-1.936967521905899048e-01 1.239832267165184021e-01 4.004944115877151489e-02
5.063401162624359131e-02 -3.333374857902526855e-02 -9.201855957508087158e-02
-1.739997714757919312e-01 -5.064138770103454590e-02 2.538268640637397766e-02
3.894416093826293945e-01 4.142313078045845032e-02 -6.678580492734909058e-02
4.774366021156311035e-01 1.307076960802078247e-02 -5.717644840478897095e-02
-1.725700646638870239e-01 2.999771758913993835e-02 -1.114607974886894226e-01
6.727175712585449219e-01 -3.338555991649627686e-02 1.188179943710565567e-02
-1.460093408823013306e-01 2.680917270481586456e-02 9.667907655239105225e-02
4.212081432342529297e-01 -7.280980050563812256e-02 6.747746374458074570e-03
4.448009133338928223e-01 1.166356652975082397e-01 6.686587631702423096e-02
-4.267123341560363770e-01 1.006665974855422974e-01 -1.379679702222347260e-02
2.600424885749816895e-01 9.419523924589157104e-02 1.206415593624114990e-01
3.395653069019317627e-01 1.270199120044708252e-01 5.422489345073699951e-02
9.870622307062149048e-02 -7.721623778343200684e-02 1.377984229475259781e-02
-3.054158091545104980e-01 7.017001509666442871e-03 -1.036283150315284729e-01
3.521256446838378906e-01 -7.087940722703933716e-02 -1.999325118958950043e-02
1.444434523582458496e-01 1.161104254424571991e-02 1.264477372169494629e-01
-2.931673526763916016e-01 -3.638195991516113281e-02 1.298783812671899796e-02
7.249400019645690918e-01 5.836910009384155273e-02 4.212545976042747498e-02
-1.144451797008514404e-01 1.115506440401077271e-01 -6.177677959203720093e-02
5.240746736526489258e-01 5.104079097509384155e-02 1.351828128099441528e-01
2.277581393718719482e-01 -7.174959033727645874e-02 5.145462602376937866e-02
6.598943471908569336e-02 -7.870201021432876587e-03 -1.024550944566726685e-01
-3.878251910209655762e-01 6.700328737497329712e-02 4.581983387470245361e-02
-3.307291269302368164e-01 9.215013682842254639e-02 -7.404473423957824707e-02
6.291670799255371094e-01 -4.125157743692398071e-02 3.887863829731941223e-03
4.376259446144104004e-01 8.254049718379974365e-02 -3.259058296680450439e-02
5.700482130050659180e-01 9.055389463901519775e-02 1.675076223909854889e-02
-4.997245669364929199e-01 3.306110575795173645e-02 -7.186245173215866089e-02
6.492050290107727051e-01 2.413247525691986084e-02 -1.569749228656291962e-02
4.383018016815185547e-01 1.082510650157928467e-01 9.566257894039154053e-02
2.733237147331237793e-01 1.208467856049537659e-01 -1.058994419872760773e-02
-9.613873064517974854e-02 6.881614029407501221e-02 -9.917262196540832520e-02
1.618320941925048828e-01 9.302713721990585327e-02 1.181430742144584656e-01
-6.827870011329650879e-02 -6.972326338291168213e-02 -2.581458352506160736e-02
-5.148934721946716309e-01 5.451124534010887146e-02 -6.023851782083511353e-02
7.790156006813049316e-01 8.367707952857017517e-03 4.197198152542114258e-02
4.914697408676147461e-01 -3.143772855401039124e-02 -4.315209388732910156e-02
6.075264811515808105e-01 2.050556056201457977e-02 -2.804998122155666351e-02
-2.033109813928604126e-01 -5.699971318244934082e-02 -1.057925634086132050e-02
-1.916290819644927979e-02 2.848939038813114166e-02 1.145387217402458191e-01
-3.699496388435363770e-01 -1.813507452607154846e-02 1.381508354097604752e-02
2.254011034965515137e-01 7.131114602088928223e-02 1.315103322267532349e-01
-1.739852279424667358e-01 1.259963959455490112e-01 4.024182260036468506e-02
3.296878933906555176e-01 -1.148042827844619751e-02 1.268076300621032715e-01
3.710893988609313965e-01 1.092349812388420105e-01 -1.192616485059261322e-02
7.140203714370727539e-01 5.036649852991104126e-02 1.043886616826057434e-01
4.795354008674621582e-01 -5.974826961755752563e-02 7.422416657209396362e-02
2.079018056392669678e-01 -4.329513758420944214e-02 9.609785676002502441e-02
6.634461283683776855e-01 -3.177116438746452332e-02 9.074055403470993042e-02
6.818093061447143555e-01 4.264919459819793701e-02 2.880121581256389618e-03
2.941166162490844727e-01 -5.130069702863693237e-02 9.143750369548797607e-02
1.770304292440414429e-01 2.192080579698085785e-02 -9.686063975095748901e-02
2.728383541107177734e-01 7.579148560762405396e-02 -6.621988117694854736e-02
2.975605130195617676e-01 3.241972625255584717e-02 -8.226732164621353149e-02
-3.294398188591003418e-01 -3.385259956121444702e-02 -6.302427500486373901e-02
-1.310142129659652710e-01 1.281224638223648071e-01 -2.907257713377475739e-02
5.158001184463500977e-01 9.905387461185455322e-02 1.228994689881801605e-02
5.613418817520141602e-01 1.007338464260101318e-01 4.317206144332885742e-02
1.333276182413101196e-02 9.126576036214828491e-02 -7.948023825883865356e-02
4.781009554862976074e-01 1.089977398514747620e-01 2.241685241460800171e-02
-3.637592494487762451e-02 1.084028556942939758e-01 8.972646296024322510e-02
-2.906477451324462891e-01 -2.026664465665817261e-02 3.882760927081108093e-02
1.814241409301757812e-01 1.023044139146804810e-01 -5.389239639043807983e-02
5.026260614395141602e-01 8.768193423748016357e-03 -5.246601253747940063e-02
4.827564954757690430e-01 -6.780149787664413452e-02 4.844217747449874878e-02
1.475387066602706909e-01 6.958745419979095459e-02 -8.442343026399612427e-02
7.337839603424072266e-01 -1.693769916892051697e-02 8.652830123901367188e-02
-9.126161038875579834e-02 -5.644587427377700806e-02 -6.612288206815719604e-02
-4.171891808509826660e-01 1.423840038478374481e-02 -9.058077633380889893e-02
-3.435281515121459961e-01 -2.376091852784156799e-02 1.590807735919952393e-02
1.866375505924224854e-01 1.338691562414169312e-01 1.226328685879707336e-02
6.378646939992904663e-02 -7.401894778013229370e-02 2.247257158160209656e-02
5.502517223358154297e-01 9.767924249172210693e-02 2.425732836127281189e-02
-2.383870035409927368e-01 1.052932888269424438e-01 -6.648530066013336182e-02
7.115909457206726074e-01 -1.912365853786468506e-02 9.278236329555511475e-02
5.294430255889892578e-01 1.335890404880046844e-02 -4.695268720388412476e-02
1.727711409330368042e-01 1.450725551694631577e-02 1.294012218713760376e-01
-5.197875499725341797e-01 1.801298931241035461e-02 -3.274478018283843994e-02
2.662011086940765381e-01 6.608389317989349365e-02 1.345865577459335327e-01
-8.958654105663299561e-02 1.332303583621978760e-01 3.791815787553787231e-02
-3.840575814247131348e-01 -2.935376390814781189e-02 -3.696292638778686523e-02
2.594393491744995117e-01 1.323281526565551758e-01 4.724868386983871460e-02
-9.188424050807952881e-02 1.360272467136383057e-01 1.646399870514869690e-02
2.183894217014312744e-01 1.514461077749729156e-02 -9.324527531862258911e-02
3.000808358192443848e-01 -1.259772479534149170e-02 -8.094043284654617310e-02
5.021219849586486816e-01 3.998536989092826843e-02 1.382129639387130737e-01
-3.609228134155273438e-01 6.818656623363494873e-02 5.311617255210876465e-02
3.612809181213378906e-01 1.256373971700668335e-01 4.436317086219787598e-02
7.682933807373046875e-01 3.303459286689758301e-02 4.161383211612701416e-02
4.130219221115112305e-01 1.545129716396331787e-02 1.382623910903930664e-01
-4.657247662544250488e-02 1.076881662011146545e-01 -6.552714854478836060e-02
-1.868930011987686157e-01 -1.319957897067070007e-02 -1.032925471663475037e-01
3.564083576202392578e-01 1.751821488142013550e-02 1.382692605257034302e-01
3.816506862640380859e-01 -1.379648223519325256e-02 -6.970860064029693604e-02
2.901893109083175659e-02 -3.399071097373962402e-02 -9.231821447610855103e-02
-6.417930126190185547e-04 7.812937721610069275e-03 1.108742803335189819e-01
6.014034748077392578e-01 6.612311303615570068e-02 -5.995510146021842957e-03
2.459928393363952637e-01 -7.862730324268341064e-02 2.525498345494270325e-02
-1.000673770904541016e-01 -1.510819047689437866e-02 -1.043400466442108154e-01
3.497778177261352539e-01 1.209648028016090393e-01 9.709134697914123535e-03
-1.412023454904556274e-01 1.313959509134292603e-01 3.151204809546470642e-02
2.609097659587860107e-01 -7.049819827079772949e-02 5.645176768302917480e-02
6.609940528869628906e-01 7.694457471370697021e-02 9.125359356403350830e-02
1.213308945298194885e-01 -1.112993806600570679e-02 1.145701855421066284e-01
-4.232071042060852051e-01 6.874410435557365417e-03 2.122318558394908905e-02
-9.931227564811706543e-02 1.273161619901657104e-01 -3.272851556539535522e-02
1.148414015769958496e-01 4.641763865947723389e-03 -1.016863584518432617e-01
5.234801769256591797e-01 -6.583670526742935181e-02 3.808360546827316284e-02
5.373650193214416504e-01 7.289356738328933716e-02 1.243314743041992188e-01
-1.507311612367630005e-01 -6.260666996240615845e-03 -1.072460561990737915e-01
-1.086169779300689697e-01 -5.427985638380050659e-02 3.612025454640388489e-02
-4.177613258361816406e-01 9.444096684455871582e-02 1.359291933476924896e-02
2.740885019302368164e-01 5.419996008276939392e-02 -7.823479175567626953e-02
6.091241836547851562e-01 -4.799026995897293091e-02 7.144421804696321487e-03
1.367695182561874390e-01 1.369092166423797607e-01 4.042048007249832153e-02
-1.262801736593246460e-01 1.869124546647071838e-02 9.756909310817718506e-02
1.212851256132125854e-01 -3.598274290561676025e-02 9.612145274877548218e-02
9.869902580976486206e-02 -7.838305085897445679e-02 -3.312963992357254028e-03
-5.274027585983276367e-03 -7.349504530429840088e-02 1.687088981270790100e-03
6.525464057922363281e-01 6.729540973901748657e-02 1.086263954639434814e-01
5.491212010383605957e-03 -7.901728153228759766e-03 -1.051597073674201965e-01
4.176316857337951660e-01 -2.828501164913177490e-03 1.322384625673294067e-01
3.651316165924072266e-01 -4.546470940113067627e-03 -7.421147078275680542e-02
5.372692346572875977e-01 -5.329668521881103516e-02 7.999952137470245361e-02
5.053640902042388916e-02 1.384202241897583008e-01 2.305104210972785950e-02
-3.780435323715209961e-01 1.055012196302413940e-01 1.243473030626773834e-02
6.001183390617370605e-01 -3.594580292701721191e-02 -1.282085664570331573e-02
3.422808647155761719e-01 -7.082962244749069214e-02 5.637189000844955444e-02
4.531459212303161621e-01 -6.899890303611755371e-02 5.112547427415847778e-02
6.451741456985473633e-01 2.196699380874633789e-03 -1.821677200496196747e-02
-1.662370115518569946e-01 2.049579471349716187e-02 9.168177098035812378e-02
4.574585556983947754e-01 1.026204228401184082e-01 -6.390223279595375061e-04
-1.415732651948928833e-01 3.179175779223442078e-03 8.885408937931060791e-02
1.135338470339775085e-01 1.245633140206336975e-01 8.182425796985626221e-02
-1.083906888961791992e-01 2.006612718105316162e-02 -1.117825284600257874e-01
9.943365305662155151e-02 6.315301358699798584e-02 -9.197910130023956299e-02
-2.220212370157241821e-01 8.216683566570281982e-02 7.916872948408126831e-02
8.225991576910018921e-02 1.380681395530700684e-01 2.011140808463096619e-02
7.240983098745346069e-02 1.223613023757934570e-01 -3.647913038730621338e-02
-2.583059072494506836e-01 1.121850758790969849e-01 -5.386731773614883423e-02
4.123795628547668457e-01 4.663033783435821533e-02 -6.111437082290649414e-02
7.257028222084045410e-01 3.860335797071456909e-02 1.900512725114822388e-02
1.084251105785369873e-01 -1.988793537020683289e-02 -9.603058546781539917e-02
-4.152157306671142578e-01 5.250704288482666016e-02 -9.047085046768188477e-02
-8.080863952636718750e-02 9.340394288301467896e-02 9.573677927255630493e-02
-4.416218400001525879e-02 1.278439462184906006e-01 6.134880334138870239e-02
2.687368392944335938e-01 -7.725452631711959839e-02 -1.276746392250061035e-02
5.157812833786010742e-01 -1.886228099465370178e-02 1.211694329977035522e-01
-1.002024114131927490e-01 -2.023744210600852966e-02 8.059602975845336914e-02
-4.775545597076416016e-01 6.548036634922027588e-02 1.255720108747482300e-02
5.933344960212707520e-01 -1.560027897357940674e-02 1.177363544702529907e-01
-2.799852192401885986e-02 -6.328959017992019653e-02 -5.747925490140914917e-02
-1.301284283399581909e-01 1.019203290343284607e-01 -7.379409670829772949e-02
-3.522905707359313965e-01 1.025927290320396423e-01 -5.592387169599533081e-02
2.998753190040588379e-01 -7.618670165538787842e-02 3.843082860112190247e-02
-3.284846544265747070e-01 3.055422380566596985e-02 6.167621910572052002e-02
-2.946799993515014648e-01 -4.363580793142318726e-02 -9.776115417480468750e-03
1.528036743402481079e-01 1.301493048667907715e-01 7.066847383975982666e-02
-2.581490278244018555e-01 9.833320975303649902e-02 -7.386793196201324463e-02
2.353128492832183838e-01 2.338416688144207001e-02 -9.095820039510726929e-02
2.948696017265319824e-01 6.801325082778930664e-02 -6.832112371921539307e-02
1.551033258438110352e-01 9.161399304866790771e-02 -6.768447160720825195e-02
1.150956973433494568e-01 1.131479442119598389e-01 -4.740056395530700684e-02
-2.455884069204330444e-01 -5.259313434362411499e-02 -2.236495725810527802e-02
2.043762803077697754e-01 -1.474694535136222839e-02 1.189589500427246094e-01
7.266747951507568359e-02 7.270312309265136719e-02 1.214325800538063049e-01
-1.969769746065139771e-01 1.282507777214050293e-01 -1.948339305818080902e-02
-7.297271490097045898e-02 6.012564152479171753e-02 1.086392998695373535e-01
3.156298398971557617e-02 -6.953365355730056763e-02 3.147395700216293335e-02
7.800616323947906494e-02 9.707041084766387939e-03 1.200255155563354492e-01
3.165437579154968262e-01 7.268173992633819580e-02 -6.219648569822311401e-02
-4.225135445594787598e-01 7.895548641681671143e-02 2.841749414801597595e-02
-3.183983564376831055e-01 -1.374918967485427856e-02 3.774549812078475952e-02
6.066461801528930664e-01 7.929642498493194580e-02 1.069223806262016296e-01
3.601640760898590088e-01 -3.839041292667388916e-02 1.076053306460380554e-01
2.462620139122009277e-01 -7.972022891044616699e-02 3.611782565712928772e-03
4.325857162475585938e-01 5.920620635151863098e-02 1.371201574802398682e-01
-3.361507654190063477e-01 1.085204556584358215e-01 2.579227834939956665e-02
-4.131171703338623047e-01 -7.282152771949768066e-03 1.023585721850395203e-02
3.239272236824035645e-01 -5.647862702608108521e-02 8.511687070131301880e-02
3.673529624938964844e-01 9.203714877367019653e-02 -3.682509809732437134e-02
-2.197653204202651978e-01 6.667603552341461182e-02 -1.002539098262786865e-01
4.557386636734008789e-01 4.005737602710723877e-02 -5.594052374362945557e-02
2.974867820739746094e-01 1.235581785440444946e-01 2.101583406329154968e-03
7.537810802459716797e-01 -1.880475133657455444e-02 4.733330011367797852e-02
2.580757141113281250e-01 -6.619384884834289551e-02 -4.368291050195693970e-02
1.890438497066497803e-01 -3.535039722919464111e-02 1.025631204247474670e-01
1.910831779241561890e-01 1.114689707756042480e-01 1.032573133707046509e-01
3.365925550460815430e-01 -7.661733776330947876e-02 -1.488046720623970032e-03
-4.217855930328369141e-01 6.824433058500289917e-02 -8.142508566379547119e-02
1.537755876779556274e-02 7.741766422986984253e-02 -8.970043808221817017e-02
3.617165982723236084e-02 5.929821729660034180e-02 1.211197823286056519e-01
4.063621759414672852e-01 -7.388591021299362183e-02 3.671944886445999146e-02
4.337489008903503418e-01 -5.210172384977340698e-03 -6.355629861354827881e-02
-2.067925482988357544e-01 -1.388176158070564270e-02 -1.020034104585647583e-01
7.074695825576782227e-02 -6.670766323804855347e-02 -5.355547368526458740e-02
6.881366372108459473e-01 6.736161559820175171e-02 3.279317170381546021e-02
1.926931738853454590e-01 1.339983940124511719e-01 5.423729866743087769e-02
3.870049118995666504e-01 -6.107187271118164062e-02 -3.326376527547836304e-02
5.977723598480224609e-01 -9.319745004177093506e-03 -2.889603935182094574e-02
2.217935025691986084e-01 1.313762962818145752e-01 9.523075073957443237e-03
6.335098147392272949e-01 2.838555723428726196e-02 -1.918769814074039459e-02
-4.443373084068298340e-01 -1.389572769403457642e-02 -4.384298622608184814e-02
-6.439462304115295410e-02 5.258224159479141235e-02 -1.053587347269058228e-01
4.754873514175415039e-01 7.333255559206008911e-02 -3.282007575035095215e-02
6.915065646171569824e-01 6.142148375511169434e-02 1.023082956671714783e-01
3.001590073108673096e-01 -6.676435470581054688e-02 6.632597744464874268e-02
-3.127778768539428711e-01 -3.953608870506286621e-02 -5.442468822002410889e-02
6.287646293640136719e-01 6.499584019184112549e-02 1.162585243582725525e-01
4.818378686904907227e-01 1.131012737751007080e-01 6.170655041933059692e-02
8.348500728607177734e-02 -5.601920187473297119e-02 -7.027718424797058105e-02
-3.376244008541107178e-02 -5.464809387922286987e-02 5.177492648363113403e-02
6.522577404975891113e-01 -1.919598132371902466e-02 -8.999207988381385803e-03
2.465967237949371338e-01 -3.977265208959579468e-03 1.271571815013885498e-01
-3.388442993164062500e-01 -2.099521830677986145e-02 -8.129699528217315674e-02
-4.783021807670593262e-01 5.983667448163032532e-03 -8.259177207946777344e-03
-4.062974452972412109e-02 1.352490782737731934e-01 3.940877318382263184e-02
-2.599343657493591309e-01 1.201693415641784668e-01 -3.513161092996597290e-02
-1.604088097810745239e-01 -3.761670738458633423e-02 5.100980401039123535e-02
-1.295839697122573853e-01 -1.652002707123756409e-02 -1.033574566245079041e-01
3.525612652301788330e-01 1.147668585181236267e-01 -5.573213100433349609e-03
5.312780290842056274e-02 5.874095484614372253e-03 1.161101311445236206e-01
2.043067812919616699e-01 -1.128004863858222961e-03 -9.358140081167221069e-02
3.139556050300598145e-01 1.184699237346649170e-01 -6.876969709992408752e-03
3.045659363269805908e-01 1.102491691708564758e-01 1.044785082340240479e-01
3.185441493988037109e-01 8.958213031291961670e-02 1.242451071739196777e-01
-3.187466263771057129e-01 5.287794768810272217e-02 -1.013188213109970093e-01
-3.287228941917419434e-01 2.407478913664817810e-02 -1.045156493782997131e-01
3.340229392051696777e-01 1.104080080986022949e-01 -1.828144676983356476e-02
-5.015410482883453369e-02 -2.738114446401596069e-02 -9.792272001504898071e-02
2.948114871978759766e-01 -1.659056916832923889e-02 1.226755529642105103e-01
-4.514692425727844238e-01 8.828677237033843994e-02 4.227599129080772400e-03
1.683209836483001709e-01 4.414553195238113403e-02 1.330246627330780029e-01
-4.357392787933349609e-01 6.318526715040206909e-02 3.119073435664176941e-02
-3.665772080421447754e-01 -3.092312812805175781e-02 -5.168224871158599854e-02
5.834800601005554199e-01 -5.697223544120788574e-02 5.737900733947753906e-02
-6.647139787673950195e-03 1.358704715967178345e-01 -4.094213247299194336e-03
1.029762178659439087e-01 -7.456948608160018921e-02 -3.289757668972015381e-02
-1.108078509569168091e-01 9.101603925228118896e-02 -8.427862077951431274e-02
-4.693881273269653320e-01 -2.082813531160354614e-03 -5.800685286521911621e-02
1.045685857534408569e-01 -2.438312768936157227e-02 1.042745783925056458e-01
4.693748354911804199e-01 7.682539522647857666e-02 1.276257336139678955e-01
1.495717316865921021e-01 7.582201063632965088e-02 1.260304152965545654e-01
-1.808266490697860718e-01 1.298930197954177856e-01 -1.533123478293418884e-02
