1.029627397656440735e-01 -5.576498433947563171e-02 1.209746301174163818e-01
1.921863555908203125e-01 -6.169468164443969727e-03 1.683632731437683105e-01
2.121854871511459351e-01 -5.486620590090751648e-03 1.420073360204696655e-01
1.201541870832443237e-01 -9.588921442627906799e-03 1.562310159206390381e-01
1.786885410547256470e-01 -4.664081335067749023e-02 1.364863663911819458e-01
2.332634478807449341e-01 -1.246385648846626282e-02 1.423726975917816162e-01
2.372253537178039551e-01 -2.859277650713920593e-02 1.466353237628936768e-01
6.428788602352142334e-02 -1.637370139360427856e-02 1.319297552108764648e-01
1.333160996437072754e-01 -5.838042497634887695e-02 1.392519325017929077e-01
6.916330009698867798e-02 -4.658463224768638611e-02 1.102846115827560425e-01
3.308465331792831421e-02 -2.352492511272430420e-02 1.327057480812072754e-01
9.092475473880767822e-02 -1.112875156104564667e-02 1.368551552295684814e-01
2.217049598693847656e-01 -1.977771706879138947e-02 1.755149215459823608e-01
5.602861940860748291e-02 -4.493138566613197327e-02 1.584310829639434814e-01
1.131240054965019226e-01 -2.122198790311813354e-02 1.660924255847930908e-01
7.430924475193023682e-02 -5.256792902946472168e-02 1.585166752338409424e-01
2.967874705791473389e-02 -4.921215772628784180e-02 1.087529808282852173e-01
1.392994076013565063e-01 -6.101662293076515198e-03 1.361865997314453125e-01
1.922984719276428223e-01 -3.905457630753517151e-02 1.695113629102706909e-01
-2.063496410846710205e-02 -5.516517162322998047e-02 1.303486227989196777e-01
1.007591336965560913e-01 -4.921658709645271301e-02 1.632308959960937500e-01
1.397759467363357544e-02 -6.650803238153457642e-02 1.275567561388015747e-01
1.159845292568206787e-01 -5.798304826021194458e-02 1.538506299257278442e-01
2.886780798435211182e-01 -1.202061474323272705e-01 5.337246134877204895e-02
5.603374242782592773e-01 -8.230458199977874756e-02 -4.479648545384407043e-02
2.102200537919998169e-01 -1.438465993851423264e-02 1.065929159522056580e-01
5.881797075271606445e-01 -2.281447499990463257e-02 2.421710407361388206e-03
3.204586505889892578e-01 6.215261667966842651e-02 2.787315659224987030e-02
5.372734069824218750e-01 -9.721393138170242310e-02 -4.318428412079811096e-02
1.943494230508804321e-01 9.493570774793624878e-03 1.020225137472152710e-01
1.310573369264602661e-01 8.572169393301010132e-02 1.065562106668949127e-02
-5.963900685310363770e-02 7.838588953018188477e-02 2.615011855959892273e-02
3.207953572273254395e-01 -1.205732449889183044e-01 5.347820743918418884e-02
-1.371471285820007324e-01 2.531968429684638977e-02 -5.094979330897331238e-02
2.072475850582122803e-01 -6.233043968677520752e-02 -9.420606493949890137e-02
-5.318483710289001465e-02 5.470180511474609375e-02 -5.632947757840156555e-02
4.350145757198333740e-01 -4.583940282464027405e-02 8.729959279298782349e-02
4.799717664718627930e-02 6.246102601289749146e-02 -6.114641577005386353e-02
5.807459354400634766e-02 -6.496906280517578125e-02 8.489006757736206055e-02
5.480924248695373535e-01 -4.518535733222961426e-02 5.614580586552619934e-02
1.429968476295471191e-01 -1.136461868882179260e-01 -3.614543750882148743e-02
-4.932519793510437012e-02 9.375806897878646851e-03 8.654559403657913208e-02
5.563466548919677734e-01 -4.920145869255065918e-02 -5.266130343079566956e-02
1.583611965179443359e-01 1.138245686888694763e-02 -9.589679539203643799e-02
4.197916984558105469e-01 -3.156856074929237366e-02 8.905425667762756348e-02
1.912386864423751831e-01 -1.203270778059959412e-01 -3.387217223644256592e-02
-6.916567683219909668e-02 5.424974113702774048e-02 -5.339728295803070068e-02
3.541700839996337891e-01 1.802939921617507935e-02 -7.780085504055023193e-02
-8.608669042587280273e-03 8.561291545629501343e-02 9.094463661313056946e-03
3.121760487556457520e-01 5.648664385080337524e-02 4.659765958786010742e-02
-3.550007939338684082e-03 -4.330623149871826172e-02 8.589538931846618652e-02
4.284380674362182617e-01 4.281433671712875366e-02 1.538622076623141766e-03
5.370950698852539062e-02 -1.421757228672504425e-02 1.010493263602256775e-01
3.009335994720458984e-01 -6.819165498018264771e-02 -9.276544302701950073e-02
1.677022874355316162e-02 -1.905877143144607544e-04 -8.867184817790985107e-02
2.090650945901870728e-01 -3.185315430164337158e-02 1.068285778164863586e-01
4.257202446460723877e-01 -1.095573231577873230e-01 6.020198389887809753e-02
1.126383021473884583e-01 -9.740776568651199341e-02 6.397638469934463501e-02
-5.591034889221191406e-03 -8.987311273813247681e-02 -2.378597296774387360e-02
2.530899643898010254e-01 -1.198916733264923096e-01 5.136645585298538208e-02
-8.011281490325927734e-03 -8.273088932037353516e-02 -3.869876638054847717e-02
3.097027540206909180e-01 -9.171225130558013916e-02 8.453852683305740356e-02
4.696404337882995605e-01 -1.251862794160842896e-01 -2.033301256597042084e-02
1.674284040927886963e-01 -7.903924584388732910e-02 -8.269222825765609741e-02
5.133186578750610352e-01 1.121755689382553101e-02 -2.488162927329540253e-02
5.136117339134216309e-01 -1.127824336290359497e-01 -3.206693753600120544e-02
-1.594416201114654541e-01 -1.097064744681119919e-02 -3.939579054713249207e-02
-1.022042632102966309e-01 -6.448613107204437256e-02 1.694525405764579773e-02
1.853438019752502441e-01 -4.860590398311614990e-02 -9.778275340795516968e-02
-7.412865757942199707e-03 -8.328883349895477295e-02 4.691497609019279480e-02
4.552882909774780273e-01 -1.221849769353866577e-01 -3.331395983695983887e-02
1.102742776274681091e-01 4.976619035005569458e-02 -7.501620054244995117e-02
5.287779867649078369e-02 8.716038614511489868e-02 -6.294181104749441147e-03
3.635121583938598633e-01 3.582498058676719666e-02 6.248267367482185364e-02
1.784994304180145264e-01 7.509456574916839600e-02 -3.686409071087837219e-02
-9.460783004760742188e-02 3.527494519948959351e-02 -6.008753925561904907e-02
-1.930243074893951416e-01 2.311663702130317688e-03 -2.078361250460147858e-02
1.275372505187988281e-02 7.978125661611557007e-02 3.937156125903129578e-02
5.432690382003784180e-01 -1.646082103252410889e-02 -4.366311803460121155e-02
-1.918479800224304199e-01 -1.867098733782768250e-03 3.134803473949432373e-02
6.293444335460662842e-02 -8.964888751506805420e-02 6.237886473536491394e-02
1.171868294477462769e-01 -8.821405470371246338e-02 7.550486922264099121e-02
3.659230470657348633e-01 -9.989538043737411499e-02 -7.215876877307891846e-02
1.016668677330017090e-01 6.389711797237396240e-02 -6.095012277364730835e-02
2.542488574981689453e-01 -6.042469665408134460e-02 1.009695157408714294e-01
3.783691525459289551e-01 -1.100701466202735901e-01 -6.169383972883224487e-02
3.828155994415283203e-01 -4.913382232189178467e-02 9.496188908815383911e-02
3.164967894554138184e-02 8.216950297355651855e-02 3.490479663014411926e-02
2.052894979715347290e-01 7.490771263837814331e-02 3.686795756220817566e-02
9.061071276664733887e-02 -6.161479279398918152e-02 -8.426240831613540649e-02
-2.539324760437011719e-02 -8.240778744220733643e-02 -2.959681488573551178e-02
3.114050924777984619e-01 8.853465318679809570e-03 9.319256991147994995e-02
-3.064189851284027100e-02 8.403050899505615234e-02 -9.647053666412830353e-04
4.582024812698364258e-01 2.746513113379478455e-02 -3.247450664639472961e-02
5.710873007774353027e-01 -9.384071826934814453e-02 3.006790392100811005e-02
3.182246387004852295e-01 -1.346727013587951660e-01 -2.313311211764812469e-03
-1.687725782394409180e-01 5.397788435220718384e-02 -7.599350530654191971e-03
4.004583358764648438e-01 -3.460008651018142700e-03 8.437277376651763916e-02
4.593977928161621094e-01 -1.007190421223640442e-01 6.302921473979949951e-02
4.101767838001251221e-01 -1.158646270632743835e-01 -5.175181105732917786e-02
4.118139147758483887e-01 -7.409645617008209229e-02 -8.300723880529403687e-02
1.046910136938095093e-01 -1.024950593709945679e-01 -4.693584516644477844e-02
6.430581212043762207e-02 5.754816532135009766e-02 -6.700655072927474976e-02
2.583006620407104492e-01 -9.984774887561798096e-02 7.779593020677566528e-02
9.975790977478027344e-03 8.653078973293304443e-02 9.296258911490440369e-03
1.779175400733947754e-01 -1.145002916455268860e-01 -4.379769787192344666e-02
4.264877438545227051e-01 -2.155175991356372833e-02 -8.334175497293472290e-02
2.940499782562255859e-01 -1.328754127025604248e-01 -1.348790526390075684e-02
3.139781057834625244e-01 5.288800597190856934e-02 -4.883591085672378540e-02
1.150413528084754944e-01 7.281016558408737183e-02 -4.792152345180511475e-02
3.126930594444274902e-01 -1.156836524605751038e-01 -5.654568597674369812e-02
2.663954496383666992e-01 -6.132638081908226013e-03 1.027207076549530029e-01
1.192106306552886963e-01 8.243745565414428711e-02 3.184412419795989990e-02
4.582560658454895020e-01 3.199442848563194275e-02 2.125888131558895111e-02
-1.739219427108764648e-01 -2.360858023166656494e-03 -3.415327519178390503e-02
1.704206615686416626e-01 6.855285912752151489e-02 5.677374079823493958e-02
5.976734161376953125e-01 -8.160703629255294800e-02 -2.055225148797035217e-02
2.588903903961181641e-01 6.667516380548477173e-02 4.223229363560676575e-02
2.179338037967681885e-02 -9.871844202280044556e-02 -1.497555151581764221e-02
1.453096121549606323e-01 -8.505691587924957275e-02 8.231005072593688965e-02
5.332134962081909180e-01 -1.005614846944808960e-01 4.238284751772880554e-02
-1.474372148513793945e-01 -3.631458058953285217e-02 3.650829568505287170e-02
6.001698970794677734e-01 -3.374467045068740845e-02 4.864708520472049713e-03
-1.547709107398986816e-01 -2.493446692824363708e-02 -3.302381932735443115e-02
-1.194730699062347412e-01 3.890207409858703613e-02 6.129863858222961426e-02
-1.585687100887298584e-01 2.868143469095230103e-02 5.175604671239852905e-02
-8.601462841033935547e-02 5.298986285924911499e-02 -5.046223849058151245e-02
3.732615709304809570e-01 -7.234679162502288818e-02 -8.746645599603652954e-02
-7.727685570716857910e-02 -6.912232935428619385e-02 3.237745910882949829e-02
1.613577902317047119e-01 8.127656579017639160e-02 -2.160835824906826019e-02
8.554007858037948608e-02 -4.644450545310974121e-02 -9.042960405349731445e-02
3.709703087806701660e-01 5.589098483324050903e-02 8.446257561445236206e-03
1.520589292049407959e-01 -7.059672474861145020e-02 9.305460005998611450e-02
5.465390682220458984e-01 -1.115726083517074585e-01 1.396563090384006500e-02
5.244528055191040039e-01 -6.627289950847625732e-02 6.440450251102447510e-02
4.267998337745666504e-01 -1.255496144294738770e-01 3.485798463225364685e-02
2.688059508800506592e-01 -1.184924095869064331e-01 -5.016773566603660583e-02
2.986860275268554688e-01 -5.347168445587158203e-02 -9.709972888231277466e-02
3.624286055564880371e-01 1.872655004262924194e-03 8.893853425979614258e-02
3.801907896995544434e-01 -1.311960220336914062e-01 2.648754976689815521e-02
-8.056277036666870117e-02 -3.883978724479675293e-02 6.823793798685073853e-02
4.995649158954620361e-01 7.130222395062446594e-03 4.343235865235328674e-02
6.339083611965179443e-02 4.005317389965057373e-02 -8.031804859638214111e-02
2.464421540498733521e-01 -1.306087970733642578e-01 -1.228697784245014191e-02
5.415271520614624023e-01 -4.686821997165679932e-02 -5.832196772098541260e-02
2.879810929298400879e-01 4.990924894809722900e-02 -5.959685519337654114e-02
4.523794353008270264e-02 -3.146511316299438477e-02 9.773140400648117065e-02
4.506146013736724854e-01 1.753930747509002686e-02 5.416044220328330994e-02
-1.465007066726684570e-01 1.253346726298332214e-02 6.042178720235824585e-02
5.038074851036071777e-01 -5.666587501764297485e-02 -7.031324505805969238e-02
2.871513068675994873e-01 -7.688908278942108154e-02 9.381039440631866455e-02
4.810675978660583496e-02 -1.061346083879470825e-01 1.881318865343928337e-03
3.393175005912780762e-01 -1.319459229707717896e-01 2.634223923087120056e-02
5.441285371780395508e-01 -6.022730469703674316e-02 5.851002410054206848e-02
2.351149916648864746e-03 -7.383134961128234863e-02 6.426835805177688599e-02
1.134218350052833557e-01 -5.367539077997207642e-02 -9.082390367984771729e-02
4.277555346488952637e-01 3.659874573349952698e-02 -3.166713193058967590e-02
2.288230359554290771e-01 6.991180032491683960e-02 4.337516427040100098e-02
1.019013896584510803e-01 8.704288303852081299e-02 7.263905368745326996e-03
3.446132540702819824e-01 -1.340807080268859863e-01 -1.157626137137413025e-02
1.741194576025009155e-01 2.415312454104423523e-03 1.044194623827934265e-01
2.409578114748001099e-01 7.627594470977783203e-02 1.392042078077793121e-02
1.457688212394714355e-02 8.199291676282882690e-02 -2.554515935480594635e-02
4.766105115413665771e-02 7.329655438661575317e-02 5.444234982132911682e-02
4.016525447368621826e-01 -5.568247288465499878e-02 9.176155179738998413e-02
5.603556036949157715e-01 -5.776906386017799377e-03 -8.175343275070190430e-03
3.091047108173370361e-01 3.453452512621879578e-02 -7.247952371835708618e-02
6.164565682411193848e-02 8.481557667255401611e-02 2.733994647860527039e-02
-1.859293282032012939e-01 4.417920112609863281e-02 -7.817652076482772827e-03
1.612908542156219482e-01 -1.135946959257125854e-01 4.815681651234626770e-02
5.097596645355224609e-01 -1.205090284347534180e-01 1.457185111939907074e-02
2.840561270713806152e-01 -9.812834858894348145e-02 7.982341200113296509e-02
3.314320445060729980e-01 -6.172897666692733765e-02 9.755769371986389160e-02
2.596087455749511719e-01 2.121522277593612671e-02 -8.803327381610870361e-02
1.850037127733230591e-01 6.484715640544891357e-02 6.077371910214424133e-02
4.450774192810058594e-01 2.872875705361366272e-02 4.005123674869537354e-02
4.697339832782745361e-01 -1.166333705186843872e-01 4.208526015281677246e-02
1.276526451110839844e-01 7.564293220639228821e-03 1.030179187655448914e-01
4.515333771705627441e-01 -9.358011931180953979e-02 -6.767483055591583252e-02
1.149082854390144348e-01 -2.412336133420467377e-02 1.050260290503501892e-01
3.762413859367370605e-01 2.325589954853057861e-02 7.216845452785491943e-02
3.058029711246490479e-01 2.240056917071342468e-02 -8.235989511013031006e-02
2.600828111171722412e-01 4.228202998638153076e-02 7.726854085922241211e-02
3.008510470390319824e-01 4.782639443874359131e-03 -9.204846620559692383e-02
2.189158648252487183e-01 5.168501287698745728e-02 7.324891537427902222e-02
3.340393304824829102e-01 -1.255971640348434448e-01 -3.997254371643066406e-02
4.506288170814514160e-01 2.476470544934272766e-03 -6.632468849420547485e-02
-2.549180388450622559e-02 7.275968044996261597e-02 4.810240492224693298e-02
4.610007703304290771e-01 1.765541359782218933e-02 -4.762769117951393127e-02
2.707275152206420898e-01 7.089471071958541870e-02 2.366513013839721680e-02
1.950715780258178711e-01 -1.015668958425521851e-01 7.174456119537353516e-02
7.602156698703765869e-02 -9.977957606315612793e-02 -4.254763945937156677e-02
-2.739946544170379639e-02 -3.793581202626228333e-02 8.335069566965103149e-02
8.766926079988479614e-02 4.501867294311523438e-02 -7.818549126386642456e-02
-3.786554932594299316e-02 -6.377822160720825195e-02 6.186424940824508667e-02
7.583725452423095703e-02 -1.064429208636283875e-01 -2.675651945173740387e-02
3.823435008525848389e-01 -9.872170537710189819e-02 -7.200901210308074951e-02
3.484354913234710693e-01 6.052091717720031738e-02 -2.370709087699651718e-03
2.613915503025054932e-02 -8.425266295671463013e-02 5.872958526015281677e-02
1.731861382722854614e-01 2.911486476659774780e-02 9.428167343139648438e-02
5.783706307411193848e-01 -1.008623540401458740e-01 7.171844597905874252e-03
2.720139324665069580e-01 6.038074195384979248e-02 5.148785188794136047e-02
5.623832345008850098e-01 -1.607502624392509460e-02 -2.987956069409847260e-02
1.345154345035552979e-01 7.660855352878570557e-02 4.569955170154571533e-02
3.403894901275634766e-01 2.436329051852226257e-02 7.912220805883407593e-02
3.875391483306884766e-01 5.216511338949203491e-02 1.042888220399618149e-02
1.916198134422302246e-01 -8.345758542418479919e-03 1.061975434422492981e-01
5.116498470306396484e-01 -9.816868603229522705e-02 -5.101816728711128235e-02
2.291228175163269043e-01 -2.786751091480255127e-02 -1.014292985200881958e-01
-9.530484676361083984e-02 -4.891642928123474121e-02 5.383546277880668640e-02
4.694999158382415771e-01 -1.280992329120635986e-01 -1.394020393490791321e-03
-1.075892150402069092e-01 4.531013220548629761e-02 -5.061628669500350952e-02
1.842758953571319580e-01 5.341244861483573914e-03 -9.765632450580596924e-02
3.207359611988067627e-01 -1.150044519454240799e-02 9.919772297143936157e-02
4.440690577030181885e-02 1.566211134195327759e-02 9.705316275358200073e-02
3.499996662139892578e-01 -5.742795765399932861e-02 9.714408218860626221e-02
-5.771374702453613281e-02 -4.069775342941284180e-03 8.535478264093399048e-02
2.659484148025512695e-01 -6.404472887516021729e-02 -9.472215920686721802e-02
1.406601965427398682e-01 -1.136273667216300964e-01 4.226848483085632324e-02
1.573585867881774902e-01 -5.710645020008087158e-02 -9.339474886655807495e-02
6.118722558021545410e-01 -6.952251493930816650e-02 8.694227784872055054e-03
-1.482519507408142090e-02 -4.989329725503921509e-02 -7.094133645296096802e-02
4.240838289260864258e-01 2.395074814558029175e-02 -5.461944639682769775e-02
1.341586709022521973e-01 -2.060019411146640778e-02 -9.945432096719741821e-02
1.937197446823120117e-01 -8.177106827497482300e-02 8.910809457302093506e-02
6.042961478233337402e-01 -4.089123010635375977e-02 -1.144554093480110168e-02
8.453212678432464600e-02 -1.089147478342056274e-01 3.141305223107337952e-02
1.707585752010345459e-01 4.944330453872680664e-02 -7.399059087038040161e-02
4.926629364490509033e-02 -9.772820770740509033e-02 4.404249787330627441e-02
4.002556800842285156e-01 -1.337187290191650391e-01 -2.027865499258041382e-03
-1.088638603687286377e-02 2.332520484924316406e-02 8.930224925279617310e-02
1.805570423603057861e-01 -1.225106790661811829e-01 2.984944358468055725e-02
4.243070483207702637e-01 -5.048621445894241333e-03 -7.755888998508453369e-02
2.243193984031677246e-01 -3.102801926434040070e-02 1.067241504788398743e-01
2.520959377288818359e-01 2.996576949954032898e-02 8.815478533506393433e-02
2.348837852478027344e-01 -1.071790829300880432e-01 -6.330575793981552124e-02
5.185793638229370117e-01 -4.088997840881347656e-03 4.626251012086868286e-02
-7.099810242652893066e-02 -2.775783464312553406e-02 7.694002240896224976e-02
-4.898661375045776367e-02 -2.510980330407619476e-02 8.338981121778488159e-02
-1.258727312088012695e-01 6.966271251440048218e-02 1.044916175305843353e-02
1.876111179590225220e-01 4.475109279155731201e-02 -7.714873552322387695e-02
5.344617366790771484e-01 -6.410205736756324768e-03 3.931709751486778259e-02
5.397344827651977539e-01 -2.867423743009567261e-02 -5.350612476468086243e-02
9.952992945909500122e-02 -1.137163713574409485e-01 2.133597247302532196e-02
4.311565756797790527e-01 -9.076543152332305908e-02 -7.250120490789413452e-02
-1.097211837768554688e-01 -4.504507780075073242e-02 5.070388689637184143e-02
-1.176256537437438965e-01 6.282610446214675903e-02 3.813339769840240479e-02
3.833041191101074219e-01 -5.831585451960563660e-02 -9.047853201627731323e-02
-5.257979035377502441e-03 3.824711963534355164e-02 8.365482836961746216e-02
-9.157404303550720215e-02 -2.336491644382476807e-02 -6.270548701286315918e-02
1.770224422216415405e-01 8.310987055301666260e-02 2.468904713168740273e-03
9.971781075000762939e-02 -6.789228320121765137e-02 8.918800204992294312e-02
3.017627000808715820e-01 -1.341762095689773560e-01 8.500081486999988556e-03
4.471601247787475586e-01 -1.066884696483612061e-01 -5.740434303879737854e-02
2.857856750488281250e-01 6.596231460571289062e-02 3.389903903007507324e-02
4.415285885334014893e-01 7.071660831570625305e-03 6.762562692165374756e-02
-9.012091159820556641e-02 -6.707895547151565552e-02 -1.491366140544414520e-02
1.309128552675247192e-01 8.274591714143753052e-02 -2.239964343607425690e-02
2.104806005954742432e-01 7.204220443964004517e-02 -3.770451992750167847e-02
1.360712945461273193e-02 4.632912576198577881e-02 8.063132315874099731e-02
1.613484025001525879e-01 5.314085632562637329e-02 7.704123854637145996e-02
2.815440893173217773e-01 -7.609955966472625732e-02 -8.962573856115341187e-02
5.782814621925354004e-01 -9.206899255514144897e-02 -2.655994892120361328e-02
2.203350067138671875e-01 5.081564188003540039e-02 -6.879927963018417358e-02
3.305903673171997070e-01 -1.107637658715248108e-01 -6.280271708965301514e-02
4.893211424350738525e-01 1.253462582826614380e-02 -4.030421376228332520e-02
1.146849989891052246e-02 -3.105523996055126190e-02 -8.460856974124908447e-02
4.500357210636138916e-01 -1.251511573791503906e-01 2.992665953934192657e-02
9.386362135410308838e-02 -1.094684377312660217e-01 -2.716901339590549469e-02
1.355967968702316284e-01 -3.859459608793258667e-02 -9.735829383134841919e-02
5.746418833732604980e-01 -1.012447923421859741e-01 -1.265555620193481445e-02
5.269559025764465332e-01 -6.977568566799163818e-02 -6.178051978349685669e-02
-1.521894633769989014e-01 5.352349579334259033e-02 -2.381129004061222076e-02
-1.669279634952545166e-01 -1.685243099927902222e-03 4.966936260461807251e-02
2.186952531337738037e-02 -1.476110424846410751e-02 -8.919826149940490723e-02
5.249841213226318359e-01 -1.483776047825813293e-02 -5.168584734201431274e-02
2.462038844823837280e-01 -5.628307536244392395e-02 -9.716330468654632568e-02
4.783473312854766846e-01 2.308626845479011536e-02 -2.742017246782779694e-02
4.057444334030151367e-01 1.531707122921943665e-03 -7.808719575405120850e-02
2.910642623901367188e-01 -1.214744988828897476e-02 -9.779401123523712158e-02
5.162968635559082031e-01 -8.556215465068817139e-02 -5.858073756098747253e-02
3.745086789131164551e-01 4.357844591140747070e-02 4.729064553976058960e-02
5.751339197158813477e-01 -1.620888523757457733e-02 1.484875194728374481e-02
2.109482288360595703e-01 -7.746374607086181641e-02 9.272501617670059204e-02
1.710426807403564453e-02 -5.206295847892761230e-02 -7.692357152700424194e-02
2.685868740081787109e-01 -1.315885186195373535e-01 1.950079388916492462e-02
2.841477990150451660e-01 6.948493421077728271e-02 -1.697617955505847931e-02
2.833206653594970703e-01 -1.336867213249206543e-01 3.952412866055965424e-03
4.653843641281127930e-01 -4.968383908271789551e-02 8.127312362194061279e-02
-1.456986963748931885e-01 4.743118584156036377e-02 4.523846879601478577e-02
5.364208817481994629e-01 -1.104444116353988647e-01 2.588436007499694824e-02
2.406437546014785767e-01 -1.287224292755126953e-01 2.569607831537723541e-02
4.147777855396270752e-01 3.898152709007263184e-02 3.649800643324851990e-02
3.026968240737915039e-01 6.842265278100967407e-02 -1.888424623757600784e-03
5.105145573616027832e-01 -1.047207489609718323e-01 4.615935683250427246e-02
-1.338878571987152100e-01 -3.827848285436630249e-02 4.406001046299934387e-02
8.617179095745086670e-02 5.007601529359817505e-02 8.152332156896591187e-02
-1.010083258152008057e-01 5.813399702310562134e-02 -4.091330617666244507e-02
6.539364159107208252e-02 -8.109597861766815186e-02 -6.505941599607467651e-02
3.219396471977233887e-01 -4.282364994287490845e-02 1.015157476067543030e-01
2.592800259590148926e-01 -4.556886851787567139e-04 -9.695828706026077271e-02
2.532170712947845459e-02 -5.222996324300765991e-02 8.685716986656188965e-02
2.515640854835510254e-02 -9.334758669137954712e-02 4.240176826715469360e-02
5.578552484512329102e-01 -2.605970390141010284e-02 4.329158365726470947e-02
2.163779586553573608e-01 2.992826327681541443e-02 9.141005575656890869e-02
-1.965700089931488037e-02 -9.088001400232315063e-02 7.614434696733951569e-03
-4.383787512779235840e-02 -7.511503994464874268e-02 -3.353385254740715027e-02
2.971574664115905762e-03 -7.180956006050109863e-02 -5.792807042598724365e-02
2.418864071369171143e-01 -8.740871399641036987e-02 -8.212739229202270508e-02
1.089507043361663818e-01 -5.359444767236709595e-02 9.752391278743743896e-02
3.706208467483520508e-01 -2.333297394216060638e-02 9.552315622568130493e-02
4.971586465835571289e-01 -1.190549433231353760e-01 -2.594998478889465332e-02
5.456564426422119141e-01 -7.881064713001251221e-02 -5.248221755027770996e-02
-7.753768563270568848e-02 -7.348906993865966797e-02 1.485961861908435822e-02
-2.035194933414459229e-01 2.753914892673492432e-02 -4.298843909054994583e-03
5.567070841789245605e-02 1.734592393040657043e-02 -8.966964483261108398e-02
1.993202567100524902e-01 -1.169117614626884460e-01 4.953820630908012390e-02
4.975378513336181641e-02 -1.023982763290405273e-01 -2.371038123965263367e-02
-8.226060867309570312e-02 2.210366353392601013e-02 7.763382047414779663e-02
2.753163278102874756e-01 -1.300888359546661377e-01 -2.313286997377872467e-02
2.915337979793548584e-01 2.950254082679748535e-02 -7.926750183105468750e-02
3.299643993377685547e-01 -1.280065774917602539e-01 3.846551850438117981e-02
3.182184994220733643e-01 -6.485190987586975098e-02 -9.335625916719436646e-02
1.038079410791397095e-01 7.765182107686996460e-02 4.599328339099884033e-02
4.543669521808624268e-01 -1.169062927365303040e-01 4.545066505670547485e-02
7.352726161479949951e-02 -1.105971038341522217e-01 -3.819724079221487045e-03
5.538201332092285156e-01 -6.451331079006195068e-02 -5.356891080737113953e-02
9.113778173923492432e-02 8.511180430650711060e-02 2.473029121756553650e-02
3.985855877399444580e-01 2.034475654363632202e-02 6.892751157283782959e-02
3.557519018650054932e-01 5.828379839658737183e-02 1.487101241946220398e-02
-1.410023272037506104e-01 5.785944312810897827e-02 3.441586345434188843e-02
-1.027591824531555176e-01 6.604769080877304077e-02 3.887365013360977173e-02
4.892852902412414551e-01 -1.181635633111000061e-01 3.298736363649368286e-02
2.389039099216461182e-01 1.955135539174079895e-02 9.546309709548950195e-02
4.328104257583618164e-01 2.260735258460044861e-02 5.520082265138626099e-02
5.730124711990356445e-01 -8.008219301700592041e-02 4.022047668695449829e-02
2.329502850770950317e-01 -7.546145468950271606e-03 -9.971016645431518555e-02
5.577426552772521973e-01 -8.177954703569412231e-02 4.686041548848152161e-02
1.200888231396675110e-01 7.959673553705215454e-02 -3.352748230099678040e-02
3.462217152118682861e-01 5.444522947072982788e-02 3.688275068998336792e-02
-4.622246325016021729e-02 6.066686660051345825e-02 6.092495098710060120e-02
3.412134945392608643e-01 8.058160543441772461e-03 -8.581522107124328613e-02
1.254222393035888672e-01 -7.078733295202255249e-03 1.054086387157440186e-01
-1.750729382038116455e-01 1.746071502566337585e-02 4.650264233350753784e-02
3.260755538940429688e-01 -1.303093135356903076e-01 -2.775054611265659332e-02
2.164496183395385742e-01 7.881110906600952148e-02 -1.010997965931892395e-02
2.256162017583847046e-01 -1.192984264343976974e-02 1.058873161673545837e-01
1.442644298076629639e-01 5.997402220964431763e-02 7.081741094589233398e-02
9.124021977186203003e-02 8.558784425258636475e-02 -1.538344658911228180e-02
3.884332776069641113e-01 4.680505394935607910e-02 3.315144404768943787e-02
3.536194562911987305e-01 -9.637751430273056030e-02 7.925537973642349243e-02
5.885303020477294922e-01 -3.054104186594486237e-02 -2.215590327978134155e-02
4.229079484939575195e-01 4.238267987966537476e-02 -1.682492345571517944e-02
1.766155064105987549e-01 7.894047349691390991e-02 3.212575614452362061e-02
1.742479205131530762e-01 6.764703243970870972e-02 -5.194192007184028625e-02
2.263904809951782227e-01 -6.455792486667633057e-02 -9.398982673883438110e-02
2.296590507030487061e-01 -1.288737654685974121e-01 -1.551244594156742096e-02
1.618361324071884155e-01 -1.193050444126129150e-01 3.375593200325965881e-02
4.543261229991912842e-01 3.570600971579551697e-02 -8.655986748635768890e-04
2.471145689487457275e-01 6.789299845695495605e-02 -3.820555657148361206e-02
4.901566505432128906e-01 1.180917024612426758e-05 5.593618378043174744e-02
5.356547832489013672e-01 -1.112769469618797302e-01 -2.346570417284965515e-02
4.882620275020599365e-01 -9.028889238834381104e-02 6.449457257986068726e-02
4.366193413734436035e-01 -1.305777430534362793e-01 -1.114354468882083893e-02
1.739479005336761475e-01 -9.982310980558395386e-02 -6.495331227779388428e-02
9.120767563581466675e-02 -8.881948888301849365e-02 -6.258460134267807007e-02
2.069101631641387939e-01 -1.170094534754753113e-01 -4.478639736771583557e-02
5.600175261497497559e-01 -8.746499195694923401e-03 1.973755285143852234e-02
-9.823033213615417480e-02 -5.961421877145767212e-02 -2.633699402213096619e-02
-3.727737069129943848e-02 -6.694044917821884155e-02 -4.912061989307403564e-02
1.080081760883331299e-01 8.428978174924850464e-02 -1.957954093813896179e-02
4.776644408702850342e-01 -6.923228502273559570e-02 -7.416629046201705933e-02
5.011272430419921875e-01 -1.456555351614952087e-02 6.241018325090408325e-02
-4.524052143096923828e-03 -9.440121799707412720e-02 1.172834821045398712e-02
-1.396172642707824707e-01 -3.708867356181144714e-02 -3.080566413700580597e-02
6.080349683761596680e-01 -5.824302881956100464e-02 1.804432459175586700e-02
-1.232690513134002686e-01 -1.599182933568954468e-02 6.473416090011596680e-02
1.480945348739624023e-01 2.171847596764564514e-02 -9.207969903945922852e-02
2.935272455215454102e-02 7.226423174142837524e-02 -4.716939851641654968e-02
6.248575448989868164e-02 7.187891751527786255e-02 5.710082501173019409e-02
5.394871830940246582e-01 -2.433694899082183838e-03 -2.891324274241924286e-02
5.982700586318969727e-01 -4.270125180482864380e-02 2.291251160204410553e-02
3.789541423320770264e-01 3.181466832756996155e-02 -5.977600812911987305e-02
2.451602220535278320e-01 4.785232990980148315e-02 -6.899906694889068604e-02
-9.689787030220031738e-02 7.531119883060455322e-02 1.419857516884803772e-02
4.195276498794555664e-01 -5.295535176992416382e-02 8.950968831777572632e-02
1.211360096931457520e-02 2.646807208657264709e-02 9.078743308782577515e-02
4.746800959110260010e-01 1.347094774246215820e-03 6.095468252897262573e-02
1.618634164333343506e-01 -3.595570474863052368e-02 1.057009324431419373e-01
5.404586195945739746e-01 -1.147750541567802429e-01 -3.426773007959127426e-03
4.494409561157226562e-01 -2.424608543515205383e-02 8.151670545339584351e-02
5.018888711929321289e-01 -2.317218109965324402e-03 -5.166207626461982727e-02
3.378421962261199951e-01 -4.191137105226516724e-02 1.002520546317100525e-01
-1.166790425777435303e-01 -1.987690106034278870e-03 7.043880224227905273e-02
5.189774036407470703e-01 1.296643912792205811e-02 1.155533455312252045e-02
2.362110316753387451e-01 3.476041182875633240e-02 8.643294125795364380e-02
-3.537096083164215088e-02 1.161767169833183289e-02 -7.952389121055603027e-02
3.362111449241638184e-01 -9.612808376550674438e-02 8.038195967674255371e-02
-1.698783338069915771e-01 5.132494121789932251e-02 2.408038452267646790e-02
1.627507805824279785e-01 -1.232365742325782776e-01 1.582617685198783875e-02
1.192205846309661865e-01 7.023094594478607178e-02 5.858732014894485474e-02
3.031302392482757568e-01 6.490069627761840820e-02 2.842658385634422302e-02
3.400966525077819824e-02 -1.032301783561706543e-01 8.267857134342193604e-03
1.375315487384796143e-01 -1.208052709698677063e-01 5.491114221513271332e-03
-1.062133312225341797e-01 -2.709776535630226135e-02 6.608296930789947510e-02
2.276958674192428589e-01 6.310852617025375366e-02 5.680412426590919495e-02
5.204395055770874023e-01 -4.834999889135360718e-02 6.672491133213043213e-02
-8.191016316413879395e-02 7.819653302431106567e-02 -2.385512925684452057e-04
2.338673919439315796e-01 -9.217470884323120117e-02 8.353800326585769653e-02
6.814615428447723389e-02 8.762639760971069336e-02 7.317461539059877396e-03
-9.405106306076049805e-02 3.498816862702369690e-02 7.024285942316055298e-02
7.895657420158386230e-02 -7.714343070983886719e-02 -7.159969210624694824e-02
4.669614136219024658e-01 2.216638624668121338e-02 3.916289284825325012e-02
6.037406623363494873e-02 -9.896730631589889526e-02 -3.810065984725952148e-02
2.129779309034347534e-01 -9.990257769823074341e-02 -6.945461034774780273e-02
1.734368205070495605e-01 -6.481903791427612305e-02 -9.126439690589904785e-02
2.529664635658264160e-01 5.734141170978546143e-02 6.081486120820045471e-02
-1.284030079841613770e-01 3.789057582616806030e-02 -4.864060506224632263e-02
3.347882628440856934e-01 5.980346351861953735e-02 -2.358747459948062897e-02
1.251799166202545166e-01 -1.130475923418998718e-01 3.825152292847633362e-02
4.829520881175994873e-01 -1.252309530973434448e-01 -1.209508813917636871e-02
4.559951722621917725e-01 -8.587157726287841797e-02 7.372429221868515015e-02
-1.613867282867431641e-02 8.406305313110351562e-02 -1.025656238198280334e-02
2.823762893676757812e-01 1.268414035439491272e-02 9.478046745061874390e-02
4.951067566871643066e-01 -3.317835554480552673e-02 -7.060182839632034302e-02
3.364009857177734375e-01 5.059702694416046143e-02 -4.577107727527618408e-02
2.434535026550292969e-01 -1.236310005187988281e-01 -3.690157830715179443e-02
4.760946929454803467e-01 8.356038480997085571e-03 -5.215561017394065857e-02
8.607953786849975586e-02 7.102365791797637939e-02 -5.135262757539749146e-02
4.596441388130187988e-01 -1.131610944867134094e-03 6.801332533359527588e-02
-2.087831497192382812e-03 8.239129930734634399e-02 -2.144408598542213440e-02
1.529512405395507812e-01 -8.782842010259628296e-02 -7.421776652336120605e-02
-4.959630966186523438e-02 -8.147163689136505127e-02 1.932266168296337128e-02
-3.955419361591339111e-02 3.264866769313812256e-02 8.184253424406051636e-02
-1.096113026142120361e-02 7.270030677318572998e-02 -4.186866432428359985e-02
-5.597856640815734863e-02 -7.376977801322937012e-02 3.801003471016883850e-02
-6.845521926879882812e-02 -8.018245920538902283e-03 -7.305695861577987671e-02
-7.398232817649841309e-03 1.246731728315353394e-03 -8.517525345087051392e-02
4.070992767810821533e-02 -5.905244126915931702e-02 8.567579835653305054e-02
4.761350452899932861e-01 1.157679408788681030e-02 4.999858886003494263e-02
3.912839591503143311e-01 3.659415617585182190e-02 -4.941919818520545959e-02
-1.663929820060729980e-01 1.109495386481285095e-02 -4.062282294034957886e-02
5.136541724205017090e-01 -3.092826157808303833e-02 6.545832008123397827e-02
3.920916020870208740e-01 -2.270887605845928192e-02 9.221170842647552490e-02
-9.068816900253295898e-02 2.113397791981697083e-02 -6.609775125980377197e-02
3.206785023212432861e-02 3.146698698401451111e-02 9.048691391944885254e-02
-9.382531046867370605e-02 7.621496915817260742e-04 -6.726525723934173584e-02
4.433231353759765625e-01 -1.189015731215476990e-01 -4.219729825854301453e-02
3.648662567138671875e-01 -1.193462163209915161e-01 -5.045215785503387451e-02
2.664867341518402100e-01 1.840597391128540039e-02 9.357710927724838257e-02
2.505351006984710693e-01 -1.116276085376739502e-01 6.419312953948974609e-02
3.300408124923706055e-01 4.381188005208969116e-02 -5.805291235446929932e-02
3.664832711219787598e-01 -7.732328027486801147e-02 8.941368758678436279e-02
2.360693514347076416e-01 -1.183396950364112854e-01 5.235759541392326355e-02
6.122499704360961914e-01 -7.019653171300888062e-02 -6.969549227505922318e-03
1.839614957571029663e-01 -1.257729083299636841e-01 -7.906949147582054138e-03
8.747588843107223511e-02 -1.368829328566789627e-02 1.038035377860069275e-01
2.661538124084472656e-01 -3.066891059279441833e-02 -1.006777137517929077e-01
3.387486338615417480e-01 5.581948906183242798e-03 9.095506370067596436e-02
3.253327608108520508e-01 1.838336139917373657e-02 8.599549531936645508e-02
4.440630674362182617e-01 -1.778464205563068390e-02 -7.860377430915832520e-02
5.062982439994812012e-01 -1.735860295593738556e-02 -6.088601052761077881e-02
-2.611273527145385742e-02 2.533681690692901611e-02 -7.772210985422134399e-02
6.129457056522369385e-02 -4.271382838487625122e-02 -8.861670643091201782e-02
2.784245610237121582e-01 -1.065909117460250854e-01 -6.674376875162124634e-02
-1.142877340316772461e-01 7.050462067127227783e-02 -1.125502400100231171e-02
2.939541935920715332e-01 2.471788972616195679e-02 8.654743432998657227e-02
1.113311722874641418e-01 7.368480786681175232e-03 -9.572367370128631592e-02
7.985115051269531250e-02 -1.010874882340431213e-01 4.913205280900001526e-02
2.682951092720031738e-01 -1.138191595673561096e-01 6.226182729005813599e-02
1.070615574717521667e-01 5.858681350946426392e-02 7.372017204761505127e-02
1.354129314422607422e-01 -6.083828210830688477e-02 -8.993629366159439087e-02
1.780715137720108032e-01 -1.256838440895080566e-01 6.356096360832452774e-03
4.107715189456939697e-02 -7.784739136695861816e-02 7.066507637500762939e-02
3.973025679588317871e-01 -3.344883024692535400e-02 -9.013763815164566040e-02
-6.757059693336486816e-02 -7.062421739101409912e-02 -2.686672285199165344e-02
1.884748190641403198e-01 -6.927232444286346436e-02 -9.012151509523391724e-02
1.999426931142807007e-01 -5.854738503694534302e-02 1.011474281549453735e-01
2.790242135524749756e-01 1.715924590826034546e-04 -9.551246464252471924e-02
3.159946203231811523e-01 -1.038422659039497375e-01 7.444857060909271240e-02
1.228704974055290222e-01 3.310122713446617126e-02 -8.637693524360656738e-02
2.280329614877700806e-01 -9.364108741283416748e-02 -7.653691619634628296e-02
8.745228499174118042e-02 7.765853404998779297e-02 4.670030251145362854e-02
-9.700214862823486328e-02 -3.569233417510986328e-02 -5.427923798561096191e-02
1.184445396065711975e-01 3.960402309894561768e-02 8.921203017234802246e-02
3.334926366806030273e-01 5.311579257249832153e-02 4.552872851490974426e-02
2.448770552873611450e-01 -3.247214108705520630e-02 1.061943545937538147e-01
4.114487469196319580e-01 -7.145079970359802246e-02 8.672773092985153198e-02
2.636438608169555664e-01 7.342737168073654175e-02 -9.558629244565963745e-03
3.010202944278717041e-02 -9.412856400012969971e-02 -3.467005118727684021e-02
2.919478714466094971e-01 -1.120678037405014038e-01 -6.080269068479537964e-02
1.022189110517501831e-01 -4.065528512001037598e-03 1.041840314865112305e-01
-1.662940979003906250e-01 -3.298511356115341187e-02 2.086388319730758667e-02
-7.294252514839172363e-03 3.193907067179679871e-02 -7.787489145994186401e-02
-3.337398171424865723e-02 -5.641464143991470337e-02 -6.107836216688156128e-02
2.176898568868637085e-01 -6.015606969594955444e-02 1.009650751948356628e-01
2.275545597076416016e-01 -1.189745962619781494e-01 -4.444773495197296143e-02
-6.614664196968078613e-02 7.205229252576828003e-02 4.025077819824218750e-02
-2.228277921676635742e-02 -7.104294002056121826e-02 5.915642529726028442e-02
3.294880986213684082e-01 -2.530281059443950653e-02 1.006459295749664307e-01
-6.047821044921875000e-02 7.945622503757476807e-02 -1.213139109313488007e-02
5.003769993782043457e-01 1.822715252637863159e-02 2.007690444588661194e-02
1.994565725326538086e-01 5.907063931226730347e-02 6.694778054952621460e-02
-4.099528491497039795e-02 8.113749325275421143e-02 2.336107008159160614e-02
3.604525923728942871e-01 -1.274152100086212158e-01 3.908456489443778992e-02
4.451586902141571045e-01 1.965517550706863403e-02 -5.185968428850173950e-02
3.626348674297332764e-01 5.257604271173477173e-02 -2.978461049497127533e-02
4.137822985649108887e-01 4.645974934101104736e-02 -1.762334257364273071e-03
3.545156717300415039e-01 -1.324151456356048584e-01 2.403104491531848907e-02
1.656852662563323975e-01 -5.207037925720214844e-02 1.020560562610626221e-01
5.949534177780151367e-01 -5.521687120199203491e-02 -3.136456012725830078e-02
4.307767748832702637e-02 -1.691921055316925049e-02 -9.178820997476577759e-02
2.406149804592132568e-01 -1.063818112015724182e-02 1.050968989729881287e-01
3.753962814807891846e-01 1.980109885334968567e-02 -7.227408885955810547e-02
1.282540708780288696e-01 -4.822118580341339111e-02 1.010770276188850403e-01
4.401914775371551514e-01 -7.270252704620361328e-02 8.203818649053573608e-02
2.232764065265655518e-01 -4.483556374907493591e-02 -9.967095404863357544e-02
1.485280990600585938e-01 -1.562265213578939438e-02 1.065851300954818726e-01
2.982275784015655518e-01 6.288658082485198975e-02 -3.314892947673797607e-02
2.164583951234817505e-01 1.603709161281585693e-02 -9.322986006736755371e-02
2.472499459981918335e-01 -1.313268542289733887e-01 1.201016269624233246e-02
3.270410299301147461e-01 3.397165983915328979e-02 7.344729453325271606e-02
5.717771053314208984e-01 -4.432570934295654297e-02 -4.405552148818969727e-02
1.034605428576469421e-01 -3.931292146444320679e-02 1.017245724797248840e-01
3.428176939487457275e-01 -8.417691290378570557e-02 -8.399628102779388428e-02
3.682804703712463379e-01 -5.602120980620384216e-02 9.567470848560333252e-02
-1.392788589000701904e-01 -2.553525194525718689e-02 -4.191743582487106323e-02
8.834921568632125854e-02 2.138070389628410339e-02 -9.052637964487075806e-02
-2.065409719944000244e-01 2.154923230409622192e-02 1.418973132967948914e-02
2.762709558010101318e-01 4.282157868146896362e-02 -6.981187313795089722e-02
8.934527635574340820e-03 2.159440889954566956e-03 9.591789543628692627e-02
5.237354040145874023e-01 -1.603090018033981323e-02 5.404421314597129822e-02
3.033325672149658203e-01 4.474791884422302246e-02 -6.292776018381118774e-02
3.509761095046997070e-01 5.786205083131790161e-02 -1.918741874396800995e-02
1.404016315937042236e-01 -1.063187941908836365e-01 -4.989004507660865784e-02
1.298254579305648804e-01 -8.410280942916870117e-02 -7.425003498792648315e-02
3.445129692554473877e-01 -1.201825868338346481e-02 -9.297346323728561401e-02
9.528181701898574829e-02 -9.198572486639022827e-02 6.722503155469894409e-02
4.893988072872161865e-01 -8.116158843040466309e-02 -6.745955348014831543e-02
1.717224419116973877e-01 -1.153246127068996429e-02 -1.005525290966033936e-01
1.464608311653137207e-02 3.664325177669525146e-02 -7.823724299669265747e-02
5.709978342056274414e-01 -3.728749603033065796e-02 4.203521460294723511e-02
1.293742358684539795e-01 -6.893135607242584229e-02 9.194584935903549194e-02
7.698217034339904785e-02 -2.861876785755157471e-02 1.016876250505447388e-01
1.133653447031974792e-01 -7.643640041351318359e-02 8.513079583644866943e-02
4.026999771595001221e-01 -6.271341443061828613e-02 -8.745028823614120483e-02
1.432738006114959717e-01 -5.570070445537567139e-02 9.948746860027313232e-02
2.327457964420318604e-01 6.746235489845275879e-02 -4.278073832392692566e-02
3.883251547813415527e-01 -1.306893080472946167e-01 -2.391474694013595581e-02
-7.516941428184509277e-02 4.013907909393310547e-02 -6.219826638698577881e-02
5.430627465248107910e-01 3.511186689138412476e-03 -1.777931582182645798e-03
4.684848189353942871e-01 2.992533892393112183e-02 -1.494708843529224396e-02
3.400643169879913330e-01 4.126965254545211792e-02 6.227375939488410950e-02
4.289462566375732422e-01 -1.826475746929645538e-02 8.425248414278030396e-02
1.538036763668060303e-02 -9.252094477415084839e-02 -3.049924038350582123e-02
-1.914612948894500732e-02 5.664580315351486206e-02 -6.027674674987792969e-02
-1.288214027881622314e-01 -1.615034975111484528e-02 -5.196549743413925171e-02
-1.366819441318511963e-01 -4.940560087561607361e-02 -9.034691378474235535e-03
3.127905726432800293e-01 -1.303797215223312378e-01 3.117123804986476898e-02
4.463478326797485352e-01 -5.855398625135421753e-02 8.431289345026016235e-02
1.567552685737609863e-01 -1.978204771876335144e-02 -1.004807576537132263e-01
8.775959163904190063e-02 -1.123604103922843933e-01 -1.020437292754650116e-02
3.917769789695739746e-01 5.112618207931518555e-02 -8.617319166660308838e-03
1.350316405296325684e-01 5.799496918916702271e-02 -6.704618781805038452e-02
-1.147038042545318604e-01 -3.869160637259483337e-02 -4.408742487430572510e-02
1.008297502994537354e-02 8.446731418371200562e-02 2.416167035698890686e-02
-3.116804361343383789e-02 -1.693624444305896759e-02 -7.994490861892700195e-02
1.468734443187713623e-01 3.796659782528877258e-02 -8.351381868124008179e-02
2.070383727550506592e-01 -3.001037053763866425e-02 -1.013165563344955444e-01
9.901674091815948486e-02 2.283672988414764404e-02 9.755277633666992188e-02
1.409554481506347656e-02 -9.815058112144470215e-02 1.701826602220535278e-02
1.965530961751937866e-01 6.217599660158157349e-02 -5.762832611799240112e-02
-5.111667513847351074e-02 -3.974062204360961914e-02 7.663728296756744385e-02
-1.762787103652954102e-01 -1.058535091578960419e-02 3.969760239124298096e-02
-1.836121082305908203e-03 5.561989545822143555e-02 -6.345857679843902588e-02
5.007177591323852539e-01 -7.274360954761505127e-02 6.948927044868469238e-02
2.480980157852172852e-01 9.490419179201126099e-03 -9.428896754980087280e-02
-6.360575556755065918e-03 6.032867729663848877e-02 6.694211810827255249e-02
1.907367855310440063e-01 3.306536003947257996e-02 9.114155173301696777e-02
4.755454659461975098e-01 -8.232618682086467743e-03 -6.588505953550338745e-02
-1.352859735488891602e-01 4.620719701051712036e-04 6.434163451194763184e-02
3.451507687568664551e-01 -1.182928308844566345e-01 -5.273438990116119385e-02
-1.215666532516479492e-03 -5.925496295094490051e-02 7.679725438356399536e-02
9.308393299579620361e-02 5.005938932299613953e-03 -9.523123502731323242e-02
3.671889007091522217e-02 8.560372143983840942e-02 -1.491791568696498871e-02
-1.084043383598327637e-01 7.099755108356475830e-02 2.417041547596454620e-02
3.561705350875854492e-03 -5.923774838447570801e-02 -6.923725455999374390e-02
-5.197626352310180664e-02 -3.359176591038703918e-02 -7.000780850648880005e-02
3.442900180816650391e-01 3.895854204893112183e-02 -6.059407442808151245e-02
3.980605006217956543e-01 -1.038402095437049866e-01 6.939357519149780273e-02
4.803618788719177246e-01 -9.941819310188293457e-02 -5.786196887493133545e-02
3.661080300807952881e-01 -1.309552639722824097e-01 -2.518295869231224060e-02
3.573872447013854980e-01 -1.349340230226516724e-01 -3.557209856808185577e-04
-4.505187273025512695e-03 -2.695645019412040710e-02 9.162042289972305298e-02
3.221345841884613037e-01 4.708620905876159668e-02 5.931941419839859009e-02
1.839961558580398560e-01 -3.216260671615600586e-02 1.066894456744194031e-01
2.597709894180297852e-01 7.428932189941406250e-02 1.040521264076232910e-02
3.552501201629638672e-01 2.305766940116882324e-02 7.714337110519409180e-02
3.717790544033050537e-01 5.480857193470001221e-02 -1.336995325982570648e-02
4.221103787422180176e-01 -1.279288530349731445e-01 -2.681178040802478790e-02
3.919649422168731689e-01 -1.141599267721176147e-01 5.898751318454742432e-02
5.475426912307739258e-01 -9.421230107545852661e-02 4.257643222808837891e-02
2.950319051742553711e-01 -4.246146604418754578e-02 1.033379063010215759e-01
1.921190619468688965e-01 -1.027228236198425293e-01 -6.401038914918899536e-02
4.419214129447937012e-01 -1.075639650225639343e-01 5.974979326128959656e-02
3.549505770206451416e-02 -8.127857744693756104e-02 -5.709852278232574463e-02
-5.800929665565490723e-02 4.201260209083557129e-02 -6.467279046773910522e-02
4.435830414295196533e-01 3.157930076122283936e-02 -3.308147564530372620e-02
7.172620296478271484e-02 8.051425218582153320e-02 4.054367914795875549e-02
1.592320203781127930e-01 7.751914858818054199e-02 4.007800295948982239e-02
2.219883650541305542e-01 -1.296308338642120361e-01 1.026891265064477921e-02
-1.737564206123352051e-01 -3.084284439682960510e-02 4.947653971612453461e-03
4.112926125526428223e-01 -9.639429301023483276e-02 -7.110975682735443115e-02
3.971071541309356689e-02 1.934396475553512573e-02 -8.768653124570846558e-02
8.143568038940429688e-02 -7.462365925312042236e-02 8.176112920045852661e-02
1.432321369647979736e-01 7.023518532514572144e-02 5.687071382999420166e-02
-1.928358972072601318e-01 -9.839816018939018250e-03 -1.166636683046817780e-02
1.971172690391540527e-01 -8.504644036293029785e-02 -8.107174932956695557e-02
3.647764027118682861e-02 -1.023742258548736572e-01 -1.238663867115974426e-02
4.024759232997894287e-01 -3.372514247894287109e-02 9.221412241458892822e-02
3.566963672637939453e-01 -9.003283828496932983e-02 -7.982797175645828247e-02
3.216063082218170166e-01 -9.477149695158004761e-02 -7.783784717321395874e-02
3.871022462844848633e-01 -1.610278338193893433e-02 -8.848751336336135864e-02
-1.605104207992553711e-01 4.864188283681869507e-02 3.591889515519142151e-02
5.506061017513275146e-02 5.941355973482131958e-02 7.234708219766616821e-02
3.651487827301025391e-02 8.732230216264724731e-02 9.358868934214115143e-03
5.272644758224487305e-02 -6.978250294923782349e-02 -7.241237908601760864e-02
3.948594629764556885e-02 -6.249986216425895691e-02 -7.503026723861694336e-02
2.585046887397766113e-01 5.787442624568939209e-02 -5.425573140382766724e-02
