2.958279252052307129e-01 -1.213437318801879883e-01 -5.749680474400520325e-02
4.060830473899841309e-01 -1.230294853448867798e-01 -2.574912272393703461e-03
4.727389216423034668e-01 -9.788015484809875488e-02 5.200174450874328613e-02
5.142632722854614258e-01 3.848397359251976013e-02 -3.544619679450988770e-02
1.823434531688690186e-01 -1.310071796178817749e-01 -5.445616319775581360e-02
4.746789932250976562e-01 8.210789412260055542e-03 8.975825458765029907e-02
3.943159282207489014e-01 -1.234291046857833862e-01 2.346333302557468414e-02
1.707129776477813721e-01 -3.899707645177841187e-02 -1.178444921970367432e-01
-3.027353286743164062e-01 -2.637445926666259766e-02 1.777593418955802917e-02
4.562315344810485840e-02 -4.365374147891998291e-02 -1.150036230683326721e-01
-3.795257210731506348e-02 -1.040057092905044556e-01 -8.094944804906845093e-02
3.578168153762817383e-01 7.426418364048004150e-02 -7.581471931189298630e-03
-5.462199449539184570e-02 -1.356772929430007935e-01 1.203849539160728455e-02
-2.521626651287078857e-02 -1.389694213867187500e-01 3.624826204031705856e-03
5.737491846084594727e-01 6.277445703744888306e-03 -4.132626578211784363e-02
1.541736871004104614e-01 -1.115216016769409180e-01 8.852064609527587891e-02
1.566806733608245850e-01 -1.221722960472106934e-01 -7.064835727214813232e-02
4.185937047004699707e-01 -4.830614104866981506e-02 -9.376955777406692505e-02
1.533772051334381104e-02 -1.222246885299682617e-01 6.795034557580947876e-02
5.625248700380325317e-02 1.701543852686882019e-02 1.094908416271209717e-01
-1.511875540018081665e-01 -4.741299152374267578e-02 -8.962395042181015015e-02
-1.082270294427871704e-01 3.045383840799331665e-02 7.234286516904830933e-02
2.814491093158721924e-01 -9.824544191360473633e-02 9.467615932226181030e-02
1.352928727865219116e-01 1.486424729228019714e-02 -1.065171733498573303e-01
-7.793541252613067627e-02 -7.543733716011047363e-02 9.742993116378784180e-02
1.207688748836517334e-01 -5.326553434133529663e-02 1.223186850547790527e-01
1.082088053226470947e-01 -1.275485008955001831e-01 -6.281424313783645630e-02
5.876342654228210449e-01 -5.584917217493057251e-02 4.351916536688804626e-02
1.367472857236862183e-01 7.368835806846618652e-02 4.900657758116722107e-02
-2.301823347806930542e-01 -9.427857398986816406e-02 3.300488740205764771e-02
4.689300805330276489e-02 4.891263321042060852e-02 -7.402183115482330322e-02
1.454778909683227539e-01 -1.297067403793334961e-01 -5.877758562564849854e-02
-6.333157420158386230e-02 -5.651759356260299683e-02 -1.032062172889709473e-01
-1.791165322065353394e-01 2.720252424478530884e-02 -4.526643455028533936e-02
4.684003591537475586e-01 -4.740887880325317383e-02 -8.333805948495864868e-02
2.759036421775817871e-01 6.836497783660888672e-02 -4.796068742871284485e-02
3.439415693283081055e-01 8.942440152168273926e-03 1.106112748384475708e-01
2.610821723937988281e-01 7.628960907459259033e-02 -2.863781340420246124e-02
4.685571789741516113e-01 5.554215237498283386e-02 -2.214359678328037262e-02
6.045767664909362793e-01 -1.019535586237907410e-02 4.514018073678016663e-02
3.804228007793426514e-01 -5.511667579412460327e-02 1.082962304353713989e-01
3.061355352401733398e-01 7.253432273864746094e-02 4.609122872352600098e-02
9.089376777410507202e-02 -1.423586755990982056e-01 2.584798447787761688e-02
1.846056878566741943e-01 8.104164153337478638e-03 -1.096674874424934387e-01
6.121915578842163086e-01 8.287485688924789429e-03 6.286164280027151108e-04
1.776252686977386475e-01 -1.420337557792663574e-01 -2.154192887246608734e-02
1.217268705368041992e-01 7.878483831882476807e-02 -1.727792806923389435e-02
-6.290730834007263184e-02 -3.821365162730216980e-02 -1.053105741739273071e-01
4.560755491256713867e-01 -1.018553078174591064e-01 5.233704298734664917e-02
4.850472807884216309e-01 -6.084383279085159302e-02 -7.380231469869613647e-02
5.595363378524780273e-01 -5.185103788971900940e-02 -5.074968189001083374e-02
1.183381080627441406e-01 -5.529746413230895996e-03 1.217342764139175415e-01
-2.429633885622024536e-01 1.860705390572547913e-02 1.309917680919170380e-02
3.167406618595123291e-01 -1.244097054004669189e-01 5.355848371982574463e-02
-1.601137071847915649e-01 4.368696734309196472e-02 -1.640286296606063843e-02
-2.345854789018630981e-01 1.490250229835510254e-02 -3.123691119253635406e-02
9.251665323972702026e-02 -1.422343701124191284e-01 -2.379024960100650787e-02
6.943589448928833008e-02 -1.424617618322372437e-01 2.236480824649333954e-02
-1.636199206113815308e-01 1.259567588567733765e-02 7.226398587226867676e-02
2.289323061704635620e-01 -9.447489678859710693e-02 -9.540474414825439453e-02
1.727596521377563477e-01 8.142794668674468994e-02 -7.044002879410982132e-03
2.357317805290222168e-01 4.918865486979484558e-02 9.046142548322677612e-02
1.539644151926040649e-01 -1.093388646841049194e-01 -8.604259043931961060e-02
-1.978331059217453003e-01 -9.953868389129638672e-02 -4.382760450243949890e-02
6.017025113105773926e-01 1.595794036984443665e-02 1.386569999158382416e-02
5.121872425079345703e-01 4.861446097493171692e-02 -1.055528223514556885e-02
5.879518985748291016e-01 9.359810501337051392e-03 -2.945489622652530670e-02
4.127207398414611816e-01 2.610125392675399780e-02 9.224374592304229736e-02
5.617207288742065430e-01 3.269392624497413635e-02 -1.139071211218833923e-02
-1.533166319131851196e-01 2.517264336347579956e-03 8.221206814050674438e-02
2.333986908197402954e-01 -1.257871091365814209e-01 6.477638334035873413e-02
2.416725754737854004e-01 -1.409048587083816528e-01 -7.824188098311424255e-03
4.187715649604797363e-01 -1.208244115114212036e-01 1.108630560338497162e-02
-2.410870790481567383e-02 6.917883455753326416e-02 9.988836012780666351e-03
2.621646523475646973e-01 7.983985543251037598e-02 -1.160734519362449646e-02
5.787569880485534668e-01 -5.952577292919158936e-02 -3.372978419065475464e-02
1.967239975929260254e-01 7.687072455883026123e-02 4.258177429437637329e-02
1.288668215274810791e-01 -2.099747955799102783e-02 1.246313080191612244e-01
7.473489642143249512e-02 9.314473718404769897e-03 1.145692095160484314e-01
-1.385752409696578979e-01 -9.107568860054016113e-02 7.475756853818893433e-02
1.637630164623260498e-02 -7.953849434852600098e-02 -1.033432930707931519e-01
4.814715385437011719e-01 -1.044761985540390015e-01 3.056003525853157043e-02
5.262552499771118164e-01 -2.791545167565345764e-02 8.292711526155471802e-02
2.834826111793518066e-01 5.486417189240455627e-02 8.131410926580429077e-02
1.514078229665756226e-01 -8.078753203153610229e-02 1.125172600150108337e-01
5.044013261795043945e-01 -6.453462690114974976e-02 7.694063335657119751e-02
2.788135409355163574e-01 -8.221276104450225830e-02 1.068550273776054382e-01
-7.255353033542633057e-02 -1.194244325160980225e-01 -5.534757673740386963e-02
1.697153002023696899e-01 3.497621789574623108e-02 1.036690846085548401e-01
1.293803006410598755e-01 -1.071125119924545288e-01 9.302905201911926270e-02
4.561616182327270508e-01 6.128649786114692688e-02 2.173454314470291138e-02
4.820865392684936523e-01 -6.651353091001510620e-02 8.247286081314086914e-02
-2.230560332536697388e-01 -4.160703346133232117e-02 7.161049544811248779e-02
3.319420218467712402e-01 5.253693088889122009e-02 7.934709638357162476e-02
2.720659673213958740e-01 4.604573920369148254e-02 9.201323986053466797e-02
2.068672478199005127e-01 -1.095177978277206421e-01 8.916228264570236206e-02
1.633533835411071777e-01 -1.363335102796554565e-01 -4.346631094813346863e-02
-2.011223584413528442e-01 2.258681505918502808e-02 -4.086091369390487671e-02
3.106714785099029541e-01 1.172757893800735474e-02 1.124898269772529602e-01
4.224517345428466797e-01 -1.093232631683349609e-01 5.195881426334381104e-02
-1.176819652318954468e-01 -1.255823075771331787e-01 2.322853356599807739e-02
2.821452915668487549e-02 6.654180586338043213e-02 -4.040873795747756958e-02
-1.351368874311447144e-01 -1.210509836673736572e-01 -2.881462313234806061e-02
3.554828166961669922e-01 5.801408365368843079e-02 6.811358034610748291e-02
5.337243080139160156e-01 2.735988423228263855e-02 -4.178312420845031738e-02
5.564045906066894531e-01 3.531869128346443176e-02 2.442989125847816467e-02
7.187186926603317261e-02 1.625302806496620178e-02 -1.034353524446487427e-01
-2.183318138122558594e-02 -1.136231273412704468e-01 7.484474033117294312e-02
-2.225482612848281860e-01 -9.587989747524261475e-02 -3.567532077431678772e-02
5.177389830350875854e-02 -4.902729764580726624e-03 -1.111748591065406799e-01
-1.707969754934310913e-01 4.285242781043052673e-02 -1.254434231668710709e-03
-1.589263230562210083e-01 -3.494807705283164978e-02 9.096066653728485107e-02
-7.363855838775634766e-04 -5.834547430276870728e-02 1.136943027377128601e-01
1.690506935119628906e-01 -1.278960406780242920e-01 6.553899496793746948e-02
-7.529100775718688965e-02 5.078343674540519714e-02 5.279529839754104614e-02
1.325640380382537842e-01 6.268872320652008057e-02 7.159796357154846191e-02
8.971023559570312500e-02 -6.910838186740875244e-02 1.165053397417068481e-01
-6.996017694473266602e-02 -1.067477464675903320e-01 -7.314163446426391602e-02
-2.868243455886840820e-01 -6.976460665464401245e-02 -2.152021788060665131e-02
4.948757290840148926e-01 -9.657439589500427246e-02 4.259464517235755920e-02
3.221005797386169434e-01 1.670585200190544128e-02 -9.797853231430053711e-02
2.642494440078735352e-01 4.131285473704338074e-02 -8.561595529317855835e-02
5.141524076461791992e-01 4.107308760285377502e-02 4.557527229189872742e-02
8.937451243400573730e-02 -3.883880749344825745e-02 1.233416721224784851e-01
1.951213777065277100e-01 -1.206509619951248169e-01 7.594434171915054321e-02
-2.385537326335906982e-02 2.208393067121505737e-03 1.077415049076080322e-01
4.705554842948913574e-01 -8.556165546178817749e-02 -5.978882312774658203e-02
5.567811131477355957e-01 -8.099201321601867676e-02 2.869947627186775208e-02
4.636562466621398926e-01 -1.907768286764621735e-02 -8.676868677139282227e-02
5.698735117912292480e-01 -7.845588773488998413e-02 1.667607761919498444e-02
2.046985626220703125e-01 3.883808851242065430e-03 1.200831234455108643e-01
2.566265463829040527e-01 2.104638889431953430e-02 -1.008365452289581299e-01
4.328227639198303223e-01 -9.960572421550750732e-02 6.473927199840545654e-02
3.666602373123168945e-01 7.069672644138336182e-02 -2.202942222356796265e-02
2.776230275630950928e-01 -3.926549479365348816e-02 -1.130329892039299011e-01
2.828873693943023682e-01 -3.020353242754936218e-02 1.222120225429534912e-01
-1.310126036405563354e-01 4.081011191010475159e-02 -4.394609481096267700e-02
3.835698962211608887e-01 -1.153018027544021606e-01 -4.596693068742752075e-02
1.517872363328933716e-01 -1.224123686552047729e-01 7.479593902826309204e-02
3.494579195976257324e-01 5.003787949681282043e-02 -6.730709224939346313e-02
-1.934398561716079712e-01 3.420679643750190735e-02 -1.857466809451580048e-02
1.246515288949012756e-01 -4.565274715423583984e-02 -1.173804476857185364e-01
1.865515708923339844e-01 6.130285561084747314e-03 1.194333136081695557e-01
-2.218307554721832275e-02 -1.304064244031906128e-01 4.605446383357048035e-02
4.012377858161926270e-01 -1.151398718357086182e-01 -3.958729654550552368e-02
1.477830708026885986e-01 -1.364548653364181519e-01 4.778144136071205139e-02
-1.971055120229721069e-01 -8.773134648799896240e-02 5.912224948406219482e-02
1.556023359298706055e-01 8.060447871685028076e-02 2.277686074376106262e-02
-2.481253892183303833e-01 1.141618564724922180e-02 2.866601198911666870e-02
1.134675219655036926e-01 -7.068055868148803711e-02 -1.112328544259071350e-01
-4.102680087089538574e-02 1.583462953567504883e-02 9.852381050586700439e-02
2.836975455284118652e-02 -1.213272064924240112e-01 -6.820004433393478394e-02
2.502927780151367188e-01 -1.111011803150177002e-01 8.440390974283218384e-02
7.578927278518676758e-02 -1.348126828670501709e-01 -4.716541990637779236e-02
1.769492030143737793e-01 6.224354729056358337e-02 -6.353559345006942749e-02
4.491515159606933594e-01 5.306136980652809143e-02 5.228615552186965942e-02
3.984311819076538086e-01 -7.041337341070175171e-02 9.881802648305892944e-02
4.814831018447875977e-01 -1.372610032558441162e-02 9.449116140604019165e-02
1.352233290672302246e-01 8.118098974227905273e-02 8.155131712555885315e-03
9.132852405309677124e-02 -9.802617132663726807e-03 1.215385794639587402e-01
1.569125503301620483e-01 5.383708700537681580e-02 -7.507603615522384644e-02
-1.787286847829818726e-01 -6.752864271402359009e-02 7.907419651746749878e-02
5.246748775243759155e-02 -1.284524500370025635e-01 -5.875029787421226501e-02
4.974461793899536133e-01 2.124777436256408691e-02 -6.195477396249771118e-02
3.196840882301330566e-01 7.023783028125762939e-02 -3.692224994301795959e-02
1.214877963066101074e-01 -1.431951373815536499e-01 -1.970083266496658325e-02
4.351209998130798340e-01 -4.032536968588829041e-02 1.032509058713912964e-01
-1.713172048330307007e-01 -9.679780900478363037e-02 5.903337523341178894e-02
4.781188964843750000e-01 -9.705716744065284729e-03 -8.190588653087615967e-02
9.198682010173797607e-02 -1.220188587903976440e-01 -7.098126411437988281e-02
1.033586338162422180e-01 7.967419922351837158e-02 -3.215376753360033035e-03
1.384787708520889282e-01 -1.306532621383666992e-01 6.104378774762153625e-02
1.746269911527633667e-01 -1.147157847881317139e-01 -7.958170026540756226e-02
1.902960985898971558e-01 6.780242919921875000e-02 -5.382850766181945801e-02
1.333502531051635742e-01 -1.146446168422698975e-01 -8.068110048770904541e-02
4.955293536186218262e-01 5.140350386500358582e-02 3.104114718735218048e-02
2.251088917255401611e-01 7.870051264762878418e-02 -2.307271957397460938e-02
1.089652106165885925e-01 -2.066563628613948822e-02 1.239625588059425354e-01
6.782156974077224731e-02 4.404777660965919495e-02 -8.162877708673477173e-02
-4.938840866088867188e-02 -9.551870822906494141e-02 8.901717513799667358e-02
1.258540451526641846e-01 -1.501175574958324432e-02 -1.163970977067947388e-01
2.102491259574890137e-01 -4.383306950330734253e-02 -1.164006963372230530e-01
3.606339693069458008e-01 -5.593992397189140320e-02 1.106636226177215576e-01
3.501012623310089111e-01 -1.285608559846878052e-01 2.915032021701335907e-02
2.364304661750793457e-02 7.134929299354553223e-02 3.183072432875633240e-02
5.081638693809509277e-01 -1.631462946534156799e-03 -7.149435579776763916e-02
2.911671996116638184e-01 -8.980564773082733154e-02 -9.320326149463653564e-02
5.382969379425048828e-01 -5.007205903530120850e-02 -6.088371574878692627e-02
2.715830206871032715e-01 -1.236251890659332275e-01 6.381226330995559692e-02
3.761277198791503906e-01 -1.274054795503616333e-01 -6.465782877057790756e-03
2.163462340831756592e-01 6.849654018878936768e-02 -5.195244774222373962e-02
4.559292197227478027e-01 -6.314724683761596680e-02 9.114163368940353394e-02
7.601553201675415039e-02 -8.791659772396087646e-02 1.064661145210266113e-01
-1.318774074316024780e-01 5.167240276932716370e-02 -4.331022966653108597e-03
8.604573458433151245e-02 4.559159651398658752e-02 -8.139584958553314209e-02
-1.554014533758163452e-01 -8.410587906837463379e-04 -7.958810031414031982e-02
8.615975826978683472e-02 7.719512283802032471e-02 2.665321342647075653e-02
2.254362702369689941e-01 -2.503967285156250000e-02 -1.162396222352981567e-01
1.172757446765899658e-01 -1.364568769931793213e-01 -4.447524622082710266e-02
2.795325219631195068e-02 -1.421265751123428345e-01 1.153504289686679840e-02
-1.025406867265701294e-01 -3.600408881902694702e-02 -9.942542761564254761e-02
1.622058004140853882e-01 -1.444820910692214966e-01 6.088843103498220444e-03
5.019997358322143555e-01 -2.215698361396789551e-02 -7.739436626434326172e-02
6.103643178939819336e-01 -1.595416292548179626e-02 -2.772837691009044647e-02
-2.741050124168395996e-01 -3.476749360561370850e-02 4.753324389457702637e-02
-1.048214584589004517e-01 -1.159093081951141357e-01 5.367941781878471375e-02
-2.893380522727966309e-01 -7.390847802162170410e-02 1.555777154862880707e-03
3.567147552967071533e-01 -8.603324741125106812e-02 9.536594152450561523e-02
-3.019632101058959961e-01 -5.879532545804977417e-02 1.289802789688110352e-02
1.753478646278381348e-01 8.202733099460601807e-02 9.077120572328567505e-03
-8.425568044185638428e-02 3.272639587521553040e-02 7.630557566881179810e-02
9.488941729068756104e-02 7.331725955009460449e-02 4.447615891695022583e-02
2.099936008453369141e-01 -6.991793215274810791e-02 1.168809011578559875e-01
3.494316041469573975e-01 -1.305486708879470825e-01 -1.097975857555866241e-02
-1.340158730745315552e-01 1.976724341511726379e-02 7.542262971401214600e-02
-2.554801702499389648e-01 -4.486368969082832336e-03 -4.239391162991523743e-02
1.872239559888839722e-01 -1.471305452287197113e-02 -1.162045225501060486e-01
2.486146390438079834e-01 -1.372363120317459106e-01 -2.775000967085361481e-02
4.862065911293029785e-01 -8.071000128984451294e-02 6.969404220581054688e-02
-8.361071348190307617e-02 -8.640305697917938232e-02 -8.802098035812377930e-02
1.243309676647186279e-02 7.286165654659271240e-02 -6.470153573900461197e-03
4.779071807861328125e-01 1.871288195252418518e-02 -6.958369910717010498e-02
3.909007310867309570e-01 -3.793762996792793274e-03 -9.739187359809875488e-02
-2.590588927268981934e-01 -5.218166857957839966e-02 5.425430834293365479e-02
1.312377750873565674e-01 1.022917777299880981e-02 1.169900968670845032e-01
3.884524405002593994e-01 -2.798512764275074005e-02 -1.011205911636352539e-01
1.200619190931320190e-01 7.457701861858367920e-02 -3.423120826482772827e-02
-1.652796119451522827e-01 -1.185615509748458862e-01 -1.317199133336544037e-02
1.811412572860717773e-01 -1.419738978147506714e-01 2.542094700038433075e-02
3.167533278465270996e-01 -1.175423860549926758e-01 -5.975582450628280640e-02
-1.585395634174346924e-02 6.217857077717781067e-02 -3.964839503169059753e-02
-1.480730921030044556e-01 4.295462742447853088e-02 3.502678871154785156e-02
-1.881441324949264526e-01 -1.142785400152206421e-01 -1.329545862972736359e-03
-2.188049405813217163e-01 2.762551605701446533e-02 1.487005874514579773e-02
2.433756291866302490e-01 7.947443425655364990e-02 -1.742978766560554504e-02
3.487809300422668457e-01 -4.060604423284530640e-02 1.156778857111930847e-01
-2.085924148559570312e-02 -8.881965279579162598e-02 9.779097139835357666e-02
2.386803328990936279e-01 -3.602673113346099854e-02 -1.157328635454177856e-01
5.054140686988830566e-01 4.659533500671386719e-03 8.331596106290817261e-02
-1.685611903667449951e-02 5.342833325266838074e-02 -5.742397531867027283e-02
3.890492320060729980e-01 -5.173407495021820068e-02 -9.804148226976394653e-02
6.010162234306335449e-01 -5.152735114097595215e-02 -2.323049679398536682e-02
-1.290144175291061401e-01 -1.920002698898315430e-02 9.611429274082183838e-02
3.032862544059753418e-01 -2.855971828103065491e-02 1.208385825157165527e-01
3.212993144989013672e-01 -4.378222674131393433e-02 -1.085700392723083496e-01
-1.709140837192535400e-02 -1.292710937559604645e-02 -1.077018529176712036e-01
1.994320750236511230e-01 -1.007983386516571045e-01 -9.218876808881759644e-02
-1.565872132778167725e-02 -1.368566602468490601e-01 -2.574096620082855225e-02
2.294483780860900879e-01 -1.343882530927658081e-01 -4.121027141809463501e-02
3.731646537780761719e-01 -1.034504771232604980e-01 -6.726132333278656006e-02
4.033984541893005371e-01 -1.056596040725708008e-01 -5.628651008009910583e-02
2.102956324815750122e-01 -1.428042203187942505e-01 9.153071790933609009e-03
1.735121011734008789e-03 7.193893194198608398e-02 1.290176250040531158e-02
2.538709640502929688e-01 -2.045784145593643188e-02 -1.144167184829711914e-01
5.741297006607055664e-01 -1.470535621047019958e-02 6.425133347511291504e-02
3.065919280052185059e-01 -1.310898810625076294e-01 3.832741081714630127e-02
-1.002309471368789673e-01 5.790498480200767517e-02 8.683510124683380127e-03
1.566877216100692749e-01 -5.639033019542694092e-02 -1.155518367886543274e-01
-1.311469227075576782e-01 4.875429347157478333e-02 2.883254550397396088e-02
-1.132230460643768311e-02 1.925714313983917236e-02 1.008276939392089844e-01
8.563697338104248047e-03 6.708286702632904053e-02 4.182426258921623230e-02
5.187417566776275635e-02 7.035915553569793701e-02 -3.525041788816452026e-02
-1.303467899560928345e-01 -1.199141442775726318e-01 3.519790619611740112e-02
-7.069197297096252441e-02 2.949872240424156189e-02 -7.666746526956558228e-02
6.276772618293762207e-01 -3.165284916758537292e-02 -3.602175042033195496e-03
-5.827620625495910645e-02 -4.679715260863304138e-03 -1.001731231808662415e-01
1.646573245525360107e-01 -1.008520089089870453e-02 -1.155826151371002197e-01
-1.321104615926742554e-01 -2.197370305657386780e-02 -9.247107058763504028e-02
2.504668533802032471e-01 7.200187444686889648e-02 -4.223058745265007019e-02
-1.844011992216110229e-01 1.045222207903862000e-02 -6.290461122989654541e-02
2.786745131015777588e-01 -1.386658847332000732e-01 1.091909362003207207e-03
2.539119124412536621e-01 -1.362503021955490112e-01 3.552268818020820618e-02
1.637597382068634033e-01 3.426029905676841736e-02 -9.452145546674728394e-02
4.037952423095703125e-01 4.295692220330238342e-02 7.907836884260177612e-02
4.986258745193481445e-01 -1.024454385042190552e-01 -9.583514183759689331e-03
-1.904188096523284912e-02 -4.790683835744857788e-02 1.139386594295501709e-01
3.742820024490356445e-01 2.464395016431808472e-03 1.094592958688735962e-01
7.029280066490173340e-03 -1.327913105487823486e-01 -4.424345493316650391e-02
3.211201727390289307e-02 -9.701307117938995361e-02 9.723330289125442505e-02
5.348458290100097656e-01 -5.936875939369201660e-02 6.931849569082260132e-02
1.680134236812591553e-02 -1.953958347439765930e-02 1.178575307130813599e-01
3.724999427795410156e-01 5.510072782635688782e-02 -5.624207481741905212e-02
-9.631599485874176025e-02 -5.902727320790290833e-02 -9.783659875392913818e-02
4.393000602722167969e-01 -1.168635487556457520e-01 -4.314798396080732346e-03
4.497382044792175293e-01 4.270207509398460388e-02 -5.451873317360877991e-02
5.025014877319335938e-01 -5.521985888481140137e-02 -7.118859887123107910e-02
3.313291966915130615e-01 -8.501930534839630127e-02 -9.146327525377273560e-02
2.848100662231445312e-02 -1.390044689178466797e-01 3.084463998675346375e-02
6.228763461112976074e-01 -3.185797855257987976e-02 2.731011062860488892e-02
3.947765231132507324e-01 2.220654860138893127e-02 9.771443158388137817e-02
-2.134468108415603638e-01 -9.315706789493560791e-02 4.533856734633445740e-02
-1.316375881433486938e-01 1.150919869542121887e-02 -7.794225960969924927e-02
9.788323938846588135e-02 -1.274559795856475830e-01 6.617444008588790894e-02
1.049631908535957336e-01 -1.141666918992996216e-01 -8.111441135406494141e-02
1.945342421531677246e-01 8.186629414558410645e-02 1.502292789518833160e-02
-9.186998009681701660e-03 -9.444203972816467285e-02 -9.224874526262283325e-02
-1.246783137321472168e-02 6.146186962723731995e-02 5.036349967122077942e-02
-2.502354979515075684e-01 -7.283008098602294922e-02 4.778347164392471313e-02
4.965285658836364746e-01 4.377852007746696472e-02 4.972366243600845337e-02
-5.227142572402954102e-02 -9.344457834959030151e-02 -8.788891136646270752e-02
3.252866268157958984e-01 3.650523722171783447e-04 1.152654960751533508e-01
5.789878368377685547e-01 -4.660053551197052002e-02 5.624749511480331421e-02
-1.034157425165176392e-01 1.307647302746772766e-02 -8.331830054521560669e-02
-2.052046209573745728e-01 2.889186516404151917e-02 2.828142046928405762e-02
-3.055628538131713867e-01 -3.203275427222251892e-02 -1.605396904051303864e-02
-1.985199749469757080e-02 -1.399571448564529419e-02 1.130333021283149719e-01
6.074249744415283203e-03 -1.406968384981155396e-01 1.316772773861885071e-02
3.739546239376068115e-01 7.354624569416046143e-02 9.026251733303070068e-03
-1.071868091821670532e-01 4.542705044150352478e-02 -4.496641829609870911e-02
3.423151373863220215e-01 7.309632003307342529e-02 -2.169796638190746307e-02
3.263944685459136963e-01 -1.332839131355285645e-01 -1.104006916284561157e-02
-5.571871995925903320e-03 -1.075578629970550537e-01 -8.139312267303466797e-02
4.366002082824707031e-01 -2.512361854314804077e-02 -9.279687702655792236e-02
-1.481361240148544312e-01 -1.053155362606048584e-01 5.620452389121055603e-02
6.041824817657470703e-04 -4.718500375747680664e-02 -1.115205883979797363e-01
1.533152312040328979e-01 7.722762227058410645e-02 3.931628540158271790e-02
3.051604628562927246e-01 -1.289535909891128540e-01 -3.893277794122695923e-02
2.435965240001678467e-01 -1.784148812294006348e-02 1.237285956740379333e-01
3.601584136486053467e-01 2.229805663228034973e-02 1.023695394396781921e-01
-7.018381357192993164e-02 -1.304151713848114014e-01 -2.998091094195842743e-02
4.849166423082351685e-02 6.105944141745567322e-02 6.486125290393829346e-02
-2.336129993200302124e-01 -1.457645185291767120e-02 -6.049199402332305908e-02
1.429786384105682373e-01 7.322739064693450928e-02 -4.027105867862701416e-02
-5.044254660606384277e-02 3.954492136836051941e-02 7.666727900505065918e-02
-1.023816317319869995e-01 -1.054343432188034058e-01 6.928171217441558838e-02
4.729378968477249146e-02 6.970617175102233887e-02 4.518187046051025391e-02
4.651598930358886719e-01 -1.113647371530532837e-01 -4.748586099594831467e-03
1.275015324354171753e-01 5.182053521275520325e-02 8.627924323081970215e-02
3.749314546585083008e-01 4.436319693922996521e-02 8.269685506820678711e-02
1.868147701025009155e-01 -1.438965499401092529e-01 1.543239224702119827e-03
4.880734682083129883e-01 5.518617853522300720e-02 -5.728302989155054092e-03
1.195143908262252808e-01 -1.372414827346801758e-01 4.578754305839538574e-02
2.236813306808471680e-03 3.315404430031776428e-02 -8.525414764881134033e-02
4.031853079795837402e-01 -4.243779927492141724e-02 1.082436814904212952e-01
-7.888711988925933838e-02 5.803325399756431580e-02 -2.490938268601894379e-02
2.958008646965026855e-01 -4.740344732999801636e-02 -1.104916036128997803e-01
2.632609009742736816e-01 -5.910915881395339966e-02 -1.104812398552894592e-01
4.586399197578430176e-01 1.384264230728149414e-02 -7.746835052967071533e-02
5.395209044218063354e-02 7.589332759380340576e-02 2.077540755271911621e-02
5.536000728607177734e-01 -8.142992854118347168e-02 -1.962463185191154480e-02
6.343374401330947876e-02 -4.003531485795974731e-02 -1.161489188671112061e-01
-1.506261378526687622e-01 2.441596239805221558e-02 -6.072498112916946411e-02
6.890260428190231323e-02 6.209584698081016541e-02 6.612605601549148560e-02
-2.191960066556930542e-01 3.298189491033554077e-03 -5.498512461781501770e-02
2.528470754623413086e-01 5.982244387269020081e-02 7.659316807985305786e-02
3.672969341278076172e-01 -1.111875623464584351e-01 6.590804457664489746e-02
4.231795668601989746e-03 -2.832697704434394836e-02 -1.121665313839912415e-01
4.288635849952697754e-01 -7.575072348117828369e-02 8.960431069135665894e-02
4.016008973121643066e-02 -5.381062626838684082e-02 1.182804703712463379e-01
1.653860807418823242e-01 -5.606377497315406799e-03 1.228048875927925110e-01
1.157865375280380249e-01 7.411959767341613770e-02 4.531029984354972839e-02
2.674677371978759766e-01 7.609054446220397949e-02 4.087899625301361084e-02
1.421103477478027344e-01 -6.125137209892272949e-02 1.206083893775939941e-01
1.687216460704803467e-01 -7.684354484081268311e-02 1.145008280873298645e-01
-1.465815752744674683e-01 -9.226939082145690918e-02 -7.054336369037628174e-02
5.960473418235778809e-01 -4.104942083358764648e-02 4.852984100580215454e-02
5.019336342811584473e-01 -2.983279712498188019e-02 8.982485532760620117e-02
7.365401983261108398e-01 -1.496927887201309204e-01 1.193045079708099365e-02
7.350428104400634766e-01 -1.307467073202133179e-01 1.139869168400764465e-02
7.577105760574340820e-01 -1.304446607828140259e-01 3.850367851555347443e-03
6.945865154266357422e-01 -1.365187615156173706e-01 -1.966293901205062866e-02
6.202994585037231445e-01 -1.078927069902420044e-01 9.914341382682323456e-03
7.711569070816040039e-01 -1.288568973541259766e-01 -1.757730543613433838e-02
6.701271533966064453e-01 -1.358307003974914551e-01 1.817950233817100525e-02
6.853313446044921875e-01 -1.138699650764465332e-01 6.407147273421287537e-03
7.674245238304138184e-01 -1.625371128320693970e-01 -3.380689304322004318e-03
6.313042640686035156e-01 -1.183282062411308289e-01 1.990333758294582367e-02
8.191633224487304688e-01 -1.628161221742630005e-01 -2.840255014598369598e-02
8.431731462478637695e-01 -1.671918481588363647e-01 -1.251250132918357849e-02
6.495941877365112305e-01 -1.226131469011306763e-01 2.059066854417324066e-02
6.331602334976196289e-01 -1.233765333890914917e-01 -6.231288891285657883e-03
7.958980202674865723e-01 -1.383824348449707031e-01 -3.365750890225172043e-03
6.899586915969848633e-01 -1.478069871664047241e-01 -3.151614218950271606e-03
7.631450295448303223e-01 -1.572258174419403076e-01 -2.247212454676628113e-02
7.257665991783142090e-01 -1.228587999939918518e-01 -1.947202533483505249e-02
7.873013615608215332e-01 -1.368900686502456665e-01 -2.687569707632064819e-02
6.661251187324523926e-01 -1.102579757571220398e-01 4.272621124982833862e-03
8.230023980140686035e-01 -1.674906015396118164e-01 -9.176112711429595947e-03
8.029431700706481934e-01 -1.531729549169540405e-01 -3.171771392226219177e-02
8.050442337989807129e-01 -1.600871682167053223e-01 6.257188506424427032e-04
7.105829715728759766e-01 -1.521446704864501953e-01 -6.969169247895479202e-03
6.964092254638671875e-01 -1.195193380117416382e-01 -1.718468964099884033e-02
7.340645790100097656e-01 -1.408745646476745605e-01 -2.642139978706836700e-02
8.135823607444763184e-01 -1.398069411516189575e-01 -1.458596531301736832e-02
7.828547954559326172e-01 -1.554789990186691284e-01 -2.852084673941135406e-02
7.388059496879577637e-01 -1.583159565925598145e-01 -6.753434892743825912e-03
7.089096307754516602e-01 -1.216294318437576294e-01 1.061962358653545380e-02
3.375212848186492920e-01 -9.058634936809539795e-02 -3.961299359798431396e-02
8.184140920639038086e-02 -1.159125864505767822e-01 2.280251681804656982e-02
6.779460906982421875e-01 6.399853527545928955e-02 1.906042918562889099e-02
5.804384946823120117e-01 1.805908046662807465e-03 1.030090898275375366e-01
-3.022383153438568115e-01 -2.418418601155281067e-02 3.275598213076591492e-02
4.486911296844482422e-01 -5.953600630164146423e-02 -5.157895758748054504e-02
8.582118153572082520e-02 -1.989034190773963928e-02 9.598638117313385010e-02
2.459683120250701904e-01 -4.128363914787769318e-03 -8.243508636951446533e-02
5.284353494644165039e-01 7.630468159914016724e-02 -4.718157462775707245e-03
1.638779789209365845e-01 -1.957918703556060791e-02 1.016193479299545288e-01
2.965064346790313721e-01 8.284334838390350342e-02 4.402471333742141724e-02
6.061352491378784180e-01 -8.164427429437637329e-02 2.191882207989692688e-02
7.270344495773315430e-01 -4.092574864625930786e-02 -4.314491525292396545e-04
1.658367812633514404e-01 3.028153628110885620e-02 -7.629962265491485596e-02
1.814830154180526733e-01 -5.910005792975425720e-02 -7.623812556266784668e-02
7.102977037429809570e-01 4.202985018491744995e-02 -6.036274135112762451e-03
7.584638595581054688e-01 -4.587035626173019409e-02 3.686855733394622803e-02
-9.889033436775207520e-02 4.526900872588157654e-02 4.258620366454124451e-02
7.533403635025024414e-01 -3.750197961926460266e-02 8.501458913087844849e-03
8.270134031772613525e-02 6.938258558511734009e-02 4.517322778701782227e-02
3.221826553344726562e-01 -6.352302432060241699e-02 9.545335173606872559e-02
1.963343471288681030e-01 -1.074182465672492981e-01 5.046652629971504211e-02
3.868804574012756348e-01 -6.855270359665155411e-03 -7.254353165626525879e-02
1.578160673379898071e-01 -1.535319723188877106e-03 1.000573933124542236e-01
4.559381008148193359e-01 2.753254771232604980e-02 1.016375869512557983e-01
-1.628056466579437256e-01 -4.140333086252212524e-02 -7.917982339859008789e-02
4.192395210266113281e-01 8.678238838911056519e-02 2.804228477180004120e-02
3.568840026855468750e-01 2.818921580910682678e-02 -6.825199723243713379e-02
3.813603520393371582e-01 -2.400210127234458923e-02 -7.197117805480957031e-02
2.569010853767395020e-01 -1.063087135553359985e-01 5.183402448892593384e-02
7.272156476974487305e-01 4.122886061668395996e-02 -9.287605062127113342e-04
-2.616897523403167725e-01 -8.543427288532257080e-02 -3.362997621297836304e-02
-3.775388002395629883e-03 -1.057380363345146179e-01 3.990894556045532227e-02
5.065010786056518555e-01 7.120206207036972046e-02 -1.886982470750808716e-02
2.779520153999328613e-01 4.565352946519851685e-02 -6.425227224826812744e-02
2.040455639362335205e-01 -2.325494773685932159e-02 1.037050932645797729e-01
5.078589916229248047e-01 8.201114833354949951e-02 3.708933293819427490e-02
6.118425726890563965e-02 -5.047782883048057556e-02 -8.318620920181274414e-02
6.464930772781372070e-01 4.320831596851348877e-02 -2.215458825230598450e-02
3.807214796543121338e-01 -4.525423049926757812e-03 1.087498664855957031e-01
-1.154344081878662109e-01 -8.968646824359893799e-02 -5.480495467782020569e-02
4.546915590763092041e-01 8.527166396379470825e-02 3.160629794001579285e-02
6.397073864936828613e-01 -1.053062826395034790e-02 9.798347949981689453e-02
6.778441667556762695e-01 5.562938749790191650e-02 6.345157325267791748e-02
1.840327382087707520e-01 -9.288839250802993774e-02 -5.187313258647918701e-02
4.531607031822204590e-01 -9.112109988927841187e-02 6.296528875827789307e-02
-9.946486353874206543e-02 -9.268208593130111694e-02 4.449330642819404602e-02
1.097988709807395935e-01 1.005610171705484390e-02 9.389889240264892578e-02
1.996757537126541138e-01 -8.540324121713638306e-02 7.851381599903106689e-02
6.409360170364379883e-01 -7.582677900791168213e-02 3.026096336543560028e-02
-2.529077231884002686e-02 -2.229713648557662964e-02 8.494961261749267578e-02
6.682429313659667969e-01 -6.272270530462265015e-02 3.149608150124549866e-03
-1.717425882816314697e-01 -8.600433170795440674e-02 -5.305920913815498352e-02
1.271381974220275879e-03 7.318631559610366821e-02 9.917362593114376068e-03
-1.980563104152679443e-01 1.675310358405113220e-02 4.497393593192100525e-02
4.153271019458770752e-01 6.712360680103302002e-02 -3.614901751279830933e-02
5.679186582565307617e-01 7.588033378124237061e-02 5.532495211809873581e-03
3.364599347114562988e-01 -2.721323259174823761e-02 1.074746698141098022e-01
-2.734550535678863525e-01 1.255469303578138351e-02 2.510055154561996460e-02
1.864822208881378174e-01 -1.173235476016998291e-01 1.213144045323133469e-02
-3.017526865005493164e-02 4.002024978399276733e-02 6.169775500893592834e-02
-1.139067113399505615e-01 -6.761989556252956390e-03 7.126046717166900635e-02
3.241711854934692383e-01 6.773025728762149811e-03 -7.638008892536163330e-02
1.848597973585128784e-01 -1.091920137405395508e-01 -2.735314890742301941e-02
-2.570168972015380859e-01 1.844371855258941650e-02 2.552813664078712463e-02
5.244314670562744141e-01 -5.580195412039756775e-02 9.256145358085632324e-02
6.218101978302001953e-01 -4.710298776626586914e-02 -2.790480852127075195e-02
5.811933279037475586e-01 9.539506398141384125e-03 -4.749059677124023438e-02
4.795831143856048584e-01 -7.146033644676208496e-02 8.440965414047241211e-02
-1.996616721153259277e-01 2.642589807510375977e-02 -5.679629370570182800e-02
2.507144212722778320e-01 4.628834500908851624e-02 8.718015253543853760e-02
-1.519914567470550537e-01 -9.512116760015487671e-02 3.036902472376823425e-02
1.339439451694488525e-01 -1.163981184363365173e-01 -9.137261658906936646e-03
7.054876089096069336e-01 7.376491092145442963e-03 8.922871947288513184e-02
7.449271678924560547e-01 -6.433486007153987885e-03 -1.151683926582336426e-02
1.581481993198394775e-01 -9.056300669908523560e-02 7.225139439105987549e-02
4.051713347434997559e-01 4.385325685143470764e-02 9.367780387401580811e-02
2.620579004287719727e-01 7.056423276662826538e-02 -4.160571098327636719e-02
-6.499364972114562988e-03 -8.614604920148849487e-02 6.384190917015075684e-02
-3.017406165599822998e-01 1.811870560050010681e-02 2.433182671666145325e-03
3.806867301464080811e-01 8.752252906560897827e-02 2.760599739849567413e-02
1.453568190336227417e-01 5.261315964162349701e-03 -8.485244214534759521e-02
-2.872878313064575195e-02 -1.135241836309432983e-01 1.308885961771011353e-02
-3.027295172214508057e-01 -4.090062156319618225e-02 -6.053028628230094910e-02
1.826378256082534790e-01 -3.460464999079704285e-02 1.013280451297760010e-01
6.456815004348754883e-01 5.994719266891479492e-02 -4.633375443518161774e-03
7.237859964370727539e-01 5.304275453090667725e-02 5.168744176626205444e-02
1.367078721523284912e-02 -1.608475297689437866e-02 8.909218013286590576e-02
-3.725928068161010742e-02 5.253063887357711792e-02 4.736959934234619141e-02
5.869701504707336426e-01 -7.468154281377792358e-02 -8.503992110490798950e-03
6.035881638526916504e-01 1.671679317951202393e-02 9.888485074043273926e-02
2.977433800697326660e-01 3.622234798967838287e-03 -7.861915230751037598e-02
-2.565034031867980957e-01 3.146639838814735413e-02 -2.983013167977333069e-02
3.695040941238403320e-01 8.836621791124343872e-02 1.442476268857717514e-02
8.777387440204620361e-02 -4.069000855088233948e-02 -8.545151352882385254e-02
-2.946902215480804443e-01 1.060701627284288406e-02 -4.707653447985649109e-02
5.698291063308715820e-01 7.746978849172592163e-02 3.889565542340278625e-02
3.904357552528381348e-03 8.995107375085353851e-03 -8.389262855052947998e-02
5.575186014175415039e-02 -1.136517152190208435e-01 -2.139281854033470154e-02
5.093999505043029785e-01 1.153400260955095291e-02 -5.748880282044410706e-02
-2.277487516403198242e-01 3.703862801194190979e-02 9.067286737263202667e-03
2.672636806964874268e-01 -8.541367202997207642e-02 -5.292629078030586243e-02
2.854833006858825684e-01 -8.756867796182632446e-02 -4.904402792453765869e-02
7.035413384437561035e-01 -2.301817014813423157e-02 -1.958955265581607819e-02
5.654872059822082520e-01 -5.570454895496368408e-02 8.875666558742523193e-02
8.027286827564239502e-02 5.560348927974700928e-02 6.359312683343887329e-02
-3.689836561679840088e-01 -5.437273904681205750e-02 -2.019148319959640503e-02
6.740075349807739258e-01 -5.129511281847953796e-02 -9.938232600688934326e-03
2.582440674304962158e-01 -7.272915542125701904e-02 -6.383495032787322998e-02
2.040472626686096191e-02 4.381372407078742981e-02 -6.608642637729644775e-02
5.909818410873413086e-01 4.972230643033981323e-02 -2.842378243803977966e-02
3.262887001037597656e-01 3.422011435031890869e-02 9.751008450984954834e-02
-3.077232539653778076e-01 -7.832819968461990356e-02 -2.435906976461410522e-02
-1.259469091892242432e-01 -2.244937978684902191e-02 7.125869393348693848e-02
-2.107104659080505371e-02 7.155915349721908569e-02 -7.454540580511093140e-03
-2.648805677890777588e-01 -5.562622845172882080e-02 3.816831111907958984e-02
1.960834711790084839e-01 -4.633925482630729675e-02 9.937000274658203125e-02
5.805491209030151367e-01 5.692299455404281616e-02 7.716321945190429688e-02
7.818849384784698486e-02 -1.077420786023139954e-01 4.484665766358375549e-02
-1.230564713478088379e-01 6.107902154326438904e-04 -8.028520643711090088e-02
6.908268928527832031e-01 3.566951304674148560e-02 8.092987537384033203e-02
-1.366929709911346436e-01 8.713760413229465485e-03 6.253104656934738159e-02
3.395832777023315430e-01 -1.098055168986320496e-01 3.198034316301345825e-02
2.263061702251434326e-01 6.611846387386322021e-02 -4.798591509461402893e-02
3.359132111072540283e-01 5.799631588160991669e-03 1.069057136774063110e-01
5.314154624938964844e-01 3.374906629323959351e-02 -4.769074171781539917e-02
4.506926536560058594e-01 8.430065214633941650e-02 2.667509019374847412e-03
7.743650674819946289e-01 4.251079261302947998e-02 3.603757172822952271e-02
-6.016924977302551270e-03 -8.033248782157897949e-02 -6.796509027481079102e-02
4.872484207153320312e-01 8.093773573637008667e-02 4.542599618434906006e-02
-2.103124260902404785e-01 -8.657567203044891357e-02 2.741549722850322723e-02
6.229141950607299805e-01 -7.906305789947509766e-02 3.382730484008789062e-02
3.728802800178527832e-01 -4.171125963330268860e-02 -6.868590414524078369e-02
4.191123545169830322e-01 3.483270853757858276e-02 9.867572784423828125e-02
-2.936590015888214111e-01 2.408442646265029907e-02 -1.232617348432540894e-02
3.648995757102966309e-01 -8.830087631940841675e-02 7.466498017311096191e-02
3.573840260505676270e-01 -1.095850989222526550e-01 2.577528171241283417e-02
6.378818154335021973e-01 9.379521943628787994e-03 -3.752962872385978699e-02
3.195749223232269287e-02 -7.601416110992431641e-02 -7.116633653640747070e-02
-1.763818562030792236e-01 -1.936542987823486328e-02 -7.946528494358062744e-02
5.376229286193847656e-01 6.844904273748397827e-02 6.662106513977050781e-02
4.437792897224426270e-01 1.641789078712463379e-02 -6.409917771816253662e-02
1.363666355609893799e-02 -1.135711893439292908e-01 2.284478209912776947e-02
2.930952012538909912e-01 -9.723281860351562500e-02 -3.654009848833084106e-02
1.681315600872039795e-01 8.439453691244125366e-02 1.930106431245803833e-02
2.070415019989013672e-01 4.819463938474655151e-02 8.295692503452301025e-02
-1.768969595432281494e-01 5.064213275909423828e-02 -9.385868906974792480e-03
8.740541338920593262e-02 -1.111776530742645264e-01 -2.815514057874679565e-02
6.830919384956359863e-01 1.867950707674026489e-02 9.003981947898864746e-02
5.815474987030029297e-01 6.916180998086929321e-02 6.005576252937316895e-02
4.868678748607635498e-02 6.405400484800338745e-02 -4.538135603070259094e-02
6.270490884780883789e-01 6.386533379554748535e-02 -3.815506584942340851e-03
6.384771466255187988e-01 5.843514204025268555e-02 6.776047497987747192e-02
5.303055047988891602e-01 2.345869317650794983e-02 1.011483073234558105e-01
7.462340593338012695e-02 -6.648062914609909058e-02 8.424727618694305420e-02
1.292338669300079346e-01 -3.796591982245445251e-02 -8.506710827350616455e-02
4.769739806652069092e-01 7.242608815431594849e-02 6.473818421363830566e-02
-2.863567173480987549e-01 -2.735605090856552124e-02 -6.515322625637054443e-02
8.125820159912109375e-01 1.863562315702438354e-02 5.103317275643348694e-02
6.469888687133789062e-01 -2.996339090168476105e-02 9.276121854782104492e-02
5.641497373580932617e-01 2.622600272297859192e-02 -4.598507285118103027e-02
-1.375212073326110840e-01 -6.070305034518241882e-02 6.230478361248970032e-02
-3.310357034206390381e-01 -5.530620738863945007e-02 -4.677999392151832581e-02
3.311698436737060547e-01 5.662770569324493408e-02 8.287410438060760498e-02
2.244649827480316162e-02 -6.976303458213806152e-02 7.806853950023651123e-02
-7.015010714530944824e-02 1.269180234521627426e-02 7.203520834445953369e-02
4.693558812141418457e-01 8.199243992567062378e-02 4.423566907644271851e-02
-2.678266763687133789e-01 -8.866967260837554932e-02 -1.692292094230651855e-02
6.390101909637451172e-01 -6.947915256023406982e-02 5.936613306403160095e-02
9.941131621599197388e-02 8.163502812385559082e-02 3.232904244214296341e-03
5.318114757537841797e-01 -1.244008541107177734e-02 -5.558032914996147156e-02
5.894291400909423828e-01 -3.937979042530059814e-02 -3.910516947507858276e-02
2.126202583312988281e-01 -1.098332777619361877e-01 4.521837458014488220e-02
7.517882585525512695e-01 1.781351864337921143e-02 7.770240306854248047e-02
6.010013818740844727e-01 5.169149488210678101e-02 8.027775585651397705e-02
7.205287814140319824e-01 -5.474846437573432922e-02 1.785208098590373993e-02
5.672507286071777344e-01 -8.752668648958206177e-02 1.812048070132732391e-02
1.567890644073486328e-01 8.294158428907394409e-02 -1.164579018950462341e-02
4.100928902626037598e-01 -7.111737132072448730e-02 8.888351917266845703e-02
2.863521277904510498e-01 -9.603255242109298706e-02 6.778591126203536987e-02
2.185186743736267090e-01 -1.086498610675334930e-02 1.045238822698593140e-01
3.202181458473205566e-01 -3.290268033742904663e-02 1.063210666179656982e-01
-3.637596666812896729e-01 -4.630037397146224976e-02 -3.744232282042503357e-02
-1.635120809078216553e-02 -4.462336748838424683e-02 -8.477215468883514404e-02
4.864280819892883301e-01 6.009732373058795929e-03 1.067300587892532349e-01
1.148098707199096680e-01 6.304410845041275024e-02 -5.066729336977005005e-02
-2.243816554546356201e-01 1.521012093871831894e-02 -6.140774860978126526e-02
7.299342751502990723e-02 -4.984907060861587524e-02 9.063826501369476318e-02
1.877360194921493530e-01 -8.478742092847824097e-03 1.027262210845947266e-01
3.482273519039154053e-01 6.243664771318435669e-02 7.791279256343841553e-02
4.389564990997314453e-01 -4.270995035767555237e-03 1.085924804210662842e-01
3.840628564357757568e-01 8.471704274415969849e-02 -6.826557219028472900e-03
5.434080362319946289e-01 -3.332140669226646423e-02 -4.959791526198387146e-02
7.544223070144653320e-01 -2.866449579596519470e-02 7.112906873226165771e-02
2.236155420541763306e-01 5.247253924608230591e-02 -6.132490560412406921e-02
6.431061029434204102e-02 1.831335946917533875e-02 8.683316409587860107e-02
5.011615157127380371e-02 -7.309982180595397949e-02 -7.290594279766082764e-02
5.528686940670013428e-02 5.063415504992008209e-03 -8.566133677959442139e-02
-1.018757224082946777e-01 -2.990593202412128448e-02 7.482026517391204834e-02
2.104347944259643555e-02 1.550503075122833252e-04 -8.636628091335296631e-02
-4.026561975479125977e-03 3.874019160866737366e-02 -6.878167390823364258e-02
4.847534894943237305e-01 8.294545114040374756e-02 5.579092074185609818e-03
-1.988121271133422852e-01 -9.808874130249023438e-02 -2.489696443080902100e-02
2.636167705059051514e-01 -4.607966914772987366e-02 1.019014418125152588e-01
1.406216025352478027e-01 -1.178666502237319946e-01 1.136972103267908096e-02
-2.710186243057250977e-01 -8.491908758878707886e-02 5.863787606358528137e-03
3.600127696990966797e-01 8.343183249235153198e-02 -1.311566680669784546e-02
6.892687082290649414e-01 -5.813987553119659424e-02 5.252598784863948822e-03
1.659344434738159180e-01 -6.573534756898880005e-02 -7.374544441699981689e-02
-1.265890896320343018e-01 5.848243087530136108e-02 -1.138258725404739380e-03
-4.289028048515319824e-02 -4.379751160740852356e-03 8.100342750549316406e-02
-3.154621422290802002e-01 -7.695731520652770996e-02 -8.597014471888542175e-03
2.469382882118225098e-01 8.557423204183578491e-02 -9.451720863580703735e-03
9.773405641317367554e-02 7.506588101387023926e-02 -2.923969551920890808e-02
3.162943422794342041e-01 -1.097762063145637512e-01 -5.527965724468231201e-03
2.059157341718673706e-01 7.693240046501159668e-02 4.904701188206672668e-02
7.744140625000000000e-01 -7.831659168004989624e-03 7.382045686244964600e-02
5.184448957443237305e-01 -4.766837880015373230e-02 -4.767214879393577576e-02
2.989838123321533203e-01 -1.098431125283241272e-01 3.979765623807907104e-02
-1.409335434436798096e-01 -3.678571805357933044e-02 -8.153522014617919922e-02
2.805804610252380371e-01 -2.924571745097637177e-02 1.060676127672195435e-01
3.770557940006256104e-01 5.523947626352310181e-02 8.517423272132873535e-02
4.941195845603942871e-01 -1.729968190193176270e-02 1.070501655340194702e-01
-3.056675195693969727e-02 -3.519533202052116394e-02 -8.637358248233795166e-02
7.485364675521850586e-01 3.647022694349288940e-02 2.838843036442995071e-03
-1.824895441532135010e-01 2.615780755877494812e-02 -6.021298840641975403e-02
-3.311778008937835693e-01 1.023254450410604477e-02 -8.018739521503448486e-03
5.277668237686157227e-01 4.999727010726928711e-02 8.706940710544586182e-02
3.331715464591979980e-01 8.857491612434387207e-02 1.896745711565017700e-02
7.222659587860107422e-01 -4.719050973653793335e-02 6.449565291404724121e-02
3.260652720928192139e-01 -7.739624381065368652e-02 -5.410430952906608582e-02
7.329154014587402344e-02 1.457854639738798141e-02 -8.312369883060455322e-02
6.280452013015747070e-01 -5.877822265028953552e-02 -1.657606661319732666e-02
3.283435106277465820e-01 4.153776913881301880e-02 -6.394527852535247803e-02
2.842632234096527100e-01 1.692512072622776031e-03 1.060948222875595093e-01
-1.084654629230499268e-01 2.028046175837516785e-02 -7.337352633476257324e-02
5.775089859962463379e-01 6.929311901330947876e-02 -7.623035460710525513e-03
-5.274116992950439453e-03 -1.072151958942413330e-01 -3.561887145042419434e-02
3.398697674274444580e-01 -7.839037105441093445e-03 -7.654118537902832031e-02
2.878739833831787109e-01 -1.077340543270111084e-01 -1.779375039041042328e-02
3.443479835987091064e-01 1.092082355171442032e-02 -7.416968047618865967e-02
