2.918009757995605469e-01 -1.515281666070222855e-02 -1.107743009924888611e-01
3.303436934947967529e-01 -8.566509187221527100e-02 3.086868226528167725e-01
1.160363405942916870e-01 -4.994275048375129700e-03 2.487133592367172241e-01
-3.487513214349746704e-02 8.455400820821523666e-04 5.439360141754150391e-01
-7.229673862457275391e-01 1.947543025016784668e-01 6.130495108664035797e-03
2.113745957612991333e-01 -8.580090105533599854e-02 6.809542421251535416e-03
-9.797221422195434570e-02 4.946532845497131348e-02 7.998368889093399048e-02
-6.296934485435485840e-01 1.964156702160835266e-02 6.156792119145393372e-02
-5.407859385013580322e-02 -1.245932886376976967e-03 -4.318278729915618896e-01
4.098803550004959106e-02 -1.575038023293018341e-02 -2.315089106559753418e-01
-1.324678212404251099e-01 4.229458421468734741e-02 -8.621994405984878540e-02
8.981630802154541016e-01 1.035668421536684036e-03 -5.631469935178756714e-02
3.676913380622863770e-01 -6.974823027849197388e-02 5.252300947904586792e-02
1.892376542091369629e-01 -2.433353848755359650e-02 -2.614141702651977539e-01
6.845536641776561737e-03 -3.283521160483360291e-02 -1.662932187318801880e-01
-8.804249167442321777e-01 9.031680971384048462e-02 1.812160611152648926e-01
6.717959046363830566e-01 8.333621174097061157e-02 5.396258831024169922e-02
6.838285923004150391e-01 -6.040453538298606873e-02 -5.080083757638931274e-02
8.918886780738830566e-01 5.277907848358154297e-02 3.714937716722488403e-02
6.141378358006477356e-02 6.459449976682662964e-02 -7.508356869220733643e-02
-9.053595066070556641e-01 8.146204054355621338e-02 -1.887289434671401978e-01
-1.486834734678268433e-01 2.434057556092739105e-02 -6.925005316734313965e-01
-3.506526723504066467e-02 -8.470993489027023315e-03 -8.839289844036102295e-02
-4.462624713778495789e-02 -3.092940431088209152e-03 -4.736843705177307129e-01
7.328014373779296875e-01 -7.107915729284286499e-02 -2.551311068236827850e-02
1.459687501192092896e-01 -2.631635777652263641e-02 -2.564435303211212158e-01
7.607782483100891113e-01 5.248029530048370361e-02 7.395374029874801636e-02
2.379389256238937378e-01 -7.357351016253232956e-03 -1.761529892683029175e-01
1.915192455053329468e-01 -8.058581501245498657e-02 -2.583177089691162109e-01
-2.552478574216365814e-03 -2.099262177944183350e-02 -2.513914406299591064e-01
1.825353316962718964e-02 -4.035905376076698303e-02 1.138817295432090759e-01
-3.393056690692901611e-01 1.032730415463447571e-01 -5.902223754674196243e-03
-1.895621269941329956e-01 1.662659458816051483e-02 7.188585996627807617e-01
-8.613572716712951660e-01 8.537334948778152466e-02 -2.286840677261352539e-01
6.768818199634552002e-02 -1.000880524516105652e-01 -1.991862654685974121e-01
-4.533246532082557678e-02 -4.364564269781112671e-02 -6.123186349868774414e-01
2.340004593133926392e-01 -3.411182388663291931e-02 -2.785804867744445801e-01
-8.434575796127319336e-01 9.137612581253051758e-02 -2.054335027933120728e-01
2.846573889255523682e-01 -6.643448024988174438e-02 -7.253035157918930054e-02
-1.687017977237701416e-01 -3.264508396387100220e-02 7.457846403121948242e-02
-1.422460973262786865e-01 9.537341073155403137e-03 -9.064733237028121948e-02
9.914164990186691284e-02 4.132119938731193542e-03 3.364734351634979248e-01
-6.046163290739059448e-02 7.966934889554977417e-02 -6.234464049339294434e-02
2.936479747295379639e-01 -1.173901781439781189e-01 2.616424262523651123e-01
-1.131557077169418335e-01 9.238559752702713013e-03 6.388396620750427246e-01
2.659223414957523346e-02 9.890450164675712585e-03 -4.318278729915618896e-01
-5.380696803331375122e-02 -1.523430179804563522e-02 -3.477075099945068359e-01
2.058878839015960693e-01 -6.135075353085994720e-03 1.469920724630355835e-01
-3.694553375244140625e-01 6.530071049928665161e-02 7.102026045322418213e-02
7.347299456596374512e-01 -7.075321674346923828e-02 2.098805084824562073e-02
4.470922052860260010e-02 -6.243718788027763367e-03 -9.425986558198928833e-02
-1.743242889642715454e-01 1.977737434208393097e-02 -6.947278380393981934e-01
2.542089223861694336e-01 -5.478202551603317261e-02 -1.109101101756095886e-01
-5.241504870355129242e-03 -3.503532707691192627e-02 -6.023502945899963379e-01
1.000108346343040466e-01 -1.098934933543205261e-01 -1.715626269578933716e-01
-1.111728921532630920e-01 1.996750757098197937e-02 7.548753023147583008e-01
-7.483027875423431396e-02 -4.155418276786804199e-02 -7.090064138174057007e-02
2.724411711096763611e-02 -3.821326419711112976e-02 -9.814401715993881226e-02
3.113847076892852783e-01 -1.129583176225423813e-02 8.392215520143508911e-02
7.351374030113220215e-01 -3.318832069635391235e-02 -7.597991079092025757e-02
2.893835604190826416e-01 -1.114960610866546631e-01 -2.936824858188629150e-01
1.808174699544906616e-01 -6.529367715120315552e-02 3.880625218152999878e-02
1.870375275611877441e-01 -6.752095371484756470e-02 -3.675813600420951843e-02
-7.564514130353927612e-02 2.632339112460613251e-02 6.825974583625793457e-01
-5.703924223780632019e-02 -5.918224900960922241e-02 9.315720200538635254e-02
-3.161570802330970764e-02 -5.823158845305442810e-02 -5.665509104728698730e-01
3.186369240283966064e-01 -9.840401262044906616e-02 3.055360317230224609e-01
-1.526424568146467209e-02 1.028927713632583618e-01 5.695904605090618134e-03
-1.200548335909843445e-01 -5.100651830434799194e-02 5.944928899407386780e-02
-3.660600781440734863e-01 9.925307333469390869e-02 2.661056071519851685e-02
7.072964310646057129e-01 -4.636183753609657288e-02 -6.755971908569335938e-02
-8.414681255817413330e-02 -2.262234315276145935e-02 9.008790552616119385e-02
1.550679951906204224e-01 5.476189777255058289e-02 -8.114067465066909790e-02
2.336661564186215401e-03 -6.002426892518997192e-02 6.112160086631774902e-01
1.819920912384986877e-02 1.467093918472528458e-02 5.413556098937988281e-01
2.186606451869010925e-02 -1.374900043010711670e-01 -1.829434484243392944e-01
3.232544362545013428e-01 8.472146093845367432e-02 -5.588010698556900024e-02
3.638343214988708496e-01 -5.304366350173950195e-02 -6.014452874660491943e-02
3.351851552724838257e-02 -8.661132305860519409e-03 8.495430648326873779e-02
1.389338225126266479e-01 5.584837123751640320e-02 -8.067891746759414673e-02
8.602245897054672241e-02 2.285112394019961357e-03 -5.915941596031188965e-01
4.616171419620513916e-01 -3.962568938732147217e-02 6.892879307270050049e-02
1.640857458114624023e-01 -8.691453188657760620e-02 -1.445821952074766159e-02
3.315659761428833008e-01 -7.241009175777435303e-02 2.363003790378570557e-01
-1.539800465106964111e-01 -3.365007415413856506e-02 -8.219998329877853394e-02
1.340718418359756470e-01 -1.610348932445049286e-02 -5.720918774604797363e-01
5.771976336836814880e-02 -2.756580151617527008e-02 1.506860852241516113e-01
3.945001065731048584e-01 -6.768392026424407959e-02 4.831291735172271729e-02
-4.348545521497726440e-02 5.229016020894050598e-02 7.881572097539901733e-02
2.699356377124786377e-01 -3.761570155620574951e-02 1.337914019823074341e-01
-5.587127432227134705e-02 -1.401201635599136353e-02 -5.833369493484497070e-01
-8.727924227714538574e-01 7.977800071239471436e-02 -1.125126555562019348e-01
2.036877870559692383e-01 1.000407710671424866e-01 2.337829768657684326e-02
5.103998780250549316e-01 -7.037296146154403687e-02 2.628461830317974091e-02
5.266155600547790527e-01 -4.128255695104598999e-02 -7.133522629737854004e-02
-8.537518978118896484e-01 7.002688199281692505e-02 3.652465343475341797e-02
1.415208540856838226e-02 -6.404422223567962646e-02 5.721300244331359863e-01
3.379490077495574951e-01 1.009914427995681763e-01 -2.385623753070831299e-02
-9.205158352851867676e-01 9.531460702419281006e-02 -4.462643526494503021e-03
2.041223794221878052e-01 -1.770604215562343597e-02 2.738924622535705566e-01
-1.426535248756408691e-01 -6.733081489801406860e-02 7.006959617137908936e-02
2.577671110630035400e-01 -7.737617939710617065e-03 9.261396527290344238e-02
5.518489480018615723e-01 8.814386278390884399e-02 -5.147988349199295044e-02
4.628665745258331299e-01 3.873637691140174866e-02 -8.793114870786666870e-02
2.372055649757385254e-01 -6.159966439008712769e-02 8.003801107406616211e-02
9.979353845119476318e-02 -8.759359270334243774e-02 -4.262510314583778381e-02
-4.540374577045440674e-01 9.387502074241638184e-02 3.899638727307319641e-02
3.373581171035766602e-02 -9.949050843715667725e-02 -4.238064959645271301e-02
-1.705487966537475586e-01 1.752294041216373444e-02 -6.768282055854797363e-01
6.518928706645965576e-02 -5.138678476214408875e-02 -1.010503396391868591e-01
6.828573346138000488e-02 6.554015562869608402e-04 -5.832011103630065918e-01
-6.799701452255249023e-01 1.666960716247558594e-01 3.224172396585345268e-03
-4.009359776973724365e-01 1.039792448282241821e-01 -2.235368359833955765e-03
-8.118411302566528320e-01 8.550915867090225220e-02 -1.108557805418968201e-01
6.917870044708251953e-01 8.173365890979766846e-02 5.599972978234291077e-02
-4.644947946071624756e-01 7.124916464090347290e-02 6.531625986099243164e-02
-2.330211400985717773e-01 -6.874323636293411255e-02 3.109227307140827179e-02
-1.111728921532630920e-01 1.996750757098197937e-02 7.548753023147583008e-01
-3.506526723504066467e-02 -8.470993489027023315e-03 -8.839289844036102295e-02
-5.953812971711158752e-02 -2.520271576941013336e-02 7.824531942605972290e-02
-2.137633711099624634e-01 3.903515636920928955e-02 8.435674756765365601e-02
1.610164493322372437e-01 -7.512629032135009766e-02 -4.489805549383163452e-03
6.828573346138000488e-02 6.554015562869608402e-04 -5.832011103630065918e-01
6.728074699640274048e-02 -1.026367396116256714e-02 -8.776816725730895996e-02
7.953010201454162598e-01 -7.996109873056411743e-02 1.297529321163892746e-02
8.632124215364456177e-02 -1.297216862440109253e-01 1.707315593957901001e-01
8.527483940124511719e-01 -5.684632062911987305e-02 1.789159514009952545e-02
-7.146286964416503906e-01 8.531901985406875610e-02 3.603573888540267944e-02
2.073817998170852661e-01 -9.063572436571121216e-02 2.498813271522521973e-01
9.721315652132034302e-02 -2.313841134309768677e-02 2.882610857486724854e-01
-8.718893676996231079e-02 -7.395832240581512451e-02 9.987483732402324677e-03
-1.306751370429992676e-01 2.583894180133938789e-03 5.626233816146850586e-01
6.408312916755676270e-01 -6.958525627851486206e-02 -3.205912932753562927e-02
8.018469810485839844e-01 -1.323563903570175171e-01 -1.513726729899644852e-02
-5.375331044197082520e-01 4.050635267049074173e-03 7.275862246751785278e-02
3.518287837505340576e-01 -3.696382045745849609e-02 -8.488900959491729736e-02
2.235497906804084778e-02 -7.140064612030982971e-03 4.294486343860626221e-01
-7.803604602813720703e-01 1.648490577936172485e-01 6.130495108664035797e-03
-5.745548009872436523e-01 -2.933132462203502655e-02 -3.667664900422096252e-02
1.140806898474693298e-01 5.490217357873916626e-03 -3.187257647514343262e-01
-6.502483785152435303e-02 -2.704973332583904266e-02 -3.286670148372650146e-01
5.787663459777832031e-01 -7.072605937719345093e-02 2.541543915867805481e-02
3.452350571751594543e-02 -1.156744547188282013e-02 -5.972166657447814941e-01
2.348424643278121948e-01 -4.505354445427656174e-03 1.556838750839233398e-01
2.618685662746429443e-01 1.681672967970371246e-02 -9.108192473649978638e-02
1.261405646800994873e-01 -4.508522525429725647e-02 -6.826593726873397827e-02
4.798971116542816162e-01 -7.480032742023468018e-02 3.088363213464617729e-03
-2.125410884618759155e-01 7.757788151502609253e-02 6.194818764925003052e-02
2.542089223861694336e-01 -5.478202551603317261e-02 -1.109101101756095886e-01
-8.568212389945983887e-01 2.225409150123596191e-01 -3.729272400960326195e-03
-5.228590220212936401e-02 -8.270444720983505249e-02 7.669709622859954834e-02
2.622759938240051270e-01 -3.614896163344383240e-02 -1.445093601942062378e-01
-3.267501667141914368e-02 -8.145052939653396606e-03 -4.228644669055938721e-01
9.590938687324523926e-02 -8.819115906953811646e-02 2.253627963364124298e-02
-2.311469763517379761e-01 2.447638288140296936e-02 8.286198377609252930e-01
1.092458739876747131e-01 -7.439291477203369141e-02 -9.922184050083160400e-03
1.637054681777954102e-01 -8.311188220977783203e-02 2.483874261379241943e-01
3.223852515220642090e-01 3.623748198151588440e-02 8.500863611698150635e-02
1.223650649189949036e-01 -5.635740980505943298e-02 -9.526485204696655273e-02
2.472826093435287476e-01 -8.452429622411727905e-02 2.267208881676197052e-02
-9.377636909484863281e-01 9.134896844625473022e-02 2.732948958873748779e-01
2.716263197362422943e-02 -8.821831643581390381e-02 3.209726512432098389e-02
3.905073106288909912e-01 1.018334552645683289e-01 -1.725589483976364136e-02
-3.597041964530944824e-01 -6.366395950317382812e-02 3.997421264648437500e-02
1.568878442049026489e-01 -4.008743911981582642e-02 -2.671181559562683105e-01
-1.177189126610755920e-01 -6.279478222131729126e-02 4.407566040754318237e-02
-3.085311949253082275e-01 -5.573268979787826538e-02 -5.707523599267005920e-02
3.303436934947967529e-01 -8.566509187221527100e-02 3.086868226528167725e-01
-4.348545521497726440e-02 5.229016020894050598e-02 7.881572097539901733e-02
1.278246045112609863e-01 -2.039506845176219940e-02 -9.602538496255874634e-02
4.565988108515739441e-02 -1.295271050184965134e-02 5.829676389694213867e-01
-1.354013085365295410e-01 -6.915066391229629517e-02 -5.875927209854125977e-02
-1.856236457824707031e-01 -7.447438687086105347e-02 4.745238460600376129e-03
1.048999726772308350e-01 -2.313841134309768677e-02 -5.752155184745788574e-01
2.232171744108200073e-01 -1.135015860199928284e-02 2.174500226974487305e-01
9.737613052129745483e-02 -1.129583176225423813e-02 -2.047816067934036255e-01
4.563272371888160706e-02 -6.542500574141740799e-03 -4.390257894992828369e-01
-4.493656158447265625e-01 -5.836739018559455872e-02 -1.554469671100378036e-02
1.979294568300247192e-01 -3.028199635446071625e-02 2.239688783884048462e-01
2.918009757995605469e-01 -1.515281666070222855e-02 -1.107743009924888611e-01
1.871190369129180908e-01 -5.152259394526481628e-02 -2.638587355613708496e-01
-6.228758096694946289e-01 2.697527594864368439e-02 6.488166749477386475e-02
7.482836842536926270e-01 6.592543423175811768e-02 -7.117225974798202515e-02
6.776628494262695312e-01 5.150246992707252502e-02 -8.268889784812927246e-02
-6.265698075294494629e-01 1.118833571672439575e-01 7.705884985625743866e-03
-1.308652609586715698e-01 1.581173948943614960e-02 -6.732699275016784668e-01
-9.167065471410751343e-02 9.803079068660736084e-02 -3.148872777819633484e-02
-7.810667157173156738e-01 2.526634633541107178e-01 5.695904605090618134e-03
2.977494299411773682e-01 5.435446649789810181e-02 7.783789932727813721e-02
8.026075363159179688e-01 -1.626645959913730621e-02 7.077579945325851440e-02
-3.622573912143707275e-01 -4.929532110691070557e-02 -6.275206804275512695e-02
1.216045320034027100e-01 -4.147269576787948608e-02 1.871916800737380981e-01
2.102066278457641602e-01 -1.086983904242515564e-01 2.837793529033660889e-01
1.717182248830795288e-01 -3.234630078077316284e-02 2.327965050935745239e-01
-8.751283884048461914e-01 9.267989546060562134e-02 -1.854694932699203491e-01
3.631618991494178772e-02 -1.022881790995597839e-01 1.610890924930572510e-01
-7.189679890871047974e-02 2.819756232202053070e-02 -8.945220708847045898e-02
3.623470664024353027e-02 -8.607252687215805054e-02 5.869876146316528320e-01
-5.673297047615051270e-01 9.028965234756469727e-02 -4.553142562508583069e-02
5.367264524102210999e-02 -8.821831643581390381e-02 2.775136195123195648e-02
-1.948315203189849854e-01 1.154731959104537964e-02 8.772481977939605713e-02
6.857026815414428711e-01 1.011000797152519226e-01 -2.279692329466342926e-02
8.026075363159179688e-01 -1.626645959913730621e-02 7.077579945325851440e-02
2.364993542432785034e-01 -9.954482316970825195e-02 -3.004729747772216797e-01
-6.902101635932922363e-01 -7.194381207227706909e-03 3.006877377629280090e-03
-2.203093916177749634e-01 7.005403935909271240e-02 -7.084631174802780151e-02
6.828778982162475586e-01 6.913053989410400391e-02 6.792380660772323608e-02
-3.794442489743232727e-02 1.714717131108045578e-03 5.533611774444580078e-01
2.447293996810913086e-01 -6.437017768621444702e-02 4.097920656204223633e-02
-2.329396605491638184e-01 2.860499173402786255e-02 -8.219270110130310059e-01
-5.703924223780632019e-02 -5.918224900960922241e-02 9.315720200538635254e-02
3.768720626831054688e-01 4.718372598290443420e-02 -8.437293767929077148e-02
8.056767582893371582e-01 -3.690504236146807671e-03 -7.834299653768539429e-02
-8.045617341995239258e-01 2.278646379709243774e-01 6.863866001367568970e-03
-6.777155995368957520e-01 -1.381734502501785755e-03 3.006012178957462311e-02
1.233157366514205933e-01 6.147088482975959778e-02 -7.752814143896102905e-02
1.243478879332542419e-01 -7.651154696941375732e-02 5.622431039810180664e-01
2.359561026096343994e-01 -3.989730402827262878e-02 1.597310006618499756e-01
6.048146486282348633e-01 -3.987014293670654297e-02 -7.244886457920074463e-02
5.367264524102210999e-02 -8.821831643581390381e-02 2.775136195123195648e-02
-6.488902866840362549e-02 -7.570125162601470947e-04 5.268239974975585938e-01
4.761553928256034851e-02 -2.256801538169384003e-02 -3.218493759632110596e-01
8.816824853420257568e-02 -1.274944096803665161e-01 -1.796568483114242554e-01
8.575083315372467041e-02 -7.241009175777435303e-02 -2.494271285831928253e-02
-8.012019097805023193e-03 -4.440617933869361877e-02 6.124926209449768066e-01
-7.577428128570318222e-03 -4.788289591670036316e-02 -2.170316129922866821e-01
-4.099808633327484131e-01 5.424581840634346008e-02 -7.940231263637542725e-02
-4.261627048254013062e-02 1.013988628983497620e-01 -2.048816159367561340e-02
2.099688351154327393e-02 -2.963010594248771667e-02 -2.148858308792114258e-01
-8.173006772994995117e-01 5.239880830049514771e-02 -2.749592997133731842e-02
-1.722600013017654419e-01 3.102239966392517090e-02 8.585065603256225586e-02
7.567377388477325439e-02 -5.668841185979545116e-04 -9.083747118711471558e-02
8.944418430328369141e-01 5.628295987844467163e-02 -3.781745210289955139e-02
6.804061532020568848e-01 -6.564677506685256958e-02 3.769261389970779419e-02
6.398534774780273438e-01 1.012902185320854187e-01 1.737551949918270111e-02
-8.017912507057189941e-01 5.660890415310859680e-02 -3.300979733467102051e-02
4.630024135112762451e-01 1.014531925320625305e-01 1.637052930891513824e-02
-1.710648685693740845e-01 1.127570588141679764e-02 6.632853746414184570e-01
-7.024873495101928711e-01 2.330842427909374237e-02 -4.479805752635002136e-02
-3.747602226212620735e-03 -1.637510210275650024e-02 5.955707430839538574e-01
-8.092064857482910156e-01 6.880459934473037720e-02 1.049726232886314392e-01
-4.872292876243591309e-01 1.015890017151832581e-01 1.881509833037853241e-02
-8.661649227142333984e-01 3.059822618961334229e-01 4.853886086493730545e-03
2.112387865781784058e-01 -1.002781987190246582e-01 2.486318796873092651e-01
-1.433597505092620850e-01 2.333558164536952972e-02 7.057665586471557617e-01
1.093273609876632690e-01 -4.046770930290222168e-02 -1.872350275516510010e-01
2.962283492088317871e-01 -4.152702167630195618e-02 -2.539989650249481201e-01
5.180867314338684082e-01 1.033001989126205444e-01 2.490801038220524788e-03
1.793424598872661591e-03 -3.462789207696914673e-02 3.216973841190338135e-01
4.998339414596557617e-01 1.515985466539859772e-02 8.764333277940750122e-02
3.639767691493034363e-02 -3.680085018277168274e-02 1.868114024400711060e-01
1.793235689401626587e-01 -9.737187623977661133e-02 -2.548953294754028320e-01
-3.506526723504066467e-02 -8.470993489027023315e-03 -8.839289844036102295e-02
9.045189023017883301e-01 -2.063952386379241943e-02 4.309783503413200378e-02
-8.298494219779968262e-01 8.825251460075378418e-02 1.498712450265884399e-01
-8.036653399467468262e-01 4.224026203155517578e-02 -2.298705466091632843e-02
3.795882165431976318e-01 6.532786786556243896e-02 -7.462181895971298218e-02
-6.539761424064636230e-01 3.914380446076393127e-02 5.939496681094169617e-02
2.817238867282867432e-01 -3.718111664056777954e-02 -7.437735795974731445e-02
6.845536641776561737e-03 -3.128698468208312988e-02 5.863900184631347656e-01
3.260249495506286621e-01 -7.050874829292297363e-02 3.021951317787170410e-01
-7.545838356018066406e-01 2.482903897762298584e-01 -8.772736182436347008e-04
-1.069084778428077698e-01 -1.295271050184965134e-02 -5.858629941940307617e-01
4.112318456172943115e-01 -7.433857768774032593e-02 6.728056352585554123e-03
2.440231889486312866e-01 -8.772940188646316528e-02 2.373053729534149170e-01
2.844944000244140625e-01 -1.108170226216316223e-01 2.957034409046173096e-01
-2.329396605491638184e-01 2.860499173402786255e-02 -8.219270110130310059e-01
-3.820855915546417236e-01 -5.961684510111808777e-02 -4.468940943479537964e-02
1.376028954982757568e-01 4.295100457966327667e-03 -2.881686389446258545e-01
-1.154101565480232239e-01 -7.455588132143020630e-02 -3.751866891980171204e-02
4.384003207087516785e-02 -2.471380494534969330e-02 -2.645921111106872559e-01
-6.220065951347351074e-01 7.907178997993469238e-02 -5.411458387970924377e-02
-8.445711731910705566e-01 6.013995036482810974e-02 -2.309570275247097015e-02
-4.599315822124481201e-01 4.283782094717025757e-02 8.014665544033050537e-02
1.389338225126266479e-01 5.584837123751640320e-02 -8.067891746759414673e-02
6.543374061584472656e-02 -2.137288823723793030e-02 5.604775547981262207e-01
-2.980467379093170166e-01 -4.245052859187126160e-02 6.727191805839538574e-02
-3.165711462497711182e-01 7.133065164089202881e-02 6.697313487529754639e-02
9.881570935249328613e-02 -8.604536950588226318e-02 -5.865691900253295898e-01
8.267272710800170898e-01 -1.805914007127285004e-02 -7.000429183244705200e-02
-4.599315822124481201e-01 4.283782094717025757e-02 8.014665544033050537e-02
2.073817998170852661e-01 -9.063572436571121216e-02 2.498813271522521973e-01
8.292261362075805664e-01 -5.633025243878364563e-02 -3.341722488403320312e-02
4.096836149692535400e-01 8.942047506570816040e-02 4.622144997119903564e-02
2.299804836511611938e-01 2.855517901480197906e-03 8.642105013132095337e-02
5.307508260011672974e-02 1.660390407778322697e-03 3.602672815322875977e-01
-3.356931209564208984e-01 -2.631188603118062019e-03 8.590497821569442749e-02
-7.939348369836807251e-02 1.746861450374126434e-02 -5.768995881080627441e-01
-6.309971809387207031e-01 -7.357351016253232956e-03 -4.534129425883293152e-02
5.758329033851623535e-01 6.391545385122299194e-02 7.202524691820144653e-02
1.769333034753799438e-01 -3.283068770542740822e-03 2.019948959350585938e-01
1.715281009674072266e-01 -5.948103219270706177e-02 2.851102948188781738e-01
-1.936364024877548218e-01 2.186884172260761261e-02 7.962699532508850098e-01
8.340338468551635742e-01 -6.138236448168754578e-02 -5.549119785428047180e-03
7.927477359771728516e-01 -6.480475515127182007e-02 1.848915591835975647e-02
3.510138988494873047e-01 -2.783742547035217285e-02 -8.776816725730895996e-02
-1.073430627584457397e-01 4.621040541678667068e-03 -5.286056995391845703e-01
7.534783333539962769e-02 -2.892389893531799316e-02 1.086666435003280640e-01
2.977494299411773682e-01 5.435446649789810181e-02 7.783789932727813721e-02
4.564835429191589355e-01 6.842432916164398193e-02 6.860284507274627686e-02
9.184801578521728516e-01 -4.429753497242927551e-02 4.690914880484342575e-03
1.021837815642356873e-01 -5.100651830434799194e-02 1.285763084888458252e-01
-1.948315203189849854e-01 1.154731959104537964e-02 8.772481977939605713e-02
8.966691493988037109e-01 -3.316115215420722961e-02 -4.153862968087196350e-02
2.645642496645450592e-02 -2.569163590669631958e-02 -2.548409700393676758e-01
4.319479689002037048e-03 -4.139121249318122864e-02 1.245020255446434021e-01
1.366793811321258545e-01 -8.667008578777313232e-02 5.928631871938705444e-02
-7.886992096900939941e-01 8.341769129037857056e-02 -1.072975695133209229e-01
4.096836149692535400e-01 8.942047506570816040e-02 4.622144997119903564e-02
-2.189174667000770569e-02 -1.762455701828002930e-02 3.472567200660705566e-01
7.437000423669815063e-02 -1.444705873727798462e-01 -1.716440916061401367e-01
6.927022244781255722e-03 -3.935406357049942017e-02 6.106727719306945801e-01
9.242437663488090038e-04 -1.483547538518905640e-01 -1.665833406150341034e-02
-5.704261660575866699e-01 9.523312002420425415e-02 -3.749150782823562622e-02
-4.193722456693649292e-02 2.268369682133197784e-02 6.201251149177551270e-01
-8.116238117218017578e-01 2.085525393486022949e-01 -7.559099234640598297e-03
-1.539800465106964111e-01 -3.365007415413856506e-02 -8.219998329877853394e-02
-3.271914422512054443e-01 7.328630238771438599e-02 -6.853755563497543335e-02
2.651279866695404053e-01 -6.162682175636291504e-02 -4.903531447052955627e-02
-4.644947946071624756e-01 7.124916464090347290e-02 6.531625986099243164e-02
6.408312916755676270e-01 -6.958525627851486206e-02 -3.205912932753562927e-02
2.122437804937362671e-01 -1.053529791533946991e-02 -2.395488321781158447e-01
1.143251433968544006e-01 4.050635267049074173e-03 3.215344250202178955e-01
3.103525340557098389e-01 1.014260351657867432e-01 1.656066253781318665e-02
1.929233898408710957e-03 -4.136404395103454590e-02 5.702286958694458008e-01
2.417482435703277588e-02 -3.875650092959403992e-02 -1.672981977462768555e-01
-7.257107496261596680e-01 1.448578983545303345e-01 7.570074871182441711e-03
8.876580744981765747e-02 -6.212108419276773930e-04 -2.945244908332824707e-01
-7.413831353187561035e-01 1.842426359653472900e-01 -8.890031836926937103e-03
-1.851075738668441772e-01 -7.004700601100921631e-02 2.756122872233390808e-02
1.534382849931716919e-01 -5.499931424856185913e-02 1.193955913186073303e-01
7.461922168731689453e-01 -4.378145560622215271e-02 6.268155574798583984e-02
1.784610375761985779e-02 4.639602825045585632e-02 8.120596408843994141e-02
-8.820002675056457520e-01 7.439994812011718750e-02 1.410164535045623779e-01
6.828573346138000488e-02 6.554015562869608402e-04 -5.832011103630065918e-01
1.377115398645401001e-01 -2.311125397682189941e-02 2.887499928474426270e-01
4.360035061836242676e-01 -7.322494685649871826e-02 -1.893993280827999115e-02
-8.837115168571472168e-01 7.057011872529983521e-02 7.675141841173171997e-02
-1.543331444263458252e-01 1.901684515178203583e-02 -9.064733237028121948e-02
1.430895924568176270e-01 -4.084797576069831848e-02 6.808677315711975098e-02
5.614371299743652344e-01 9.248976409435272217e-02 -4.525980725884437561e-02
2.023296803236007690e-01 -3.815894946455955505e-02 2.606374323368072510e-01
2.087670564651489258e-01 8.871426433324813843e-02 -5.063786730170249939e-02
-7.024873495101928711e-01 2.330842427909374237e-02 -4.479805752635002136e-02
-2.626819312572479248e-01 -7.260022312402725220e-02 -1.934736222028732300e-02
3.560998290777206421e-02 -3.720827773213386536e-02 6.212930679321289062e-01
2.884666994214057922e-02 6.631018128246068954e-03 -4.042856991291046143e-01
7.757510989904403687e-02 8.626969903707504272e-02 5.043154209852218628e-02
-8.044259548187255859e-01 2.747732400894165039e-01 -6.635595578700304031e-03
6.244798898696899414e-01 6.695758551359176636e-02 -7.345385104417800903e-02
1.243478879332542419e-01 -7.651154696941375732e-02 5.622431039810180664e-01
-7.643283158540725708e-02 2.040657214820384979e-03 5.566477775573730469e-01
1.083223745226860046e-01 -1.257244404405355453e-02 1.931944489479064941e-01
1.149498671293258667e-01 -5.722658708691596985e-02 1.036416888236999512e-01
-5.570625066757202148e-01 8.695323020219802856e-03 -7.538235187530517578e-02
8.558786660432815552e-02 -2.726702019572257996e-02 1.049454659223556519e-01
-6.309971809387207031e-01 -7.357351016253232956e-03 -4.534129425883293152e-02
-4.766633212566375732e-01 1.980453729629516602e-02 -8.450874686241149902e-02
7.208840548992156982e-02 3.018487943336367607e-03 -3.377662301063537598e-01
4.643061757087707520e-01 -5.160408094525337219e-02 5.847146362066268921e-02
3.401491343975067139e-01 -6.654312461614608765e-02 -3.016680777072906494e-01
1.171771436929702759e-01 -3.131414577364921570e-02 -2.318620085716247559e-01
7.043152302503585815e-02 -3.805029392242431641e-02 -7.367114722728729248e-02
-5.872665643692016602e-01 5.758672952651977539e-02 -7.035739719867706299e-02
-1.876607835292816162e-01 1.912548765540122986e-02 7.619644999504089355e-01
-4.072646796703338623e-01 -2.533852681517601013e-02 7.267713546752929688e-02
-9.167675375938415527e-01 1.010729223489761353e-01 -2.726591825485229492e-01
1.192142888903617859e-01 -1.843940652906894684e-02 5.668606162071228027e-01
1.387980133295059204e-01 -7.086186856031417847e-02 6.125198006629943848e-01
7.687555160373449326e-03 -4.342834651470184326e-02 -1.363879591226577759e-01
9.493155777454376221e-02 -7.526208460330963135e-02 1.940093040466308594e-01
9.362168312072753906e-01 4.794426262378692627e-02 -8.075175806879997253e-03
6.967100501060485840e-02 9.259840846061706543e-02 4.125082492828369141e-02
9.243267029523849487e-02 -1.148912906646728516e-01 -1.628979742527008057e-01
-1.692111976444721222e-02 -3.810461983084678650e-02 3.268309831619262695e-01
2.428347244858741760e-02 1.382892020046710968e-02 4.857008755207061768e-01
1.140806898474693298e-01 5.490217357873916626e-03 -3.187257647514343262e-01
1.885109394788742065e-02 -1.314872056245803833e-01 7.515751291066408157e-03
3.799413442611694336e-01 3.993150219321250916e-02 8.373202383518218994e-02
1.237503215670585632e-01 -2.531136944890022278e-02 6.036378145217895508e-01
6.831290572881698608e-02 -1.286895275115966797e-01 1.593507379293441772e-01
-8.549742698669433594e-01 8.208675682544708252e-02 -2.035321593284606934e-01
-4.493656158447265625e-01 -5.836739018559455872e-02 -1.554469671100378036e-02
8.908564448356628418e-01 -4.513955488801002502e-02 -2.923429198563098907e-02
-5.407859385013580322e-02 -1.245932886376976967e-03 -4.318278729915618896e-01
-4.281249940395355225e-01 -1.648375578224658966e-02 7.495873421430587769e-02
1.637054681777954102e-01 -8.311188220977783203e-02 2.483874261379241943e-01
-3.393871188163757324e-01 1.953291893005371094e-02 8.739887923002243042e-02
-8.220812082290649414e-01 1.866057366132736206e-01 3.550115274265408516e-03
8.567411899566650391e-01 -6.798270344734191895e-02 -1.714724674820899963e-02
1.173672825098037720e-01 -2.767000347375869751e-03 2.646845579147338867e-01
1.760164648294448853e-02 -2.664229832589626312e-02 -2.483492940664291382e-01
1.082680448889732361e-01 -7.873429916799068451e-03 -5.974339842796325684e-01
-4.609093964099884033e-01 9.900861978530883789e-02 2.620313316583633423e-02
-6.296934485435485840e-01 1.964156702160835266e-02 6.156792119145393372e-02
-8.696959614753723145e-01 7.958786934614181519e-02 1.915647387504577637e-01
2.232986688613891602e-01 -2.976591885089874268e-02 9.266828745603561401e-02
3.541918396949768066e-01 -6.113791093230247498e-02 4.605847969651222229e-02
1.398573219776153564e-01 -2.656081318855285645e-02 6.117592453956604004e-01
1.113916635513305664e-01 -2.805472165346145630e-02 9.451529383659362793e-02
-1.177189126610755920e-01 -6.279478222131729126e-02 4.407566040754318237e-02
1.705502718687057495e-01 -9.864848107099533081e-02 -2.620117366313934326e-01
1.717182248830795288e-01 1.932014012709259987e-03 -2.404451668262481689e-01
-8.704021573066711426e-01 7.306900620460510254e-02 -7.483910769224166870e-02
-1.306479722261428833e-01 1.757726259529590607e-02 -9.086462855339050293e-02
-1.306479722261428833e-01 1.757726259529590607e-02 -9.086462855339050293e-02
-8.342496752738952637e-01 7.143929600715637207e-02 1.261860579252243042e-01
9.436116367578506470e-02 -5.263623595237731934e-02 -5.494388937950134277e-01
-6.641009449958801270e-02 7.119928486645221710e-03 5.153073668479919434e-01
5.025689490139484406e-03 -1.134517192840576172e-01 3.989272937178611755e-02
-3.915651142597198486e-01 -1.401201635599136353e-02 -8.214566111564636230e-02
-3.050001561641693115e-01 -6.502205133438110352e-02 -4.308685660362243652e-02
3.340105414390563965e-01 -6.681474298238754272e-02 -2.384623587131500244e-01
-6.054378747940063477e-01 9.813944250345230103e-02 -2.831078693270683289e-02
2.221578657627105713e-01 -1.303419563919305801e-02 -2.251530289649963379e-01
-6.404700875282287598e-02 -8.338348567485809326e-02 6.293466314673423767e-03
-7.964403629302978516e-01 2.370725274085998535e-01 6.673732772469520569e-03
2.659223414957523346e-02 -1.724429056048393250e-02 -3.314646780490875244e-01
1.442575603723526001e-01 -5.380419641733169556e-02 -1.224267482757568359e-01
2.181650549173355103e-01 -3.527523949742317200e-03 -1.491540521383285522e-01
1.760369837284088135e-01 6.804406642913818359e-02 6.898311525583267212e-02
-6.025315523147583008e-01 6.755515187978744507e-02 -6.419164687395095825e-02
2.220763862133026123e-01 -4.712237417697906494e-02 -6.674486398696899414e-02
2.539101243019104004e-01 -4.693223536014556885e-02 2.923896908760070801e-01
-1.958298496901988983e-02 -2.186180837452411652e-02 -2.855882346630096436e-01
-6.947938352823257446e-02 -6.225154176354408264e-02 4.472754523158073425e-02
-7.814402878284454346e-02 1.513269077986478806e-02 6.984328627586364746e-01
-5.975542590022087097e-02 -1.034515909850597382e-02 -4.010263085365295410e-01
8.352355659008026123e-02 -8.680590242147445679e-02 -7.225873321294784546e-02
3.582118153572082520e-01 -7.086186856031417847e-02 -5.533687025308609009e-02
-1.553109735250473022e-01 2.023912593722343445e-02 -7.249047160148620605e-01
1.560729742050170898e-01 -2.053087018430233002e-02 -8.358523994684219360e-02
3.361563384532928467e-01 -8.004259318113327026e-02 -4.094106703996658325e-02
-1.064738854765892029e-01 7.690333761274814606e-03 5.660185813903808594e-01
1.463218629360198975e-01 1.009099557995796204e-01 -2.439947426319122314e-02
-1.710648685693740845e-01 1.127570588141679764e-02 6.632853746414184570e-01
-8.434575796127319336e-01 9.137612581253051758e-02 -2.054335027933120728e-01
3.476186692714691162e-01 -5.782415345311164856e-02 2.964096665382385254e-01
8.558786660432815552e-02 -2.726702019572257996e-02 1.049454659223556519e-01
2.227825820446014404e-01 -3.500365652143955231e-03 1.814061999320983887e-01
2.291384786367416382e-01 -5.518945306539535522e-02 1.183091178536415100e-01
-1.164966300129890442e-01 -5.616728216409683228e-02 8.631240576505661011e-02
-2.409186214208602905e-02 -9.421655908226966858e-03 3.600771427154541016e-01
3.365432843565940857e-02 -1.352898776531219482e-01 1.707315593957901001e-01
-7.929363846778869629e-01 6.934783607721328735e-02 1.078789457678794861e-01
2.248197346925735474e-01 -4.226038977503776550e-02 8.984345197677612305e-02
1.979294568300247192e-01 -3.028199635446071625e-02 2.239688783884048462e-01
2.405193001031875610e-01 -1.651091501116752625e-02 1.950957775115966797e-01
2.721695788204669952e-02 6.391545385122299194e-02 7.221538573503494263e-02
2.580115497112274170e-01 -1.152715682983398438e-01 -2.721430957317352295e-01
1.390424668788909912e-01 -6.494057178497314453e-02 -6.118840575218200684e-01
1.556450501084327698e-02 5.902631208300590515e-02 -7.929366081953048706e-02
2.622759938240051270e-01 -3.614896163344383240e-02 -1.445093601942062378e-01
-1.969163306057453156e-02 2.089101634919643402e-02 -6.083801984786987305e-01
2.194145023822784424e-01 -5.600431188941001892e-02 2.789988815784454346e-01
1.320618689060211182e-01 -3.364553907886147499e-03 -2.356918454170227051e-01
6.438107695430517197e-03 -5.016449838876724243e-02 -5.789638757705688477e-01
9.362168312072753906e-01 4.794426262378692627e-02 -8.075175806879997253e-03
6.807321310043334961e-01 8.075582981109619141e-02 -6.120383739471435547e-02
1.732936352491378784e-01 -4.359131678938865662e-02 1.764627397060394287e-01
-6.346096992492675781e-01 2.825188823044300079e-02 -6.582136452198028564e-02
6.838285923004150391e-01 -6.040453538298606873e-02 -5.080083757638931274e-02
-5.206861346960067749e-02 6.038440763950347900e-02 -7.831583172082901001e-02
3.510138988494873047e-01 -2.783742547035217285e-02 -8.776816725730895996e-02
3.354772925376892090e-01 4.302795603871345520e-02 8.248257637023925781e-02
8.757545351982116699e-01 -4.986571520566940308e-02 -2.646377868950366974e-02
-3.232191503047943115e-02 -9.829090908169746399e-03 8.465553075075149536e-02
-8.950108289718627930e-01 2.983497679233551025e-01 1.947563257999718189e-03
7.095780372619628906e-01 -6.426151841878890991e-02 4.106068983674049377e-02
-7.034923434257507324e-01 1.079992055892944336e-01 -1.174203120172023773e-02
2.910132706165313721e-01 -4.679642245173454285e-02 -9.637849777936935425e-02
1.236959993839263916e-01 1.633232110179960728e-03 -3.784275949001312256e-01
-1.043009385466575623e-01 1.307292026467621326e-03 8.633956313133239746e-02
3.223852515220642090e-01 3.623748198151588440e-02 8.500863611698150635e-02
6.298916786909103394e-02 3.096807748079299927e-02 -8.912626653909683228e-02
2.790075814118608832e-05 -1.678253896534442902e-02 -2.717899978160858154e-01
-8.602164983749389648e-01 3.421618640422821045e-01 3.821734106168150902e-03
-1.278774589300155640e-01 4.458070266991853714e-03 5.709348917007446289e-01
5.405956413596868515e-03 -3.897379711270332336e-02 -6.123186349868774414e-01
-7.564851641654968262e-01 2.124411985278129578e-02 1.870645210146903992e-02
2.468480318784713745e-01 -4.451483115553855896e-02 -1.369311958551406860e-01
1.912271231412887573e-02 -1.393913179636001587e-01 1.780381202697753906e-01
4.041425883769989014e-01 -2.069384977221488953e-02 7.998368889093399048e-02
-7.075599581003189087e-02 2.339439233765006065e-03 5.380961894989013672e-01
-1.737621845677495003e-03 -2.778309956192970276e-02 2.502344250679016113e-01
-7.732169032096862793e-01 6.361667066812515259e-02 -6.125816702842712402e-02
2.608907222747802734e-01 -1.029672175645828247e-01 3.017605543136596680e-01
1.871190369129180908e-01 -5.152259394526481628e-02 -2.638587355613708496e-01
-4.345828667283058167e-02 -6.135519593954086304e-02 -4.927976801991462708e-02
6.244798898696899414e-01 6.695758551359176636e-02 -7.345385104417800903e-02
5.848029255867004395e-02 3.067957732127979398e-05 3.421231508255004883e-01
7.953010201454162598e-01 -7.996109873056411743e-02 1.297529321163892746e-02
-8.363411426544189453e-01 1.092214882373809814e-01 -1.501997234299778938e-03
-3.442219495773315430e-01 -1.960736699402332306e-02 8.079854398965835571e-02
3.135576546192169189e-01 -4.964843019843101501e-02 -2.805632948875427246e-01
1.040307953953742981e-01 -1.233657971024513245e-01 1.844211667776107788e-01
8.083115220069885254e-01 -5.654754862189292908e-02 -4.091390594840049744e-02
-1.856236457824707031e-01 -7.447438687086105347e-02 4.745238460600376129e-03
-1.558813750743865967e-01 1.032503321766853333e-02 6.388668417930603027e-01
-4.984134063124656677e-02 9.537341073155403137e-03 5.135961771011352539e-01
3.008458614349365234e-01 -2.191613614559173584e-02 9.082128107547760010e-02
5.018982291221618652e-01 -1.713563688099384308e-02 8.142326027154922485e-02
1.909760087728500366e-01 -5.706361681222915649e-02 2.647931873798370361e-01
7.607782483100891113e-01 5.248029530048370361e-02 7.395374029874801636e-02
-1.433597505092620850e-01 2.333558164536952972e-02 7.057665586471557617e-01
-1.538985520601272583e-01 9.384786337614059448e-02 3.834449872374534607e-02
7.328014373779296875e-01 -7.107915729284286499e-02 -2.551311068236827850e-02
1.766345500946044922e-01 -2.954862080514431000e-02 7.634399086236953735e-02
2.086312472820281982e-01 -2.514839917421340942e-02 -2.799657285213470459e-01
3.379490077495574951e-01 1.009914427995681763e-01 -2.385623753070831299e-02
1.534382849931716919e-01 -5.499931424856185913e-02 1.193955913186073303e-01
-3.976427391171455383e-02 6.739671807736158371e-03 4.836637377738952637e-01
-2.743887007236480713e-01 -5.554255098104476929e-02 -5.715671926736831665e-02
-7.814402878284454346e-02 1.513269077986478806e-02 6.984328627586364746e-01
2.066212594509124756e-01 -6.282193958759307861e-02 2.989357113838195801e-01
7.159067392349243164e-01 1.022680550813674927e-01 -1.369768753647804260e-02
-2.001281082630157471e-01 2.089101634919643402e-02 -7.324013710021972656e-01
-5.435020476579666138e-02 4.544536769390106201e-02 8.164055645465850830e-02
-1.229611560702323914e-01 1.401905901730060577e-02 -6.525997519493103027e-01
1.294543296098709106e-01 -1.235514692962169647e-02 -3.587080836296081543e-01
2.577737532556056976e-02 -1.072044819593429565e-01 -1.561346650123596191e-01
3.291485607624053955e-01 1.023495346307754517e-01 -1.323593501001596451e-02
-6.686435937881469727e-01 -1.192055363208055496e-02 -1.462119165807962418e-02
1.092458739876747131e-01 -7.439291477203369141e-02 -9.922184050083160400e-03
2.047199457883834839e-01 -8.539348840713500977e-02 -2.841943502426147461e-02
-7.333638519048690796e-02 -1.651091501116752625e-02 5.376616120338439941e-01
6.982786655426025391e-01 -7.295332103967666626e-02 1.753848977386951447e-02
3.736940920352935791e-01 1.019420996308326721e-01 -1.649536192417144775e-02
2.334028929471969604e-01 1.331284176558256149e-02 8.783347159624099731e-02
2.199305891990661621e-01 -6.352362222969532013e-03 -1.244910582900047302e-01
1.640652306377887726e-02 -1.289611607789993286e-01 1.707587391138076782e-01
9.262279421091079712e-02 -1.074761003255844116e-01 -1.424993872642517090e-01
6.238551735877990723e-01 3.154299687594175339e-03 -9.010409563779830933e-02
6.326079368591308594e-02 -1.824927888810634613e-02 -6.157954335212707520e-01
7.428513169288635254e-01 9.409231692552566528e-02 -3.721988946199417114e-02
-4.658190906047821045e-02 -7.401263713836669922e-02 9.552893228828907013e-03
-9.881423413753509521e-02 -7.844002544879913330e-02 -1.293715368956327438e-02
1.440945863723754883e-01 -6.347382813692092896e-02 -8.983246982097625732e-02
-6.548724770545959473e-01 5.979137960821390152e-03 -5.001313984394073486e-02
1.578928232192993164e-01 -6.048601865768432617e-02 -9.271163493394851685e-02
-6.393359303474426270e-01 1.241650618612766266e-02 -5.913953855633735657e-02
4.564835429191589355e-01 6.842432916164398193e-02 6.860284507274627686e-02
4.558859765529632568e-01 5.495202913880348206e-02 7.753911614418029785e-02
3.066313564777374268e-01 -8.248716592788696289e-02 -2.420934103429317474e-02
-2.267739176750183105e-01 2.550853602588176727e-02 8.191403150558471680e-01
2.764273285865783691e-01 -3.935406357049942017e-02 -2.603819966316223145e-01
6.059826016426086426e-01 8.776808157563209534e-03 8.710009604692459106e-02
7.629849761724472046e-02 8.912619203329086304e-03 -3.792424798011779785e-01
-1.131557077169418335e-01 9.238559752702713013e-03 6.388396620750427246e-01
2.376944720745086670e-01 9.786781668663024902e-02 2.859338000416755676e-02
4.385023713111877441e-01 8.838831633329391479e-02 4.755238443613052368e-02
6.453739106655120850e-02 -2.696823887526988983e-02 -1.403264403343200684e-01
1.705231219530105591e-01 -2.074816636741161346e-02 9.318436682224273682e-02
-3.820855915546417236e-01 -5.961684510111808777e-02 -4.468940943479537964e-02
-2.050987184047698975e-01 -4.994720220565795898e-02 6.105184182524681091e-02
-3.104530647397041321e-02 -1.162177138030529022e-02 4.110600352287292480e-01
-4.603867232799530029e-02 1.051517203450202942e-02 8.753468841314315796e-02
-1.689462363719940186e-01 -3.500815853476524353e-02 5.149085819721221924e-02
-7.667728513479232788e-02 -2.213342301547527313e-02 -5.869765877723693848e-01
-2.265566140413284302e-01 2.822472527623176575e-02 8.699330091476440430e-01
-9.167065471410751343e-02 9.803079068660736084e-02 -3.148872777819633484e-02
-3.418860137462615967e-01 4.322258755564689636e-03 -8.991395682096481323e-02
-1.246657036244869232e-02 1.556728500872850418e-02 -5.843690633773803711e-01
-6.866452842950820923e-02 -5.062624812126159668e-02 9.283126145601272583e-02
-1.640299409627914429e-01 1.749577745795249939e-02 -6.928265094757080078e-01
5.281094312667846680e-01 -1.303419563919305801e-02 -8.679034560918807983e-02
-7.940500974655151367e-01 6.315492093563079834e-02 -3.404194861650466919e-02
3.832007348537445068e-01 5.196421965956687927e-02 7.878855615854263306e-02
1.953219175338745117e-01 -1.767887361347675323e-02 2.685687243938446045e-01
3.292843699455261230e-01 4.935668036341667175e-02 7.990219444036483765e-02
1.739998310804367065e-01 -6.282193958759307861e-02 -2.523692548274993896e-01
1.766345500946044922e-01 -2.954862080514431000e-02 7.634399086236953735e-02
9.634397923946380615e-02 -2.503974549472332001e-02 9.451529383659362793e-02
-4.920097887516021729e-01 8.966492861509323120e-02 4.524362459778785706e-02
4.630024135112762451e-01 1.014531925320625305e-01 1.637052930891513824e-02
3.516114652156829834e-01 1.032458692789077759e-01 2.871067961677908897e-03
1.876079440116882324e-01 -7.330644130706787109e-02 -1.823372207581996918e-02
-4.139398783445358276e-02 1.111273560672998428e-02 5.169642567634582520e-01
2.645642496645450592e-02 -2.569163590669631958e-02 -2.548409700393676758e-01
4.360035061836242676e-01 -7.322494685649871826e-02 -1.893993280827999115e-02
-3.879253864288330078e-01 2.371584996581077576e-02 -8.809411525726318359e-02
8.391674757003784180e-01 8.097312599420547485e-02 3.323806449770927429e-02
-2.750134468078613281e-01 7.152078300714492798e-02 9.039669632911682129e-01
1.015047356486320496e-01 -1.498984731733798981e-02 -1.742787957191467285e-01
7.513801455497741699e-01 9.373921155929565430e-02 3.215159103274345398e-02
8.352832794189453125e-01 5.381122976541519165e-02 -6.495217978954315186e-02
-2.076791077852249146e-01 2.436773478984832764e-02 -7.614374756813049316e-01
9.710451215505599976e-02 5.028465762734413147e-03 3.456541597843170166e-01
-3.522618412971496582e-01 1.027298048138618469e-01 9.009655565023422241e-03
2.941368818283081055e-01 -8.303038775920867920e-02 3.369981423020362854e-02
3.620688021183013916e-01 6.443152576684951782e-02 7.169930636882781982e-02
-3.995440527796745300e-02 6.035724654793739319e-02 7.493156939744949341e-02
-9.338794946670532227e-01 9.811227768659591675e-02 -2.652711570262908936e-01
-9.377636909484863281e-01 9.134896844625473022e-02 2.732948958873748779e-01
1.000108346343040466e-01 -1.098934933543205261e-01 -1.715626269578933716e-01
6.480292081832885742e-01 -7.154090702533721924e-02 2.337829768657684326e-02
9.237834066152572632e-02 4.748250916600227356e-02 -8.415564149618148804e-02
3.064412176609039307e-01 -5.092503130435943604e-02 5.939496681094169617e-02
2.859883308410644531e-01 -1.898264326155185699e-02 -8.426428586244583130e-02
-9.353462457656860352e-01 9.447258710861206055e-02 -2.531841099262237549e-01
-7.944303154945373535e-01 8.233121782541275024e-02 -7.736516743898391724e-02
7.534783333539962769e-02 -2.892389893531799316e-02 1.086666435003280640e-01
1.326594203710556030e-01 -2.218774892389774323e-02 5.936965942382812500e-01
-3.022024929523468018e-01 -6.858026981353759766e-02 3.079349547624588013e-02
5.269481614232063293e-02 -8.129203319549560547e-02 -1.955465674400329590e-01
1.415208540856838226e-02 -4.763844236731529236e-02 5.812021493911743164e-01
1.560729742050170898e-01 -2.053087018430233002e-02 -8.358523994684219360e-02
-8.099602907896041870e-02 1.855509355664253235e-02 -9.072881937026977539e-02
-9.004094451665878296e-02 -4.570994898676872253e-02 -6.772270053625106812e-02
-7.108193635940551758e-02 -3.527523949742317200e-03 5.933434367179870605e-01
-2.026813030242919922e-01 3.314102441072463989e-02 -8.874599635601043701e-02
1.268739402294158936e-01 3.414601832628250122e-02 -8.874599635601043701e-02
6.136965751647949219e-01 -7.344225049018859863e-02 -1.733738183975219727e-02
-5.321550965309143066e-01 5.419149622321128845e-02 -7.608855515718460083e-02
-7.887263298034667969e-01 1.390995681285858154e-01 -6.282490678131580353e-03
3.977867066860198975e-01 -6.578259170055389404e-02 3.747532144188880920e-02
1.766262575984001160e-03 -7.493614405393600464e-02 -5.956548266112804413e-03
-8.445711731910705566e-01 6.013995036482810974e-02 -2.309570275247097015e-02
-7.795728445053100586e-01 7.833841443061828613e-02 1.084493473172187805e-01
1.906229108572006226e-01 9.262558072805404663e-02 4.116933792829513550e-02
4.563205838203430176e-01 -7.037296146154403687e-02 2.633894234895706177e-02
-2.590965628623962402e-01 -4.888789728283882141e-02 -6.546825915575027466e-02
5.973451137542724609e-01 9.181071817874908447e-02 4.296202212572097778e-02
7.208840548992156982e-02 3.018487943336367607e-03 -3.377662301063537598e-01
7.534783333539962769e-02 -2.892389893531799316e-02 1.086666435003280640e-01
-8.386770486831665039e-01 8.401525020599365234e-02 1.060319393873214722e-01
8.602245897054672241e-02 2.285112394019961357e-03 -5.915941596031188965e-01
