1.027663424611091614e-01 -3.620765730738639832e-02 -2.751256227493286133e-01
3.885982930660247803e-01 7.343842834234237671e-02 6.361380219459533691e-02
-6.009664535522460938e-01 1.337731629610061646e-01 9.178576990962028503e-03
2.791872620582580566e-01 -7.381404191255569458e-02 -4.123747348785400391e-02
1.463427245616912842e-01 -8.970274031162261963e-02 -1.129339262843132019e-02
-1.543437540531158447e-01 -1.780404523015022278e-02 -3.874041736125946045e-01
-6.477005779743194580e-02 -3.637219220399856567e-02 -1.925091296434402466e-01
-8.948091417551040649e-03 -4.462209343910217285e-02 -7.261528819799423218e-02
6.920266151428222656e-02 -1.226788163185119629e-01 1.643048673868179321e-01
-5.692830681800842285e-01 1.181097887456417084e-02 8.483790606260299683e-02
-1.186176836490631104e-01 -1.658183149993419647e-02 4.540619850158691406e-01
3.668571114540100098e-01 -6.119240447878837585e-02 3.161557484418153763e-03
4.783752933144569397e-02 -6.159197166562080383e-02 -1.827549636363983154e-01
4.630824327468872070e-01 -9.144203364849090576e-02 1.939350157044827938e-03
-1.106345094740390778e-02 -4.744256660342216492e-02 1.775141060352325439e-01
-3.005466610193252563e-02 -2.534882538020610809e-02 3.800714313983917236e-01
-5.316767096519470215e-01 2.614840678870677948e-02 -2.691321074962615967e-01
-2.861070930957794189e-01 1.942018866539001465e-01 2.650101482868194580e-02
-5.412275344133377075e-02 -2.043648436665534973e-02 -2.980890274047851562e-01
-4.922840297222137451e-01 9.289972484111785889e-02 4.097946733236312866e-02
-1.591352862305939198e-03 2.459714747965335846e-02 -8.789288252592086792e-02
-1.338952779769897461e-01 -2.949526766315102577e-03 -6.211747527122497559e-01
-5.152003765106201172e-01 -9.060561656951904297e-03 4.452857002615928650e-02
-2.603549137711524963e-02 -2.798126451671123505e-02 3.164461553096771240e-01
2.545550763607025146e-01 -1.158156618475914001e-01 -3.031188845634460449e-01
-3.777214791625738144e-03 -3.136583790183067322e-02 3.077262043952941895e-01
7.577754259109497070e-01 -1.014174148440361023e-02 9.221815317869186401e-02
-1.413460373878479004e-01 -4.511566460132598877e-02 8.415628969669342041e-02
-3.608967363834381104e-01 5.934979300945997238e-03 -1.047075446695089340e-02
-6.573054790496826172e-01 3.760287165641784668e-01 -1.022152020595967770e-03
6.287855505943298340e-01 9.395740181207656860e-02 -1.507753506302833557e-02
3.168171644210815430e-01 9.228862076997756958e-02 2.958003617823123932e-02
2.846871912479400635e-01 9.513260424137115479e-02 -6.075508892536163330e-03
7.112998515367507935e-02 -1.215741336345672607e-01 -1.496378481388092041e-01
-4.088919162750244141e-01 6.387230753898620605e-02 -5.874793976545333862e-02
-2.909724116325378418e-01 -5.938259139657020569e-02 -5.266040563583374023e-02
4.546915292739868164e-01 7.407303154468536377e-02 6.276766210794448853e-02
4.583969339728355408e-02 9.543816000223159790e-02 -3.819126170128583908e-03
2.101948857307434082e-02 -4.196614399552345276e-02 6.354329735040664673e-02
2.338950783014297485e-01 -5.115619674324989319e-02 -3.670496940612792969e-01
7.023999691009521484e-01 8.346139802597463131e-04 9.694246202707290649e-02
-2.761648893356323242e-01 7.815303280949592590e-03 7.160374522209167480e-01
-5.501038432121276855e-01 3.538547828793525696e-02 5.693867057561874390e-02
-5.711633563041687012e-01 4.262470453977584839e-02 -4.720748588442802429e-02
5.495924130082130432e-02 -1.537275910377502441e-01 1.900417357683181763e-01
3.157124221324920654e-01 -7.339097559452056885e-02 3.731284663081169128e-02
-2.239155322313308716e-01 9.593173861503601074e-02 6.311091128736734390e-03
8.601822853088378906e-01 -6.960682570934295654e-02 -2.960299700498580933e-02
-3.595570325851440430e-01 6.373128294944763184e-02 6.791503727436065674e-02
1.829302683472633362e-02 -3.359872102737426758e-02 -2.837045788764953613e-01
-5.404906868934631348e-01 2.692404016852378845e-02 -2.782751619815826416e-01
3.362784385681152344e-01 -8.761087805032730103e-02 -5.063906311988830566e-02
-4.538080096244812012e-01 3.536196798086166382e-02 7.205173373222351074e-02
-9.614787995815277100e-02 9.621378779411315918e-02 4.219236318022012711e-03
-5.346464365720748901e-02 -4.624386504292488098e-02 -1.506955176591873169e-01
-5.878276824951171875e-01 1.705236732959747314e-02 2.788397967815399170e-01
2.024385519325733185e-02 -1.535160541534423828e-01 -1.599796116352081299e-01
-6.017185449600219727e-01 1.627673208713531494e-02 -2.075281590223312378e-01
7.615983486175537109e-02 -7.783322036266326904e-02 -8.126475661993026733e-02
3.238683342933654785e-01 -8.761087805032730103e-02 -5.830136314034461975e-02
-1.490553468465805054e-01 -9.507139213383197784e-03 -5.378296375274658203e-01
6.560654193162918091e-02 -1.317375805228948593e-02 -8.876252919435501099e-02
3.509684503078460693e-01 -2.885091118514537811e-02 3.161557484418153763e-03
-1.662602722644805908e-01 -6.827679928392171860e-03 5.733681917190551758e-01
-1.735934913158416748e-01 -9.812685661017894745e-03 5.165120959281921387e-01
3.351032137870788574e-01 6.767994910478591919e-02 7.050047069787979126e-02
7.376242429018020630e-02 -3.247052803635597229e-02 -3.087363243103027344e-01
6.198693439364433289e-02 -4.725452512502670288e-02 8.869256079196929932e-02
-5.559328198432922363e-01 4.335332661867141724e-02 5.663311854004859924e-02
-1.556599736213684082e-01 -9.031382948160171509e-02 -6.639604456722736359e-03
3.939960151910781860e-02 5.526984483003616333e-02 8.001958578824996948e-02
-4.798268973827362061e-01 2.471466921269893646e-02 -5.872443690896034241e-02
-2.554343640804290771e-01 -5.005151778459548950e-02 7.339145988225936890e-02
5.655751377344131470e-02 -8.761087805032730103e-02 -6.547008454799652100e-02
-9.935268200933933258e-03 -5.714971199631690979e-02 -9.534364193677902222e-02
1.582592576742172241e-01 -1.182600706815719604e-01 3.559328317642211914e-01
7.639487087726593018e-02 -7.623494416475296021e-02 4.736324306577444077e-03
-2.647889554500579834e-01 6.687112618237733841e-03 -6.918277144432067871e-01
4.967084527015686035e-02 -5.416471138596534729e-02 3.411253690719604492e-01
-5.250015258789062500e-01 7.677599042654037476e-02 -4.039132967591285706e-02
3.455778211355209351e-02 -6.659831106662750244e-02 1.797704845666885376e-01
-6.719484329223632812e-01 3.574840724468231201e-01 6.123059429228305817e-03
4.573709666728973389e-01 -7.515376806259155273e-02 -4.885276034474372864e-02
-5.921995043754577637e-01 8.547246456146240234e-02 -2.567783184349536896e-02
-2.396397143602371216e-01 2.107155136764049530e-02 -8.622409403324127197e-02
-6.791642308235168457e-01 6.274411827325820923e-02 -9.272049181163311005e-03
-5.769923329353332520e-01 2.631293982267379761e-02 -2.619633972644805908e-01
1.412188708782196045e-01 -3.096627071499824524e-02 -1.735742017626762390e-02
1.543575972318649292e-01 -1.263316813856363297e-02 2.007595449686050415e-01
-4.152144491672515869e-01 2.722959592938423157e-02 -7.172214239835739136e-02
5.949162840843200684e-01 6.969158072024583817e-03 -9.019626677036285400e-02
6.405528634786605835e-02 9.355783462524414062e-02 -1.801553182303905487e-02
-5.756996273994445801e-01 2.057796344161033630e-02 -1.639517694711685181e-01
-5.924661085009574890e-02 -3.378675505518913269e-02 2.547482252120971680e-01
-2.380260825157165527e-02 -8.761087805032730103e-02 -5.296595767140388489e-02
-1.581983864307403564e-01 -8.483740687370300293e-02 3.611414507031440735e-02
2.724181115627288818e-01 -1.042046919465065002e-01 -3.340736329555511475e-01
-6.315642502158880234e-03 -2.015443891286849976e-02 2.569575607776641846e-01
-8.101131767034530640e-02 9.459201246500015259e-02 1.653532497584819794e-02
1.126145198941230774e-01 -3.780592978000640869e-02 8.869256079196929932e-02
1.126145198941230774e-01 -3.780592978000640869e-02 8.869256079196929932e-02
5.138663575053215027e-02 -4.332937300205230713e-02 -2.250856459140777588e-01
-5.414543151855468750e-01 8.739978820085525513e-02 4.330636188387870789e-02
-2.517912387847900391e-01 1.607792228460311890e-01 4.528069868683815002e-02
-3.760568201541900635e-01 2.010180503129959106e-01 6.945698522031307220e-03
-6.194170713424682617e-01 3.839398548007011414e-02 -3.705376014113426208e-02
-4.032591730356216431e-02 2.506722696125507355e-02 -8.782237023115158081e-02
-1.122481003403663635e-01 -1.970786042511463165e-02 -3.958185911178588867e-01
-5.670031905174255371e-01 1.152893248945474625e-02 -7.019437849521636963e-02
-4.003834724426269531e-01 -3.430384397506713867e-02 -5.369458347558975220e-02
1.401847004890441895e-01 -2.053050510585308075e-02 1.194122731685638428e-01
3.782330453395843506e-01 -5.468180403113365173e-02 3.161557484418153763e-03
1.140247583389282227e-01 -5.938259139657020569e-02 1.362881213426589966e-01
1.398086249828338623e-01 9.395740181207656860e-02 -1.498351898044347763e-02
-2.775128185749053955e-02 -4.699599742889404297e-02 -1.643748581409454346e-01
2.920674383640289307e-01 -4.377594217658042908e-02 3.161557484418153763e-03
-2.414965331554412842e-01 -3.470341116189956665e-02 -7.849128544330596924e-02
5.953628420829772949e-01 9.012626111507415771e-02 -2.847480587661266327e-02
6.084780693054199219e-01 -4.619686305522918701e-02 -7.701052725315093994e-02
-5.758407115936279297e-01 1.217861250042915344e-01 1.818060316145420074e-02
7.543908357620239258e-01 5.270791426301002502e-02 7.804525643587112427e-02
-9.405602514743804932e-02 5.981989670544862747e-03 -5.893504023551940918e-01
-3.688176274299621582e-01 9.118393808603286743e-02 -2.365648746490478516e-02
-5.697766542434692383e-01 5.592795833945274353e-02 4.032135382294654846e-02
-3.695462048053741455e-01 1.780449040234088898e-02 3.161557484418153763e-03
5.519275069236755371e-01 9.619028121232986450e-02 4.289748612791299820e-03
-3.955181241035461426e-01 -4.079094529151916504e-02 -4.805362597107887268e-02
1.018967032432556152e-01 -7.321268320083618164e-03 3.140957653522491455e-01
1.361185014247894287e-01 -5.442325770854949951e-02 1.702043712139129639e-01
3.592101484537124634e-02 -3.263505175709724426e-02 -1.105742231011390686e-01
2.237178534269332886e-01 -8.046566694974899292e-02 -6.404563784599304199e-03
-4.703782796859741211e-01 2.073171287775039673e-01 1.406740676611661911e-02
2.525102198123931885e-01 -3.225899487733840942e-02 3.428411483764648438e-01
5.094005912542343140e-02 -3.891062736511230469e-02 2.606477141380310059e-01
5.554060935974121094e-01 3.938115388154983521e-02 -8.236943930387496948e-02
-7.407762855291366577e-02 4.877299536019563675e-03 5.827698111534118652e-01
-4.124257341027259827e-02 -1.310324668884277344e-02 5.163945555686950684e-01
7.026033848524093628e-02 -1.693439856171607971e-02 2.156375795602798462e-01
2.921411534771323204e-03 -4.631436988711357117e-02 5.320154130458831787e-02
2.043188735842704773e-02 -3.315214067697525024e-02 2.965853214263916016e-01
-4.453230500221252441e-01 1.397334877401590347e-02 1.526468992233276367e-01
-5.465782284736633301e-01 1.326822582632303238e-02 -8.801971562206745148e-03
-4.842221438884735107e-01 9.484085254371166229e-03 -1.322683990001678467e-01
-7.936602830886840820e-02 -2.962654642760753632e-02 3.103821575641632080e-01
5.932239890098571777e-01 6.495348364114761353e-02 -6.626921892166137695e-02
-3.604032099246978760e-01 7.650771178305149078e-03 -7.820922881364822388e-02
-4.802735149860382080e-01 6.925471872091293335e-02 3.524449840188026428e-02
6.813874840736389160e-01 4.853798542171716690e-03 9.680143743753433228e-02
3.704920783638954163e-02 -6.970084458589553833e-02 -1.451720893383026123e-01
6.833617687225341797e-01 2.281084470450878143e-02 9.445103257894515991e-02
-6.082291603088378906e-01 2.365699037909507751e-02 2.770299911499023438e-01
-2.507183142006397247e-02 -2.257535420358181000e-02 2.563699781894683838e-01
-5.706074833869934082e-02 -5.068610981106758118e-02 1.172028928995132446e-01
-2.370858751237392426e-02 6.909018754959106445e-02 6.927826255559921265e-02
1.598340272903442383e-01 -4.412850737571716309e-02 3.161557484418153763e-03
-8.143438398838043213e-02 -3.101328201591968536e-02 2.617759108543395996e-01
-3.469824194908142090e-01 1.738709509372711182e-01 2.227029763162136078e-02
-6.017185449600219727e-01 1.627673208713531494e-02 -2.075281590223312378e-01
8.208283782005310059e-02 -5.817010533064603806e-03 -3.423940241336822510e-01
-5.577191114425659180e-01 2.811901569366455078e-01 1.291570998728275299e-02
-2.583018839359283447e-01 -6.452997028827667236e-02 -5.202579870820045471e-02
1.479574857512488961e-04 -5.045108497142791748e-02 1.601916700601577759e-01
-4.703782796859741211e-01 2.073171287775039673e-01 1.406740676611661911e-02
-6.047035455703735352e-01 8.502588421106338501e-02 2.816979773342609406e-02
-2.179690301418304443e-01 6.796199828386306763e-02 -6.342523545026779175e-02
4.351361989974975586e-01 -8.283957093954086304e-02 5.350708961486816406e-02
-5.010040402412414551e-01 9.554596617817878723e-03 3.161557484418153763e-03
-3.033671155571937561e-02 -8.331937715411186218e-03 3.819517791271209717e-01
-8.525023236870765686e-03 -2.990859188139438629e-02 -3.200887441635131836e-01
7.302522063255310059e-01 -1.409649103879928589e-01 2.398608997464179993e-02
-3.188797831535339355e-02 -2.791075408458709717e-02 2.153320163488388062e-01
-1.126711666584014893e-01 1.586747239343822002e-03 5.406271815299987793e-01
6.154822111129760742e-01 -8.291007578372955322e-02 4.076793417334556580e-02
-6.573290228843688965e-01 7.341492176055908203e-02 -2.855462487787008286e-03
-5.999087691307067871e-01 2.309621274471282959e-01 -6.639604456722736359e-03
7.806365191936492920e-02 -2.328046783804893494e-02 -1.447255015373229980e-01
5.627546831965446472e-02 -6.034624949097633362e-02 -1.069075986742973328e-01
-1.581043750047683716e-01 -2.976756915450096130e-02 9.069039672613143921e-02
1.732935942709445953e-02 -1.226083114743232727e-01 -1.561014503240585327e-01
2.280426025390625000e-01 4.501241724938154221e-03 9.684844315052032471e-02
-2.841797769069671631e-01 -2.466720342636108398e-02 8.495543152093887329e-02
1.254476904869079590e-01 -3.710081428289413452e-02 -2.672753036022186279e-01
-5.125444531440734863e-01 1.517205126583576202e-02 -2.284232079982757568e-01
2.266793549060821533e-01 -2.085956186056137085e-02 4.492813721299171448e-02
-5.231917500495910645e-01 2.135456651449203491e-01 1.721694134175777435e-02
-4.108662009239196777e-01 1.197177767753601074e-01 -3.207091614603996277e-02
1.958421170711517334e-01 -6.979484856128692627e-02 -7.129906862974166870e-02
2.125452272593975067e-02 -1.245356276631355286e-01 -1.838361471891403198e-01
3.168171644210815430e-01 9.228862076997756958e-02 2.958003617823123932e-02
7.901169061660766602e-01 -9.295596741139888763e-03 -8.298054337501525879e-02
1.839491128921508789e-01 -2.556035853922367096e-02 3.380228281021118164e-01
-1.295000314712524414e-01 5.125066637992858887e-02 8.309861272573471069e-02
-5.379287600517272949e-01 1.298618037253618240e-02 2.037445604801177979e-01
6.727533042430877686e-02 -1.328560411930084229e-01 1.604032069444656372e-01
-2.414965331554412842e-01 4.877299536019563675e-03 -6.957998871803283691e-01
6.517527624964714050e-03 -3.686577081680297852e-02 -1.097750887274742126e-01
1.472593843936920166e-01 -1.041106656193733215e-01 -3.167276680469512939e-01
2.541085183620452881e-01 -8.011309802532196045e-02 3.161557484418153763e-03
-5.657104849815368652e-01 2.165915258228778839e-02 -1.612253189086914062e-01
-5.794603228569030762e-01 1.326822582632303238e-02 -1.237599626183509827e-01
-1.374443769454956055e-01 8.778962306678295135e-03 6.757281422615051270e-01
-3.469118773937225342e-01 1.449042931199073792e-02 3.161557484418153763e-03
-7.480625808238983154e-02 -6.028545089066028595e-03 -4.324142932891845703e-01
-5.260592699050903320e-01 2.357569485902786255e-01 -9.366066195070743561e-03
2.773774564266204834e-01 -9.600179642438888550e-02 3.008395433425903320e-01
7.371858954429626465e-01 -5.926506966352462769e-02 -6.497649848461151123e-02
-3.043073229491710663e-02 4.332982376217842102e-02 8.704727888107299805e-02
4.561722576618194580e-01 -2.925047837197780609e-02 -8.457881957292556763e-02
-2.619214951992034912e-01 9.202039800584316254e-03 -7.466155290603637695e-01
-4.696731865406036377e-01 5.300376564264297485e-03 -3.980372846126556396e-02
-5.044355988502502441e-01 2.335240840911865234e-01 -3.466566558927297592e-03
4.395937547087669373e-02 -7.263883948326110840e-02 -7.885315455496311188e-03
-3.469118773937225342e-01 1.449042931199073792e-02 3.161557484418153763e-03
-1.012482345104217529e-01 -5.707920715212821960e-02 -8.110022544860839844e-02
9.468649625778198242e-01 -6.036975234746932983e-02 -1.727271475829184055e-03
2.128590196371078491e-01 -5.888900160789489746e-02 -1.343132555484771729e-01
7.901169061660766602e-01 -9.295596741139888763e-03 -8.298054337501525879e-02
2.800804078578948975e-01 -1.240185424685478210e-01 -3.428170979022979736e-01
-1.781767904758453369e-01 -9.530640207231044769e-03 -5.083556771278381348e-01
-2.291099280118942261e-01 1.544566601514816284e-01 -3.275252878665924072e-02
-2.507183142006397247e-02 -2.257535420358181000e-02 2.563699781894683838e-01
3.026912212371826172e-01 -6.302569806575775146e-02 3.161557484418153763e-03
8.869298100471496582e-01 3.322310745716094971e-02 6.429541856050491333e-02
8.810772895812988281e-01 -7.402556389570236206e-02 8.214914239943027496e-03
7.333077192306518555e-01 -5.033356323838233948e-02 7.853883504867553711e-02
-5.633130669593811035e-01 1.572771370410919189e-01 -7.297715637832880020e-03
-2.952736020088195801e-01 1.662929728627204895e-02 9.005579352378845215e-02
8.765723323449492455e-04 -4.361141845583915710e-02 -2.060709148645401001e-01
2.541085183620452881e-01 -8.011309802532196045e-02 3.161557484418153763e-03
7.950997352600097656e-01 -7.733962684869766235e-02 -3.244698047637939453e-02
-1.330021321773529053e-01 7.956326007843017578e-03 -6.268862485885620117e-01
-5.329694151878356934e-01 2.316672652959823608e-01 1.630028523504734039e-02
5.143364518880844116e-02 -9.021982550621032715e-02 -7.344723679125308990e-03
-2.202445873990654945e-03 2.464415691792964935e-02 9.421600401401519775e-02
1.878037601709365845e-01 -7.663451135158538818e-02 -3.776029944419860840e-01
6.361657381057739258e-01 5.346004292368888855e-02 8.140632510185241699e-02
7.833751849830150604e-03 -4.800666123628616333e-02 -2.962649986147880554e-02
-1.936424076557159424e-01 6.992659065872430801e-03 6.529527306556701660e-01
6.581655144691467285e-01 -8.462586253881454468e-02 3.658422455191612244e-02
8.542357683181762695e-01 5.957107618451118469e-02 5.120369791984558105e-02
7.577754259109497070e-01 -1.014174148440361023e-02 9.221815317869186401e-02
-3.939198553562164307e-01 4.170804843306541443e-02 -7.125206291675567627e-02
-1.954839006066322327e-02 -6.485901772975921631e-02 3.063771687448024750e-02
1.812931597232818604e-01 -3.780592978000640869e-02 -3.280566036701202393e-01
-3.092350065708160400e-01 -6.923075765371322632e-02 -3.305808454751968384e-02
2.841700911521911621e-01 -8.396775275468826294e-02 -3.359539508819580078e-01
3.006851859390735626e-02 -1.121725365519523621e-01 1.957767158746719360e-01
-2.340692728757858276e-01 -1.141095533967018127e-02 9.294677525758743286e-02
-5.966969951987266541e-02 -5.811337009072303772e-02 -8.236943930387496948e-02
-5.010357871651649475e-02 -3.341068699955940247e-02 -2.572625875473022461e-01
6.249073743820190430e-01 1.695835404098033905e-02 9.522666782140731812e-02
4.289311170578002930e-01 7.461363077163696289e-02 6.206254288554191589e-02
8.095782399177551270e-01 8.530794084072113037e-02 -3.513574134558439255e-03
2.240704149007797241e-01 -4.396398365497589111e-02 3.639477193355560303e-01
3.131740391254425049e-01 9.440398216247558594e-02 1.785154826939105988e-02
-2.240565717220306396e-01 -8.652969449758529663e-02 -1.310320105403661728e-02
1.111102625727653503e-01 -3.235300630331039429e-02 3.087838888168334961e-01
4.424142092466354370e-02 -7.679903507232666016e-02 -1.843062341213226318e-01
6.727533042430877686e-02 -1.328560411930084229e-01 1.604032069444656372e-01
9.787752479314804077e-02 -7.329694926738739014e-02 -2.962649986147880554e-02
-3.938728570938110352e-01 8.843397349119186401e-02 3.616115078330039978e-02
1.843016743659973145e-01 -4.558575525879859924e-02 -2.085623443126678467e-01
6.567552685737609863e-01 8.422674983739852905e-02 4.904133453965187073e-02
1.476354598999023438e-01 -1.376135926693677902e-02 -1.807571202516555786e-01
-5.239203572273254395e-01 2.060147188603878021e-02 -6.772646307945251465e-02
-6.444253325462341309e-01 2.592139244079589844e-01 8.144401945173740387e-03
2.724181115627288818e-01 -8.951469510793685913e-02 3.273990154266357422e-01
2.024385519325733185e-02 -1.535160541534423828e-01 -1.599796116352081299e-01
4.099164307117462158e-01 -8.554252237081527710e-02 -4.184857383370399475e-02
-6.169492006301879883e-01 1.794552244246006012e-02 2.457696795463562012e-01
-1.936424076557159424e-01 6.992659065872430801e-03 6.529527306556701660e-01
-2.216356694698333740e-01 8.473415859043598175e-03 -7.417737245559692383e-01
-4.039325714111328125e-01 7.045342028141021729e-02 -2.088301815092563629e-02
-8.782746642827987671e-02 -2.640649676322937012e-02 2.917904853820800781e-01
3.256311416625976562e-01 -5.496384948492050171e-02 8.011360466480255127e-02
6.496100425720214844e-01 9.254716336727142334e-02 2.892192453145980835e-02
-1.126711666584014893e-01 1.586747239343822002e-03 5.406271815299987793e-01
-5.468684434890747070e-02 -3.505596891045570374e-02 -2.412564009428024292e-01
8.311700820922851562e-02 -2.682957239449024200e-02 3.620203733444213867e-01
5.253832787275314331e-02 -1.205634549260139465e-01 -1.899707019329071045e-01
5.598718523979187012e-01 4.097942262887954712e-02 8.803444355726242065e-02
3.843594342470169067e-02 -6.840811669826507568e-02 4.363541677594184875e-02
-7.264389842748641968e-02 -2.111810632050037384e-02 -4.112372100353240967e-01
6.692276895046234131e-02 -1.610138267278671265e-01 -1.906758099794387817e-01
-1.452947109937667847e-01 -1.601774059236049652e-02 -4.199101924896240234e-01
-4.307036101818084717e-01 9.484085254371166229e-03 1.125256046652793884e-01
3.880577087402343750e-01 -6.039327010512351990e-02 -8.208739012479782104e-02
5.366652086377143860e-02 2.304588817059993744e-02 9.442753344774246216e-02
2.823368012905120850e-01 -8.366220444440841675e-02 8.370971679687500000e-02
-3.585228323936462402e-01 2.777018584311008453e-02 -7.743360847234725952e-02
7.011116482317447662e-03 -4.868827387690544128e-02 1.775376051664352417e-01
4.875735640525817871e-01 8.876302838325500488e-02 3.806497156620025635e-02
-1.581983864307403564e-01 -8.483740687370300293e-02 3.611414507031440735e-02
4.726250469684600830e-01 9.092539548873901367e-02 -2.654748037457466125e-02
3.238683342933654785e-01 -8.761087805032730103e-02 -5.830136314034461975e-02
3.561393022537231445e-01 -3.686577081680297852e-02 3.161557484418153763e-03
-4.925425946712493896e-01 5.712665989995002747e-02 6.185100600123405457e-02
-6.561303138732910156e-01 2.613292932510375977e-01 6.499122828245162964e-03
3.237273097038269043e-01 -2.311594411730766296e-02 3.033216297626495361e-02
2.285280264914035797e-02 -2.943851239979267120e-02 3.435932695865631104e-01
7.167609333992004395e-01 -4.008581116795539856e-02 8.638916909694671631e-02
-5.240696296095848083e-02 -5.221387743949890137e-02 7.898541539907455444e-02
1.403962224721908569e-01 -5.851293727755546570e-02 -3.244605064392089844e-01
1.954895704984664917e-01 -4.220117256045341492e-02 3.570610582828521729e-01
-5.117452740669250488e-01 1.326684653759002686e-01 3.949872031807899475e-02
-4.848567843437194824e-01 2.779368683695793152e-02 -1.697337627410888672e-01
9.998193979263305664e-01 -1.131694391369819641e-02 1.526610925793647766e-02
1.012150868773460388e-01 -8.308428339660167694e-03 -2.847622632980346680e-01
-3.924626111984252930e-01 9.896375983953475952e-02 -1.209252979606389999e-02
-5.851482152938842773e-01 1.418488286435604095e-02 1.616019159555435181e-01
5.874890089035034180e-01 -8.942069113254547119e-02 1.968485862016677856e-02
-2.725453078746795654e-01 -6.737393885850906372e-02 -4.567972570657730103e-02
-1.358696073293685913e-01 -1.042378786951303482e-02 4.556367397308349609e-01
1.949489712715148926e-01 -7.254482060670852661e-02 -5.428218096494674683e-02
1.128883659839630127e-02 -4.793615639209747314e-02 -1.786417663097381592e-01
-2.480541169643402100e-01 1.786422580480575562e-01 2.882790938019752502e-02
2.221430838108062744e-01 -1.228903606534004211e-01 3.665331304073333740e-01
-3.705803751945495605e-01 2.737061865627765656e-02 4.736324306577444077e-03
-6.320387125015258789e-01 3.501038551330566406e-01 -2.902470994740724564e-03
-3.683475553989410400e-01 9.600225090980529785e-02 2.633648552000522614e-02
8.861695230007171631e-02 -4.537421092391014099e-02 -2.173998504877090454e-01
4.966268315911293030e-03 -1.488857567310333252e-01 -1.940838992595672607e-01
9.093291163444519043e-01 -3.467990085482597351e-02 6.008820608258247375e-02
-6.082291603088378906e-01 2.365699037909507751e-02 2.770299911499023438e-01
-3.764798939228057861e-01 1.554438173770904541e-01 -2.464365586638450623e-02
1.032599285244941711e-01 9.468602389097213745e-02 -9.554099291563034058e-03
1.839020997285842896e-01 -7.670503109693527222e-02 -2.708807028830051422e-02
-6.162051483988761902e-02 -8.761087805032730103e-02 3.110779449343681335e-02
1.645818352699279785e-01 -1.479552872478961945e-02 -1.565950363874435425e-01
9.761898219585418701e-02 -5.754927918314933777e-02 3.389159739017486572e-01
2.926315367221832275e-01 -8.761087805032730103e-02 6.295569241046905518e-02
-1.058315187692642212e-01 -1.681687682867050171e-02 -4.542729854583740234e-01
-6.152651458978652954e-02 9.546165913343429565e-02 9.954208508133888245e-03
-6.126244664192199707e-01 3.659690022468566895e-01 5.911523010581731796e-03
4.848746582865715027e-03 7.167562842369079590e-02 -5.957058072090148926e-02
3.502786159515380859e-02 -5.597450956702232361e-02 1.328565478324890137e-01
-1.919266283512115479e-01 -4.712320398539304733e-03 5.891394019126892090e-01
-3.865631520748138428e-01 1.128311082720756531e-01 -2.579534985125064850e-02
-5.329694151878356934e-01 2.316672652959823608e-01 1.630028523504734039e-02
1.358364522457122803e-01 -9.017280489206314087e-02 -7.720787078142166138e-03
7.612069845199584961e-01 8.803439885377883911e-02 3.000310994684696198e-02
-5.668621659278869629e-01 2.786419913172721863e-02 3.070445656776428223e-01
-1.346239000558853149e-01 2.855961211025714874e-03 -6.671250462532043457e-01
-6.745339035987854004e-01 5.747922137379646301e-02 1.345630269497632980e-02
8.797140717506408691e-01 1.740492321550846100e-02 -6.648074835538864136e-02
2.755676507949829102e-01 -7.581187784671783447e-02 -3.034009039402008057e-01
-9.673546999692916870e-02 8.638912439346313477e-02 4.382345080375671387e-02
6.272342801094055176e-01 -5.867747589945793152e-02 -6.744441390037536621e-02
8.508041501045227051e-01 1.275113597512245178e-02 -7.350844144821166992e-02
2.101948857307434082e-02 -4.196614399552345276e-02 6.354329735040664673e-02
-5.706074833869934082e-02 -5.068610981106758118e-02 1.172028928995132446e-01
-1.174506358802318573e-02 -1.973137073218822479e-02 -4.435552060604095459e-01
6.255102157592773438e-02 -4.911134019494056702e-02 1.946015059947967529e-01
-4.514811336994171143e-01 6.062875688076019287e-02 -5.804282426834106445e-02
-5.601400136947631836e-01 1.414119452238082886e-01 -7.791299838572740555e-03
-3.312582373619079590e-01 -7.179269939661026001e-02 -1.667580567300319672e-02
-4.818247258663177490e-01 1.298618037253618240e-02 1.885844916105270386e-01
5.826472043991088867e-01 -4.072042182087898254e-02 -7.983101159334182739e-02
-1.014832779765129089e-01 -1.185753382742404938e-02 -5.241033434867858887e-01
1.547254528850317001e-02 -5.505785346031188965e-02 1.334441453218460083e-01
7.295235991477966309e-01 8.453230559825897217e-02 4.537471383810043335e-02
-5.670031905174255371e-01 1.152893248945474625e-02 -7.019437849521636963e-02
2.982254624366760254e-01 -6.845512241125106812e-02 8.869256079196929932e-02
-4.013787582516670227e-02 -5.052158609032630920e-02 1.329505592584609985e-01
-5.364009737968444824e-01 1.784072369337081909e-01 -9.977170266211032867e-03
4.966268315911293030e-03 -1.488857567310333252e-01 -1.940838992595672607e-01
-4.936707615852355957e-01 2.791120857000350952e-02 1.728368252515792847e-01
6.621765345335006714e-02 -1.581698358058929443e-01 -1.452661156654357910e-01
2.350232601165771484e-01 -4.972245171666145325e-02 3.109932541847229004e-01
3.190183266997337341e-02 -4.603232443332672119e-02 3.415954113006591797e-01
-4.632095694541931152e-01 1.494738161563873291e-01 -3.797041624784469604e-02
-1.082840748131275177e-02 4.732550308108329773e-02 -7.907888293266296387e-02
-1.192757934331893921e-01 -1.155197806656360626e-02 -5.231866836547851562e-01
-1.719247102737426758e-01 2.705228107515722513e-04 -5.658699274063110352e-01
7.479660212993621826e-02 -1.529284566640853882e-01 -1.603791862726211548e-01
1.909532994031906128e-01 -5.207285284996032715e-02 1.808516681194305420e-01
1.878037601709365845e-01 -7.663451135158538818e-02 -3.776029944419860840e-01
-4.480024874210357666e-01 1.722256690263748169e-01 3.768891096115112305e-02
-3.668279200792312622e-02 1.599468663334846497e-02 9.534419327974319458e-02
-5.518901348114013672e-01 1.647043973207473755e-01 -8.496419526636600494e-03
-3.736440464854240417e-02 -2.934450097382068634e-02 -3.057278096675872803e-01
-6.239615008234977722e-02 -1.721644401550292969e-02 4.737113416194915771e-01
9.312971681356430054e-02 -3.651321306824684143e-02 2.678306214511394501e-02
4.134890139102935791e-01 9.508559107780456543e-02 1.284519862383604050e-02
1.212404817342758179e-01 2.730010822415351868e-02 9.367540478706359863e-02
6.838318109512329102e-01 5.935954302549362183e-02 -7.054693996906280518e-02
9.614139199256896973e-01 -5.439973995089530945e-02 1.686438173055648804e-02
-1.014362797141075134e-01 -4.171730019152164459e-03 -4.702321887016296387e-01
1.159050688147544861e-01 -1.022773534059524536e-01 -3.337915837764739990e-01
3.434471487998962402e-01 -3.771192580461502075e-02 -5.136768892407417297e-02
1.111102625727653503e-01 -3.235300630331039429e-02 3.087838888168334961e-01
9.949111379683017731e-03 -6.556414812803268433e-02 4.779562354087829590e-02
5.380754172801971436e-02 -1.297535300254821777e-01 -1.507895439863204956e-01
-7.974209636449813843e-02 -2.424413524568080902e-02 3.564499318599700928e-01
4.002609755843877792e-03 -1.775703392922878265e-02 2.672993242740631104e-01
7.252458333969116211e-01 1.874465681612491608e-02 -8.793988078832626343e-02
-5.602810382843017578e-01 1.231023445725440979e-01 2.363352850079536438e-02
-2.895621657371520996e-01 1.814392358064651489e-01 2.600743249058723450e-02
1.029543802142143250e-01 -2.781674079596996307e-02 8.770538866519927979e-02
2.063484042882919312e-01 -2.337448857724666595e-02 -2.795771881937980652e-02
-1.334957182407379150e-01 -1.032977551221847534e-02 -5.080971121788024902e-01
2.448479384183883667e-01 -7.961952686309814453e-02 -1.362028811126947403e-02
-7.984432391822338104e-03 -2.415011450648307800e-02 2.269194871187210083e-01
-5.165401101112365723e-01 2.048395015299320221e-02 5.837241560220718384e-02
-1.212971284985542297e-01 -6.757168564945459366e-03 5.862954258918762207e-01
1.021552458405494690e-01 -7.797423750162124634e-02 3.655140986666083336e-03
1.087833717465400696e-01 9.433346986770629883e-02 1.848615519702434540e-02
6.403177976608276367e-02 -9.460128843784332275e-03 -2.916724383831024170e-01
-2.992457747459411621e-01 1.931442022323608398e-01 -2.154113166034221649e-02
-3.635374456644058228e-02 -2.549959346652030945e-03 4.432971775531768799e-01
-1.308478973805904388e-02 -1.204556692391633987e-02 -5.033258199691772461e-01
-2.341632843017578125e-01 4.360218998044729233e-03 6.977513432502746582e-01
1.074436455965042114e-01 6.720986962318420410e-02 -6.452991813421249390e-02
2.920674383640289307e-01 -4.377594217658042908e-02 3.161557484418153763e-03
7.206391096115112305e-01 -1.926129125058650970e-02 -8.763433247804641724e-02
-5.480436980724334717e-02 -1.773353293538093567e-02 -3.204883337020874023e-01
1.244052872061729431e-02 -3.231572452932596207e-03 4.840531051158905029e-01
2.909392416477203369e-01 -2.793426439166069031e-02 9.144253283739089966e-02
4.573709666728973389e-01 -7.515376806259155273e-02 -4.885276034474372864e-02
1.159050688147544861e-01 -1.022773534059524536e-01 -3.337915837764739990e-01
7.269616723060607910e-01 8.883354067802429199e-02 3.557355329394340515e-02
7.206391096115112305e-01 -1.926129125058650970e-02 -8.763433247804641724e-02
7.302522063255310059e-01 -1.409649103879928589e-01 2.398608997464179993e-02
2.119893580675125122e-01 -3.907515108585357666e-02 2.213020324707031250e-01
-3.534930348396301270e-01 -6.692737340927124023e-02 -1.709887757897377014e-02
6.739284843206405640e-02 -3.526750206947326660e-02 6.297919899225234985e-02
-5.278303101658821106e-02 -8.906812965869903564e-02 -1.611170917749404907e-02
-4.060713946819305420e-01 1.604501754045486450e-01 7.345266640186309814e-03
8.832867145538330078e-01 5.108613893389701843e-02 5.014602467417716980e-02
9.228356927633285522e-02 -3.714781627058982849e-02 -2.692261338233947754e-01
6.515609025955200195e-01 7.071196287870407104e-02 -6.081628799438476562e-02
9.590318799018859863e-02 -2.600692957639694214e-02 1.104337424039840698e-01
-4.307036101818084717e-01 9.484085254371166229e-03 1.125256046652793884e-01
-3.076132237911224365e-01 1.612023115158081055e-01 -2.861582860350608826e-02
1.954895704984664917e-01 -4.220117256045341492e-02 3.570610582828521729e-01
-1.179360672831535339e-01 -8.355438709259033203e-03 -4.488670825958251953e-01
1.815200410783290863e-02 -1.204694509506225586e-01 1.756337881088256836e-01
-2.865771651268005371e-01 8.004304021596908569e-02 -4.690193012356758118e-02
2.529803216457366943e-01 -7.628194987773895264e-02 3.947521373629570007e-02
4.965286254882812500e-01 7.026538997888565063e-02 -6.140388920903205872e-02
6.404905319213867188e-01 -6.643378734588623047e-02 -6.022869050502777100e-02
-2.122575491666793823e-01 9.101940691471099854e-02 3.251803293824195862e-02
9.381132572889328003e-02 -2.034247294068336487e-02 3.337450921535491943e-01
1.839020997285842896e-01 -7.670503109693527222e-02 -2.708807028830051422e-02
4.066728949546813965e-01 6.958377361297607422e-02 -6.229704245924949646e-02
-5.892574321478605270e-03 1.192850060760974884e-02 -8.956166356801986694e-02
-8.948091417551040649e-03 -4.462209343910217285e-02 -7.261528819799423218e-02
-5.217345356941223145e-01 2.760565467178821564e-02 -1.979620456695556641e-01
-1.942299902439117432e-01 -2.879015402868390083e-03 -5.580430626869201660e-01
1.140247583389282227e-01 -5.938259139657020569e-02 1.362881213426589966e-01
1.797889173030853271e-01 -7.571785897016525269e-02 3.931068629026412964e-02
5.100198984146118164e-01 -1.973137073218822479e-02 9.421600401401519775e-02
-4.480024874210357666e-01 1.722256690263748169e-01 3.768891096115112305e-02
-9.300657548010349274e-03 -5.066261067986488342e-02 1.532579958438873291e-01
-8.369076997041702271e-02 -2.257535420358181000e-02 3.835500478744506836e-01
9.103162884712219238e-01 5.797280743718147278e-02 1.923828385770320892e-02
9.693582653999328613e-01 -4.260073974728584290e-02 3.030866011977195740e-02
2.874606549739837646e-01 -6.467098742723464966e-02 8.763487637042999268e-02
-3.471668343991041183e-03 -8.791642636060714722e-02 2.866338193416595459e-02
1.954895704984664917e-01 -4.220117256045341492e-02 3.570610582828521729e-01
2.968857586383819580e-01 -6.363680958747863770e-02 -7.966648042201995850e-02
7.333077192306518555e-01 -5.033356323838233948e-02 7.853883504867553711e-02
-6.669738888740539551e-02 -6.075555458664894104e-03 -4.256451427936553955e-01
-9.285731613636016846e-02 6.935911951586604118e-04 5.172641873359680176e-01
-4.468508362770080566e-01 3.725607413798570633e-03 1.933229714632034302e-02
7.068657875061035156e-01 -7.973702996969223022e-02 -4.208361357450485229e-02
-3.276150822639465332e-01 9.344031661748886108e-02 -1.879116520285606384e-02
-4.141098260879516602e-01 2.753514237701892853e-02 -6.377779692411422729e-02
-5.682253837585449219e-01 1.298618037253618240e-02 -1.567125618457794189e-01
7.096392512321472168e-01 -1.423986703157424927e-01 -1.818006113171577454e-02
6.826331615447998047e-01 6.974829733371734619e-02 6.840861588716506958e-02
2.808090448379516602e-01 -1.022068485617637634e-01 3.675203323364257812e-01
6.223689317703247070e-01 -2.932099066674709320e-02 -8.455530554056167603e-02
7.732880115509033203e-01 3.611410036683082581e-02 -7.867931574583053589e-02
4.732126593589782715e-01 9.419244527816772461e-02 1.961434818804264069e-02
-3.709564507007598877e-01 1.143491175025701523e-02 -7.741009443998336792e-02
5.596991255879402161e-02 -7.861859165132045746e-03 3.219930827617645264e-01
-2.025974243879318237e-01 3.185017267242074013e-03 6.908881664276123047e-01
-4.352163374423980713e-01 2.311639860272407532e-02 -6.960678100585937500e-02
-5.044355988502502441e-01 2.335240840911865234e-01 -3.466566558927297592e-03
9.094383567571640015e-02 -6.145095080137252808e-02 1.173204109072685242e-01
2.368095815181732178e-01 -4.485712200403213501e-02 -1.798169612884521484e-01
2.448479384183883667e-01 -7.961952686309814453e-02 -1.362028811126947403e-02
-3.789243400096893311e-01 1.651274859905242920e-01 2.137714624404907227e-02
-4.158255457878112793e-01 1.600271016359329224e-01 4.502215236425399780e-02
-4.130521118640899658e-01 2.010415494441986084e-01 1.437295787036418915e-02
1.467893123626708984e-01 -5.590400472283363342e-02 -8.236943930387496948e-02
-6.791642308235168457e-01 6.274411827325820923e-02 -9.272049181163311005e-03
2.251280993223190308e-01 -3.884010761976242065e-02 -8.236943930387496948e-02
-3.777214791625738144e-03 -2.483173646032810211e-02 2.176119238138198853e-01
6.762789189815521240e-02 -2.570138126611709595e-02 -1.338901668787002563e-01
-5.044825673103332520e-01 2.017839439213275909e-02 3.146035596728324890e-02
2.652494013309478760e-01 -6.603421270847320557e-02 3.161557484418153763e-03
-3.973044157028198242e-01 5.296645686030387878e-02 7.268634438514709473e-02
1.765453517436981201e-01 9.381637722253799438e-02 -1.608820632100105286e-02
-5.329694151878356934e-01 2.316672652959823608e-01 1.630028523504734039e-02
7.437353581190109253e-02 1.232806779444217682e-02 9.583777189254760742e-02
1.815200410783290863e-02 -1.204694509506225586e-01 1.756337881088256836e-01
3.077210783958435059e-01 -2.309243381023406982e-02 7.085303217172622681e-02
-6.190645098686218262e-01 9.297023713588714600e-02 1.601823791861534119e-02
6.890027523040771484e-01 -5.028654262423515320e-02 8.020762354135513306e-02
-5.044825673103332520e-01 2.017839439213275909e-02 3.146035596728324890e-02
-6.091928482055664062e-01 1.808654516935348511e-02 2.008065581321716309e-01
-2.788913846015930176e-01 9.383989125490188599e-02 -1.590017415583133698e-02
-1.174506358802318573e-02 -1.973137073218822479e-02 -4.435552060604095459e-01
3.843594342470169067e-02 -6.840811669826507568e-02 4.363541677594184875e-02
-5.144330486655235291e-02 -2.929748967289924622e-02 -2.930121719837188721e-01
1.460289862006902695e-02 -2.116510830819606781e-02 -2.230643033981323242e-01
-4.312677085399627686e-01 2.755865268409252167e-02 4.694947972893714905e-02
1.788957566022872925e-01 -3.837002068758010864e-02 -2.427371442317962646e-01
2.320535853505134583e-02 -3.066072426736354828e-02 1.455487012863159180e-01
1.887439191341400146e-01 -4.347039386630058289e-02 2.235114127397537231e-01
-4.984890520572662354e-01 7.368725724518299103e-03 -7.423706352710723877e-02
2.839115560054779053e-01 -7.350849360227584839e-02 -3.042000532150268555e-01
-3.688176274299621582e-01 9.118393808603286743e-02 -2.365648746490478516e-02
-1.374443769454956055e-01 8.778962306678295135e-03 6.757281422615051270e-01
-9.344491362571716309e-02 -1.510108448565006256e-02 4.919033944606781006e-01
-1.919266283512115479e-01 -4.712320398539304733e-03 5.891394019126892090e-01
-5.858064293861389160e-01 3.073265850543975830e-01 -5.675940774381160736e-03
1.674176007509231567e-02 -3.900463134050369263e-02 -2.455811202526092529e-01
5.335238575935363770e-01 3.573803603649139404e-02 -8.387369662523269653e-02
1.930369623005390167e-02 -1.229373589158058167e-01 1.920395791530609131e-01
-4.800619781017303467e-01 1.189891472458839417e-01 4.452857002615928650e-02
-5.878276824951171875e-01 1.705236732959747314e-02 2.788397967815399170e-01
2.728646993637084961e-01 -6.727993488311767578e-02 3.808000683784484863e-01
5.836731567978858948e-02 -1.442319750785827637e-01 2.040736079216003418e-01
-1.501600295305252075e-01 5.270791426301002502e-02 -7.564730197191238403e-02
7.263423502445220947e-02 -5.519887432456016541e-02 3.399971425533294678e-01
3.111526668071746826e-01 -6.617523729801177979e-02 6.789153069257736206e-02
-5.008006095886230469e-02 -8.121779561042785645e-02 8.577806502580642700e-02
5.795682072639465332e-01 -6.462397426366806030e-02 -6.257908791303634644e-02
1.345202326774597168e-01 -8.761087805032730103e-02 6.770350039005279541e-02
-1.207095384597778320e-01 -3.067039884626865387e-03 5.022686719894409180e-01
4.339527711272239685e-02 -1.027474403381347656e-01 1.718496382236480713e-01
-3.469118773937225342e-01 1.449042931199073792e-02 3.161557484418153763e-03
-4.162956476211547852e-01 2.027573436498641968e-01 -4.665269516408443451e-03
-4.453230500221252441e-01 1.397334877401590347e-02 1.526468992233276367e-01
1.662424579262733459e-02 -3.357521817088127136e-02 1.298480331897735596e-01
-4.161311089992523193e-01 3.090996295213699341e-03 -7.156691513955593109e-03
2.153739333152770996e-01 -4.716052114963531494e-02 3.146598637104034424e-01
3.885982930660247803e-01 7.343842834234237671e-02 6.361380219459533691e-02
6.819198280572891235e-02 -2.699409611523151398e-02 1.290723979473114014e-01
2.187820225954055786e-01 3.258849680423736572e-02 9.148953109979629517e-02
3.427655696868896484e-01 6.522580049932003021e-03 -9.026677906513214111e-02
2.391364574432373047e-01 9.440398216247558594e-02 1.796906813979148865e-02
1.513490825891494751e-01 7.959646731615066528e-02 -4.925232753157615662e-02
-5.197601914405822754e-01 1.782800070941448212e-02 2.485573664307594299e-02
3.190183266997337341e-02 -4.603232443332672119e-02 3.415954113006591797e-01
2.813026010990142822e-01 -6.389535963535308838e-02 -8.756382763385772705e-02
1.684129834175109863e-01 -1.773353293538093567e-02 -1.183305382728576660e-01
-5.973468422889709473e-01 3.134376108646392822e-01 -5.252869334071874619e-03
3.319302201271057129e-01 -8.761087805032730103e-02 6.279116123914718628e-02
2.790462374687194824e-01 -5.038056522607803345e-02 -3.088773488998413086e-01
4.066728949546813965e-01 6.958377361297607422e-02 -6.229704245924949646e-02
-3.033590316772460938e-01 9.205357730388641357e-02 2.896893210709095001e-02
7.719400525093078613e-02 -3.444486483931541443e-02 2.927306294441223145e-01
-3.092350065708160400e-01 -6.923075765371322632e-02 -3.305808454751968384e-02
2.221430838108062744e-01 -1.228903606534004211e-01 3.665331304073333740e-01
-1.942299902439117432e-01 -2.879015402868390083e-03 -5.580430626869201660e-01
4.851056635379791260e-01 -8.566972799599170685e-03 9.569674730300903320e-02
4.479693770408630371e-01 -8.862154185771942139e-02 -1.951978914439678192e-02
1.775560379028320312e-01 -1.658183149993419647e-02 -1.250056624412536621e-01
6.920266151428222656e-02 -1.226788163185119629e-01 1.643048673868179321e-01
4.279204905033111572e-01 -2.906245552003383636e-02 -8.467283099889755249e-02
-5.866994857788085938e-01 1.628710776567459106e-01 -5.182357039302587509e-03
7.950997352600097656e-01 -7.733962684869766235e-02 -3.244698047637939453e-02
1.316915266215801239e-02 -2.017794921994209290e-02 -4.343416094779968262e-01
3.168171644210815430e-01 9.228862076997756958e-02 2.958003617823123932e-02
5.335238575935363770e-01 3.573803603649139404e-02 -8.387369662523269653e-02
-5.488111376762390137e-01 1.956729404628276825e-02 -4.659637808799743652e-02
-3.200703561305999756e-01 -6.028545089066028595e-03 -8.114723116159439087e-02
1.029543802142143250e-01 -2.781674079596996307e-02 8.770538866519927979e-02
4.451959133148193359e-01 -4.901733621954917908e-02 -7.482466101646423340e-02
-6.388078331947326660e-01 8.175883442163467407e-02 1.357382256537675858e-02
-4.381543397903442383e-01 7.110180798918008804e-03 8.902161568403244019e-02
-3.910053372383117676e-01 1.308019272983074188e-02 7.882088422775268555e-02
1.054928079247474670e-01 -2.878040075302124023e-02 -7.038240879774093628e-02
5.935448408126831055e-02 7.910288870334625244e-02 -4.988693445920944214e-02
-2.114819139242172241e-01 -2.784994430840015411e-03 5.794792175292968750e-01
6.387747526168823242e-01 6.300266087055206299e-02 -6.774996221065521240e-02
2.982254624366760254e-01 -6.845512241125106812e-02 8.869256079196929932e-02
-4.968203008174896240e-01 8.117123693227767944e-02 -2.539578266441822052e-02
-4.572631120681762695e-01 2.675951644778251648e-02 -6.361326575279235840e-02
8.526375293731689453e-01 -4.641809035092592239e-03 -7.435458153486251831e-02
2.785761356353759766e-01 -9.682442992925643921e-02 3.809646070003509521e-01
1.476354598999023438e-01 -1.376135926693677902e-02 -1.807571202516555786e-01
-3.215980827808380127e-01 1.838366389274597168e-01 1.446697395294904709e-02
1.791778057813644409e-01 -5.244892090559005737e-02 -1.750926673412322998e-01
1.021552458405494690e-01 -7.797423750162124634e-02 3.655140986666083336e-03
-3.787598013877868652e-01 1.486276686191558838e-01 -3.778238594532012939e-02
8.601822853088378906e-01 -6.960682570934295654e-02 -2.960299700498580933e-02
7.739739958196878433e-03 -7.007691264152526855e-02 3.161557484418153763e-03
-5.113774165511131287e-02 3.208518028259277344e-03 -5.343980789184570312e-01
-2.158536761999130249e-01 -1.079985406249761581e-02 -6.043223738670349121e-01
5.625195801258087158e-02 -2.330397628247737885e-02 -1.650094538927078247e-01
-6.303076446056365967e-02 1.915803295560181141e-03 -5.061932802200317383e-01
-2.555283904075622559e-01 1.488157063722610474e-01 3.374024108052253723e-02
-9.821622073650360107e-02 -4.571297671645879745e-03 -8.989071846008300781e-02
-4.945638775825500488e-01 1.649629473686218262e-01 -2.022490650415420532e-02
7.474959641695022583e-02 -3.242351859807968140e-02 -3.389859497547149658e-01
-1.082840748131275177e-02 4.732550308108329773e-02 -7.907888293266296387e-02
-2.366969361901283264e-03 -9.007878601551055908e-02 -8.331891149282455444e-03
-5.007925033569335938e-01 2.744113095104694366e-02 -2.076691836118698120e-01
-6.573290228843688965e-01 7.341492176055908203e-02 -2.855462487787008286e-03
-6.754352897405624390e-02 -2.403260022401809692e-02 3.970413208007812500e-01
3.803637623786926270e-02 -1.909676007926464081e-02 4.368335604667663574e-01
-3.092432208359241486e-02 -2.556035853922367096e-02 9.242969751358032227e-02
4.381835460662841797e-02 -6.173299625515937805e-02 -9.113642573356628418e-02
7.685167789459228516e-01 -8.580106496810913086e-02 1.766351610422134399e-02
5.826472043991088867e-01 -4.072042182087898254e-02 -7.983101159334182739e-02
6.934367865324020386e-02 -6.958331912755966187e-02 3.161557484418153763e-03
1.087833717465400696e-01 -5.790184438228607178e-02 1.452196389436721802e-01
-8.143438398838043213e-02 -3.101328201591968536e-02 2.617759108543395996e-01
-3.737534582614898682e-01 1.293917000293731689e-02 -4.859421774744987488e-02
1.824683696031570435e-01 -4.100246727466583252e-02 -3.459196090698242188e-01
3.888251259922981262e-02 -5.089765414595603943e-02 -1.173198595643043518e-01
-5.488111376762390137e-01 1.956729404628276825e-02 -4.659637808799743652e-02
-1.556834727525711060e-01 -4.500786308199167252e-03 5.137386322021484375e-01
-4.307036101818084717e-01 9.484085254371166229e-03 1.125256046652793884e-01
-2.507183142006397247e-02 -2.257535420358181000e-02 2.563699781894683838e-01
-5.364009737968444824e-01 1.784072369337081909e-01 -9.977170266211032867e-03
-5.260592699050903320e-01 2.357569485902786255e-01 -9.366066195070743561e-03
4.772001877427101135e-02 -1.493655145168304443e-02 2.540901005268096924e-01
-3.200938403606414795e-01 1.816272735595703125e-01 -3.251749277114868164e-02
-4.869486093521118164e-01 2.121257409453392029e-02 -9.460083208978176117e-03
8.079012483358383179e-02 -1.244181096553802490e-01 -1.880903840065002441e-01
-5.010040402412414551e-01 9.554596617817878723e-03 3.161557484418153763e-03
