6.090142950415611267e-02 -1.295332098379731178e-03 -2.324789911508560181e-01
-1.859191656112670898e-01 -7.390653342008590698e-02 2.218298800289630890e-02
3.648859262466430664e-02 -1.237781625241041183e-02 1.646086275577545166e-01
1.855816575698554516e-03 -1.286393851041793823e-01 -1.479227393865585327e-01
3.102312684059143066e-01 -1.031548902392387390e-01 2.571369409561157227e-01
-6.215600296854972839e-02 7.983638904988765717e-03 4.815311729907989502e-01
-8.026959747076034546e-02 3.542847931385040283e-02 6.452592611312866211e-01
-5.667489767074584961e-01 7.918339222669601440e-02 -2.418572269380092621e-02
-3.841231763362884521e-01 -5.626341700553894043e-02 5.263368785381317139e-02
4.747957587242126465e-01 -6.930625438690185547e-02 3.402347490191459656e-02
6.411637663841247559e-01 -7.009039819240570068e-02 -3.566028177738189697e-02
4.292896091938018799e-01 -7.827156037092208862e-02 -6.882405839860439301e-03
-1.040287595242261887e-02 -5.349280312657356262e-02 -8.080050349235534668e-02
8.100150525569915771e-02 -1.441657915711402893e-02 -1.135513484477996826e-01
6.602705717086791992e-01 3.161234036087989807e-02 7.367473095655441284e-02
-8.311081528663635254e-01 5.890035256743431091e-02 2.385267317295074463e-01
1.106157973408699036e-01 -4.439679160714149475e-02 -1.521048098802566528e-01
-8.220121264457702637e-01 2.762896120548248291e-01 -5.549370776861906052e-03
-1.077928543090820312e-01 -4.659238085150718689e-02 -7.162608951330184937e-02
-5.732050538063049316e-01 -4.562528058886528015e-02 3.044257685542106628e-02
1.182742118835449219e-01 -2.116016298532485962e-02 -2.822456359863281250e-01
1.770584434270858765e-01 -4.152162000536918640e-02 1.649484187364578247e-01
-3.033308088779449463e-01 -7.900342345237731934e-02 -1.105920760892331600e-03
1.424518078565597534e-01 -1.269146893173456192e-02 -2.545132935047149658e-01
-7.670963406562805176e-01 2.912923507392406464e-02 -9.669237583875656128e-02
-2.375416010618209839e-01 5.986745655536651611e-02 8.320147991180419922e-01
1.387402117252349854e-01 -4.661852493882179260e-02 -1.469295024871826172e-01
9.375681728124618530e-02 -1.368471607565879822e-02 1.084382012486457825e-01
3.371794819831848145e-01 -6.269335746765136719e-02 -5.251925438642501831e-02
8.406484723091125488e-01 -7.267805933952331543e-02 1.515187975019216537e-02
-1.914342641830444336e-01 5.252269282937049866e-02 7.674802541732788086e-01
9.145668148994445801e-02 -2.949816547334194183e-02 2.219291478395462036e-01
-5.348083972930908203e-01 -5.534859374165534973e-02 2.709691971540451050e-02
1.396811902523040771e-01 -4.332514107227325439e-02 2.441986650228500366e-01
2.482582032680511475e-01 -1.399836875498294830e-02 2.377164512872695923e-01
-4.009821414947509766e-01 1.501428429037332535e-03 -8.176761120557785034e-02
9.409661591053009033e-02 -1.438516676425933838e-01 -1.236144527792930603e-01
3.081402182579040527e-01 -1.134532392024993896e-01 -2.558985948562622070e-01
7.245960831642150879e-01 -7.257350534200668335e-02 2.555477991700172424e-02
2.779247760772705078e-01 -2.186589315533638000e-02 -2.389089316129684448e-01
2.682798802852630615e-01 -1.551437377929687500e-02 2.391278892755508423e-01
4.207686483860015869e-01 -6.768570095300674438e-02 3.789189085364341736e-02
-1.771890819072723389e-01 4.936000332236289978e-02 -7.645952105522155762e-01
-4.425150901079177856e-02 8.741636760532855988e-03 3.859185874462127686e-01
3.061537444591522217e-01 -7.270419597625732422e-02 -2.951577901840209961e-01
-7.869088649749755859e-01 1.178675517439842224e-01 -5.157301668077707291e-03
-7.869873046875000000e-01 2.335018217563629150e-01 3.180701751261949539e-03
3.429821133613586426e-01 -5.934769660234451294e-02 2.076055407524108887e-01
-2.839625775814056396e-01 -7.756584882736206055e-02 7.205944973975419998e-03
-1.450653560459613800e-02 4.831448197364807129e-02 -6.956119090318679810e-02
-2.038756944239139557e-02 2.019005641341209412e-02 5.600495338439941406e-01
-4.046153128147125244e-01 -5.937384068965911865e-02 -5.223173648118972778e-02
5.321687459945678711e-02 8.519511669874191284e-02 -1.869675517082214355e-02
8.552857041358947754e-01 -1.345465630292892456e-01 -1.702392846345901489e-02
-1.273963153362274170e-01 3.634331002831459045e-02 7.215873152017593384e-02
8.677821606397628784e-03 -8.378668129444122314e-02 1.496891397982835770e-02
3.242934942245483398e-01 8.059484511613845825e-02 2.981526590883731842e-02
2.788396179676055908e-01 -1.925209350883960724e-02 2.401734143495559692e-01
3.053957521915435791e-01 -6.298087537288665771e-02 2.626259326934814453e-01
-5.803930163383483887e-01 5.910945311188697815e-02 -1.571703143417835236e-02
2.365486137568950653e-02 1.315895467996597290e-02 3.662105798721313477e-01
6.764502078294754028e-02 -8.208770304918289185e-02 -1.406302601099014282e-01
-2.990178018808364868e-02 -1.512229815125465393e-02 -3.533408343791961670e-01
3.224638402462005615e-01 -3.731341287493705750e-02 2.908026278018951416e-01
-1.342705786228179932e-01 2.803144045174121857e-02 -5.859423875808715820e-01
-1.067734733223915100e-01 3.148164972662925720e-02 -6.620560884475708008e-01
2.138086035847663879e-02 8.281656354665756226e-02 -2.891669422388076782e-02
3.737987279891967773e-01 7.149884104728698730e-02 -4.888607934117317200e-02
-1.821552962064743042e-01 4.164931178092956543e-02 7.379182577133178711e-01
-2.684366405010223389e-01 6.240283325314521790e-02 8.499715924263000488e-01
-9.224076569080352783e-02 4.266868904232978821e-02 6.946652382612228394e-02
8.114785552024841309e-01 6.825773417949676514e-02 -3.911048918962478638e-02
-6.783580183982849121e-01 6.870207935571670532e-02 -2.010820619761943817e-02
-5.006200075149536133e-01 4.219820350408554077e-02 -7.047601789236068726e-02
-1.474441140890121460e-01 7.764125615358352661e-02 3.585313260555267334e-02
6.273890733718872070e-01 8.164036273956298828e-02 -3.129524365067481995e-02
2.396851591765880585e-02 -3.328817337751388550e-02 -6.731332838535308838e-02
-8.006835579872131348e-01 3.419999405741691589e-02 -1.032791361212730408e-01
-8.311863988637924194e-02 -1.237781625241041183e-02 3.578203022480010986e-01
1.185617223381996155e-01 -4.387403279542922974e-02 1.529772579669952393e-01
-5.400098562240600586e-01 -9.816791862249374390e-04 -7.058057188987731934e-02
-1.357604414224624634e-01 5.390800535678863525e-02 -6.603256613016128540e-02
2.391622066497802734e-01 -1.849409565329551697e-02 5.676348507404327393e-02
3.297824561595916748e-01 -4.146935045719146729e-02 2.083112597465515137e-01
2.281844802200794220e-02 -2.183974906802177429e-02 1.649484187364578247e-01
-3.698516637086868286e-02 -5.320569500327110291e-03 -3.075994551181793213e-01
3.329189717769622803e-01 -3.760093078017234802e-02 2.379516959190368652e-01
4.077521339058876038e-02 -4.716742038726806641e-02 -1.233007982373237610e-01
3.307234048843383789e-01 -1.235686317086219788e-01 -2.755804657936096191e-01
3.314291238784790039e-01 7.058400660753250122e-02 -4.987931996583938599e-02
1.574549823999404907e-01 -4.405745305120944977e-03 1.613413840532302856e-01
-1.067734733223915100e-01 3.148164972662925720e-02 -6.620560884475708008e-01
-5.123012233525514603e-03 -2.547292970120906830e-02 1.384445577859878540e-01
-2.796757593750953674e-02 2.831896021962165833e-02 -5.422920584678649902e-01
3.877825438976287842e-01 2.957358025014400482e-02 7.432818412780761719e-02
3.120086491107940674e-01 -7.586687803268432617e-02 -1.989178806543350220e-01
-4.143909215927124023e-01 7.521042972803115845e-02 4.076706245541572571e-02
4.811997339129447937e-02 1.394309103488922119e-02 3.672038018703460693e-01
9.362612664699554443e-02 -3.464734181761741638e-02 -2.497300505638122559e-01
6.114710569381713867e-01 2.050371468067169189e-02 7.702039182186126709e-02
2.281844802200794220e-02 -2.183974906802177429e-02 1.649484187364578247e-01
1.183526292443275452e-01 7.701394706964492798e-02 3.713388741016387939e-02
5.839218571782112122e-02 -3.629403933882713318e-02 -1.833396553993225098e-01
-7.890261411666870117e-01 4.928158968687057495e-02 -1.495694220066070557e-01
9.057319760322570801e-01 5.030096694827079773e-02 2.121588028967380524e-02
2.020985931158065796e-01 -7.910798490047454834e-02 -6.540525704622268677e-02
-1.045491546392440796e-03 -1.347601064480841160e-03 -4.257168173789978027e-01
1.645906567573547363e-01 -8.378668129444122314e-02 -3.217825724277645350e-04
4.613085687160491943e-01 5.414324253797531128e-02 6.227859109640121460e-02
8.552857041358947754e-01 -1.345465630292892456e-01 -1.702392846345901489e-02
-2.839625775814056396e-01 -7.756584882736206055e-02 7.205944973975419998e-03
2.462978661060333252e-01 -7.986597716808319092e-02 -5.965491011738777161e-02
8.504502177238464355e-01 -1.243788972496986389e-01 4.623557324521243572e-04
6.557487249374389648e-01 1.161641092039644718e-03 -8.171533793210983276e-02
1.501102149486541748e-01 7.897429168224334717e-02 -3.678421303629875183e-02
7.885819673538208008e-02 -6.109894067049026489e-02 1.367455869913101196e-01
3.700609803199768066e-01 8.537808805704116821e-02 1.311312057077884674e-02
-1.555730104446411133e-01 3.699675574898719788e-02 -7.088690996170043945e-01
1.702103167772293091e-01 -6.366095039993524551e-03 1.415026932954788208e-01
-6.869049370288848877e-02 1.527612563222646713e-02 5.410472750663757324e-01
-1.371196210384368896e-01 3.788544237613677979e-02 6.369212269783020020e-01
6.138234734535217285e-01 -7.071769982576370239e-02 -3.398745134472846985e-02
-7.292462512850761414e-03 -2.973341569304466248e-02 -1.904491782188415527e-01
-1.117658242583274841e-01 2.620178274810314178e-02 -6.253061294555664062e-01
4.043278694152832031e-01 5.631269887089729309e-02 6.091941893100738525e-02
-4.616221785545349121e-01 -9.294004994444549084e-04 -7.884015887975692749e-02
2.587658725678920746e-02 1.924909465014934540e-02 4.357375204563140869e-01
4.438225179910659790e-02 -1.682126335799694061e-02 3.057012557983398438e-01
3.287369012832641602e-01 -1.127213761210441589e-01 2.137740850448608398e-01
-1.047347113490104675e-01 6.841456145048141479e-02 4.860844835638999939e-02
2.660845033824443817e-02 -8.378668129444122314e-02 4.651740938425064087e-02
-2.182256579399108887e-01 5.179083347320556641e-02 -7.843031883239746094e-01
-4.465928673744201660e-01 5.307159200310707092e-02 1.795390853658318520e-03
-5.447669625282287598e-01 6.956463307142257690e-02 4.055795818567276001e-02
-2.022030949592590332e-01 -1.556664332747459412e-02 7.571349292993545532e-02
1.396811902523040771e-01 -4.332514107227325439e-02 2.441986650228500366e-01
-3.241102397441864014e-02 -7.029949873685836792e-02 -7.199201732873916626e-02
2.815579473972320557e-01 -4.429224506020545959e-02 1.146328970789909363e-01
-4.947650730609893799e-01 -6.060231849551200867e-02 -3.610462695360183716e-02
1.170195937156677246e-01 7.970615476369857788e-02 -3.526821359992027283e-02
1.687727123498916626e-01 -5.589748546481132507e-02 1.096144020557403564e-01
5.121207237243652344e-01 -1.747471466660499573e-02 -7.907540351152420044e-02
-2.362867631018161774e-02 -2.764237485826015472e-02 7.670673727989196777e-02
-7.553342580795288086e-01 3.359882161021232605e-02 1.309952437877655029e-01
-1.824689507484436035e-01 -4.201824218034744263e-02 -6.796677410602569580e-02
2.022292912006378174e-01 8.344388008117675781e-02 -2.758365496993064880e-02
-1.265073847025632858e-02 1.974571309983730316e-02 -5.249887108802795410e-01
2.639934606850147247e-02 1.592957600951194763e-02 3.889767229557037354e-01
-7.343716025352478027e-01 7.779808342456817627e-02 5.167185794562101364e-03
-7.019082903861999512e-01 -2.199658378958702087e-02 1.635422371327877045e-02
-3.738771080970764160e-01 8.464622497558593750e-02 2.126815915107727051e-02
4.341514781117439270e-02 6.127846427261829376e-03 3.010486960411071777e-01
9.352158010005950928e-02 -4.282851889729499817e-02 -1.567050963640213013e-01
-1.864680498838424683e-01 -7.850681245326995850e-02 -5.497095175087451935e-03
2.370713651180267334e-02 -5.555818788707256317e-03 2.280715405941009521e-01
-7.954037189483642578e-01 5.312386527657508850e-02 1.984833925962448120e-01
3.252867162227630615e-01 -7.035177946090698242e-02 2.480147927999496460e-01
-7.736569046974182129e-01 -3.804982989095151424e-04 1.776567474007606506e-02
2.217804789543151855e-01 -1.554050855338573456e-02 -1.952585577964782715e-01
-8.447781205177307129e-02 3.678765520453453064e-02 -6.471313238143920898e-01
2.977634668350219727e-01 -8.530267328023910522e-02 -1.989440172910690308e-01
-2.378550171852111816e-02 -8.378668129444122314e-02 -3.529435023665428162e-02
4.851204529404640198e-02 8.218878880143165588e-03 -3.184989690780639648e-01
9.412275254726409912e-02 -1.263920031487941742e-02 -3.414480984210968018e-01
-1.190060302615165710e-01 3.832978755235671997e-02 7.037559151649475098e-01
-7.423959374427795410e-01 2.437213063240051270e-02 6.847328692674636841e-02
3.877825438976287842e-01 2.957358025014400482e-02 7.432818412780761719e-02
-1.680667325854301453e-02 -1.177664566785097122e-02 -2.437967211008071899e-01
-6.813638806343078613e-01 3.304992616176605225e-02 -6.564050167798995972e-02
3.371794819831848145e-01 -6.269335746765136719e-02 -5.251925438642501831e-02
-6.382623910903930664e-01 3.315447643399238586e-02 -5.604787170886993408e-02
-1.233708579093217850e-02 -3.334085224196314812e-03 3.605647981166839600e-01
-5.018482729792594910e-02 -8.091195486485958099e-03 3.229784071445465088e-01
-8.261942863464355469e-01 5.534559115767478943e-02 -2.526051998138427734e-01
7.117364555597305298e-02 -8.169608190655708313e-03 1.633017361164093018e-01
-7.425786554813385010e-02 1.836040429770946503e-02 -5.687174797058105469e-01
-1.321011185646057129e-01 -1.318809296935796738e-02 7.605328410863876343e-02
-5.396177768707275391e-01 5.822076275944709778e-02 -1.616137474775314331e-02
-8.783655762672424316e-01 2.847578562796115875e-02 8.282869821414351463e-04
7.483815550804138184e-01 -6.198763102293014526e-02 -4.867697134613990784e-02
3.000638261437416077e-02 -1.206416357308626175e-02 1.762922853231430054e-01
-4.613344743847846985e-02 2.912875963374972343e-03 -3.605549335479736328e-01
-5.998655781149864197e-02 2.196744084358215332e-02 -5.930258035659790039e-01
-8.426088094711303711e-01 3.027930483222007751e-02 -7.300612982362508774e-03
1.765095442533493042e-01 -3.875100240111351013e-02 2.393631488084793091e-01
-3.241080790758132935e-03 -1.723947376012802124e-02 1.883680224418640137e-01
1.855532824993133545e-01 -2.806058526039123535e-02 -2.389611899852752686e-01
6.138234734535217285e-01 -7.071769982576370239e-02 -3.398745134472846985e-02
-6.403533816337585449e-01 5.903103947639465332e-02 -4.190724715590476990e-02
7.549421191215515137e-01 -5.370190739631652832e-02 -5.881849676370620728e-02
-2.143286168575286865e-03 -2.061127126216888428e-02 2.134865671396255493e-01
-3.229603767395019531e-01 8.143126219511032104e-02 2.811630070209503174e-02
-7.423959374427795410e-01 2.437213063240051270e-02 6.847328692674636841e-02
4.958369955420494080e-02 1.339419372379779816e-02 -4.581016898155212402e-01
-2.405213266611099243e-01 -6.815619021654129028e-02 3.695091977715492249e-02
2.182520553469657898e-02 1.919638714753091335e-03 4.448596537113189697e-01
-3.414137661457061768e-01 -5.093128234148025513e-02 -6.124932691454887390e-02
-1.190060302615165710e-01 3.832978755235671997e-02 7.037559151649475098e-01
8.438373208045959473e-01 7.016580551862716675e-02 -1.062013208866119385e-02
-8.053623437881469727e-01 2.240398824214935303e-01 -5.680060945451259613e-03
7.490611672401428223e-01 3.992420807480812073e-02 -7.366484403610229492e-02
-2.552892565727233887e-01 5.892648920416831970e-02 -8.329721093177795410e-01
8.667864799499511719e-01 -1.225231140851974487e-01 -1.498516835272312164e-02
-8.083420395851135254e-01 2.656776309013366699e-01 -5.863026715815067291e-03
-4.077496472746133804e-03 -1.360630337148904800e-02 3.048386871814727783e-01
-8.072965145111083984e-01 3.997648134827613831e-02 1.671962738037109375e-01
-4.030992984771728516e-01 -7.793177664279937744e-02 -8.764337748289108276e-03
-3.324743732810020447e-02 -3.890782967209815979e-02 -1.226473525166511536e-01
8.252532482147216797e-01 4.034241288900375366e-02 -6.349719315767288208e-02
1.258280873298645020e-01 -4.873569309711456299e-02 -1.364743262529373169e-01
-7.547592520713806152e-01 2.729957737028598785e-02 -9.039313346147537231e-02
-1.077928543090820312e-01 -4.659238085150718689e-02 -7.162608951330184937e-02
-9.707628935575485229e-02 8.689367212355136871e-03 -4.616564512252807617e-01
-2.042941302061080933e-01 4.734738171100616455e-02 7.486086487770080566e-01
-7.056993781588971615e-04 5.631223320960998535e-03 -3.264448940753936768e-01
8.782610297203063965e-01 -3.603265434503555298e-02 -5.745932459831237793e-02
-3.686494827270507812e-01 2.923378907144069672e-02 7.443273812532424927e-02
-8.207291364669799805e-03 -9.920853190124034882e-03 -2.658832967281341553e-01
-7.969458699226379395e-01 3.731041029095649719e-02 -2.251289598643779755e-02
-8.483592271804809570e-01 5.231359228491783142e-02 1.680065691471099854e-01
1.042642816901206970e-01 -8.378668129444122314e-02 -3.124297037720680237e-02
-6.832458376884460449e-01 3.197827190160751343e-02 6.936196982860565186e-02
6.143200993537902832e-01 -6.209217756986618042e-02 4.513210430741310120e-02
6.078117489814758301e-01 7.251822203397750854e-02 4.413885995745658875e-02
3.386954665184020996e-01 -2.591727301478385925e-02 2.692387998104095459e-01
3.061537444591522217e-01 -7.270419597625732422e-02 -2.951577901840209961e-01
-5.418133735656738281e-01 8.362684398889541626e-02 -7.797233760356903076e-03
-6.432545930147171021e-02 1.224412582814693451e-02 -5.205714106559753418e-01
5.836604908108711243e-02 -9.032562957145273685e-04 2.337957620620727539e-01
1.507636755704879761e-01 -4.703672602772712708e-02 2.507592737674713135e-01
-4.668497443199157715e-01 -4.256714507937431335e-02 -6.242553144693374634e-02
3.155372738838195801e-01 5.152945220470428467e-02 6.392528116703033447e-02
-6.863561868667602539e-01 7.121132314205169678e-02 -1.445714035071432590e-03
5.975136160850524902e-02 -2.630933932960033417e-02 5.655438080430030823e-02
8.897358924150466919e-02 -6.318997591733932495e-02 -7.084195315837860107e-02
8.582654595375061035e-01 1.266188803128898144e-03 6.476169824600219727e-02
3.053957521915435791e-01 -7.118818163871765137e-02 2.160481065511703491e-01
7.318648044019937515e-03 2.144467830657958984e-02 -4.544162750244140625e-01
-4.613344743847846985e-02 2.912875963374972343e-03 -3.605549335479736328e-01
1.613495498895645142e-01 -7.672943174839019775e-02 -6.882932782173156738e-02
2.959860861301422119e-01 -2.400920353829860687e-02 7.472024857997894287e-02
2.677832543849945068e-01 1.007467042654752731e-02 -8.153236657381057739e-02
-8.612975478172302246e-01 4.779172688722610474e-02 1.543886959552764893e-01
-9.224076569080352783e-02 4.266868904232978821e-02 6.946652382612228394e-02
3.053957521915435791e-01 -6.041935831308364868e-02 -2.902438342571258545e-01
2.252568155527114868e-01 8.592697978019714355e-02 7.101392839103937149e-03
9.181213974952697754e-01 4.274710267782211304e-02 -3.001448325812816620e-02
1.778687238693237305e-01 4.637985955923795700e-03 7.837956398725509644e-02
8.519400358200073242e-01 -5.981818586587905884e-02 -1.224068459123373032e-02
3.227774798870086670e-01 -5.926928296685218811e-02 -6.022994592785835266e-02
4.176845401525497437e-02 -3.987534902989864349e-03 -8.108802139759063721e-02
-8.282852768898010254e-01 5.707069486379623413e-02 2.181652635335922241e-01
-9.200532920658588409e-03 -2.283299528062343597e-02 -2.120129913091659546e-01
2.472126781940460205e-01 -3.266085684299468994e-02 -2.906881868839263916e-01
-1.787832751870155334e-02 -7.777542341500520706e-03 -3.656518161296844482e-01
2.306412309408187866e-01 -3.305293247103691101e-02 1.812584996223449707e-01
2.979464232921600342e-01 -6.760728359222412109e-02 -5.944580957293510437e-02
1.517307758331298828e-01 -5.163742695003747940e-03 -3.104746043682098389e-01
8.894744515419006348e-02 -2.691051177680492401e-02 -2.432478368282318115e-01
-2.067508921027183533e-02 1.992867887020111084e-02 5.330490469932556152e-01
2.841717302799224854e-01 6.261193752288818359e-02 5.495996773242950439e-02
-5.806804895401000977e-01 6.245511025190353394e-02 1.196305081248283386e-02
6.942760348320007324e-01 1.409991737455129623e-02 7.756929099559783936e-02
-7.894704341888427734e-01 3.341585770249366760e-02 -7.081580907106399536e-02
2.917778789997100830e-01 -5.359734967350959778e-02 8.812901377677917480e-02
3.648859262466430664e-02 -1.237781625241041183e-02 1.646086275577545166e-01
-3.588737174868583679e-02 -7.986648008227348328e-03 -3.459960818290710449e-01
-3.801501989364624023e-01 -4.782086983323097229e-02 5.997845157980918884e-02
2.919085621833801270e-01 5.610359460115432739e-02 6.105010583996772766e-02
-8.883763551712036133e-01 1.553750410676002502e-02 -1.419576117768883705e-03
9.101233631372451782e-02 7.484449446201324463e-02 -4.520062729716300964e-02
-5.360891819000244141e-01 8.271156810224056244e-03 6.886535137891769409e-02
-1.824689507484436035e-01 -4.201824218034744263e-02 -6.796677410602569580e-02
2.462978661060333252e-01 -7.986597716808319092e-02 -5.965491011738777161e-02
-7.796947956085205078e-01 5.037938058376312256e-02 -1.656704097986221313e-01
1.304283589124679565e-01 -2.696279063820838928e-02 -2.446070015430450439e-01
2.349017262458801270e-01 -3.877713903784751892e-02 -1.622463315725326538e-01
-3.596578538417816162e-02 2.842351235449314117e-02 -5.589680075645446777e-01
-8.040292859077453613e-01 1.804156601428985596e-01 2.344287699088454247e-03
1.294089853763580322e-01 2.285570139065384865e-03 -3.198058605194091797e-01
8.473659157752990723e-01 -7.225985080003738403e-02 -6.751716136932373047e-03
-7.590981125831604004e-01 2.348344027996063232e-02 2.842995338141918182e-02
-4.129794836044311523e-01 -1.645533181726932526e-02 -7.904925942420959473e-02
-8.913035690784454346e-02 -4.222774878144264221e-03 4.922215938568115234e-01
-9.074048399925231934e-01 6.138345599174499512e-02 -2.670595049858093262e-01
-3.738771080970764160e-01 8.464622497558593750e-02 2.126815915107727051e-02
7.769764661788940430e-01 7.792877405881881714e-02 -3.074634633958339691e-02
-5.884696245193481445e-01 7.928794622421264648e-02 -1.731144450604915619e-02
1.019379943609237671e-01 -1.452586875529959798e-04 -2.198543697595596313e-01
-2.838578075170516968e-02 2.089578658342361450e-02 5.442883968353271484e-01
2.587658725678920746e-02 1.924909465014934540e-02 4.357375204563140869e-01
4.916808605194091797e-01 5.273179709911346436e-02 -6.679056584835052490e-02
6.037887651473283768e-03 -2.915884600952267647e-03 -3.564512729644775391e-01
6.191817522048950195e-01 8.323435671627521515e-03 -8.168920129537582397e-02
3.097085058689117432e-01 -4.614803567528724670e-02 -2.267286330461502075e-01
-5.104737356305122375e-02 -4.797811154276132584e-03 -3.661222755908966064e-01
8.575861901044845581e-02 -7.437701523303985596e-02 -1.536992192268371582e-01
-1.291998177766799927e-01 -4.633100703358650208e-02 -6.720877438783645630e-02
-7.257984280586242676e-01 4.021172598004341125e-02 6.957107782363891602e-02
4.043278694152832031e-01 5.631269887089729309e-02 6.091941893100738525e-02
2.241328954696655273e-01 -2.265002392232418060e-02 -1.765176653861999512e-01
-7.244653701782226562e-01 2.097419835627079010e-02 3.499057516455650330e-02
-6.388111412525177002e-02 2.727344445884227753e-02 5.959892272949218750e-01
1.983872242271900177e-02 6.519912742078304291e-03 3.158689141273498535e-01
-3.159292936325073242e-01 6.018111109733581543e-02 5.762603878974914551e-02
-1.887681931257247925e-01 4.669393226504325867e-02 7.810981273651123047e-01
2.172847390174865723e-01 -8.378668129444122314e-02 3.598908660933375359e-03
-4.268848598003387451e-01 -7.307053543627262115e-03 7.602714747190475464e-02
7.796950638294219971e-02 -7.960461825132369995e-02 -6.569277495145797729e-02
5.048282742500305176e-01 -6.070687621831893921e-02 -5.053276941180229187e-02
-3.033308088779449463e-01 -7.900342345237731934e-02 -1.105920760892331600e-03
2.699526846408843994e-01 -3.104030527174472809e-02 -2.913939058780670166e-01
-1.501101851463317871e-01 4.177999868988990784e-02 7.388069033622741699e-01
-8.575855940580368042e-02 1.203502062708139420e-02 -4.972563385963439941e-01
-7.584708333015441895e-01 4.462903365492820740e-02 1.058766841888427734e-01
-5.338674783706665039e-01 7.335463166236877441e-02 -1.299868430942296982e-02
8.447784930467605591e-02 -5.087900161743164062e-02 -9.750264883041381836e-02
-6.784363985061645508e-01 5.581607669591903687e-02 -3.751607611775398254e-02
-1.101714000105857849e-01 2.139240503311157227e-02 5.237962007522583008e-01
-5.141330510377883911e-02 1.046674605458974838e-02 -5.095673203468322754e-01
1.860760301351547241e-01 -9.173261374235153198e-02 2.762699127197265625e-01
-1.905455738306045532e-01 -1.122775301337242126e-02 7.634080201387405396e-02
5.562156438827514648e-02 -1.311747580766677856e-01 1.141101270914077759e-01
-8.292523622512817383e-01 1.908969432115554810e-01 -3.458335762843489647e-03
-2.112468183040618896e-01 -2.191817015409469604e-02 -7.800374925136566162e-02
2.660845033824443817e-02 -8.378668129444122314e-02 4.651740938425064087e-02
1.972108036279678345e-01 -1.019264087080955505e-01 2.266862392425537109e-01
3.053957521915435791e-01 -6.041935831308364868e-02 -2.902438342571258545e-01
-6.868267059326171875e-01 2.115716412663459778e-02 4.335471987724304199e-02
9.971627593040466309e-02 -3.273927047848701477e-02 -2.104185819625854492e-01
-8.040292859077453613e-01 1.804156601428985596e-01 2.344287699088454247e-03
-1.852134317159652710e-01 8.592697978019714355e-02 7.049117237329483032e-03
2.049217186868190765e-02 -2.646616660058498383e-02 2.178254872560501099e-01
-2.391619421541690826e-02 -3.833279386162757874e-02 -1.316910833120346069e-01
1.108510345220565796e-01 -1.407678239047527313e-02 -1.002210006117820740e-01
-6.061386317014694214e-02 3.271013498306274414e-02 5.765164494514465332e-01
3.648859262466430664e-02 -1.237781625241041183e-02 1.646086275577545166e-01
7.245960831642150879e-01 -7.257350534200668335e-02 2.555477991700172424e-02
-4.727830886840820312e-01 6.661104410886764526e-02 -5.309428647160530090e-02
-7.082859873771667480e-01 2.484261430799961090e-02 -7.891857624053955078e-02
-8.808483928442001343e-02 1.802060753107070923e-02 -5.619215965270996094e-01
9.181213974952697754e-01 4.274710267782211304e-02 -3.001448325812816620e-02
3.388523161411285400e-01 -3.362796083092689514e-02 2.830135226249694824e-01
4.098431766033172607e-02 -4.468430951237678528e-02 1.046481952071189880e-01
-9.171801805496215820e-02 3.461820259690284729e-02 -5.973385572433471680e-01
8.478887081146240234e-01 -5.835445970296859741e-02 4.108072072267532349e-02
3.023376166820526123e-01 -7.722604274749755859e-02 3.765664994716644287e-02
9.971627593040466309e-02 -3.273927047848701477e-02 -2.104185819625854492e-01
3.888541758060455322e-01 7.981070876121520996e-02 -3.505910560488700867e-02
-7.994028925895690918e-01 1.080135479569435120e-01 -3.249231958761811256e-03
-4.208183381706476212e-03 -3.736568987369537354e-02 -8.296995609998703003e-02
2.718085050582885742e-01 -2.487175725400447845e-02 -7.959815859794616699e-02
4.322170317173004150e-01 -3.143238276243209839e-02 7.004155963659286499e-02
2.664240598678588867e-01 -3.106644935905933380e-02 1.418424844741821289e-01
-7.994028925895690918e-01 1.080135479569435120e-01 -3.249231958761811256e-03
5.836604908108711243e-02 -1.852023042738437653e-02 9.853191673755645752e-02
1.676487773656845093e-01 -1.507002953439950943e-02 -2.624330818653106689e-01
-5.974871516227722168e-01 -4.792541638016700745e-02 -1.474992651492357254e-02
3.045593202114105225e-01 -1.009593009948730469e-01 -3.045412898063659668e-01
2.138086035847663879e-02 8.281656354665756226e-02 -2.891669422388076782e-02
2.030395567417144775e-01 6.159255653619766235e-02 -5.970718711614608765e-02
-4.210820049047470093e-02 2.565289102494716644e-02 7.555666565895080566e-02
9.341439008712768555e-01 5.343704950064420700e-03 -4.799738898873329163e-02
-7.416902780532836914e-01 1.914719790220260620e-01 4.330771043896675110e-03
-5.593517422676086426e-02 -4.667129367589950562e-03 3.576895892620086670e-01
1.026960015296936035e-01 -2.076809853315353394e-02 5.752148851752281189e-02
1.760390549898147583e-01 -8.378668129444122314e-02 2.322850376367568970e-02
-4.989732801914215088e-01 4.120496287941932678e-02 6.724479794502258301e-02
-7.457416653633117676e-01 2.338154613971710205e-01 1.272632041946053505e-03
-7.945411801338195801e-01 1.691501885652542114e-01 -6.568750366568565369e-03
-1.067734733223915100e-01 3.148164972662925720e-02 -6.620560884475708008e-01
-4.009557887911796570e-02 -3.124989802017807961e-03 -8.111415803432464600e-02
-6.268923878669738770e-01 4.695530980825424194e-02 4.886982589960098267e-02
-8.712821602821350098e-01 5.960607156157493591e-02 -2.400590032339096069e-01
1.544229984283447266e-01 8.671112358570098877e-02 -2.020748797804117203e-03
-5.353048071265220642e-02 7.547180354595184326e-02 -4.391986876726150513e-02
-7.556217908859252930e-01 2.290840446949005127e-02 1.188463624566793442e-02
-2.664501667022705078e-01 7.633435726165771484e-02 3.854534029960632324e-02
-5.018482729792594910e-02 -8.091195486485958099e-03 3.229784071445465088e-01
4.380721226334571838e-02 -3.791459277272224426e-02 1.652359366416931152e-01
-3.986034169793128967e-02 1.033605448901653290e-02 4.024900496006011963e-01
2.239760607481002808e-01 -7.074383646249771118e-02 -7.251477986574172974e-02
6.698109507560729980e-01 1.527572632767260075e-03 7.814431935548782349e-02
-8.337742090225219727e-01 4.128338024020195007e-02 -7.755940407514572144e-02
5.268102288246154785e-01 7.097607851028442383e-02 4.581168666481971741e-02
-6.813638806343078613e-01 3.304992616176605225e-02 -6.564050167798995972e-02
8.551812171936035156e-01 -4.099886119365692139e-02 -2.255990402773022652e-03
-1.092304438352584839e-01 1.237481273710727692e-02 4.849029779434204102e-01
8.866251707077026367e-01 -6.115122139453887939e-02 1.282560173422098160e-02
8.262464404106140137e-01 -3.242561966180801392e-02 6.431735306978225708e-02
1.281543523073196411e-01 6.384644075296819210e-05 -2.163518816232681274e-01
5.646579861640930176e-01 2.377096004784107208e-02 -7.978112250566482544e-02
-1.162876710295677185e-01 2.426757849752902985e-02 6.030987501144409180e-01
-4.257868975400924683e-02 -4.123410955071449280e-02 2.182698249816894531e-01
3.487063050270080566e-01 8.122215420007705688e-02 2.853450551629066467e-02
-8.646431565284729004e-01 3.262392282485961914e-01 2.271142875542864203e-04
1.737911999225616455e-01 -1.078339852392673492e-02 -1.007176190614700317e-01
2.396851591765880585e-02 -3.328817337751388550e-02 -6.731332838535308838e-02
3.087936937808990479e-01 -4.086817800998687744e-02 -2.717382013797760010e-01
2.503753900527954102e-01 -1.201706975698471069e-01 -2.829774916172027588e-01
-2.657183110713958740e-01 -8.744644932448863983e-03 7.668059319257736206e-02
-3.871813118457794189e-01 5.317570175975561142e-03 -8.195057511329650879e-02
-7.707033753395080566e-01 1.527355611324310303e-01 4.173943307250738144e-03
-7.351819276809692383e-01 2.063440158963203430e-02 3.347457572817802429e-02
-7.028489559888839722e-02 8.271156810224056244e-03 -4.826713800430297852e-01
-8.174902796745300293e-01 4.196296632289886475e-02 -7.494560629129409790e-02
7.615812420845031738e-01 1.224412582814693451e-02 -8.038230240345001221e-02
-7.410368323326110840e-01 4.460289701819419861e-02 1.228663399815559387e-01
7.715920209884643555e-01 5.769800767302513123e-02 5.637141689658164978e-02
-4.453643858432769775e-01 -5.856356397271156311e-02 -4.870311170816421509e-02
1.436018794775009155e-01 -2.855720743536949158e-02 -2.327403724193572998e-01
-2.391619421541690826e-02 -3.833279386162757874e-02 -1.316910833120346069e-01
-1.663418412208557129e-01 -1.036519743502140045e-02 7.644535601139068604e-02
3.191704452037811279e-01 -7.602370530366897583e-02 -2.149404436349868774e-01
1.134387031197547913e-01 -2.500244043767452240e-02 -2.594533562660217285e-01
-8.483592271804809570e-01 5.231359228491783142e-02 1.680065691471099854e-01
-1.047347113490104675e-01 6.841456145048141479e-02 4.860844835638999939e-02
-7.506294250488281250e-01 2.497330121695995331e-02 6.544128060340881348e-02
3.382511436939239502e-01 -1.241698041558265686e-01 2.649521827697753906e-01
3.287369012832641602e-01 -1.127213761210441589e-01 2.137740850448608398e-01
-1.905455738306045532e-01 -1.122775301337242126e-02 7.634080201387405396e-02
7.799564301967620850e-02 -2.936748415231704712e-02 -2.234614044427871704e-01
-2.862102538347244263e-02 -1.940891891717910767e-02 2.343707978725433350e-01
2.630261480808258057e-01 -4.779473319649696350e-02 1.176648959517478943e-01
3.707144558429718018e-01 5.082330666482448578e-03 7.832728326320648193e-02
1.620554737746715546e-02 -2.330347523093223572e-02 -1.450475752353668213e-01
2.117696404457092285e-01 -1.149953901767730713e-01 -2.817490100860595703e-01
2.306412309408187866e-01 -3.305293247103691101e-02 1.812584996223449707e-01
-4.529443681240081787e-01 8.001980930566787720e-02 3.054712899029254913e-02
6.603751182556152344e-01 -7.139729708433151245e-02 -3.228848427534103394e-02
-2.276875972747802734e-01 3.357220673933625221e-03 7.840570062398910522e-02
-7.054892182350158691e-01 2.996565215289592743e-02 9.317363053560256958e-02
-7.576605081558227539e-01 9.060567617416381836e-02 -7.222199346870183945e-03
-2.038756944239139557e-02 2.019005641341209412e-02 5.600495338439941406e-01
-1.201822385191917419e-01 2.267316542565822601e-02 5.696160793304443359e-01
-4.947650730609893799e-01 -6.060231849551200867e-02 -3.610462695360183716e-02
-1.549456864595413208e-01 4.515179619193077087e-02 -7.013937234878540039e-01
2.597850263118743896e-01 -7.584074139595031738e-02 -6.158911809325218201e-02
6.861212104558944702e-02 -3.305293247103691101e-02 2.178254872560501099e-01
2.822924172505736351e-03 -5.529674235731363297e-03 -8.108802139759063721e-02
-1.291998177766799927e-01 -4.633100703358650208e-02 -6.720877438783645630e-02
-6.895186752080917358e-02 1.971957832574844360e-02 -5.797215700149536133e-01
2.090774327516555786e-01 -1.457340549677610397e-02 -2.408431321382522583e-01
-2.114559262990951538e-01 -3.009933792054653168e-02 -7.426602393388748169e-02
-3.476320533081889153e-03 8.548263460397720337e-02 -1.545565202832221985e-02
-7.124419212341308594e-01 2.181060984730720520e-02 5.950796976685523987e-02
-4.376536607742309570e-01 -1.635078527033329010e-02 7.422363013029098511e-02
3.423809409141540527e-01 -4.962438344955444336e-02 -2.205601036548614502e-01
-1.942048817873001099e-01 1.200888119637966156e-02 -8.137553930282592773e-02
-7.722977995872497559e-01 3.832978755235671997e-02 2.403877861797809601e-02
3.888541758060455322e-01 7.981070876121520996e-02 -3.505910560488700867e-02
-1.871476471424102783e-01 4.452448710799217224e-02 -7.214676141738891602e-01
9.106197357177734375e-01 6.284672766923904419e-03 -5.586490780115127563e-02
1.177253201603889465e-01 -1.128002163022756577e-02 -1.168708652257919312e-01
5.048282742500305176e-01 -6.070687621831893921e-02 -5.053276941180229187e-02
-6.268923878669738770e-01 4.695530980825424194e-02 4.886982589960098267e-02
-7.945911958813667297e-03 8.192744106054306030e-03 4.906533062458038330e-01
-2.378550171852111816e-02 -8.378668129444122314e-02 -3.529435023665428162e-02
-4.690976142883300781e-01 -5.704756081104278564e-02 -4.729166626930236816e-02
3.287369012832641602e-01 -1.127213761210441589e-01 2.137740850448608398e-01
-6.163849234580993652e-01 5.722752213478088379e-02 4.379906505346298218e-02
-8.495092988014221191e-01 9.238259866833686829e-03 4.356909077614545822e-03
5.659648776054382324e-01 1.028377562761306763e-02 -8.153236657381057739e-02
3.472425937652587891e-01 -7.453384250402450562e-02 2.257505245506763458e-02
4.452860355377197266e-01 8.511670678853988647e-02 1.583146676421165466e-02
8.301933407783508301e-01 -6.645722687244415283e-02 3.386664763092994690e-02
2.514209151268005371e-01 -1.148912683129310608e-02 -2.513505816459655762e-01
-1.580822467803955078e-01 -7.340992242097854614e-02 -2.703476138412952423e-02
6.143200993537902832e-01 -6.209217756986618042e-02 4.513210430741310120e-02
-3.637355864048004150e-01 6.044249236583709717e-02 5.733852088451385498e-02
3.287369012832641602e-01 -1.127213761210441589e-01 2.137740850448608398e-01
-1.804563105106353760e-01 3.485344350337982178e-02 7.262922078371047974e-02
1.295658051967620850e-01 -6.047162786126136780e-02 8.627322316169738770e-02
4.438225179910659790e-02 -1.682126335799694061e-02 3.057012557983398438e-01
-7.945911958813667297e-03 8.192744106054306030e-03 4.906533062458038330e-01
-1.633621156215667725e-01 4.251186177134513855e-02 7.469881176948547363e-01
-7.976515889167785645e-01 3.540234267711639404e-02 -1.272214949131011963e-01
-8.083420395851135254e-01 2.656776309013366699e-01 -5.863026715815067291e-03
-5.043838620185852051e-01 -4.026699811220169067e-02 -5.902759730815887451e-02
-2.114557288587093353e-02 6.261193752288818359e-02 -5.858325213193893433e-02
-7.904113531112670898e-01 2.306527644395828247e-01 -6.908543873578310013e-03
-5.449758470058441162e-02 1.127702277153730392e-02 -4.139024317264556885e-01
2.878049314022064209e-01 -5.430307984352111816e-02 -9.138637036085128784e-02
1.640678942203521729e-01 -4.327332135289907455e-03 1.720840632915496826e-01
-8.217245936393737793e-01 1.865319162607192993e-01 -4.137922078371047974e-03
-1.092042922973632812e-01 2.826668135821819305e-02 6.406589746475219727e-01
6.463915109634399414e-02 -2.785192802548408508e-03 -2.172405719757080078e-01
2.182520553469657898e-02 1.919638714753091335e-03 4.448596537113189697e-01
2.812444977462291718e-02 -3.830665722489356995e-02 1.554603576660156250e-01
6.321723461151123047e-01 -7.097908109426498413e-02 -3.333400189876556396e-02
-2.651432752609252930e-01 -5.111425369977951050e-02 -6.111863628029823303e-02
-7.817859053611755371e-01 1.597928106784820557e-01 3.677322529256343842e-03
2.246295064687728882e-01 -2.894927375018596649e-02 -1.998065710067749023e-01
-2.953562419861555099e-03 -3.396775946021080017e-02 -9.614348411560058594e-02
2.130765467882156372e-01 -1.823272183537483215e-02 2.159696817398071289e-01
-2.281839959323406219e-02 -3.600652143359184265e-02 1.139271631836891174e-01
-7.744672298431396484e-01 9.533664584159851074e-02 -4.582267254590988159e-03
-1.095177326351404190e-02 -3.770548850297927856e-02 8.227412402629852295e-02
-5.338674783706665039e-01 7.335463166236877441e-02 -1.299868430942296982e-02
7.565104365348815918e-01 -7.604983448982238770e-02 -1.968999765813350677e-02
-1.709421128034591675e-01 3.961054980754852295e-02 6.771736741065979004e-01
2.841717302799224854e-01 6.261193752288818359e-02 5.495996773242950439e-02
1.795154213905334473e-01 -6.577762961387634277e-02 -2.287935316562652588e-01
-6.257945895195007324e-01 1.046678945422172546e-01 4.958081524819135666e-03
9.409661591053009033e-02 -1.438516676425933838e-01 -1.236144527792930603e-01
-6.969159245491027832e-01 1.603412814438343048e-02 -4.446876421570777893e-02
-2.393973767757415771e-01 3.208282217383384705e-02 -7.714119553565979004e-02
-1.865987330675125122e-01 4.904634505510330200e-02 7.936443090438842773e-01
2.266944050788879395e-01 -8.378668129444122314e-02 -1.407033950090408325e-02
-3.257571458816528320e-01 6.075614690780639648e-02 5.699872970581054688e-02
-8.019120693206787109e-01 5.152945220470428467e-02 2.193414717912673950e-01
-6.703859567642211914e-01 9.350698441267013550e-02 -1.177020184695720673e-02
9.652744978666305542e-02 8.430642634630203247e-02 2.223526127636432648e-02
-4.803892076015472412e-01 -4.575597122311592102e-02 5.456789955496788025e-02
-2.208917289972305298e-01 7.698780298233032227e-02 -4.083559289574623108e-02
8.758562803268432617e-01 -6.039321422576904297e-02 3.203698992729187012e-02
2.941302955150604248e-01 -8.096378296613693237e-02 9.427670389413833618e-03
-5.974871516227722168e-01 -4.792541638016700745e-02 -1.474992651492357254e-02
-3.372578322887420654e-01 -3.579741716384887695e-02 -7.170449942350387573e-02
-3.639185428619384766e-01 -2.393126720562577248e-03 7.756929099559783936e-02
-8.612975478172302246e-01 4.779172688722610474e-02 1.543886959552764893e-01
-1.976289600133895874e-01 2.881557866930961609e-02 7.456342130899429321e-02
5.907197948545217514e-03 -2.583886124193668365e-02 7.746473699808120728e-02
3.732236921787261963e-01 8.435870707035064697e-02 2.210457436740398407e-02
1.343492697924375534e-02 -1.859864220023155212e-02 1.710124164819717407e-01
9.728544205427169800e-02 -8.378668129444122314e-02 1.306084450334310532e-02
-1.805608719587326050e-01 -6.151715293526649475e-02 4.586395993828773499e-02
3.685972690582275391e-01 -1.705651357769966125e-02 -7.912767678499221802e-02
8.575861901044845581e-02 -7.437701523303985596e-02 -1.536992192268371582e-01
6.693929433822631836e-02 -8.378668129444122314e-02 -5.565580725669860840e-02
5.325344800949096680e-01 -5.116651952266693115e-02 -6.106636300683021545e-02
-3.905008435249328613e-01 8.639746904373168945e-02 -5.497095175087451935e-03
5.635342746973037720e-02 -7.782721519470214844e-02 1.179262697696685791e-01
3.432173132896423340e-01 2.157537080347537994e-02 7.686355710029602051e-02
3.078527152538299561e-01 -4.821293428540229797e-02 -8.545306324958801270e-02
5.419964194297790527e-01 4.026399925351142883e-02 -7.452739775180816650e-02
9.694565832614898682e-02 -1.238299980759620667e-01 -1.474784016609191895e-01
2.015496939420700073e-01 -3.922148048877716064e-02 -1.757335364818572998e-01
-4.856427386403083801e-02 -4.170505795627832413e-03 3.709154129028320312e-01
5.389905571937561035e-01 8.660657703876495361e-02 -3.740584070328623056e-04
4.493374228477478027e-01 -7.712150365114212036e-02 -1.344302948564291000e-02
-2.657183110713958740e-01 -8.744644932448863983e-03 7.668059319257736206e-02
-4.200367033481597900e-01 3.874799981713294983e-02 -7.468422502279281616e-02
-2.042941302061080933e-01 4.734738171100616455e-02 7.486086487770080566e-01
2.558906935155391693e-02 1.877860911190509796e-02 4.243413507938385010e-01
-4.247676730155944824e-01 8.668498694896697998e-02 -2.177576534450054169e-03
5.268102288246154785e-01 7.097607851028442383e-02 4.581168666481971741e-02
1.382697373628616333e-01 -5.809307470917701721e-02 9.756481647491455078e-02
6.019570678472518921e-02 -6.564694643020629883e-02 8.846881240606307983e-02
2.640978097915649414e-01 -6.729363650083541870e-02 5.929886549711227417e-02
6.704384833574295044e-02 -3.595424070954322815e-02 -1.868944168090820312e-01
1.206266283988952637e-01 -6.154328584671020508e-02 8.020922541618347168e-02
-7.907250523567199707e-01 3.414772078394889832e-02 1.188149601221084595e-01
-5.400098562240600586e-01 -9.816791862249374390e-04 -7.058057188987731934e-02
1.123670339584350586e-01 7.053173333406448364e-02 4.630830511450767517e-02
9.375681728124618530e-02 -9.607200510799884796e-03 1.387320607900619507e-01
3.297824561595916748e-01 -4.146935045719146729e-02 2.083112597465515137e-01
3.155372738838195801e-01 5.152945220470428467e-02 6.392528116703033447e-02
2.528846263885498047e-01 -4.029314219951629639e-02 1.445085555315017700e-01
4.512977302074432373e-01 -2.680645091459155083e-03 7.754314690828323364e-02
-2.788916230201721191e-02 -8.378668129444122314e-02 4.275354743003845215e-02
-4.174226894974708557e-02 -1.844224520027637482e-03 7.764770090579986572e-02
-4.944775700569152832e-01 8.532580733299255371e-02 -1.728530600666999817e-02
5.227613728493452072e-03 -2.212726697325706482e-02 -2.442933470010757446e-01
6.984061002731323242e-02 -2.753782644867897034e-02 2.294568717479705811e-01
-6.393340229988098145e-01 6.974759697914123535e-02 9.976566769182682037e-03
-1.250700354576110840e-01 4.005489498376846313e-02 -7.460581511259078979e-02
1.343492697924375534e-02 -1.859864220023155212e-02 1.710124164819717407e-01
-6.784363985061645508e-01 5.581607669591903687e-02 -3.751607611775398254e-02
3.983424603939056396e-02 -1.142896562814712524e-01 -1.396631598472595215e-01
-8.781825900077819824e-01 6.216759234666824341e-02 2.602996230125427246e-01
-9.171801805496215820e-02 3.461820259690284729e-02 -5.973385572433471680e-01
2.462978661060333252e-01 -7.986597716808319092e-02 -5.965491011738777161e-02
8.758562803268432617e-01 -6.039321422576904297e-02 3.203698992729187012e-02
4.837610423564910889e-01 8.605767041444778442e-02 5.585392005741596222e-03
2.423248887062072754e-01 5.897876620292663574e-02 5.893293395638465881e-02
4.084315299987792969e-01 8.571788668632507324e-02 -1.294640824198722839e-02
-8.377208560705184937e-02 2.654158137738704681e-02 -5.290662050247192383e-01
6.143200993537902832e-01 -6.209217756986618042e-02 4.513210430741310120e-02
-3.201895579695701599e-02 -7.610212266445159912e-02 6.248769164085388184e-02
8.425827622413635254e-01 -1.338669806718826294e-01 7.336634676903486252e-03
3.420673012733459473e-01 8.613608777523040771e-02 4.618288949131965637e-03
2.467422038316726685e-01 -4.256714507937431335e-02 -8.100961148738861084e-02
-1.887681931257247925e-01 4.669393226504325867e-02 7.810981273651123047e-01
1.382697373628616333e-01 -5.809307470917701721e-02 9.756481647491455078e-02
2.339607477188110352e-01 -1.608940027654170990e-02 -1.452828049659729004e-01
2.626863420009613037e-01 -3.888169303536415100e-02 1.111304014921188354e-01
-8.612449467182159424e-02 3.067137487232685089e-02 5.596052408218383789e-01
2.391622066497802734e-01 -1.849409565329551697e-02 5.676348507404327393e-02
-8.348197340965270996e-01 5.952765792608261108e-02 2.507070004940032959e-01
-3.986034169793128967e-02 1.033605448901653290e-02 4.024900496006011963e-01
7.308168411254882812e-01 -1.671671681106090546e-02 -7.891857624053955078e-02
-7.124419212341308594e-01 2.181060984730720520e-02 5.950796976685523987e-02
6.498415470123291016e-01 -3.255631029605865479e-02 -7.316822558641433716e-02
-2.022030949592590332e-01 -1.556664332747459412e-02 7.571349292993545532e-02
-2.777678668498992920e-01 6.169711425900459290e-02 -8.558427691459655762e-01
-6.822525858879089355e-01 1.324263811111450195e-01 -9.287096560001373291e-03
-2.328888326883316040e-02 -6.488893926143646240e-02 7.320424914360046387e-02
-1.117658242583274841e-01 2.620178274810314178e-02 -6.253061294555664062e-01
-4.081700742244720459e-01 -7.636351138353347778e-02 1.418477576225996017e-02
2.096263170242309570e-01 -1.146033108234405518e-01 -2.284276187419891357e-01
1.340878754854202271e-02 3.953213617205619812e-02 -7.476264238357543945e-02
-4.947650730609893799e-01 -6.060231849551200867e-02 -3.610462695360183716e-02
1.177253201603889465e-01 -1.128002163022756577e-02 -1.168708652257919312e-01
-1.468950137495994568e-02 -2.136926911771297455e-02 -2.374974936246871948e-01
8.284420967102050781e-01 -5.877266079187393188e-02 -4.770987108349800110e-02
-5.481124669313430786e-02 -4.980782046914100647e-03 3.306891322135925293e-01
-6.900939345359802246e-01 -2.735485509037971497e-02 -1.407033950090408325e-02
-5.593517422676086426e-02 -4.667129367589950562e-03 3.576895892620086670e-01
2.158996276557445526e-02 1.692281663417816162e-02 -4.751436412334442139e-01
1.737650632858276367e-01 -4.170505795627832413e-03 1.948763579130172729e-01
3.314814269542694092e-01 -1.158579215407371521e-01 -2.443717569112777710e-01
-7.909341454505920410e-01 1.278261095285415649e-01 1.507873530499637127e-03
3.329976275563240051e-02 -2.970727160573005676e-02 7.025066018104553223e-02
-7.870657444000244141e-01 2.024499326944351196e-01 -7.169923279434442520e-03
1.090213879942893982e-01 -7.960461825132369995e-02 6.204334646463394165e-02
-1.430529356002807617e-01 -4.829134792089462280e-02 5.969093739986419678e-02
3.282928094267845154e-02 -1.101864781230688095e-02 -3.547784388065338135e-01
-4.921251535415649414e-01 8.621449768543243408e-02 3.964840434491634369e-03
3.044809401035308838e-01 -7.997053861618041992e-02 1.949547827243804932e-01
6.057729721069335938e-01 6.133118271827697754e-02 -5.999470502138137817e-02
8.667864799499511719e-01 -1.225231140851974487e-01 -1.498516835272312164e-02
3.881486877799034119e-02 -3.250403329730033875e-02 -1.962779462337493896e-01
-8.721708655357360840e-01 5.051007121801376343e-02 -1.747925579547882080e-01
6.510964035987854004e-02 1.349874678999185562e-02 -3.852813839912414551e-01
7.708081603050231934e-02 3.260558098554611206e-02 -7.698436081409454346e-02
-2.854260616004467010e-02 -4.591279849410057068e-02 8.967115730047225952e-02
