8.003895282745361328e-01 -8.555396646261215210e-02 1.479509565979242325e-02
-6.673717498779296875e-02 -7.246086746454238892e-02 -2.174954116344451904e-01
-2.632906734943389893e-01 -8.423121273517608643e-02 -1.148079242557287216e-02
-2.091919332742691040e-01 -2.668339293450117111e-03 1.171634420752525330e-01
-6.514653563499450684e-01 2.190400660037994385e-01 6.965610384941101074e-02
6.617461442947387695e-01 -1.659452449530363083e-03 -6.365143507719039917e-02
6.215367466211318970e-02 -6.053358316421508789e-02 -3.404002189636230469e-01
-3.098339736461639404e-01 -1.457319781184196472e-02 -6.432402133941650391e-02
-1.515733301639556885e-01 -5.203652009367942810e-02 6.015859246253967285e-01
-3.146990239620208740e-01 4.627386480569839478e-02 3.311198949813842773e-02
-1.031019166111946106e-01 -4.529170691967010498e-03 6.275083124637603760e-02
9.087663292884826660e-01 -4.661095142364501953e-02 -4.358580708503723145e-02
-3.565342128276824951e-01 4.490626230835914612e-02 -2.681586705148220062e-02
-6.551197767257690430e-01 2.192194312810897827e-01 -3.618730604648590088e-02
-3.621167242527008057e-01 1.506564300507307053e-02 1.083749234676361084e-01
1.785235106945037842e-02 -7.073454558849334717e-02 -2.794634699821472168e-01
-1.976233571767807007e-01 1.063138172030448914e-01 2.105019241571426392e-02
8.295575380325317383e-01 -7.936612516641616821e-02 -2.482051402330398560e-02
3.398216366767883301e-01 5.261864140629768372e-02 3.118389658629894257e-02
1.581772416830062866e-01 -6.903064250946044922e-02 -1.917351931333541870e-01
-1.684553325176239014e-01 -6.387411803007125854e-02 4.488233104348182678e-02
9.203349351882934570e-01 -6.943420320749282837e-02 -2.300451695919036865e-02
7.482080906629562378e-02 -1.127266436815261841e-01 -1.356410831212997437e-01
7.482080906629562378e-02 -1.127266436815261841e-01 -1.356410831212997437e-01
4.816486835479736328e-01 -5.842613428831100464e-02 4.860399663448333740e-02
-6.185532212257385254e-01 2.195332944393157959e-01 -5.896571651101112366e-02
-5.617192983627319336e-01 -1.161379925906658173e-02 9.593725204467773438e-03
-3.679009974002838135e-01 -9.102790616452693939e-03 -1.141405925154685974e-01
3.472201526165008545e-01 4.071378335356712341e-02 -4.598471149802207947e-02
1.469117309898138046e-02 -7.304377108812332153e-02 1.991971284151077271e-01
-6.319826245307922363e-01 2.165963202714920044e-01 1.111549660563468933e-01
7.745844125747680664e-01 -1.986424997448921204e-02 -6.342723965644836426e-02
7.118881493806838989e-02 -4.049037024378776550e-02 -6.134220585227012634e-02
1.510477960109710693e-01 -3.995229303836822510e-02 1.525417268276214600e-01
-7.460764646530151367e-01 2.154753357172012329e-01 -1.134231686592102051e-01
5.239098072052001953e-01 5.555562302470207214e-02 2.506331913173198700e-02
6.617461442947387695e-01 -1.659452449530363083e-03 -6.365143507719039917e-02
-1.450267732143402100e-01 -5.925566330552101135e-02 -5.051401257514953613e-01
-6.114462614059448242e-01 8.922646753489971161e-03 -6.503619719296693802e-03
-1.091552451252937317e-01 -5.842613428831100464e-02 5.082750916481018066e-01
7.052851915359497070e-01 -3.685837611556053162e-02 -6.051267683506011963e-02
-5.990929603576660156e-01 2.201610505580902100e-01 -1.908107101917266846e-02
4.114641994237899780e-02 -4.598319903016090393e-02 -3.335621953010559082e-01
8.437043428421020508e-01 -8.290843665599822998e-02 -1.470923051238059998e-02
-1.228088364005088806e-01 -6.703529506921768188e-02 3.669861555099487305e-01
4.561126232147216797e-01 5.586949735879898071e-02 2.443556673824787140e-02
-2.345485985279083252e-01 -2.002118341624736786e-02 9.705297648906707764e-02
-5.711132287979125977e-01 7.252733409404754639e-02 3.742182860150933266e-03
-6.148315668106079102e-01 2.181432694196701050e-01 8.279404044151306152e-02
4.691988695412874222e-03 -5.347137525677680969e-02 2.865667045116424561e-01
-7.030531167984008789e-01 2.129643261432647705e-01 -1.342510581016540527e-01
-6.443359255790710449e-01 2.125159353017807007e-01 -1.290496885776519775e-01
7.461903244256973267e-02 -1.329492181539535522e-01 9.330888837575912476e-02
7.221447825431823730e-01 -5.381119437515735626e-03 -6.407741457223892212e-02
-4.384557902812957764e-01 -6.233068648725748062e-03 4.443393275141716003e-02
-2.575288116931915283e-01 -5.919192451983690262e-03 6.290777027606964111e-02
-7.042862176895141602e-01 2.176724523305892944e-01 -1.854128390550613403e-01
1.068137213587760925e-01 -4.584868252277374268e-02 1.395831406116485596e-01
-4.429505020380020142e-02 -6.847015023231506348e-02 2.205406576395034790e-01
-6.616888046264648438e-01 2.032341808080673218e-01 -1.105481758713722229e-02
4.822764396667480469e-01 3.766470029950141907e-02 4.676558449864387512e-02
-2.530448734760284424e-01 7.170349708758294582e-04 -8.109395205974578857e-02
4.977800324559211731e-02 -5.643077567219734192e-02 -8.078007400035858154e-02
-1.126303002238273621e-01 -6.526414304971694946e-02 3.996740579605102539e-01
-6.873368620872497559e-01 2.183226495981216431e-01 1.132175847887992859e-01
-7.094875574111938477e-01 2.164169549942016602e-01 -7.255204766988754272e-02
-2.240561991930007935e-01 6.140716373920440674e-02 6.948199588805437088e-03
3.907816410064697266e-01 -8.515041321516036987e-02 -1.370034366846084595e-02
-3.098115622997283936e-01 8.989905007183551788e-03 -1.205302104353904724e-01
-4.342069476842880249e-02 -6.324636936187744141e-02 4.220040738582611084e-01
-6.207056045532226562e-01 2.104309052228927612e-01 -6.291158497333526611e-02
-7.382744550704956055e-01 2.146009653806686401e-01 -1.362464278936386108e-01
8.486591577529907227e-01 4.990585520863533020e-02 2.134164795279502869e-02
-3.265814781188964844e-01 2.322641573846340179e-02 9.947430342435836792e-02
2.852413058280944824e-02 -5.578060820698738098e-02 -1.689343452453613281e-01
5.109288096427917480e-01 -8.402942866086959839e-02 -1.329678762704133987e-02
1.429991126060485840e-01 -4.116296395659446716e-02 -1.824758350849151611e-01
7.743602395057678223e-01 5.598159506916999817e-02 2.261956967413425446e-02
-2.510271072387695312e-01 -4.591593891382217407e-02 -5.721698328852653503e-02
-2.862368524074554443e-02 -8.893934637308120728e-02 -2.538100443780422211e-02
-2.078467607498168945e-01 1.022110208868980408e-01 -3.521799808368086815e-03
-7.067523598670959473e-01 2.179190814495086670e-01 1.368031054735183716e-01
-3.847381770610809326e-01 -2.021724212681874633e-04 -8.147508651018142700e-02
2.170289754867553711e-01 -2.748694270849227905e-02 -6.300126761198043823e-02
-3.859712779521942139e-01 1.838022144511342049e-03 1.118275597691535950e-01
-6.383341737091541290e-03 -6.824596226215362549e-02 3.326391577720642090e-01
1.066343635320663452e-01 5.479335412383079529e-02 2.667753584682941437e-02
-8.521100878715515137e-02 -6.396379321813583374e-02 4.142917096614837646e-01
1.530879735946655273e-01 -4.078182950615882874e-02 -9.685500711202621460e-02
-3.852089941501617432e-01 4.313510656356811523e-02 1.636447384953498840e-02
-2.899701297283172607e-01 -5.208135396242141724e-02 -5.291240289807319641e-02
2.708926610648632050e-02 -4.813548922538757324e-02 -3.894096910953521729e-01
-7.206301689147949219e-01 2.372897118330001831e-01 2.895491779781877995e-04
5.775941535830497742e-02 -3.652208298444747925e-02 -6.188027933239936829e-02
9.909120798110961914e-01 -4.066973179578781128e-02 1.262038387358188629e-02
-2.295041680335998535e-01 -8.541944622993469238e-02 2.329741837456822395e-03
-7.460764646530151367e-01 2.154753357172012329e-01 -1.134231686592102051e-01
-3.379106055945158005e-03 -5.658771842718124390e-02 -4.333747029304504395e-01
6.742230802774429321e-02 -4.918921738862991333e-02 2.166396528482437134e-01
-1.507886499166488647e-01 -6.037664040923118591e-02 4.530777931213378906e-01
-8.267758041620254517e-02 -6.270828843116760254e-02 -4.363789558410644531e-01
-4.344311356544494629e-02 2.945909090340137482e-02 -5.349531024694442749e-02
-6.033303141593933105e-01 2.187934517860412598e-01 6.432020664215087891e-02
5.534589886665344238e-01 6.019650027155876160e-02 -1.556117925792932510e-02
-5.366988778114318848e-01 1.753216534852981567e-01 -9.306082502007484436e-03
1.102887764573097229e-01 -8.559879660606384277e-02 -5.501985177397727966e-02
-1.535238176584243774e-01 -5.421122908592224121e-02 -5.255368351936340332e-02
-4.059696197509765625e-01 1.452757045626640320e-02 9.449712187051773071e-02
-7.796612381935119629e-01 2.191073298454284668e-01 -2.490493701770901680e-03
2.752977609634399414e-01 -7.237118482589721680e-02 5.716832354664802551e-02
1.340984851121902466e-01 -7.483734190464019775e-02 -1.241622045636177063e-01
1.214762032032012939e-01 -7.219181954860687256e-02 1.923366785049438477e-01
2.220285534858703613e-01 -7.183311879634857178e-02 8.691927045583724976e-02
3.175256773829460144e-02 -7.136230170726776123e-02 -2.596220374107360840e-01
7.187145948410034180e-01 4.557885974645614624e-02 -4.049188643693923950e-02
-2.685593068599700928e-01 -9.685705415904521942e-03 8.117982745170593262e-02
4.648230969905853271e-02 5.385172367095947266e-02 2.865046821534633636e-02
-4.682847484946250916e-02 -6.734917312860488892e-02 -2.486588060855865479e-01
-4.101621210575103760e-01 1.089557912200689316e-02 -8.595903217792510986e-02
1.171043664216995239e-01 1.860443153418600559e-03 6.198856234550476074e-02
-1.559784077107906342e-02 -7.508396357297897339e-02 -1.295877695083618164e-01
2.201004624366760254e-01 -3.430253267288208008e-02 9.319678694009780884e-02
7.837989330291748047e-01 -3.282283619046211243e-02 -6.120768934488296509e-02
8.711909651756286621e-01 -4.880807548761367798e-02 -5.055832862854003906e-02
-3.423939691856503487e-03 -5.264184623956680298e-02 -3.098869919776916504e-01
3.380056619644165039e-01 6.012924015522003174e-02 1.466057635843753815e-02
-6.764857769012451172e-01 2.128970772027969360e-01 -6.338240206241607666e-02
1.870762258768081665e-01 -2.739726752042770386e-02 6.176436692476272583e-02
-1.548241525888442993e-01 5.277558043599128723e-02 -3.244321048259735107e-02
-7.067299485206604004e-01 2.139283716678619385e-01 -8.665403723716735840e-02
1.331120282411575317e-01 -7.241602241992950439e-02 5.853592604398727417e-02
9.726400971412658691e-01 -4.439495503902435303e-03 -9.933834895491600037e-03
-5.001099705696105957e-01 5.806306842714548111e-03 -3.020124137401580811e-02
-8.814798295497894287e-02 -4.784402996301651001e-02 -5.547549724578857422e-01
-2.966511845588684082e-01 -6.109407544136047363e-02 4.488233104348182678e-02
1.452410817146301270e-01 4.504078254103660583e-02 3.988273814320564270e-02
2.701636552810668945e-01 6.237120926380157471e-02 -2.036842197412624955e-04
-4.101621210575103760e-01 1.089557912200689316e-02 -8.595903217792510986e-02
-1.548241525888442993e-01 5.277558043599128723e-02 -3.244321048259735107e-02
-1.429417133331298828e-01 -5.831403285264968872e-02 5.150682330131530762e-01
-3.773396909236907959e-01 1.043857261538505554e-01 -2.080738730728626251e-02
7.745844125747680664e-01 -1.986424997448921204e-02 -6.342723965644836426e-02
-8.092883974313735962e-02 -5.909872055053710938e-02 -4.922039806842803955e-01
9.001123309135437012e-01 -7.896257936954498291e-02 -2.737110247835516930e-03
-6.685043573379516602e-01 2.115070521831512451e-01 1.281491070985794067e-01
-2.604541927576065063e-02 -7.228150218725204468e-02 2.349565327167510986e-01
5.282708257436752319e-02 -5.096037313342094421e-02 2.170880287885665894e-01
9.428110718727111816e-02 -9.456669539213180542e-02 1.309964060783386230e-01
5.049543082714080811e-02 -4.510882869362831116e-02 -6.073687598109245300e-02
1.231468189507722855e-02 -5.587028339505195618e-02 2.244192808866500854e-01
-2.359386384487152100e-01 -1.425932161509990692e-02 -8.900811523199081421e-02
-3.644931912422180176e-01 -6.591786164790391922e-03 -6.073687598109245300e-02
1.825698763132095337e-01 -4.959277063608169556e-02 1.822926700115203857e-01
6.781573295593261719e-01 3.782163932919502258e-02 -4.791280627250671387e-02
-1.048506572842597961e-01 -5.968162789940834045e-02 -3.983999490737915039e-01
1.447254419326782227e-01 -6.941177695989608765e-02 -2.036848813295364380e-01
7.464145123958587646e-02 -7.098116725683212280e-02 -2.598237991333007812e-01
-2.966735959053039551e-01 1.233079433441162109e-01 8.091604337096214294e-03
-7.302258014678955078e-01 2.138835340738296509e-01 -1.561551094055175781e-01
7.180572487413883209e-03 4.822437837719917297e-02 3.627316281199455261e-02
-4.157446324825286865e-01 -5.773112177848815918e-02 1.306877844035625458e-02
6.343159824609756470e-02 3.661097586154937744e-02 4.748301580548286438e-02
4.373473525047302246e-01 3.972731158137321472e-02 -4.665730521082878113e-02
-1.404979974031448364e-01 -5.376283451914787292e-02 4.883664250373840332e-01
-5.813814401626586914e-01 -1.147927809506654739e-02 1.353959087282419205e-02
-4.402045309543609619e-01 8.176425099372863770e-02 1.075954828411340714e-02
-2.947230935096740723e-01 1.262189727276563644e-02 5.914125964045524597e-02
-4.483653008937835693e-01 2.308836439624428749e-03 -4.250966012477874756e-02
-6.978517770767211914e-01 2.164618074893951416e-01 3.595928847789764404e-02
5.002121925354003906e-01 2.365238964557647705e-02 -5.681342631578445435e-02
-6.839514970779418945e-01 2.117760926485061646e-01 9.055652655661106110e-03
7.431295514106750488e-01 5.181153491139411926e-02 3.221520036458969116e-02
7.118881493806838989e-02 -4.049037024378776550e-02 -6.134220585227012634e-02
1.234042942523956299e-01 5.062328651547431946e-02 -3.479728102684020996e-02
-6.915850192308425903e-02 -7.111568003892898560e-02 2.712988853454589844e-01
-2.685593068599700928e-01 -9.685705415904521942e-03 8.117982745170593262e-02
-6.545592546463012695e-01 2.191521674394607544e-01 -4.466195032000541687e-02
-1.454303115606307983e-01 -6.477090716361999512e-02 4.396312311291694641e-02
-4.624448418617248535e-01 -1.674790866672992706e-02 3.871691226959228516e-02
2.120742052793502808e-01 3.205622779205441475e-03 -6.309094280004501343e-02
-1.336599737405776978e-01 -4.515367001295089722e-02 -6.033160090446472168e-01
2.509499788284301758e-01 -4.686108790338039398e-03 -6.398773193359375000e-02
2.042048871517181396e-01 -8.952226489782333374e-02 3.382942080497741699e-02
-3.806237876415252686e-02 -4.966002702713012695e-02 3.985082209110260010e-01
8.202981948852539062e-01 -8.176503330469131470e-02 5.513338837772607803e-03
8.659114688634872437e-02 -7.972484827041625977e-02 1.099443063139915466e-01
8.413503170013427734e-01 -2.894422225654125214e-02 -5.896571651101112366e-02
-3.830791413784027100e-01 -1.022377796471118927e-02 -1.100826263427734375e-01
-7.645727396011352539e-01 2.154304981231689453e-01 1.687511652708053589e-01
1.585699431598186493e-02 -7.705689966678619385e-02 6.701057404279708862e-02
-1.658098250627517700e-01 -5.270910635590553284e-02 -5.936530828475952148e-01
-1.828712075948715210e-01 6.149684265255928040e-02 7.822568528354167938e-03
5.143706128001213074e-02 -5.479413643479347229e-02 -1.043431833386421204e-01
-4.772642850875854492e-01 1.397415846586227417e-01 6.701583042740821838e-03
-6.306150555610656738e-01 2.192866802215576172e-01 7.528345286846160889e-02
6.514329910278320312e-01 -8.557638525962829590e-02 -3.095825435593724251e-03
-5.885332822799682617e-01 1.728779077529907227e-01 -1.190676633268594742e-02
-2.147296071052551270e-01 7.136151194572448730e-02 -1.919316872954368591e-02
5.692988634109497070e-02 -5.434574559330940247e-02 9.120143204927444458e-02
-1.379197239875793457e-01 -4.636433348059654236e-02 5.754221081733703613e-01
-1.128769218921661377e-01 -5.037745460867881775e-02 4.780757725238800049e-01
5.802845209836959839e-02 -7.519606500864028931e-02 1.186879873275756836e-01
-2.678527124226093292e-02 -6.382928043603897095e-02 2.343736290931701660e-01
1.446357518434524536e-01 -4.683514311909675598e-02 -2.251629531383514404e-01
1.907306611537933350e-01 -3.694805875420570374e-02 -1.291842162609100342e-01
-1.881398409605026245e-01 9.122537076473236084e-02 -1.240000128746032715e-02
4.740708172321319580e-01 -4.008682072162628174e-02 5.808753147721290588e-02
-3.382505476474761963e-02 5.017489567399024963e-02 -3.535777330398559570e-02
9.206936359405517578e-01 -6.542107462882995605e-02 2.616188302636146545e-02
2.614763751626014709e-02 -7.053276151418685913e-02 -2.840370833873748779e-01
-4.618171155452728271e-01 1.453913599252700806e-01 4.437193274497985840e-03
9.206936359405517578e-01 -6.542107462882995605e-02 2.616188302636146545e-02
1.803727596998214722e-01 -9.537380188703536987e-02 -2.871628385037183762e-03
-6.909912824630737305e-01 2.183002084493637085e-01 8.153854310512542725e-02
2.042048871517181396e-01 -8.952226489782333374e-02 3.382942080497741699e-02
-2.862368524074554443e-02 -8.893934637308120728e-02 -2.538100443780422211e-02
1.733105480670928955e-01 -7.479251176118850708e-02 -1.050830334424972534e-01
-3.685172274708747864e-02 -4.921163618564605713e-02 -4.037134349346160889e-01
-3.235548138618469238e-01 -7.840207219123840332e-02 3.568082465790212154e-04
-3.088250756263732910e-01 1.800262369215488434e-02 -8.418787270784378052e-02
-1.085499227046966553e-01 -6.398621946573257446e-02 -4.401006102561950684e-01
9.547491073608398438e-01 -5.972647294402122498e-02 -2.172659523785114288e-02
2.186880111694335938e-01 6.185555458068847656e-02 -4.597945138812065125e-03
-6.614645719528198242e-01 2.189952284097671509e-01 5.618185922503471375e-02
6.412993073463439941e-01 -1.124929403886198997e-04 -6.347207725048065186e-02
-2.153797894716262817e-01 1.013330928981304169e-02 -6.205963715910911560e-02
-5.843856334686279297e-01 1.631701886653900146e-01 -1.190676633268594742e-02
-2.073759436607360840e-01 1.815956272184848785e-02 -1.198351979255676270e-01
8.594097942113876343e-02 -7.391814142465591431e-02 -1.096118092536926270e-01
1.032041460275650024e-01 -6.855983287096023560e-02 -2.602049410343170166e-01
3.594837188720703125e-01 7.868922315537929535e-03 6.120387092232704163e-02
-6.726071834564208984e-01 2.188607156276702881e-01 5.459006130695343018e-02
-1.411257237195968628e-01 -5.667739361524581909e-02 5.352908372879028320e-01
-6.924037337303161621e-01 2.181656956672668457e-01 -1.294756680727005005e-01
-2.902840077877044678e-01 -1.755501702427864075e-02 6.272841244935989380e-02
4.978581070899963379e-01 -3.223991766571998596e-02 -6.214931607246398926e-02
-9.456002712249755859e-02 3.540031239390373230e-02 -4.954944178462028503e-02
-3.471627831459045410e-01 1.815601252019405365e-03 7.618023455142974854e-02
2.380586415529251099e-01 5.829082801938056946e-02 -2.065044827759265900e-02
-7.692360877990722656e-01 2.002747803926467896e-01 -5.623994511552155018e-04
4.650472477078437805e-02 -1.490949466824531555e-02 -6.445854902267456055e-02
-5.763477832078933716e-02 -7.804337143898010254e-02 -4.863023757934570312e-02
4.185596704483032227e-01 3.477256000041961670e-02 -4.995299875736236572e-02
5.403658747673034668e-01 2.320399507880210876e-02 5.573346465826034546e-02
-1.976233571767807007e-01 1.063138172030448914e-01 2.105019241571426392e-02
6.284080147743225098e-01 -6.943420320749282837e-02 -4.011075198650360107e-02
-2.590981721878051758e-01 2.773277461528778076e-02 -1.040517315268516541e-01
1.845203936100006104e-01 -6.817869842052459717e-02 -5.954862758517265320e-02
1.054685413837432861e-01 -4.553480446338653564e-02 2.540132701396942139e-01
-7.335663437843322754e-01 2.137938588857650757e-01 1.828083097934722900e-01
2.065589576959609985e-01 -8.788562566041946411e-02 4.465813562273979187e-02
-4.676122218370437622e-02 -7.252812385559082031e-02 -1.551013886928558350e-01
5.658346414566040039e-01 -8.494862914085388184e-02 -7.265889551490545273e-03
1.288074404001235962e-01 -4.244088754057884216e-02 -1.997165977954864502e-01
-2.713841795921325684e-01 9.079584851861000061e-03 -8.060072362422943115e-02
-3.465125858783721924e-01 1.165147870779037476e-01 1.672318950295448303e-02
-3.087129890918731689e-01 -1.340737286955118179e-02 1.163563355803489685e-01
1.015226691961288452e-01 -6.954629719257354736e-02 2.481841593980789185e-01
-5.594100356101989746e-01 1.957235783338546753e-01 8.315801620483398438e-03
-6.909912824630737305e-01 2.183002084493637085e-01 8.153854310512542725e-02
-2.539524994790554047e-02 -6.757336854934692383e-02 -3.474848270416259766e-01
9.565651416778564453e-01 -6.252893060445785522e-02 1.667835004627704620e-02
-9.456002712249755859e-02 3.540031239390373230e-02 -4.954944178462028503e-02
-3.443603217601776123e-01 -7.521847635507583618e-02 -5.292956251651048660e-03
-1.091552451252937317e-01 -5.842613428831100464e-02 5.082750916481018066e-01
-3.088250756263732910e-01 1.800262369215488434e-02 -8.418787270784378052e-02
-1.238849908113479614e-01 -5.692401155829429626e-02 -5.311245918273925781e-01
-1.125406175851821899e-01 -4.589351639151573181e-02 5.831568837165832520e-01
-3.056639134883880615e-01 7.170349708758294582e-04 7.631475478410720825e-02
9.307043999433517456e-02 -4.564689844846725464e-02 2.414582520723342896e-01
3.273902833461761475e-02 -4.580384120345115662e-02 -3.497267961502075195e-01
-2.396827340126037598e-01 4.192088730633258820e-03 -1.253728717565536499e-01
7.383433729410171509e-02 -1.004854813218116760e-01 -9.685500711202621460e-02
5.821785926818847656e-01 -7.728110253810882568e-02 2.876256965100765228e-02
-3.189363777637481689e-01 -1.307107973843812943e-02 1.159752011299133301e-01
-6.836825013160705566e-01 2.366619557142257690e-01 7.486273068934679031e-03
-7.067299485206604004e-01 2.139283716678619385e-01 -8.665403723716735840e-02
7.147687077522277832e-01 3.874084725975990295e-02 4.607057198882102966e-02
1.151314228773117065e-01 -6.947904080152511597e-02 -2.355432808399200439e-01
-2.091470956802368164e-01 2.358513139188289642e-02 -8.934440463781356812e-02
-3.382505476474761963e-02 5.017489567399024963e-02 -3.535777330398559570e-02
-1.843284964561462402e-01 1.188912689685821533e-01 4.190577194094657898e-03
3.977881371974945068e-02 -8.963436633348464966e-02 3.595928847789764404e-02
3.699877485632896423e-02 -6.214779615402221680e-02 3.651477098464965820e-01
-2.849929332733154297e-01 -6.562285125255584717e-02 4.080194607377052307e-02
-1.786114573478698730e-01 -6.026455014944076538e-02 -5.008580088615417480e-01
-6.207056045532226562e-01 2.104309052228927612e-01 -6.291158497333526611e-02
7.776559591293334961e-01 5.111296195536851883e-03 6.100209057331085205e-02
-2.280244976282119751e-01 4.618418961763381958e-02 3.871691226959228516e-02
4.624729976058006287e-03 -5.842613428831100464e-02 -2.067115455865859985e-01
-3.996805101633071899e-02 -5.842613428831100464e-02 -3.111873567104339600e-01
-3.867111206054687500e-01 -1.096362620592117310e-02 -9.997134655714035034e-02
-7.311673760414123535e-01 2.137938588857650757e-01 -1.663336604833602905e-01
1.407894742442294955e-04 -7.400782406330108643e-02 -5.813619121909141541e-02
8.730069398880004883e-01 1.035750564187765121e-02 5.140646174550056458e-02
7.114397734403610229e-02 -5.212619528174400330e-02 -8.203557878732681274e-02
1.604640632867813110e-01 -4.055763036012649536e-02 6.322164833545684814e-02
3.308313786983489990e-01 -8.335684239864349365e-02 -3.919154405593872070e-02
-1.340070739388465881e-02 -6.577979028224945068e-02 1.403005719184875488e-01
7.035363912582397461e-01 -6.503994017839431763e-02 4.382860288023948669e-02
3.821949064731597900e-01 -2.520013414323329926e-02 -6.327030062675476074e-02
-4.539361968636512756e-02 -7.346974313259124756e-02 1.333280503749847412e-01
4.040765166282653809e-01 -7.546509802341461182e-02 3.205826506018638611e-02
-1.065097153186798096e-01 -5.445784330368041992e-02 5.533611178398132324e-01
-1.892159730195999146e-01 3.131992742419242859e-02 5.104774981737136841e-02
3.038496151566505432e-02 4.885213077068328857e-02 -3.681505471467971802e-02
-3.563100099563598633e-01 5.133716855198144913e-03 -7.116203010082244873e-02
6.198437213897705078e-01 -3.185878321528434753e-02 6.104693189263343811e-02
-6.692666411399841309e-01 1.616232097148895264e-01 1.791668939404189587e-03
-7.025822401046752930e-01 2.178966552019119263e-01 -1.512003690004348755e-01
-2.902840077877044678e-01 -1.755501702427864075e-02 6.272841244935989380e-02
1.261170804500579834e-01 -7.515122741460800171e-02 1.178808733820915222e-01
3.388243168592453003e-02 -5.340411514043807983e-02 2.130076587200164795e-01
-4.817482233047485352e-01 4.730161279439926147e-03 -3.452824428677558899e-02
2.279697805643081665e-01 -3.327123075723648071e-02 -7.344884425401687622e-02
-3.358184099197387695e-01 1.206140406429767609e-02 7.694250345230102539e-02
5.681778863072395325e-02 -5.217103660106658936e-02 1.440670788288116455e-01
-6.041482090950012207e-02 -5.750692263245582581e-02 4.962357282638549805e-01
3.566812872886657715e-01 -8.326715975999832153e-02 -3.237595409154891968e-02
4.477841034531593323e-02 6.228153407573699951e-02 -1.817902666516602039e-03
1.414297372102737427e-01 -4.129748046398162842e-02 6.010530516505241394e-02
2.194951325654983521e-01 -9.467878192663192749e-02 -6.750236731022596359e-03
1.558456122875213623e-01 -3.591104759834706783e-04 6.225759536027908325e-02
-4.476478695869445801e-01 7.212378084659576416e-02 1.046809274703264236e-02
5.313755869865417480e-01 -5.557883158326148987e-02 5.048725381493568420e-02
-7.044431567192077637e-01 2.179190814495086670e-01 -1.430171728134155273e-01
1.861346065998077393e-01 -7.577898353338241577e-02 -7.396449893712997437e-02
-1.076306998729705811e-01 -5.152085795998573303e-02 5.751979351043701172e-01
2.867318093776702881e-01 2.202837094955611974e-05 6.221275776624679565e-02
-5.820988416671752930e-01 1.980552226305007935e-01 9.907601401209831238e-03
1.070154979825019836e-01 -7.277473807334899902e-02 1.950270533561706543e-01
7.764900922775268555e-01 -7.835724204778671265e-02 2.638607844710350037e-02
-2.738503515720367432e-01 2.692566625773906708e-02 1.028596758842468262e-01
8.221366405487060547e-01 -1.063370406627655029e-01 -2.490493701770901680e-03
-4.817482233047485352e-01 4.730161279439926147e-03 -3.452824428677558899e-02
3.871944844722747803e-01 -5.508559569716453552e-02 5.082355067133903503e-02
-5.963577032089233398e-01 2.187037765979766846e-01 -5.824828520417213440e-02
-9.230643510818481445e-03 -7.598075270652770996e-02 -9.355931729078292847e-02
-7.307862639427185059e-01 2.159909904003143311e-01 9.629070758819580078e-02
-7.307862639427185059e-01 2.159909904003143311e-01 9.629070758819580078e-02
-6.557135283946990967e-02 -5.178990215063095093e-02 4.043822288513183594e-01
2.852413058280944824e-02 -5.578060820698738098e-02 -1.689343452453613281e-01
-3.324214369058609009e-02 -5.297813937067985535e-02 -3.509374856948852539e-01
6.219959855079650879e-01 -6.201327964663505554e-02 4.622751101851463318e-02
-4.770284518599510193e-02 -6.714739650487899780e-02 5.450038239359855652e-02
6.067397445440292358e-02 -5.472688004374504089e-02 7.149451971054077148e-02
-6.066483855247497559e-01 2.163048684597015381e-01 -8.315657079219818115e-02
-7.307862639427185059e-01 2.159909904003143311e-01 9.629070758819580078e-02
2.179821580648422241e-02 -5.678949505090713501e-02 1.731230020523071289e-01
7.726787924766540527e-01 5.804421007633209229e-02 -1.995543763041496277e-02
5.049543082714080811e-02 -4.510882869362831116e-02 -6.073687598109245300e-02
8.747107982635498047e-01 2.907795645296573639e-02 4.205744713544845581e-02
7.961862534284591675e-02 -8.810982108116149902e-02 4.645170643925666809e-02
-2.320600450038909912e-01 6.320074200630187988e-02 1.862886548042297363e-02
4.603391140699386597e-02 -9.053114801645278931e-02 -3.094109147787094116e-02
3.855578303337097168e-01 -3.995229303836822510e-02 5.815479159355163574e-02
4.514717757701873779e-01 6.042069569230079651e-02 1.284458022564649582e-02
2.535954713821411133e-01 -8.781835436820983887e-02 -4.555873945355415344e-02
-1.837455928325653076e-01 1.215108297765254974e-02 -6.096107140183448792e-02
-3.333970606327056885e-01 -2.134394645690917969e-02 -1.078854948282241821e-01
8.295575380325317383e-01 -7.936612516641616821e-02 -2.482051402330398560e-02
-2.958773076534271240e-02 -6.743884831666946411e-02 3.486468195915222168e-01
-2.899701297283172607e-01 -5.208135396242141724e-02 -5.291240289807319641e-02
-1.241424586623907089e-02 -5.033262073993682861e-02 4.478315711021423340e-01
-6.383341737091541290e-03 -6.824596226215362549e-02 3.326391577720642090e-01
7.180572487413883209e-03 4.822437837719917297e-02 3.627316281199455261e-02
1.604640632867813110e-01 -4.055763036012649536e-02 6.322164833545684814e-02
5.413523316383361816e-01 -8.463476598262786865e-02 7.979505695402622223e-03
-2.543676495552062988e-01 -3.815272066276520491e-04 1.228580474853515625e-01
4.432885944843292236e-01 -6.107165291905403137e-02 -4.809216409921646118e-02
-2.490990012884140015e-01 7.577463053166866302e-03 1.237099915742874146e-01
-4.101621210575103760e-01 1.089557912200689316e-02 -8.595903217792510986e-02
-5.523254275321960449e-01 1.383964121341705322e-01 -1.190676633268594742e-02
-2.966735959053039551e-01 1.233079433441162109e-01 8.091604337096214294e-03
7.548550963401794434e-01 -7.683270424604415894e-02 -3.094109147787094116e-02
3.318742290139198303e-02 -5.205893516540527344e-02 2.611203193664550781e-01
-5.560694932937622070e-01 2.459401637315750122e-02 2.352161565795540810e-03
6.308293342590332031e-01 4.456997290253639221e-02 -4.165771231055259705e-02
-3.302134871482849121e-01 3.156654164195060730e-02 -4.840603843331336975e-02
-5.523587018251419067e-02 5.811146646738052368e-02 1.990678533911705017e-02
-1.880501806735992432e-01 2.226236835122108459e-02 8.705379068851470947e-02
-4.457870423793792725e-01 2.127590216696262360e-02 3.113905712962150574e-02
-8.810315281152725220e-02 -3.575981408357620239e-02 -6.147672235965728760e-02
-4.806496500968933105e-01 2.797939255833625793e-02 5.670276936143636703e-03
-1.493761837482452393e-01 -2.562611177563667297e-02 6.196613982319831848e-02
7.383433729410171509e-02 -1.004854813218116760e-01 -9.685500711202621460e-02
3.818585872650146484e-01 -8.678705245256423950e-02 6.903360597789287567e-03
5.165337324142456055e-01 -8.288602530956268311e-02 1.714916341006755829e-02
3.032102584838867188e-01 -4.905469343066215515e-02 5.750462040305137634e-02
3.100931346416473389e-01 1.872005686163902283e-02 5.732526257634162903e-02
-6.957666873931884766e-01 2.126728743314743042e-01 1.825392842292785645e-01
-6.478782296180725098e-01 2.128746360540390015e-01 1.323191672563552856e-01
5.736815333366394043e-01 1.082831993699073792e-02 6.015014648437500000e-02
-8.514373749494552612e-02 -6.214779615402221680e-02 3.527047932147979736e-01
2.292925268411636353e-01 4.882971197366714478e-02 -3.681505471467971802e-02
-5.243008136749267578e-01 3.519853577017784119e-02 5.849634762853384018e-03
-8.391067385673522949e-02 -6.403104960918426514e-02 -3.371717631816864014e-01
-2.947230935096740723e-01 1.262189727276563644e-02 5.914125964045524597e-02
5.109288096427917480e-01 -8.402942866086959839e-02 -1.329678762704133987e-02
4.890363290905952454e-02 -9.389409422874450684e-02 -1.105481758713722229e-02
-3.880562782287597656e-01 -5.627737380564212799e-03 -5.582696199417114258e-02
-3.510861992835998535e-01 -1.327285543084144592e-02 7.656136900186538696e-02
-4.286019504070281982e-02 -6.073535978794097900e-02 2.986733317375183105e-01
-2.640305161476135254e-01 5.006279423832893372e-02 -3.558196872472763062e-02
3.865219056606292725e-01 -8.723545819520950317e-02 -2.423234516754746437e-03
-3.880222886800765991e-02 -6.988260149955749512e-02 -3.478435575962066650e-01
-4.019116759300231934e-01 -1.546998415142297745e-02 5.163065716624259949e-02
-1.906732618808746338e-01 9.353458881378173828e-02 2.111745066940784454e-02
8.262394070625305176e-01 5.521932616829872131e-02 1.535558700561523438e-02
-9.230643510818481445e-03 -7.598075270652770996e-02 -9.355931729078292847e-02
5.157157778739929199e-02 -8.766142278909683228e-02 -5.067043006420135498e-02
-3.160550445318222046e-02 5.885131657123565674e-02 1.833740808069705963e-02
-7.293289899826049805e-01 1.910378634929656982e-01 -2.019679872319102287e-03
-6.158180832862854004e-01 2.166187316179275513e-01 -1.062884554266929626e-02
5.265105366706848145e-01 3.055765852332115173e-02 -5.275546386837959290e-02
2.853573998436331749e-03 -6.732674688100814819e-02 -3.489196896553039551e-01
2.361305356025695801e-01 -6.452428549528121948e-02 5.826688930392265320e-02
-2.684023678302764893e-01 1.733003370463848114e-02 -8.349286019802093506e-02
7.715246081352233887e-02 -5.538057535886764526e-03 -6.409982591867446899e-02
-2.854189276695251465e-01 -6.268587708473205566e-02 -4.567083343863487244e-02
4.148379862308502197e-01 3.378609567880630493e-02 4.936626926064491272e-02
-7.434309720993041992e-01 2.159685641527175903e-01 1.413318663835525513e-01
1.089660078287124634e-01 2.367480844259262085e-02 -5.681342631578445435e-02
4.060834646224975586e-02 -5.235038697719573975e-02 2.224687784910202026e-01
9.213662147521972656e-01 2.632033452391624451e-02 2.791061997413635254e-02
-3.469942510128021240e-02 -6.577979028224945068e-02 -3.789172470569610596e-01
-6.649396419525146484e-01 2.270887345075607300e-01 9.078071452677249908e-03
1.015226691961288452e-01 -6.954629719257354736e-02 2.481841593980789185e-01
-4.643954038619995117e-01 -4.306863993406295776e-02 1.930145546793937683e-02
2.963947057723999023e-01 -8.736997097730636597e-02 3.589202836155891418e-02
-3.560185730457305908e-01 -5.833070608787238598e-04 -1.184003353118896484e-01
7.813552021980285645e-01 5.367236584424972534e-02 -2.771265432238578796e-02
-4.871173202991485596e-02 -5.019809678196907043e-02 4.080142080783843994e-01
1.273501664400100708e-01 -9.216778725385665894e-02 1.905483752489089966e-02
-3.847381770610809326e-01 -2.021724212681874633e-04 -8.147508651018142700e-02
-4.770284518599510193e-02 -4.948066920042037964e-02 -4.168065488338470459e-01
5.242460966110229492e-01 -8.436572551727294922e-02 9.773082099854946136e-03
2.557926177978515625e-01 -7.104841619729995728e-02 5.884980037808418274e-02
-2.513185739517211914e-01 3.439142554998397827e-02 -5.024445429444313049e-02
-1.602049171924591064e-01 -4.957035183906555176e-02 -5.538133382797241211e-01
-5.813814401626586914e-01 -1.147927809506654739e-02 1.353959087282419205e-02
-7.155408859252929688e-01 2.176724523305892944e-01 -1.785523891448974609e-01
-5.029572844505310059e-01 1.287559419870376587e-01 1.013179775327444077e-02
-6.509497165679931641e-01 2.185019999742507935e-01 -1.171224117279052734e-01
2.300888672471046448e-02 -7.723625004291534424e-02 -6.605034321546554565e-02
6.690665334463119507e-02 -7.542026042938232422e-02 1.111998111009597778e-01
-5.512376874685287476e-02 -7.452347874641418457e-02 5.129436030983924866e-02
-2.396154552698135376e-01 6.017408147454261780e-02 1.892031915485858917e-02
2.085767239332199097e-01 -3.537867963314056396e-02 1.077920123934745789e-01
-5.531773567199707031e-01 2.238040760857984424e-04 2.156584337353706360e-02
5.476674530655145645e-03 -7.221425324678421021e-02 -2.330995351076126099e-01
-1.091552451252937317e-01 -5.842613428831100464e-02 5.082750916481018066e-01
2.674508690834045410e-01 -5.708094686269760132e-02 5.855834484100341797e-02
7.897401452064514160e-01 4.367318004369735718e-02 3.927740454673767090e-02
-2.353333234786987305e-01 -5.530979111790657043e-02 -5.181383341550827026e-02
-3.471851944923400879e-01 -6.659044884145259857e-03 6.263872981071472168e-02
-6.725398898124694824e-01 2.132109403610229492e-01 -2.869912050664424896e-02
-7.128837704658508301e-02 -4.992906376719474792e-02 -5.757569521665573120e-02
-3.741220757365226746e-02 -7.044309377670288086e-02 2.953776419162750244e-01
-3.632600903511047363e-01 3.138364292681217194e-03 5.896190181374549866e-02
9.409610629081726074e-01 1.434466568753123283e-03 3.223761916160583496e-02
-6.825391054153442383e-01 2.180984467267990112e-01 -5.329353734850883484e-02
-1.644197851419448853e-01 -8.210133761167526245e-02 -1.986576057970523834e-02
-3.771378993988037109e-01 9.292925894260406494e-02 -2.118852175772190094e-02
7.704592347145080566e-01 -8.358102291822433472e-02 -1.618892885744571686e-02
1.979204127565026283e-03 -3.984020277857780457e-02 6.021740660071372986e-02
6.657035648822784424e-02 -6.259620189666748047e-02 -3.286298811435699463e-01
-4.118884503841400146e-01 1.047444492578506470e-01 6.253189407289028168e-03
6.198437213897705078e-01 -3.185878321528434753e-02 6.104693189263343811e-02
-2.742987573146820068e-01 2.800181135535240173e-02 5.293099954724311829e-02
2.208178937435150146e-01 -7.317829132080078125e-02 7.185322791337966919e-02
4.243439435958862305e-01 -7.689996808767318726e-02 2.959209680557250977e-02
2.623732201755046844e-02 -7.353700697422027588e-02 -1.798975765705108643e-01
8.858085870742797852e-01 -1.746534183621406555e-02 -5.423516035079956055e-02
7.596080899238586426e-01 5.066812410950660706e-02 3.349312394857406616e-02
8.712922781705856323e-02 -4.714902117848396301e-02 -6.046783924102783203e-02
-7.184886187314987183e-02 6.228153407573699951e-02 -2.333555603399872780e-03
-8.514373749494552612e-02 -6.214779615402221680e-02 3.527047932147979736e-01
3.580937087535858154e-01 4.613934829831123352e-02 -3.986413404345512390e-02
-2.181598246097564697e-01 -5.203652009367942810e-02 5.983126163482666016e-01
-5.824011564254760742e-02 -6.970323622226715088e-02 -2.363503724336624146e-01
7.544515132904052734e-01 -4.983938857913017273e-02 -5.555792152881622314e-02
-6.727524846792221069e-02 -6.131826713681221008e-02 5.320004001259803772e-02
-6.256378889083862305e-01 1.512653231620788574e-01 8.001925423741340637e-03
-4.031671881675720215e-01 -4.934615269303321838e-02 -3.508874028921127319e-02
6.772156953811645508e-01 -8.046469837427139282e-02 -2.338565327227115631e-02
-2.947230935096740723e-01 -2.235283330082893372e-02 -8.979280292987823486e-02
-3.021888434886932373e-01 6.052924320101737976e-03 -6.253045052289962769e-02
-3.512431681156158447e-01 -4.149925708770751953e-02 -5.616325512528419495e-02
-2.889612317085266113e-01 -2.448270656168460846e-02 9.442986547946929932e-02
-4.476478695869445801e-01 7.212378084659576416e-02 1.046809274703264236e-02
1.370354741811752319e-01 -8.844611048698425293e-02 -4.520002380013465881e-02
5.740402340888977051e-01 -7.988177984952926636e-02 2.338184043765068054e-02
-2.966511845588684082e-01 -6.109407544136047363e-02 4.488233104348182678e-02
-2.351987957954406738e-01 4.752582404762506485e-03 -5.984008684754371643e-02
-7.528696656227111816e-01 2.149820923805236816e-01 1.558822542428970337e-01
-1.982062906026840210e-01 -1.816390547901391983e-03 8.904913812875747681e-02
-5.001099705696105957e-01 5.806306842714548111e-03 -3.020124137401580811e-02
-9.444792568683624268e-02 -4.970486834645271301e-02 -4.687081277370452881e-01
1.651049405336380005e-01 -3.871921449899673462e-02 1.173428073525428772e-01
7.233330011367797852e-01 -1.948311552405357361e-02 -6.392047554254531860e-02
4.641504585742950439e-02 -7.122778147459030151e-02 2.598423957824707031e-01
-7.929220050573348999e-02 -4.605045542120933533e-02 -5.360345244407653809e-01
-2.899701297283172607e-01 -5.208135396242141724e-02 -5.291240289807319641e-02
3.462228551506996155e-02 -5.335927382111549377e-02 -2.121371030807495117e-01
6.558389216661453247e-02 -7.649639993906021118e-02 -8.968070149421691895e-02
1.331120282411575317e-01 -7.241602241992950439e-02 5.853592604398727417e-02
-6.351662874221801758e-01 1.270744651556015015e-01 -3.118245163932442665e-03
-5.959094166755676270e-01 2.194211930036544800e-01 4.855915904045104980e-02
1.581772416830062866e-01 -6.903064250946044922e-02 -1.917351931333541870e-01
8.176302313804626465e-01 -7.515122741460800171e-02 3.158744797110557556e-02
-6.848591566085815430e-02 5.335849523544311523e-02 -3.105318918824195862e-02
-7.511882185935974121e-01 2.164842188358306885e-01 1.831670403480529785e-01
-7.650435566902160645e-01 2.149372696876525879e-01 -1.973176896572113037e-01
-1.449927780777215958e-02 -5.905388668179512024e-02 -2.633436918258666992e-01
-5.726153254508972168e-01 2.189279645681381226e-01 -3.042543865740299225e-02
-2.584704458713531494e-01 -1.186041347682476044e-02 -6.479483842849731445e-02
8.800915479660034180e-01 2.679114602506160736e-02 -4.302531108260154724e-02
-3.424994647502899170e-01 -5.358702968806028366e-03 -1.182433962821960449e-01
1.733105480670928955e-01 -7.479251176118850708e-02 -1.050830334424972534e-01
-3.704568445682525635e-01 -7.824869826436042786e-03 1.127916052937507629e-01
-9.742975234985351562e-02 -6.537622958421707153e-02 3.407102525234222412e-01
7.233330011367797852e-01 -1.948311552405357361e-02 -6.392047554254531860e-02
-4.194099083542823792e-02 -8.358102291822433472e-02 -4.363064467906951904e-02
-3.632600903511047363e-01 3.138364292681217194e-03 5.896190181374549866e-02
-5.310599505901336670e-02 -8.976887911558151245e-02 1.295667793601751328e-02
3.818585872650146484e-01 -8.678705245256423950e-02 6.903360597789287567e-03
-2.497716099023818970e-01 4.208138212561607361e-02 -4.454985260963439941e-02
-3.795592486858367920e-01 1.755423098802566528e-02 -9.353689104318618774e-02
1.340984851121902466e-01 -7.483734190464019775e-02 -1.241622045636177063e-01
2.130382508039474487e-01 -4.288927838206291199e-02 -6.102832779288291931e-02
9.244269132614135742e-02 -6.627302616834640503e-02 2.837642431259155273e-01
4.221170209348201752e-03 -7.965757697820663452e-02 1.301444470882415771e-01
5.821785926818847656e-01 -7.728110253810882568e-02 2.876256965100765228e-02
-2.025557160377502441e-01 -4.013165459036827087e-02 5.804269388318061829e-02
-5.076653957366943359e-01 -4.349816124886274338e-03 -3.136706724762916565e-02
-5.196259170770645142e-02 -7.297652214765548706e-02 1.594469845294952393e-01
4.514717757701873779e-01 6.042069569230079651e-02 1.284458022564649582e-02
-2.218366414308547974e-01 4.205896332859992981e-02 4.333537071943283081e-02
2.275213748216629028e-01 1.488628890365362167e-02 -5.992976203560829163e-02
5.298401787877082825e-02 -7.362668961286544800e-02 1.734368801116943359e-01
-1.761677265167236328e-01 5.914277210831642151e-02 1.782175339758396149e-02
-3.189363777637481689e-01 -1.307107973843812943e-02 1.159752011299133301e-01
8.407225608825683594e-01 -5.874354857951402664e-03 -5.988492444157600403e-02
-2.396827340126037598e-01 4.192088730633258820e-03 -1.253728717565536499e-01
-3.481043875217437744e-01 -6.921000778675079346e-02 2.542203292250633240e-02
-2.684023678302764893e-01 -2.248734980821609497e-02 1.079041063785552979e-01
-3.025251328945159912e-01 -5.807096138596534729e-03 1.197417154908180237e-01
1.730863451957702637e-01 4.939020425081253052e-02 -3.618730604648590088e-02
-4.871173202991485596e-02 -5.019809678196907043e-02 4.080142080783843994e-01
-9.589361026883125305e-03 -4.575899615883827209e-02 -4.111119508743286133e-01
-6.652759313583374023e-01 2.118433415889739990e-01 9.534908086061477661e-02
-1.454303115606307983e-01 -6.477090716361999512e-02 4.396312311291694641e-02
-6.032513827085494995e-02 -7.308860868215560913e-02 -1.808616369962692261e-01
7.080768048763275146e-02 -7.250570505857467651e-02 2.117297351360321045e-01
2.280710265040397644e-02 4.430093243718147278e-02 -4.194916784763336182e-02
-2.153797894716262817e-01 1.013330928981304169e-02 -6.205963715910911560e-02
9.203349351882934570e-01 -6.943420320749282837e-02 -2.300451695919036865e-02
-8.514373749494552612e-02 -6.214779615402221680e-02 3.527047932147979736e-01
7.187145948410034180e-01 4.557885974645614624e-02 -4.049188643693923950e-02
-7.144423127174377441e-01 2.107671946287155151e-01 -7.714283652603626251e-03
-4.135807231068611145e-02 -7.867112755775451660e-02 5.006127804517745972e-02
-3.146990239620208740e-01 4.627386480569839478e-02 3.311198949813842773e-02
-2.235853821039199829e-01 -5.105004832148551941e-02 -6.117233633995056152e-01
-5.677726268768310547e-01 1.240253821015357971e-01 -1.190676633268594742e-02
-7.201369404792785645e-01 2.158340513706207275e-01 -2.820588834583759308e-02
-1.777819395065307617e-01 5.882889404892921448e-02 -1.970882341265678406e-02
9.477434307336807251e-02 -4.640917479991912842e-02 -2.788581550121307373e-01
7.513468712568283081e-02 -4.766467213630676270e-02 2.407856583595275879e-01
-7.057883143424987793e-01 2.175827920436859131e-01 9.902590513229370117e-02
3.633174896240234375e-01 6.062247231602668762e-02 1.145455893129110336e-02
4.819401204586029053e-01 4.687919840216636658e-02 3.779770806431770325e-02
-2.975704073905944824e-01 2.436981908977031708e-02 9.297258406877517700e-02
-2.260739803314208984e-01 -6.255489308387041092e-03 6.293018907308578491e-02
1.639167070388793945e-01 -3.919002413749694824e-02 1.036443635821342468e-01
1.109837815165519714e-01 -4.450349509716033936e-02 -2.389286607503890991e-01
-1.379197239875793457e-01 -6.093713268637657166e-02 -4.806974157691001892e-02
9.905649721622467041e-02 -7.288683950901031494e-02 -1.974297910928726196e-01
-2.900149524211883545e-01 8.384574204683303833e-03 6.586716324090957642e-02
-7.206301689147949219e-01 2.372897118330001831e-01 2.895491779781877995e-04
7.654712349176406860e-02 -4.423445835709571838e-02 5.974659323692321777e-02
4.038074612617492676e-01 1.952716521918773651e-02 5.703380703926086426e-02
-3.496289253234863281e-01 5.048877000808715820e-02 -1.547149941325187683e-02
1.585807949304580688e-01 -7.508396357297897339e-02 1.034425869584083557e-01
-9.352871775627136230e-02 -6.158731132745742798e-02 -5.132060125470161438e-02
-8.810315281152725220e-02 -3.575981408357620239e-02 -6.147672235965728760e-02
-2.772689983248710632e-02 -6.450187414884567261e-02 -4.001262784004211426e-01
8.918394446372985840e-01 -4.046795517206192017e-02 4.815560579299926758e-02
5.107046365737915039e-01 -4.174587503075599670e-02 5.750462040305137634e-02
-5.751935839653015137e-01 5.414317920804023743e-02 -3.830418281722813845e-04
3.319299221038818359e-01 -4.614013433456420898e-02 5.593524128198623657e-02
-4.446436166763305664e-01 1.514670997858047485e-01 -2.961307298392057419e-03
-5.994400382041931152e-02 -5.317992344498634338e-02 -3.790965974330902100e-01
-4.153743758797645569e-02 -5.777595564723014832e-02 4.754302203655242920e-01
2.361421287059783936e-02 -4.647643491625785828e-02 -3.467225730419158936e-01
5.923911556601524353e-02 -7.746045291423797607e-02 -7.096025347709655762e-02
2.489097863435745239e-01 -3.992987796664237976e-02 -6.143188476562500000e-02
6.298652887344360352e-01 1.475176680833101273e-02 -5.999702587723731995e-02
-6.306150555610656738e-01 2.192866802215576172e-01 7.528345286846160889e-02
2.104824185371398926e-01 -4.537786170840263367e-02 -1.447434872388839722e-01
7.562451362609863281e-01 4.369560256600379944e-02 4.138485714793205261e-02
-3.358184099197387695e-01 1.206140406429767609e-02 7.694250345230102539e-02
3.493276238441467285e-01 5.979294329881668091e-02 -1.751169189810752869e-02
7.965266704559326172e-03 6.068973243236541748e-02 1.098374649882316589e-02
5.038442015647888184e-01 -1.211055088788270950e-03 -6.360659748315811157e-02
6.296858787536621094e-01 -5.483897775411605835e-02 -5.223980545997619629e-02
8.107590675354003906e-02 -9.535138309001922607e-02 -9.591338038444519043e-02
3.845605626702308655e-02 2.035669237375259399e-02 -5.797925218939781189e-02
-2.593331784009933472e-02 -4.983938857913017273e-02 4.666641354560852051e-01
2.166926711797714233e-01 -3.878647461533546448e-02 -1.225479841232299805e-01
-7.581716030836105347e-02 -5.046714097261428833e-02 -4.366031289100646973e-01
-1.645767390727996826e-01 -5.367315188050270081e-02 -5.252282023429870605e-01
2.170289754867553711e-01 -2.748694270849227905e-02 -6.300126761198043823e-02
4.815590083599090576e-01 -8.530734479427337646e-02 3.495566314086318016e-03
1.371027380228042603e-01 -4.374122247099876404e-02 -6.046783924102783203e-02
-2.420700341463088989e-02 -4.898743331432342529e-02 -3.873470723628997803e-01
-8.713909983634948730e-02 -7.248328626155853271e-02 3.471446931362152100e-01
1.348383426666259766e-01 -1.793615147471427917e-02 6.286292523145675659e-02
-6.260190606117248535e-01 1.492475569248199463e-01 -8.835268206894397736e-03
8.562594056129455566e-01 3.972731158137321472e-02 3.593686968088150024e-02
4.118337333202362061e-01 -8.064404875040054321e-02 -2.304935827851295471e-02
9.365335851907730103e-02 4.811228439211845398e-02 3.640768676996231079e-02
1.635355502367019653e-01 2.788971364498138428e-02 -5.452661961317062378e-02
4.079327285289764404e-01 -1.372124906629323959e-02 6.333374232053756714e-02
-2.862368524074554443e-02 -8.893934637308120728e-02 -2.538100443780422211e-02
6.753996610641479492e-01 -8.550912886857986450e-02 2.172803739085793495e-03
