-7.817884087562561035e-01 -7.415779400616884232e-03 2.399802906438708305e-03
3.034030795097351074e-01 7.620960474014282227e-02 4.965920001268386841e-02
-1.717451959848403931e-02 1.611835695803165436e-02 -5.606449842453002930e-01
8.280463516712188721e-02 -4.943322762846946716e-02 -1.046505197882652283e-01
-8.318598866462707520e-01 9.652213752269744873e-02 -3.693413734436035156e-01
-7.743077278137207031e-01 1.205750107765197754e-01 3.983306698501110077e-03
7.530909180641174316e-01 3.684042394161224365e-02 -7.568331062793731689e-02
5.794241428375244141e-01 3.839662298560142517e-02 8.244865387678146362e-02
-7.411906719207763672e-01 4.112679883837699890e-02 -1.086365804076194763e-01
1.060930714011192322e-01 -6.043586134910583496e-02 9.052997827529907227e-02
2.200234383344650269e-01 -3.531821444630622864e-02 3.102274835109710693e-01
-7.963675856590270996e-01 2.531251907348632812e-01 5.457603372633457184e-03
2.996900379657745361e-01 -6.417620182037353516e-02 3.725574612617492676e-01
1.217369809746742249e-01 -1.765395142138004303e-02 -3.165397047996520996e-01
-2.878171503543853760e-01 -9.139608591794967651e-02 4.176898300647735596e-02
2.798143625259399414e-01 -9.562785923480987549e-02 -3.591850996017456055e-01
-7.246730327606201172e-01 2.559208869934082031e-02 3.409717977046966553e-02
1.116626337170600891e-01 -1.940126903355121613e-02 2.283221036195755005e-01
2.638154923915863037e-01 -1.153670698404312134e-01 3.672063350677490234e-01
3.108564913272857666e-01 4.202776029706001282e-02 -7.956016808748245239e-02
3.259270787239074707e-01 2.062315680086612701e-02 8.968362957239151001e-02
2.996900379657745361e-01 -6.417620182037353516e-02 3.725574612617492676e-01
4.611103236675262451e-02 2.436350658535957336e-02 6.070252060890197754e-01
-2.912844717502593994e-01 -4.099699109792709351e-02 9.194967150688171387e-02
-5.377650856971740723e-01 6.133012473583221436e-02 5.206175893545150757e-02
-1.149422228336334229e-01 4.361126944422721863e-02 7.145943045616149902e-01
5.151678249239921570e-02 4.378592129796743393e-03 -4.015847444534301758e-01
6.162815690040588379e-01 1.199579238891601562e-02 -9.176406264305114746e-02
2.885629981756210327e-02 -1.492377649992704391e-02 4.293452203273773193e-01
4.588048756122589111e-01 -1.437774207442998886e-02 -9.468535333871841431e-02
-3.458334803581237793e-01 -9.300688654184341431e-02 -2.326387725770473480e-02
-1.179727241396903992e-01 -4.997927322983741760e-02 9.003855288028717041e-02
-3.505293726921081543e-01 -3.570042923092842102e-02 -9.031707793474197388e-02
1.875463873147964478e-02 -4.112261813133955002e-03 -3.796068429946899414e-01
2.503284215927124023e-01 -1.366351544857025146e-01 -3.408110141754150391e-01
8.353785276412963867e-01 4.126330837607383728e-02 5.858688428997993469e-02
1.597683876752853394e-01 9.114368259906768799e-02 -1.297110505402088165e-02
-6.246818974614143372e-02 5.939169973134994507e-02 8.134540319442749023e-01
3.315512537956237793e-01 -1.100705042481422424e-01 2.771103978157043457e-01
-7.541589736938476562e-01 6.908383220434188843e-02 3.846797859296202660e-03
5.588507279753684998e-02 1.628217659890651703e-02 -5.616005659103393555e-01
5.329140275716781616e-02 -7.814461132511496544e-04 3.730489313602447510e-01
3.526282012462615967e-01 9.278178960084915161e-02 6.058242637664079666e-03
3.374211192131042480e-01 -5.377422645688056946e-02 -2.920773029327392578e-01
5.533782839775085449e-01 6.699242629110813141e-03 -9.342947602272033691e-02
-1.653686165809631348e-01 6.580761820077896118e-02 -6.066732853651046753e-02
-6.915712356567382812e-02 4.183664172887802124e-02 -7.107502222061157227e-01
-6.003832817077636719e-02 2.139846095815300941e-03 -4.789853692054748535e-01
1.043457537889480591e-01 -9.818335063755512238e-03 2.962216734886169434e-01
1.261052787303924561e-01 9.330052137374877930e-02 3.573779948055744171e-03
1.302278488874435425e-01 -5.586557090282440186e-03 3.120293915271759033e-01
7.574319243431091309e-01 -5.762378126382827759e-02 -7.988778501749038696e-02
2.130614668130874634e-01 -2.682735025882720947e-02 1.087129712104797363e-01
-6.881978511810302734e-01 4.519476741552352905e-02 -7.349917292594909668e-02
6.770674884319305420e-02 -1.014977395534515381e-01 6.216342002153396606e-02
6.792668700218200684e-01 -9.418086707592010498e-02 3.090287186205387115e-02
7.368463277816772461e-01 8.399061113595962524e-02 2.183867990970611572e-02
-8.314777016639709473e-01 7.429847866296768188e-02 2.632410824298858643e-01
1.929673552513122559e-01 -4.015062376856803894e-02 2.204318791627883911e-01
-1.364014297723770142e-01 6.531618535518646240e-02 8.479908704757690430e-01
2.098125517368316650e-01 -2.068444527685642242e-02 -1.707208454608917236e-01
-1.437456160783767700e-01 -6.900862604379653931e-02 -7.925985008478164673e-02
-2.618258595466613770e-01 9.259068220853805542e-02 6.877296138554811478e-03
-6.003832817077636719e-02 2.139846095815300941e-03 -4.789853692054748535e-01
9.258839488029479980e-01 -1.653458364307880402e-02 -5.198536440730094910e-02
1.424317359924316406e-01 -3.460836037993431091e-02 1.018056198954582214e-01
7.991065084934234619e-02 -3.580964356660842896e-02 1.008227616548538208e-01
8.127573132514953613e-02 1.098562683910131454e-02 4.287445843219757080e-01
1.679316163063049316e-01 -1.014977395534515381e-01 -5.766413360834121704e-02
3.526282012462615967e-01 9.278178960084915161e-02 6.058242637664079666e-03
8.280463516712188721e-02 -4.943322762846946716e-02 -1.046505197882652283e-01
2.159008532762527466e-01 -1.303284466266632080e-01 -2.879274189472198486e-01
8.556211739778518677e-02 -3.864901885390281677e-02 2.318440377712249756e-01
-7.923148572444915771e-02 5.270275846123695374e-02 7.743579149246215820e-01
-5.468565225601196289e-01 7.006669789552688599e-02 -7.237729150801897049e-03
8.446621359325945377e-04 -8.093950152397155762e-02 -1.006098464131355286e-01
3.445468842983245850e-01 -9.904059767723083496e-02 -2.954329177737236023e-02
5.703054070472717285e-01 -2.483431994915008545e-02 -9.452154487371444702e-02
2.291659126058220863e-03 4.268299788236618042e-02 6.623932719230651855e-01
-6.463443040847778320e-01 -4.157031327486038208e-02 -1.971464604139328003e-02
-4.058154821395874023e-01 5.625199154019355774e-02 6.909807771444320679e-02
-5.758783817291259766e-01 3.320927917957305908e-02 -5.329584702849388123e-02
3.917637839913368225e-02 -5.445676296949386597e-02 -1.220665406435728073e-02
8.369619846343994141e-01 8.200846612453460693e-03 7.537748664617538452e-02
-7.460776567459106445e-01 7.047622650861740112e-02 -2.075509727001190186e-01
-1.851230859756469727e-02 2.482763677835464478e-02 6.160348653793334961e-01
2.842372357845306396e-01 -4.446430504322052002e-02 -1.603734642267227173e-01
1.030352637171745300e-01 -6.815137807279825211e-03 4.270518422126770020e-01
6.219178810715675354e-02 9.272719174623489380e-02 6.249355617910623550e-03
4.441983997821807861e-01 -9.726597368717193604e-02 7.914764806628227234e-03
-3.348308503627777100e-01 -8.224997669458389282e-02 -5.788254737854003906e-02
2.204056531190872192e-01 8.928715437650680542e-02 2.216630056500434875e-02
-2.848958969116210938e-01 -9.652882069349288940e-02 -1.627462171018123627e-02
1.053679920732975006e-02 -1.631616614758968353e-02 3.293933272361755371e-01
-2.261970192193984985e-01 -2.431559190154075623e-02 -9.460344910621643066e-02
5.793270468711853027e-02 -5.041610449552536011e-02 -7.341726124286651611e-02
3.411032026633620262e-03 -7.825302891433238983e-03 4.211000800132751465e-01
2.240913957357406616e-01 -4.047824442386627197e-02 -3.601406514644622803e-01
-2.808825373649597168e-01 5.475039407610893250e-02 7.221048325300216675e-02
1.531886458396911621e-01 -1.112171933054924011e-01 2.904063761234283447e-01
1.687506735324859619e-01 -2.128508687019348145e-02 1.775407791137695312e-01
-8.031656742095947266e-01 7.459879666566848755e-02 -2.661679089069366455e-01
-5.959451794624328613e-01 -3.272454068064689636e-02 -5.864699929952621460e-02
-6.477913260459899902e-01 5.232053250074386597e-02 -4.251163825392723083e-02
2.478166520595550537e-01 -4.277159646153450012e-02 -2.005344033241271973e-01
4.067403674125671387e-01 -7.223021984100341797e-02 -9.383900463581085205e-02
-6.006683707237243652e-01 1.625378578901290894e-01 2.918536774814128876e-03
-1.086901202797889709e-01 6.971177458763122559e-02 -8.734416365623474121e-01
8.980907201766967773e-01 3.061561472713947296e-02 -4.021828994154930115e-02
3.715604543685913086e-02 -6.046315655112266541e-02 -3.478523343801498413e-02
-5.455733537673950195e-01 1.126301884651184082e-01 -3.005951642990112305e-03
2.141262441873550415e-01 -2.696386165916919708e-02 3.008356690406799316e-01
1.412577629089355469e-01 -1.005968004465103149e-01 -2.912036478519439697e-01
-6.716530323028564453e-01 3.075212612748146057e-02 5.836847424507141113e-02
1.060930714011192322e-01 -6.043586134910583496e-02 9.052997827529907227e-02
1.855412721633911133e-01 -3.130484372377395630e-02 6.961680948734283447e-02
-8.165708780288696289e-01 1.913685500621795654e-01 2.345199231058359146e-03
2.384521514177322388e-01 -2.750989794731140137e-02 -2.965249679982662201e-02
-8.507800698280334473e-01 3.429481089115142822e-01 5.129981786012649536e-03
-4.939183592796325684e-01 -2.194033563137054443e-02 -7.942365854978561401e-02
-7.166190743446350098e-01 4.683287069201469421e-02 -1.355015337467193604e-01
-3.723981082439422607e-01 -7.879909127950668335e-03 -9.192788600921630859e-02
2.440258249407634139e-04 -5.478438362479209900e-02 1.037440523505210876e-01
2.055807858705520630e-01 -1.221379116177558899e-01 2.791580259799957275e-01
-8.318598866462707520e-01 9.652213752269744873e-02 -3.693413734436035156e-01
7.912861704826354980e-01 -8.833828568458557129e-02 2.970159426331520081e-02
-1.195987407118082047e-02 2.455461397767066956e-02 -6.098700761795043945e-01
-1.043097767978906631e-02 -1.164755690842866898e-02 3.987399041652679443e-01
8.695451170206069946e-02 -1.716252230107784271e-02 2.640055418014526367e-01
1.817463189363479614e-01 -6.046315655112266541e-02 -8.384654670953750610e-02
-6.917197704315185547e-01 -3.171437606215476990e-02 -9.558381512761116028e-03
-2.561077103018760681e-02 -2.173836575821042061e-03 -9.400282055139541626e-02
-2.061029076576232910e-01 4.953574761748313904e-02 -7.483696192502975464e-02
5.326288938522338867e-01 -9.095925837755203247e-02 4.348899796605110168e-02
6.004465818405151367e-01 -3.307946026325225830e-02 -9.288344532251358032e-02
-7.562612295150756836e-01 1.635207235813140869e-01 -7.237729150801897049e-03
5.978922545909881592e-02 -5.003386735916137695e-02 -5.048376321792602539e-02
4.388745725154876709e-01 8.087820559740066528e-02 4.075881838798522949e-02
4.556652009487152100e-01 -7.470386102795600891e-03 9.492556750774383545e-02
4.422326982021331787e-01 -9.734788537025451660e-02 -6.445976905524730682e-03
5.978922545909881592e-02 -2.390605956315994263e-02 2.454403340816497803e-01
4.106020182371139526e-02 1.022117584943771362e-02 -4.393158555030822754e-01
-1.228870451450347900e-01 -9.778469800949096680e-02 -9.310154127888381481e-04
-9.315539896488189697e-02 7.236005365848541260e-02 8.721529841423034668e-01
2.401721477508544922e-01 -5.988981574773788452e-02 9.746463596820831299e-02
-5.671144723892211914e-01 6.973908096551895142e-02 -3.858018293976783752e-02
7.647062093019485474e-02 -3.810299560427665710e-02 2.360485196113586426e-01
4.103168845176696777e-01 3.086132928729057312e-02 8.643471449613571167e-02
8.818461298942565918e-01 -7.294007390737533569e-02 4.575504735112190247e-02
1.302126143127679825e-02 8.364656008780002594e-03 -4.459501802921295166e-01
5.223907232284545898e-01 -6.884479522705078125e-02 8.001879602670669556e-02
2.114233672618865967e-01 -4.703068360686302185e-02 -1.684274971485137939e-01
2.951852679252624512e-01 -6.963656842708587646e-02 -3.223277032375335693e-01
1.955610215663909912e-01 -4.162492975592613220e-02 -2.092436850070953369e-01
-6.862593889236450195e-01 3.831471875309944153e-02 4.217851161956787109e-02
-8.141683936119079590e-01 2.888632416725158691e-01 5.484905093908309937e-03
8.275002986192703247e-02 9.456725791096687317e-03 -4.186483919620513916e-01
-3.846991434693336487e-02 -1.230280473828315735e-02 3.946173489093780518e-01
4.646747708320617676e-01 1.232341118156909943e-02 9.227729588747024536e-02
-5.563029646873474121e-01 -3.004896454513072968e-02 -6.741087138652801514e-02
-7.506370544433593750e-01 4.451221972703933716e-02 -1.033127233386039734e-01
-7.458319664001464844e-01 2.208817899227142334e-01 -7.892971858382225037e-03
7.087528109550476074e-01 9.057034552097320557e-02 -4.644059110432863235e-03
4.102076888084411621e-01 8.822239190340042114e-02 2.686220593750476837e-02
-6.893991231918334961e-01 1.969489641487598419e-02 4.979570955038070679e-02
2.945573329925537109e-01 2.559208869934082031e-02 8.810012042522430420e-02
1.685049533843994141e-01 -3.299755230545997620e-02 1.318401098251342773e-02
2.491817325353622437e-01 -2.890228666365146637e-02 3.459655344486236572e-01
4.425603151321411133e-01 -9.429008513689041138e-02 -2.984360978007316589e-02
2.329371869564056396e-01 -1.014977395534515381e-01 3.376955911517143250e-02
-1.330160051584243774e-01 5.955550819635391235e-02 8.143004179000854492e-01
1.778694689273834229e-01 -3.201469779014587402e-02 5.867130123078823090e-03
2.850835919380187988e-01 -6.046315655112266541e-02 1.312940660864114761e-02
7.286012172698974609e-01 8.801477961242198944e-03 8.962901681661605835e-02
-6.802257895469665527e-01 6.220378354191780090e-02 2.233011089265346527e-02
2.222621738910675049e-01 -2.368764206767082214e-02 3.144865334033966064e-01
5.219266414642333984e-01 -5.486629903316497803e-02 8.769059181213378906e-02
-6.996646523475646973e-01 4.456682875752449036e-02 -7.584712654352188110e-02
6.501085162162780762e-01 8.958747237920761108e-02 -2.017877623438835144e-02
-2.759681940078735352e-01 -9.712945669889450073e-02 9.552871808409690857e-03
6.559783816337585449e-01 8.849540352821350098e-02 2.577013708651065826e-02
-6.194792985916137695e-01 4.527667164802551270e-02 -6.165019795298576355e-02
-7.665813565254211426e-01 4.819796234369277954e-02 1.404649466276168823e-01
-7.725330591201782227e-01 6.386919319629669189e-02 1.884341984987258911e-01
1.724364012479782104e-01 -5.120785161852836609e-02 -1.363478899002075195e-01
2.783127427101135254e-01 6.214918196201324463e-02 -6.454418599605560303e-02
8.132913112640380859e-01 -6.081807613372802734e-02 7.275651395320892334e-02
-6.629983782768249512e-01 1.625651568174362183e-01 -7.456142921000719070e-03
2.794048488140106201e-01 -1.043644323945045471e-01 -3.100964725017547607e-01
-6.104424595832824707e-01 1.561492383480072021e-01 -5.954544525593519211e-03
6.563180685043334961e-02 -4.885990545153617859e-02 4.731124639511108398e-02
-3.088001720607280731e-02 1.570883393287658691e-02 -6.018980145454406738e-01
2.076557129621505737e-01 -3.351629152894020081e-02 -2.703177928924560547e-01
6.996613144874572754e-01 -9.191481769084930420e-02 3.685466200113296509e-02
5.863588452339172363e-01 -3.870363906025886536e-02 9.241379797458648682e-02
1.037997156381607056e-01 -4.375447332859039307e-02 2.134153246879577637e-01
1.261052787303924561e-01 9.330052137374877930e-02 3.573779948055744171e-03
8.194069266319274902e-01 7.263306528329849243e-02 -1.370825245976448059e-02
-6.689107418060302734e-02 -9.592817723751068115e-02 2.410472556948661804e-02
6.486736238002777100e-02 -2.775561064481735229e-02 3.047125041484832764e-01
1.639455556869506836e-01 -6.029934808611869812e-02 3.070604801177978516e-01
1.827018857002258301e-01 -1.708061806857585907e-02 2.081460803747177124e-01
-2.561077103018760681e-02 -2.173836575821042061e-03 -9.400282055139541626e-02
5.233583971858024597e-02 7.474555750377476215e-04 -3.814633488655090332e-01
2.130614668130874634e-01 -2.682735025882720947e-02 1.087129712104797363e-01
3.757801353931427002e-01 6.722731143236160278e-02 -5.913842841982841492e-02
2.533436939120292664e-02 -3.627377375960350037e-02 2.254008203744888306e-01
4.890825450420379639e-01 -3.679250180721282959e-02 9.276872873306274414e-02
5.416930913925170898e-01 5.341260880231857300e-02 -7.240709662437438965e-02
2.196685224771499634e-01 -2.860196679830551147e-02 -3.918082267045974731e-02
3.041250072419643402e-02 -6.046315655112266541e-02 -1.526445429772138596e-02
-2.012158930301666260e-01 -9.248815476894378662e-02 3.748260438442230225e-02
1.775145530700683594e-01 -4.424590244889259338e-02 -2.889375984668731689e-01
3.250807225704193115e-01 -1.008151993155479431e-01 -7.033216208219528198e-02
2.263149060308933258e-02 -2.887498959898948669e-02 -2.573767304420471191e-01
-5.778440833091735840e-01 2.450000867247581482e-02 2.893714234232902527e-02
1.323300749063491821e-01 -2.570798248052597046e-02 9.495286643505096436e-02
3.814589083194732666e-01 8.964208513498306274e-02 -1.993305981159210205e-02
5.863588452339172363e-01 -3.870363906025886536e-02 9.241379797458648682e-02
-4.386322498321533203e-01 -3.769346326589584351e-02 -8.324591070413589478e-02
-1.481685042381286621e-01 -3.146866336464881897e-02 9.383349865674972534e-02
-6.339492797851562500e-01 7.219623774290084839e-02 5.921734031289815903e-03
-1.176450997591018677e-01 6.324125081300735474e-02 -6.339751183986663818e-02
7.163820415735244751e-02 -6.046315655112266541e-02 -4.087353125214576721e-02
4.073257744312286377e-02 -4.312651231884956360e-02 -1.504083126783370972e-01
1.024346202611923218e-01 -3.479946777224540710e-02 2.607566118240356445e-01
-3.169906884431838989e-02 3.168038651347160339e-02 8.616169542074203491e-02
1.745386421680450439e-01 -9.614660590887069702e-02 9.536240249872207642e-02
-6.778505444526672363e-01 -4.303379449993371964e-03 -5.029265210032463074e-02
3.153066635131835938e-01 -1.306287646293640137e-01 -3.407837152481079102e-01
-7.527119517326354980e-01 7.650992274284362793e-02 -2.387296110391616821e-01
3.020653128623962402e-01 6.659936904907226562e-02 -5.979367718100547791e-02
3.917637839913368225e-02 -5.445676296949386597e-02 -1.220665406435728073e-02
1.724091023206710815e-01 -6.046315655112266541e-02 -1.059584971517324448e-02
-6.778505444526672363e-01 -4.303379449993371964e-03 -5.029265210032463074e-02
-3.723162114620208740e-01 4.120870307087898254e-02 -7.876841723918914795e-02
1.784155219793319702e-01 -2.262288145720958710e-02 1.619241535663604736e-01
-1.398414671421051025e-01 -1.271232869476079941e-02 9.522589296102523804e-02
3.089180588722229004e-01 7.743818312883377075e-02 -4.668881371617317200e-02
1.706344932317733765e-01 -1.320211589336395264e-01 -3.289347290992736816e-01
3.224051296710968018e-01 -1.254414170980453491e-01 -2.905757129192352295e-01
-7.870849967002868652e-01 1.544838249683380127e-01 4.010608419775962830e-03
3.593990504741668701e-01 -5.675011500716209412e-02 -2.943408302962779999e-02
2.464515864849090576e-01 -1.065212786197662354e-01 2.660804688930511475e-01
5.326288938522338867e-01 -9.095925837755203247e-02 4.348899796605110168e-02
-7.071999311447143555e-01 3.708614036440849304e-02 -6.855503655970096588e-03
-6.977535486221313477e-01 1.766528934240341187e-01 -7.838368415832519531e-03
2.965230345726013184e-01 -2.860196679830551147e-02 7.545939087867736816e-02
1.848860383033752441e-01 -1.107422448694705963e-02 3.209297657012939453e-01
1.665938347578048706e-01 -5.750376731157302856e-03 -3.704880177974700928e-01
1.063114777207374573e-01 -1.518598757684230804e-03 -4.576899409294128418e-01
4.007733240723609924e-02 -3.007626160979270935e-02 -2.290647774934768677e-01
1.401384025812149048e-01 -5.300977826118469238e-02 3.350721001625061035e-01
3.361106514930725098e-01 -6.046315655112266541e-02 -3.669635951519012451e-02
2.244463115930557251e-01 -2.557147108018398285e-02 3.042756915092468262e-01
-1.674435734748840332e-01 2.747590653598308563e-02 8.749948441982269287e-02
6.812871694564819336e-01 2.720288373529911041e-02 -8.695895224809646606e-02
2.264355774968862534e-03 -3.362550213932991028e-02 -2.695533335208892822e-01
-7.303245663642883301e-01 2.368533164262771606e-01 5.812526680529117584e-03
8.291384577751159668e-02 -6.043586134910583496e-02 6.027959659695625305e-02
1.319205611944198608e-01 -1.945587433874607086e-02 2.135245352983474731e-01
4.040495678782463074e-02 4.912622272968292236e-02 7.570511102676391602e-02
4.691249430179595947e-01 5.920058488845825195e-02 6.836092472076416016e-02
-8.270274996757507324e-01 7.877596467733383179e-02 -2.772797346115112305e-01
2.965776324272155762e-01 -7.588866353034973145e-02 3.751511573791503906e-01
5.045626759529113770e-01 5.497970152646303177e-03 9.421572089195251465e-02
-4.930720329284667969e-01 8.093281090259552002e-02 3.158541768789291382e-02
1.239757388830184937e-01 -6.046315655112266541e-02 4.583945963531732559e-03
7.352203130722045898e-02 -5.149735137820243835e-03 3.377749621868133545e-01
-5.092892646789550781e-01 8.177916705608367920e-02 -2.648548968136310577e-02
-1.164984256029129028e-01 7.317910343408584595e-02 -5.274981260299682617e-02
5.449966192245483398e-01 7.276957482099533081e-02 -5.318664014339447021e-02
4.206915795803070068e-01 -7.766329497098922729e-02 -7.579252123832702637e-02
8.291384577751159668e-02 -6.043586134910583496e-02 6.027959659695625305e-02
2.658631503582000732e-01 -2.647243440151214600e-02 9.885702282190322876e-02
6.874421238899230957e-02 5.988313257694244385e-02 -6.700135022401809692e-02
9.339772164821624756e-02 -7.580677419900894165e-02 1.051637381315231323e-01
-2.076630014926195145e-03 -2.240446582436561584e-02 -4.263201951980590820e-01
3.358649313449859619e-01 -1.224928274750709534e-01 -3.424217700958251953e-01
1.347872465848922729e-01 6.026535853743553162e-02 6.721425056457519531e-02
-3.808768838644027710e-02 2.097808383405208588e-02 5.455689430236816406e-01
-7.018761038780212402e-01 4.284681752324104309e-02 1.153200045228004456e-01
1.111984997987747192e-01 -4.066935181617736816e-02 -1.736669242382049561e-02
4.086908698081970215e-02 1.898505352437496185e-02 -5.773537158966064453e-01
1.890358924865722656e-01 -1.014977395534515381e-01 -4.507800564169883728e-02
1.948238760232925415e-01 -1.380439847707748413e-02 -3.219181597232818604e-01
-4.488704204559326172e-01 6.954796612262725830e-02 5.329034104943275452e-02
-6.932759881019592285e-01 3.659470006823539734e-02 -8.742308616638183594e-02
4.425451159477233887e-02 7.927823811769485474e-03 -5.127849578857421875e-01
5.681485533714294434e-01 -2.942102402448654175e-02 9.424301981925964355e-02
2.957313060760498047e-01 -1.014977395534515381e-01 -7.366298139095306396e-02
-5.532997846603393555e-01 3.228101879358291626e-02 -6.798420846462249756e-02
5.397394672036170959e-02 -1.006405893713235855e-02 -4.077549576759338379e-01
2.651532888412475586e-01 -8.787415176630020142e-02 1.018602252006530762e-01
-7.331911921501159668e-01 6.804636865854263306e-02 -2.354533970355987549e-01
9.760220348834991455e-02 -3.029467724263668060e-02 1.662105470895767212e-01
-7.817884087562561035e-01 -7.415779400616884232e-03 2.399802906438708305e-03
8.717717528343200684e-01 2.561938576400279999e-02 -5.670857056975364685e-02
1.825107783079147339e-01 -1.125276684761047363e-01 2.822158336639404297e-01
1.698002219200134277e-02 2.740487456321716309e-03 4.149844646453857422e-01
2.810390666127204895e-03 -3.070421144366264343e-02 -3.172495663166046143e-01
-1.298763006925582886e-01 6.479745358228683472e-02 6.238183751702308655e-02
-6.016239523887634277e-01 -5.478438362479209900e-02 -2.814838895574212074e-03
4.384377598762512207e-01 4.945384338498115540e-02 7.551399618387222290e-02
-4.294740781188011169e-02 3.629438951611518860e-02 -6.783156991004943848e-01
3.192616160959005356e-03 -4.618431627750396729e-02 -2.260888814926147461e-01
-2.776761353015899658e-02 4.200046136975288391e-02 7.119187116622924805e-01
-6.536611914634704590e-01 3.588485717773437500e-02 -8.398306369781494141e-02
4.027543067932128906e-01 -2.647243440151214600e-02 -9.419392794370651245e-02
5.612684488296508789e-01 -8.833828568458557129e-02 5.017793551087379456e-02
-2.618258595466613770e-01 9.259068220853805542e-02 6.877296138554811478e-03
3.357011079788208008e-01 -1.254960149526596069e-01 -3.314464986324310303e-01
2.819711863994598389e-01 -9.581898152828216553e-02 3.412696123123168945e-01
-7.951663136482238770e-01 2.818466722965240479e-01 5.839828867465257645e-03
-6.956239342689514160e-01 4.426650702953338623e-02 3.868388384580612183e-02
1.025165319442749023e-01 7.736715953797101974e-03 4.048008918762207031e-01
2.938748002052307129e-01 3.487469255924224854e-02 -8.403766155242919922e-02
1.491206884384155273e-01 -3.774807974696159363e-02 3.109100162982940674e-01
1.804904490709304810e-01 -4.356334358453750610e-02 -3.137822151184082031e-01
5.134630203247070312e-01 -9.753899276256561279e-02 4.747756756842136383e-03
-2.789167761802673340e-01 7.216893881559371948e-02 5.446431413292884827e-02
2.480350732803344727e-01 -9.805771708488464355e-02 2.626950442790985107e-01
-4.294740781188011169e-02 3.629438951611518860e-02 -6.783156991004943848e-01
1.380088627338409424e-01 -2.747179707512259483e-03 -3.304636478424072266e-01
5.745644569396972656e-01 -9.535485506057739258e-02 2.637077495455741882e-02
7.188391685485839844e-02 -5.090753361582756042e-02 2.298783063888549805e-01
2.093211263418197632e-01 -7.799091190099716187e-02 3.767619729042053223e-01
-1.195987407118082047e-02 2.455461397767066956e-02 -6.098700761795043945e-01
-6.953782439231872559e-01 3.574834391474723816e-02 8.187530934810638428e-02
1.465543210506439209e-01 -2.387876063585281372e-02 3.273456990718841553e-01
3.074012510478496552e-02 -3.283374384045600891e-02 -2.748498916625976562e-01
1.335040628910064697e-01 -3.731124848127365112e-02 2.478727139532566071e-02
-4.708210527896881104e-01 7.582737505435943604e-02 -4.461387544870376587e-02
2.625323235988616943e-01 -2.748259902000427246e-02 3.409692943096160889e-01
-3.937754034996032715e-01 -7.654390484094619751e-02 5.913292244076728821e-02
-6.174043416976928711e-01 8.278933167457580566e-02 -7.892971858382225037e-03
-4.425789043307304382e-02 -5.382882431149482727e-02 2.139613479375839233e-01
-5.382564663887023926e-01 -3.130484372377395630e-02 7.070887833833694458e-02
-8.085440993309020996e-01 4.897328559309244156e-03 -1.534635946154594421e-02
-6.072087213397026062e-02 -9.707486629486083984e-02 -9.804097004234790802e-03
-5.486584901809692383e-01 1.703014015220105648e-03 -7.420901954174041748e-02
4.051416367292404175e-02 -5.415644496679306030e-02 4.660139977931976318e-02
1.261325776576995850e-01 -5.964411050081253052e-02 3.140497207641601562e-01
-1.728220283985137939e-01 -9.456308186054229736e-02 2.945587597787380219e-02
-4.614172130823135376e-02 4.879860579967498779e-02 7.592352479696273804e-02
2.922093570232391357e-01 7.555435597896575928e-02 5.083318054676055908e-02
-5.433225259184837341e-02 1.674630679190158844e-02 5.644344687461853027e-01
-2.694157361984252930e-01 7.845918647944927216e-03 -9.307455271482467651e-02
-6.933305859565734863e-01 5.070973187685012817e-02 -3.328363597393035889e-02
6.134149432182312012e-01 7.263306528329849243e-02 -5.332314595580101013e-02
3.500345647335052490e-01 -4.096966981887817383e-02 -2.776867337524890900e-02
-5.499689579010009766e-01 9.931697277352213860e-04 7.469494640827178955e-02
1.835482269525527954e-01 -9.147798269987106323e-02 3.725028634071350098e-01
2.010486871004104614e-01 -1.749014109373092651e-02 -3.152565360069274902e-01
2.055807858705520630e-01 -1.221379116177558899e-01 2.791580259799957275e-01
2.953490614891052246e-01 -9.666533023118972778e-02 -2.649120390415191650e-01
3.061878979206085205e-01 -3.714743629097938538e-02 1.037440523505210876e-01
-2.730348333716392517e-02 -2.583360066637396812e-03 4.515961706638336182e-01
-6.016239523887634277e-01 -5.478438362479209900e-02 -2.814838895574212074e-03
-7.011389136314392090e-01 5.895487219095230103e-02 -1.405523717403411865e-01
1.733494363725185394e-02 -5.956219509243965149e-02 7.275651395320892334e-02
6.653277575969696045e-02 2.450000867247581482e-02 5.704681873321533203e-01
-6.992824077606201172e-01 5.242974311113357544e-02 1.603952646255493164e-01
-1.406211405992507935e-02 1.519009657204151154e-02 4.994288980960845947e-01
1.093419790267944336e-01 8.860461413860321045e-02 -2.465627156198024750e-02
-5.976924896240234375e-01 1.216397807002067566e-01 -6.609787698835134506e-03
2.112049460411071777e-01 -2.800132520496845245e-02 -2.908214330673217773e-01
-2.133105695247650146e-01 -5.849742516875267029e-02 -8.534814417362213135e-02
4.188077449798583984e-01 8.037037216126918793e-03 -9.301995486021041870e-02
9.270579218864440918e-01 2.403587847948074341e-02 -1.870447956025600433e-02
2.204056531190872192e-01 8.928715437650680542e-02 2.216630056500434875e-02
-7.173835039138793945e-01 7.091305404901504517e-02 -2.067865282297134399e-01
2.446223646402359009e-01 -2.600830420851707458e-02 -2.105814665555953979e-01
-1.486599445343017578e-01 6.747303158044815063e-02 -8.604459762573242188e-01
-4.504964128136634827e-02 2.933242730796337128e-02 6.380127668380737305e-01
6.676089763641357422e-01 5.819042026996612549e-02 6.942570209503173828e-02
1.866606473922729492e-01 -5.770567432045936584e-02 -3.242661058902740479e-01
2.099217772483825684e-01 -1.013066321611404419e-01 -8.466560393571853638e-02
8.739559650421142578e-01 -6.002632528543472290e-02 -6.162289157509803772e-02
8.228589594364166260e-02 -4.566558822989463806e-02 -3.833446651697158813e-02
2.059630006551742554e-01 -2.955753542482852936e-02 1.883548125624656677e-02
6.543676257133483887e-01 -6.993688642978668213e-02 -7.844080030918121338e-02
-1.228749845176935196e-02 3.520230948925018311e-02 6.059058904647827148e-01
1.846949160099029541e-01 3.334578871726989746e-02 8.561565726995468140e-02
4.844412505626678467e-01 -9.732056409120559692e-02 -6.664391607046127319e-03
1.835482269525527954e-01 -9.147798269987106323e-02 3.725028634071350098e-01
2.193955034017562866e-01 -6.046315655112266541e-02 -6.833913177251815796e-02
2.300431728363037109e-01 -2.696386165916919708e-02 -9.787967056035995483e-02
5.793270468711853027e-02 -5.041610449552536011e-02 -7.341726124286651611e-02
2.093211263418197632e-01 -7.799091190099716187e-02 3.767619729042053223e-01
6.128416061401367188e-01 6.804636865854263306e-02 5.885990336537361145e-02
3.267461061477661133e-01 3.075212612748146057e-02 8.646201342344284058e-02
-1.123212575912475586e-01 -7.060862146317958832e-03 -9.427583217620849609e-02
-2.012158930301666260e-01 -9.248815476894378662e-02 3.748260438442230225e-02
-2.495400607585906982e-01 6.075678765773773193e-02 6.669551879167556763e-02
8.485652804374694824e-01 -8.686397969722747803e-02 -1.018632203340530396e-02
-3.819689527153968811e-02 3.140736371278762817e-02 -5.979938507080078125e-01
2.738625705242156982e-01 -4.741289839148521423e-02 -3.129358887672424316e-01
1.818009465932846069e-01 -3.165977075695991516e-02 -5.681526847183704376e-03
-6.547138839960098267e-02 3.176229074597358704e-02 -6.518329977989196777e-01
1.227198615670204163e-01 -1.271232869476079941e-02 -3.922475576400756836e-01
-4.305661842226982117e-02 5.513261631131172180e-02 7.853332757949829102e-01
7.253522872924804688e-01 -5.668461788445711136e-03 -9.108152985572814941e-02
2.951852679252624512e-01 -6.963656842708587646e-02 -3.223277032375335693e-01
-1.667610406875610352e-01 -7.152038812637329102e-02 -7.650236785411834717e-02
7.174741476774215698e-02 2.299841493368148804e-02 -5.547751188278198242e-01
-7.605476379394531250e-01 5.376753211021423340e-02 -1.441016048192977905e-01
3.464427962899208069e-02 1.527200173586606979e-02 -5.556214451789855957e-01
1.081953048706054688e-01 1.125863939523696899e-02 4.496577084064483643e-01
2.096760421991348267e-01 -5.500280857086181641e-02 1.157295331358909607e-01
-8.491419553756713867e-01 3.890061974525451660e-01 -7.865670137107372284e-03
1.069394126534461975e-01 -4.520145803689956665e-02 1.824005097150802612e-01
2.634605765342712402e-01 -1.353519558906555176e-01 -3.427221179008483887e-01
1.716719716787338257e-01 -4.083317890763282776e-02 -3.144374787807464600e-01
1.405872963368892670e-02 -7.060862146317958832e-03 -4.253646135330200195e-01
2.549970149993896484e-01 -2.680005319416522980e-02 -3.096298314630985260e-02
1.205903142690658569e-01 -8.560810238122940063e-02 -3.024792969226837158e-01
1.143928021192550659e-01 5.579874850809574127e-03 -3.908005654811859131e-01
1.280983090400695801e-01 8.715762197971343994e-02 -2.826010622084140778e-02
-1.318966299295425415e-01 -8.861130475997924805e-02 -4.895486310124397278e-02
2.406635880470275879e-01 -2.464321069419384003e-02 2.087194174528121948e-01
2.480350732803344727e-01 -4.151571542024612427e-02 2.762367427349090576e-01
1.716719716787338257e-01 -4.307191446423530579e-02 -3.280064761638641357e-01
1.329853236675262451e-01 -5.816980451345443726e-02 -3.223550021648406982e-01
-7.764645814895629883e-01 -5.914186127483844757e-03 1.635101810097694397e-02
-2.872711122035980225e-01 7.429847866296768188e-02 -5.157583579421043396e-02
-1.936259716749191284e-01 -7.818201929330825806e-02 -6.822992861270904541e-02
-7.963675856590270996e-01 2.531251907348632812e-01 5.457603372633457184e-03
1.733494363725185394e-02 -5.956219509243965149e-02 7.275651395320892334e-02
-7.461868524551391602e-01 2.613157331943511963e-01 5.757923237979412079e-03
2.735622525215148926e-01 -5.478438362479209900e-02 -1.045413017272949219e-01
2.196685224771499634e-01 -2.860196679830551147e-02 -3.918082267045974731e-02
2.118449658155441284e-02 2.993306890130043030e-02 6.415346860885620117e-01
-6.145377159118652344e-01 4.623224213719367981e-02 -8.698625117540359497e-02
-6.196704506874084473e-01 6.835754029452800751e-03 6.467518210411071777e-02
-7.161428034305572510e-02 -2.499812841415405273e-02 9.508937597274780273e-02
2.300431728363037109e-01 -2.696386165916919708e-02 -9.787967056035995483e-02
-5.772707462310791016e-01 -2.333272621035575867e-02 6.737806648015975952e-02
2.329371869564056396e-01 -1.014977395534515381e-01 3.376955911517143250e-02
7.849095016717910767e-02 -2.800132520496845245e-02 -3.219181597232818604e-01
6.737913191318511963e-02 2.059585973620414734e-02 -4.977962970733642578e-01
-1.706105917692184448e-01 9.103447943925857544e-02 -8.962659239768981934e-01
1.044549569487571716e-01 -3.665598854422569275e-02 -2.466198205947875977e-01
-8.149600625038146973e-01 2.276357263326644897e-03 1.171222538687288761e-03
-1.043097767978906631e-02 -1.164755690842866898e-02 3.987399041652679443e-01
-8.137860894203186035e-01 6.640825420618057251e-02 -2.276450842618942261e-01
1.724364012479782104e-01 -5.120785161852836609e-02 -1.363478899002075195e-01
-3.961506783962249756e-01 6.329585611820220947e-02 -6.219623237848281860e-02
-9.471159428358078003e-02 2.327142655849456787e-02 6.035852432250976562e-01
2.953490614891052246e-01 -9.666533023118972778e-02 -2.649120390415191650e-01
-3.819689527153968811e-02 3.140736371278762817e-02 -5.979938507080078125e-01
-1.023986469954252243e-02 4.696938395500183105e-02 6.961656212806701660e-01
-7.470878362655639648e-01 8.106932044029235840e-02 2.778748571872711182e-01
1.280983090400695801e-01 8.715762197971343994e-02 -2.826010622084140778e-02
-2.935111522674560547e-02 -7.856425642967224121e-02 9.896624088287353516e-02
1.477282941341400146e-01 -4.364525899291038513e-02 -2.941795587539672852e-01
-5.468565225601196289e-01 7.006669789552688599e-02 -7.237729150801897049e-03
1.628807932138442993e-01 -4.263508319854736328e-02 2.018939703702926636e-01
-8.459476232528686523e-01 3.139535784721374512e-01 -6.718995049595832825e-03
3.142266720533370972e-02 2.624732628464698792e-02 -6.197260618209838867e-01
1.651195287704467773e-01 -3.641028329730033875e-02 2.487165331840515137e-01
-7.665813565254211426e-01 4.819796234369277954e-02 1.404649466276168823e-01
1.979089826345443726e-01 -9.560056030750274658e-02 -9.514948725700378418e-02
1.280163973569869995e-01 -2.639052830636501312e-02 1.658829301595687866e-01
-4.004916548728942871e-01 -8.956686407327651978e-02 -8.684723637998104095e-03
1.817463189363479614e-01 -6.046315655112266541e-02 -8.384654670953750610e-02
-3.672926723957061768e-01 2.772162109613418579e-02 -8.515703678131103516e-02
-7.442757487297058105e-01 6.834668666124343872e-02 1.953688561916351318e-01
4.681693911552429199e-01 6.755493581295013428e-02 5.940593779087066650e-02
9.719268232583999634e-02 -1.817268691956996918e-02 -3.097961544990539551e-01
3.278775885701179504e-02 -3.927696123719215393e-02 -2.062131911516189575e-01
1.477555930614471436e-01 -7.209373265504837036e-02 2.748443484306335449e-01
1.091235652565956116e-01 -3.545472770929336548e-02 1.189238429069519043e-01
4.646747708320617676e-01 1.232341118156909943e-02 9.227729588747024536e-02
1.825107783079147339e-01 -1.125276684761047363e-01 2.822158336639404297e-01
-3.875778913497924805e-01 2.125109732151031494e-02 -8.660402894020080566e-02
-8.459476232528686523e-01 3.139535784721374512e-01 -6.718995049595832825e-03
-7.210146188735961914e-01 6.127552315592765808e-02 -1.570972502231597900e-01
7.281916141510009766e-01 8.030486851930618286e-02 3.286860138177871704e-02
7.849095016717910767e-02 -2.800132520496845245e-02 -3.219181597232818604e-01
2.504649460315704346e-01 -4.230746626853942871e-02 2.032317668199539185e-01
2.601691335439682007e-02 -5.067830439656972885e-03 -4.126693010330200195e-01
2.446223646402359009e-01 -2.600830420851707458e-02 -2.105814665555953979e-01
1.802447140216827393e-01 -5.243643373250961304e-02 -1.284849792718887329e-01
1.192798167467117310e-01 -7.607977092266082764e-02 -3.397735357284545898e-01
1.835482269525527954e-01 -9.147798269987106323e-02 3.725028634071350098e-01
3.715604543685913086e-02 -6.046315655112266541e-02 -3.478523343801498413e-02
2.945573329925537109e-01 2.559208869934082031e-02 8.810012042522430420e-02
-5.248786211013793945e-01 6.487935781478881836e-02 4.856964107602834702e-03
2.832270860671997070e-01 -5.210881680250167847e-02 1.308547258377075195e-01
7.366279363632202148e-01 -6.046315655112266541e-02 8.089245110750198364e-02
1.048644855618476868e-01 -7.479659467935562134e-02 3.370924293994903564e-01
2.324184477329254150e-01 -5.025229603052139282e-02 2.701211273670196533e-01
9.101853966712951660e-01 -4.528335481882095337e-02 -5.796445533633232117e-02
-1.756614148616790771e-01 3.804169595241546631e-02 8.266706764698028564e-02
1.615156978368759155e-01 -2.813783660531044006e-02 -1.246354207396507263e-01
8.433353900909423828e-02 4.008933529257774353e-02 8.138387650251388550e-02
-7.290686368942260742e-01 2.651379704475402832e-01 5.239189136773347855e-03
8.291384577751159668e-02 -6.043586134910583496e-02 6.027959659695625305e-02
-8.021009564399719238e-01 9.097985923290252686e-02 3.195646703243255615e-01
2.967141568660736084e-01 -9.374403953552246094e-02 3.238783776760101318e-01
8.980907201766967773e-01 3.061561472713947296e-02 -4.021828994154930115e-02
5.890617370605468750e-01 -9.595547616481781006e-02 -2.323657646775245667e-02
-6.221002936363220215e-01 1.526819169521331787e-01 4.638549871742725372e-03
4.206915795803070068e-01 -7.766329497098922729e-02 -7.579252123832702637e-02
1.546629518270492554e-01 -3.337977826595306396e-02 -1.003368347883224487e-01
2.894245684146881104e-01 -5.975330248475074768e-02 -2.668231427669525146e-01
4.660398364067077637e-01 -9.592817723751068115e-02 -2.348229289054870605e-02
6.592273116111755371e-01 -8.274142444133758545e-02 -6.132257357239723206e-02
-4.204644262790679932e-02 5.237514153122901917e-02 7.214742898941040039e-01
7.940981984138488770e-01 -3.668330609798431396e-02 8.408676087856292725e-02
-6.715438365936279297e-01 5.720755457878112793e-02 3.218605741858482361e-02
6.021665930747985840e-01 -7.487851381301879883e-02 7.292032986879348755e-02
1.827018857002258301e-01 -1.708061806857585907e-02 2.081460803747177124e-01
2.450864762067794800e-01 -4.877799004316329956e-02 1.553990244865417480e-01
-9.643162041902542114e-02 8.147884905338287354e-02 3.963944315910339355e-02
-5.434710979461669922e-01 8.371759206056594849e-02 5.211886949837207794e-03
2.197231203317642212e-01 -1.066304892301559448e-01 -3.162120878696441650e-01
2.159008532762527466e-01 -1.303284466266632080e-01 -2.879274189472198486e-01
6.815874576568603516e-01 -7.747216522693634033e-02 6.972602009773254395e-02
-6.681857109069824219e-01 1.637391448020935059e-01 5.648715887218713760e-03
-5.508698821067810059e-01 6.253140419721603394e-02 -4.843613132834434509e-02
2.200234383344650269e-01 -3.531821444630622864e-02 3.102274835109710693e-01
7.651582956314086914e-01 7.159560173749923706e-02 4.141405969858169556e-02
-1.737502962350845337e-01 -1.104691624641418457e-02 -9.449424594640731812e-02
-4.313153624534606934e-01 -6.166443973779678345e-02 -7.035946846008300781e-02
1.553727835416793823e-01 -2.614480443298816681e-02 -1.467225700616836548e-01
-8.384548872709274292e-02 6.883811950683593750e-02 -8.439010977745056152e-01
5.853213667869567871e-01 -9.033131599426269531e-02 4.591885581612586975e-02
-7.780753970146179199e-01 3.608034551143646240e-01 -1.258636824786663055e-03
2.114233672618865967e-01 -4.703068360686302185e-02 -1.684274971485137939e-01
-3.458334803581237793e-01 -9.300688654184341431e-02 -2.326387725770473480e-02
2.604421600699424744e-02 2.785813249647617340e-02 6.293854117393493652e-01
-6.894537210464477539e-01 5.131037533283233643e-02 3.420639038085937500e-02
1.943718083202838898e-02 -6.081807613372802734e-02 2.131423056125640869e-01
-6.681857109069824219e-01 1.637391448020935059e-01 5.648715887218713760e-03
2.554065585136413574e-01 -8.710970729589462280e-02 1.024608612060546875e-01
-7.515926361083984375e-01 3.441056236624717712e-02 -7.713031023740768433e-02
-7.140799760818481445e-01 1.618007123470306396e-01 -7.865670137107372284e-03
-8.052406907081604004e-01 3.241098523139953613e-01 5.949035286903381348e-03
1.227198615670204163e-01 -1.271232869476079941e-02 -3.922475576400756836e-01
1.990829706192016602e-01 -1.262604594230651855e-01 2.951295971870422363e-01
2.324184477329254150e-01 -5.025229603052139282e-02 2.701211273670196533e-01
-2.148820087313652039e-02 4.126330837607383728e-02 8.064673095941543579e-02
3.134075924754142761e-02 -5.988981574773788452e-02 -2.143491208553314209e-01
1.750300973653793335e-01 -6.046315655112266541e-02 -1.586258411407470703e-03
9.365316033363342285e-01 -3.957727923989295959e-02 4.935888573527336121e-02
-4.425789043307304382e-02 -5.382882431149482727e-02 2.139613479375839233e-01
-4.386322498321533203e-01 -3.769346326589584351e-02 -8.324591070413589478e-02
3.306775987148284912e-01 -6.046315655112266541e-02 -9.165485948324203491e-02
2.738625705242156982e-01 -4.741289839148521423e-02 -3.129358887672424316e-01
3.133409619331359863e-01 -6.046315655112266541e-02 -4.442276433110237122e-02
-8.148236274719238281e-01 2.971465326845645905e-02 -1.813114248216152191e-02
-5.916587710380554199e-01 2.400857955217361450e-02 -6.604578346014022827e-02
-5.567671060562133789e-01 -3.856712579727172852e-02 6.352851539850234985e-02
1.958613395690917969e-01 -1.048831641674041748e-01 -3.092228472232818604e-01
2.230539470911026001e-01 -6.043586134910583496e-02 8.457818627357482910e-02
2.145630717277526855e-01 -6.043586134910583496e-02 6.123515963554382324e-02
7.914619892835617065e-02 6.972265429794788361e-03 4.046097695827484131e-01
1.477555930614471436e-01 -7.209373265504837036e-02 2.748443484306335449e-01
1.006053984165191650e-01 -1.645266823470592499e-02 3.706463575363159180e-01
-2.318757772445678711e-01 -7.610709220170974731e-02 -7.079629600048065186e-02
-5.499689579010009766e-01 9.931697277352213860e-04 7.469494640827178955e-02
3.041250072419643402e-02 -6.046315655112266541e-02 -1.526445429772138596e-02
-8.671338558197021484e-01 4.054145514965057373e-01 -7.701859343796968460e-03
-5.496019497513771057e-02 -4.538272041827440262e-04 -4.625496566295623779e-01
3.269099593162536621e-01 -1.007059887051582336e-01 6.393803656101226807e-02
3.212311565876007080e-01 -7.373182475566864014e-02 -3.708156347274780273e-01
1.280983090400695801e-01 8.715762197971343994e-02 -2.826010622084140778e-02
1.404114067554473877e-01 -1.093771308660507202e-02 2.757453322410583496e-01
1.975267678499221802e-01 -1.678029634058475494e-02 2.155448645353317261e-01
1.716719716787338257e-01 -7.779980450868606567e-02 -2.762968838214874268e-01
-1.451107114553451538e-01 9.401036798954010010e-02 3.248669381719082594e-04
2.715964913368225098e-01 -2.674544602632522583e-02 8.709027315489947796e-04
4.344516992568969727e-01 7.238734513521194458e-02 -5.359616875648498535e-02
2.529767155647277832e-01 -3.204199671745300293e-02 3.178992569446563721e-01
6.439383029937744141e-01 -3.921154420822858810e-03 9.473446011543273926e-02
-6.908188462257385254e-01 8.958747237920761108e-02 -7.428841199725866318e-03
1.875463873147964478e-02 -4.112261813133955002e-03 -3.796068429946899414e-01
1.030352637171745300e-01 -6.815137807279825211e-03 4.270518422126770020e-01
-6.463443040847778320e-01 -4.157031327486038208e-02 -1.971464604139328003e-02
2.053077667951583862e-01 -6.046315655112266541e-02 3.819496138021349907e-03
2.958678007125854492e-01 -6.046315655112266541e-02 2.388631179928779602e-02
5.689523741602897644e-02 -3.540011122822761536e-02 1.771585345268249512e-01
-1.474313586950302124e-01 -9.281577914953231812e-02 3.625402227044105530e-02
2.204056531190872192e-01 8.928715437650680542e-02 2.216630056500434875e-02
6.388448923826217651e-02 -6.043586134910583496e-02 9.072108566761016846e-02
-3.507751226425170898e-01 -9.267926216125488281e-02 2.314916439354419708e-02
1.716719716787338257e-01 -6.406698375940322876e-02 -2.764333784580230713e-01
-5.959451794624328613e-01 -3.272454068064689636e-02 -5.864699929952621460e-02
1.772415339946746826e-01 -7.662581652402877808e-02 1.050818338990211487e-01
-1.298763006925582886e-01 6.479745358228683472e-02 6.238183751702308655e-02
1.826745867729187012e-01 -1.451424323022365570e-02 -3.529056608676910400e-01
2.473525106906890869e-01 -2.912070415914058685e-02 -2.932512760162353516e-01
4.207036644220352173e-02 -6.046315655112266541e-02 -9.460344910621643066e-02
-3.295070230960845947e-01 -1.134723611176013947e-02 9.443414211273193359e-02
-7.160730361938476562e-01 8.692274801433086395e-03 4.485408961772918701e-02
3.102012574672698975e-01 -3.062230721116065979e-02 7.616955554112792015e-04
2.845375537872314453e-01 -3.559123724699020386e-02 3.529821038246154785e-01
3.023110330104827881e-01 -1.215645670890808105e-01 2.807415425777435303e-01
2.278863340616226196e-01 -1.937396079301834106e-02 3.235780298709869385e-01
9.683776646852493286e-02 -1.904634200036525726e-02 3.237418532371520996e-01
5.905086994171142578e-01 -5.538502335548400879e-02 -8.684974908828735352e-02
-1.451107114553451538e-01 9.401036798954010010e-02 3.248669381719082594e-04
-2.291182875633239746e-01 3.826011344790458679e-02 -8.190812170505523682e-02
2.685933113098144531e-01 3.105243667960166931e-02 8.638010919094085693e-02
-5.917133688926696777e-01 1.631385087966918945e-01 4.340741143096238375e-04
2.619043886661529541e-01 -6.663335859775543213e-02 -3.757299482822418213e-01
1.103248372673988342e-01 -4.080586135387420654e-02 2.265773154795169830e-02
1.198804602026939392e-01 -6.270191073417663574e-02 -3.309823572635650635e-01
2.191224843263626099e-01 -3.597345203161239624e-02 -3.215905427932739258e-01
-7.605476379394531250e-01 5.376753211021423340e-02 -1.441016048192977905e-01
-7.203047871589660645e-01 2.889178395271301270e-01 -5.353905260562896729e-03
8.632656931877136230e-02 -9.030401706695556641e-02 9.994909912347793579e-02
-3.268314301967620850e-01 -9.658343344926834106e-02 3.794705262407660484e-04
-6.174316406250000000e-01 1.438907384872436523e-01 4.720455035567283630e-03
7.013660669326782227e-02 -4.793164506554603577e-02 1.962974201887845993e-03
1.227198615670204163e-01 -1.271232869476079941e-02 -3.922475576400756836e-01
3.643133938312530518e-01 -1.658917963504791260e-02 9.544430673122406006e-02
2.625323235988616943e-01 -2.748259902000427246e-02 3.409692943096160889e-01
1.750300973653793335e-01 -6.046315655112266541e-02 -1.586258411407470703e-03
-1.364014297723770142e-01 6.531618535518646240e-02 8.479908704757690430e-01
7.399587035179138184e-01 6.684508919715881348e-02 -5.203996598720550537e-02
-7.271029353141784668e-01 3.340039402246475220e-02 -4.745326563715934753e-02
2.112049460411071777e-01 -2.800132520496845245e-02 -2.908214330673217773e-01
4.848507642745971680e-01 3.705883026123046875e-02 8.329501003026962280e-02
2.514477968215942383e-01 -4.776783287525177002e-02 1.631254404783248901e-01
