8.226407170295715332e-01 -1.206492185592651367e-01 9.068802930414676666e-03
-4.974839985370635986e-01 6.964506953954696655e-02 3.804343938827514648e-02
1.461705863475799561e-01 -8.069308102130889893e-02 -5.195378661155700684e-01
2.406217157840728760e-01 3.807680448517203331e-03 -7.999470084905624390e-02
3.060714900493621826e-02 1.213402673602104187e-02 5.150938034057617188e-01
-1.932511664927005768e-02 5.410084873437881470e-02 -6.960610300302505493e-02
-8.074919581413269043e-01 7.593493908643722534e-02 -2.683298289775848389e-01
4.932208359241485596e-02 -2.243446372449398041e-02 2.936853170394897461e-01
1.311934739351272583e-01 8.325593173503875732e-02 -2.758772298693656921e-02
-4.972519874572753906e-01 6.093205884099006653e-02 -6.060952693223953247e-02
-6.667690873146057129e-01 3.394233807921409607e-02 4.227105900645256042e-02
2.386625707149505615e-01 -2.645586244761943817e-02 4.969975650310516357e-01
6.373207271099090576e-02 -1.054401025176048279e-01 1.309994459152221680e-01
7.780693471431732178e-02 -7.172228395938873291e-02 1.128516271710395813e-01
3.107898533344268799e-01 -7.298541814088821411e-02 2.640920281410217285e-01
7.107883691787719727e-02 -4.493879154324531555e-02 6.474959850311279297e-02
-1.692508310079574585e-01 8.325593173503875732e-02 1.466266158968210220e-02
1.066784635186195374e-01 -3.705067187547683716e-02 -3.223866224288940430e-01
2.737466394901275635e-01 1.656786724925041199e-02 6.871943920850753784e-02
-7.749083638191223145e-01 6.686103343963623047e-02 1.583242714405059814e-01
-8.817854523658752441e-02 -2.673942223191261292e-02 -3.948490023612976074e-01
2.195867449045181274e-01 -8.342557400465011597e-02 -2.864518761634826660e-01
2.457411261275410652e-03 -1.717572472989559174e-02 -7.391104847192764282e-02
7.266687154769897461e-01 -7.203161716461181641e-02 1.662179827690124512e-02
-6.570506691932678223e-01 6.363876909017562866e-02 -1.024216786026954651e-01
-4.056631773710250854e-02 2.644089981913566589e-02 -6.570385694503784180e-01
2.806551754474639893e-01 -6.321550160646438599e-02 -3.104255497455596924e-01
1.722838580608367920e-01 -5.888476967811584473e-02 4.855778515338897705e-01
1.550115458667278290e-02 -3.882937133312225342e-02 2.898443937301635742e-01
6.400540471076965332e-01 -3.029680810868740082e-02 5.773794651031494141e-02
-2.597579061985015869e-01 -6.713378429412841797e-02 -3.354247659444808960e-02
-2.244427427649497986e-02 5.689486395567655563e-03 5.080564022064208984e-01
4.336732998490333557e-02 -4.006672278046607971e-02 2.812602818012237549e-01
2.172151654958724976e-01 -3.313240408897399902e-02 -5.316535830497741699e-01
-5.232114717364311218e-02 1.824344694614410400e-02 6.746089458465576172e-01
7.000914216041564941e-01 -5.468292906880378723e-02 -5.584057420492172241e-02
7.973936386406421661e-03 -5.767319351434707642e-02 7.660754770040512085e-02
1.173754781484603882e-02 -3.828803449869155884e-02 2.288532853126525879e-01
7.599740624427795410e-01 7.312512397766113281e-02 -4.238437861204147339e-02
6.551076471805572510e-02 -1.073734536767005920e-01 9.895720332860946655e-02
-3.836992681026458740e-01 6.510812044143676758e-02 -6.011974066495895386e-02
1.328690648078918457e-01 -6.236482039093971252e-02 1.015092432498931885e-01
-6.950218677520751953e-01 1.947979778051376343e-01 -8.042278932407498360e-04
2.404928207397460938e-01 -2.550207078456878662e-02 1.235495582222938538e-01
-7.185831665992736816e-01 5.096590146422386169e-03 -2.196808718144893646e-02
-6.274573802947998047e-01 -1.619615964591503143e-02 -4.774061962962150574e-03
-1.023049652576446533e-01 3.182853385806083679e-02 7.086619138717651367e-01
-1.914715915918350220e-01 -2.606918290257453918e-02 -7.143635302782058716e-02
-3.405466079711914062e-01 -4.555746167898178101e-02 4.673067480325698853e-02
1.124785467982292175e-01 -3.872626274824142456e-02 2.961600422859191895e-01
5.205456912517547607e-02 -3.787558153271675110e-02 2.996143102645874023e-01
-6.797096729278564453e-01 8.464795351028442383e-02 -1.696712523698806763e-02
-6.236164569854736328e-01 6.456677615642547607e-02 -4.934447631239891052e-02
-6.533901691436767578e-01 1.826822459697723389e-01 -3.588267602026462555e-03
-7.816107273101806641e-01 5.201281979680061340e-02 -9.623492509126663208e-02
-7.552147656679153442e-02 -1.158186700195074081e-02 5.054785609245300293e-01
-7.152835130691528320e-01 1.512844711542129517e-01 -1.346129830926656723e-02
1.088686566799879074e-02 6.876861304044723511e-02 4.245150089263916016e-02
1.388238221406936646e-01 -2.148067392408847809e-02 5.108662247657775879e-01
-6.376140117645263672e-01 1.586827933788299561e-01 -9.775022976100444794e-03
1.078375242650508881e-02 -2.869856171309947968e-02 2.845340967178344727e-01
-1.373126357793807983e-02 -6.030257418751716614e-02 -1.236886605620384216e-01
-7.985984683036804199e-01 2.679821550846099854e-01 -2.454028930515050888e-03
-8.060999512672424316e-01 5.845735594630241394e-02 1.232144385576248169e-01
2.224223464727401733e-01 -3.418930247426033020e-02 5.185738801956176758e-01
-6.315561532974243164e-01 -7.534704171121120453e-03 3.703809157013893127e-02
-1.759789139032363892e-01 1.587185449898242950e-02 -8.154138177633285522e-02
-8.103799819946289062e-02 1.126761431805789471e-03 -6.212584376335144043e-01
-6.651449799537658691e-01 1.313579529523849487e-01 9.744645794853568077e-04
2.733332477509975433e-02 -4.754238575696945190e-02 -1.648305654525756836e-01
1.101575884968042374e-02 -2.658475562930107117e-02 -3.094975352287292480e-01
-1.489891856908798218e-01 1.316515076905488968e-02 7.017533779144287109e-01
-7.031420469284057617e-01 4.737275093793869019e-02 -6.501759588718414307e-02
-1.802580803632736206e-01 2.894137613475322723e-02 -8.188995122909545898e-01
5.630289912223815918e-01 -3.728268295526504517e-02 -6.790474802255630493e-02
8.384684920310974121e-01 -1.441073268651962280e-01 -1.204350031912326813e-02
-7.492858171463012695e-02 2.649245411157608032e-02 -6.719898581504821777e-01
2.379150092601776123e-01 -3.148259967565536499e-02 -5.504716634750366211e-01
-8.135498166084289551e-01 5.781290680170059204e-02 -1.361652761697769165e-01
6.534587740898132324e-01 7.144954800605773926e-02 3.827544301748275757e-02
-7.076273560523986816e-01 4.237179458141326904e-02 -2.872196026146411896e-02
-1.604862660169601440e-01 1.410322031006217003e-03 6.055750846862792969e-01
-4.536105319857597351e-02 -7.540857046842575073e-02 -1.694134809076786041e-02
5.125038027763366699e-01 -7.460943609476089478e-02 -2.067917957901954651e-02
5.512999296188354492e-01 -2.351714670658111572e-02 5.905263125896453857e-02
3.926768433302640915e-03 -3.712801635265350342e-02 2.412525713443756104e-01
-6.031228899955749512e-01 3.456101566553115845e-02 5.149963498115539551e-02
-7.628442049026489258e-01 7.655361294746398926e-02 1.216218061745166779e-02
-2.288250252604484558e-02 -1.238098926842212677e-02 -5.152844786643981934e-01
-6.538283824920654297e-01 1.533724814653396606e-01 -1.191460993140935898e-02
6.354655623435974121e-01 -4.808372259140014648e-02 4.881870746612548828e-02
-6.097220182418823242e-01 -1.944420114159584045e-02 7.496336475014686584e-03
8.613852858543395996e-01 -6.112746149301528931e-02 -3.588828817009925842e-02
-2.196470946073532104e-01 -7.715146522969007492e-03 6.474959850311279297e-02
8.613852858543395996e-01 -6.112746149301528931e-02 -3.588828817009925842e-02
1.784705966711044312e-01 -4.419122636318206787e-02 2.555078864097595215e-01
-6.617453764192759991e-04 -1.207165420055389404e-02 -5.190480947494506836e-01
-8.542534708976745605e-01 7.544516026973724365e-02 -5.160734523087739944e-03
-7.345923036336898804e-02 -3.694756329059600830e-02 -3.124104738235473633e-01
3.551797866821289062e-01 -5.653896182775497437e-02 2.670049667358398438e-01
9.149512648582458496e-02 -7.324320077896118164e-02 -5.455738306045532227e-01
-1.027174219489097595e-01 7.597076706588268280e-03 5.765231847763061523e-01
-4.221611469984054565e-02 1.620697416365146637e-02 -5.910722017288208008e-01
2.613989114761352539e-01 -7.530545443296432495e-02 5.190894603729248047e-01
-3.584891557693481445e-02 -5.777631327509880066e-02 1.310509890317916870e-01
-7.557809948921203613e-01 5.680755525827407837e-02 -1.039425954222679138e-01
5.828266143798828125e-01 -5.146066471934318542e-02 -5.929484218358993530e-02
-8.469851315021514893e-02 6.050380878150463104e-03 5.542765855789184570e-01
-8.355643749237060547e-01 6.577835232019424438e-02 1.811121553182601929e-01
-6.826741099357604980e-01 1.001921743154525757e-01 -1.539465878158807755e-02
2.027011103928089142e-02 -2.091356180608272552e-02 4.356455802917480469e-01
-2.980384230613708496e-01 -9.055606089532375336e-03 -7.726220786571502686e-02
-1.791754066944122314e-01 3.343677381053566933e-03 -6.313892602920532227e-01
-5.317182838916778564e-02 2.834848128259181976e-02 6.616941094398498535e-01
2.157458066940307617e-01 -3.877781331539154053e-02 -2.874056696891784668e-01
9.412202239036560059e-01 -3.408619388937950134e-02 -4.302882775664329529e-02
5.813056826591491699e-01 -6.878358125686645508e-02 2.368501201272010803e-02
-8.146325349807739258e-01 7.709495723247528076e-02 2.359938323497772217e-01
-2.319184690713882446e-02 -5.406425148248672485e-02 -1.760440617799758911e-01
-9.287018328905105591e-02 -1.797484792768955231e-02 6.062509492039680481e-02
1.511448062956333160e-02 1.499539706856012344e-02 -5.866899490356445312e-01
9.531030058860778809e-02 3.953619673848152161e-02 6.389892101287841797e-02
5.204950571060180664e-01 3.266343614086508751e-03 -7.994313538074493408e-02
1.567654013633728027e-01 -6.659244000911712646e-02 5.183474346995353699e-02
-7.223725318908691406e-01 1.056155562400817871e-02 2.484503015875816345e-02
-7.434847950935363770e-01 2.132035791873931885e-01 -1.016169413924217224e-02
-9.240617603063583374e-02 1.281429198570549488e-03 6.678607314825057983e-02
-4.894421249628067017e-02 -1.502617495134472847e-03 5.892317891120910645e-01
1.001308113336563110e-01 -2.947190031409263611e-02 3.704784214496612549e-01
6.997037678956985474e-02 -2.519272640347480774e-02 5.192956924438476562e-01
-1.791754066944122314e-01 3.343677381053566933e-03 -6.313892602920532227e-01
-7.084523439407348633e-01 5.572487413883209229e-02 -4.467863216996192932e-02
6.721211969852447510e-02 -9.612711146473884583e-04 4.026495814323425293e-01
-2.512520179152488708e-02 4.933189228177070618e-02 5.943930149078369141e-02
4.733716696500778198e-02 1.252069603651762009e-02 4.937495291233062744e-01
-8.117969036102294922e-01 6.611346453428268433e-02 -1.842930763959884644e-01
5.020378828048706055e-01 8.619464933872222900e-02 -1.743113249540328979e-02
-1.705664210021495819e-02 8.225058019161224365e-02 -3.073265589773654938e-02
2.256436645984649658e-02 -3.501420095562934875e-02 2.393449842929840088e-01
2.105128467082977295e-01 -2.313047833740711212e-02 5.019985437393188477e-01
-8.679673192091286182e-04 -4.823838919401168823e-02 2.127934992313385010e-01
7.525490224361419678e-02 -2.622386068105697632e-02 -7.507106661796569824e-02
2.117244154214859009e-01 8.335904777050018311e-02 1.435332372784614563e-02
4.127681553363800049e-01 6.923262029886245728e-02 -5.462899804115295410e-02
4.040551483631134033e-01 -6.313815712928771973e-02 -2.866065502166748047e-01
-1.946422904729843140e-01 8.320438116788864136e-02 1.484310626983642578e-02
-6.025299429893493652e-01 -2.145489864051342010e-02 2.526763710193336010e-04
1.139736846089363098e-01 -2.155800722539424896e-02 6.217179074883460999e-02
3.602065145969390869e-01 -4.390766844153404236e-02 -3.228763937950134277e-01
-4.217993617057800293e-01 -3.846847638487815857e-02 4.742668941617012024e-02
1.663539186120033264e-02 7.829077541828155518e-03 5.172591805458068848e-01
6.891347467899322510e-02 -2.300158515572547913e-02 -3.065845966339111328e-01
2.505463063716888428e-01 -6.819067895412445068e-02 -5.728414282202720642e-02
2.977460920810699463e-01 -2.661052905023097992e-02 -1.778485476970672607e-01
5.885908380150794983e-03 -5.532738566398620605e-02 1.540966629981994629e-01
-2.116558700799942017e-01 -5.063575878739356995e-02 4.688534140586853027e-02
-9.243195503950119019e-02 -1.042184978723526001e-02 -5.265752673149108887e-01
-7.182737588882446289e-01 5.861202627420425415e-02 -1.458836346864700317e-01
-5.760566890239715576e-02 -1.531970407813787460e-02 4.762203991413116455e-01
-8.477832078933715820e-01 7.877053320407867432e-02 2.745321691036224365e-01
-7.928241491317749023e-01 5.093013867735862732e-02 -8.558855950832366943e-02
-5.879395008087158203e-01 7.799719274044036865e-02 2.180320583283901215e-02
1.638028323650360107e-01 -4.594413936138153076e-02 2.404019087553024292e-01
2.970500886440277100e-01 6.773748993873596191e-02 4.410130530595779419e-02
2.798044979572296143e-01 -4.143296554684638977e-02 -3.029498755931854248e-01
-1.257115304470062256e-01 3.329788520932197571e-02 -7.487571835517883301e-01
3.635576963424682617e-01 8.937535807490348816e-03 6.776564568281173706e-02
-1.291915774345397949e-01 -3.049303777515888214e-03 -5.526370406150817871e-01
5.747580528259277344e-01 4.118599742650985718e-02 6.315135210752487183e-02
-1.362290233373641968e-01 2.007369324564933777e-02 6.729075908660888672e-01
1.390300393104553223e-01 4.556828364729881287e-02 -7.403994351625442505e-02
8.893287777900695801e-01 -2.908523194491863251e-02 4.415286332368850708e-02
1.145665794610977173e-01 -4.509345814585685730e-02 2.446037381887435913e-01
4.092881083488464355e-01 -9.079810976982116699e-02 2.976551651954650879e-01
2.733332477509975433e-02 -4.754238575696945190e-02 -1.648305654525756836e-01
-5.821909904479980469e-01 5.560602992773056030e-03 -6.589405238628387451e-02
3.493788093328475952e-02 -5.684829875826835632e-02 -1.557566672563552856e-01
-1.906466782093048096e-01 3.378767147660255432e-02 7.920542359352111816e-01
2.032691836357116699e-01 4.221712797880172729e-02 -7.558663189411163330e-02
-7.834151983261108398e-01 7.361491024494171143e-02 1.260040886700153351e-02
9.531030058860778809e-02 8.609152585268020630e-02 -1.794669590890407562e-02
8.809242397546768188e-02 -3.277150914072990417e-02 3.431278169155120850e-01
1.540329158306121826e-01 -5.308468639850616455e-02 1.817308366298675537e-01
3.950061276555061340e-02 -5.009442195296287537e-02 -7.986580580472946167e-02
3.741525113582611084e-01 8.310126513242721558e-02 -2.810328453779220581e-02
4.330555796623229980e-01 8.807644248008728027e-02 -4.078052472323179245e-03
-7.287139892578125000e-01 2.480814009904861450e-01 -1.103815250098705292e-02
-1.179790310561656952e-02 -3.540087863802909851e-02 -3.290631473064422607e-01
-2.906925603747367859e-02 -1.067963615059852600e-02 5.157383084297180176e-01
3.557726740837097168e-01 -6.239059567451477051e-02 3.229693174362182617e-01
4.153708368539810181e-02 2.084704115986824036e-02 -8.167027682065963745e-02
-8.962307125329971313e-03 -1.666016317903995514e-02 3.684934973716735840e-01
1.062660142779350281e-01 -1.032231822609901428e-01 -1.068297475576400757e-01
2.490254044532775879e-01 -8.644159883260726929e-02 -3.306614160537719727e-01
-3.175782561302185059e-01 -2.666208893060684204e-02 -7.112701237201690674e-02
2.249743789434432983e-01 -9.662396460771560669e-02 -2.981036007404327393e-01
-8.103799819946289062e-02 1.126761431805789471e-03 -6.212584376335144043e-01
-7.942419648170471191e-01 6.812416017055511475e-02 1.993888765573501587e-01
-3.863543868064880371e-01 8.578219264745712280e-02 6.490988191217184067e-03
4.153708368539810181e-02 2.084704115986824036e-02 -8.167027682065963745e-02
8.352977633476257324e-01 6.100939586758613586e-02 -4.493641480803489685e-02
2.078834772109985352e-01 -6.803601235151290894e-02 -5.658813938498497009e-02
1.269400864839553833e-01 -1.212421134114265442e-01 -1.363199353218078613e-01
8.961332589387893677e-02 9.117987938225269318e-03 6.779142469167709351e-02
3.687906563282012939e-01 -3.962849453091621399e-02 -3.114566802978515625e-01
-1.479065120220184326e-01 -4.457090690266340971e-04 5.912682414054870605e-01
3.557726740837097168e-01 -6.239059567451477051e-02 3.229693174362182617e-01
3.836131095886230469e-01 -4.212896898388862610e-02 -3.083375096321105957e-01
8.197535872459411621e-01 1.527895778417587280e-02 6.126954779028892517e-02
-2.401674538850784302e-02 -4.272186756134033203e-02 -2.412370145320892334e-01
-2.736007571220397949e-01 -3.181771934032440186e-02 -6.991543620824813843e-02
3.965527936816215515e-02 -5.001708865165710449e-02 -1.320923268795013428e-01
1.176599487662315369e-01 -5.022331327199935913e-02 -2.162064313888549805e-01
-6.773123145103454590e-01 -2.198622096329927444e-03 -3.307846933603286743e-02
3.447654247283935547e-01 -9.267991036176681519e-02 2.752023935317993164e-01
2.505463063716888428e-01 -6.819067895412445068e-02 -5.728414282202720642e-02
4.107308015227317810e-02 -4.243831336498260498e-02 -1.930060982704162598e-01
-1.827328056097030640e-01 1.466028764843940735e-02 -7.244741320610046387e-01
3.175952732563018799e-01 -5.421892926096916199e-02 -1.431253701448440552e-01
-2.216062396764755249e-01 2.512621134519577026e-02 -7.972201704978942871e-01
4.840705096721649170e-01 5.389462783932685852e-02 4.013146832585334778e-02
1.163194924592971802e-01 -1.191282942891120911e-01 9.828697890043258667e-02
2.172151654958724976e-01 -3.313240408897399902e-02 -5.316535830497741699e-01
2.032691836357116699e-01 4.221712797880172729e-02 -7.558663189411163330e-02
5.265786647796630859e-01 8.549863100051879883e-02 -2.055028825998306274e-02
-6.928049325942993164e-01 4.613539949059486389e-02 -5.635613948106765747e-02
1.040490940213203430e-01 -1.421481966972351074e-01 -1.205694973468780518e-01
-7.639793306589126587e-02 8.209591358900070190e-02 -3.119666501879692078e-02
-2.084593772888183594e-01 2.241950668394565582e-02 -7.842537164688110352e-01
4.945097491145133972e-02 -2.787365578114986420e-02 3.806865811347961426e-01
7.323398590087890625e-01 2.053770609200000763e-02 -7.942757755517959595e-02
8.427992463111877441e-01 -1.225825697183609009e-01 4.145176615566015244e-03
2.882339358329772949e-01 -5.558516085147857666e-02 1.574220359325408936e-01
-6.274573802947998047e-01 -1.619615964591503143e-02 -4.774061962962150574e-03
-6.800963282585144043e-01 8.134835213422775269e-02 5.511418450623750687e-03
3.730698525905609131e-01 -9.731998294591903687e-02 2.968818247318267822e-01
-8.009443283081054688e-01 6.595879793167114258e-02 1.660577207803726196e-01
3.220291137695312500e-01 -5.421892926096916199e-02 -2.813220024108886719e-01
2.412403970956802368e-01 -6.153991445899009705e-02 -1.276327073574066162e-01
7.383710145950317383e-02 3.128718957304954529e-02 -7.976269721984863281e-02
3.378310799598693848e-01 -2.382649295032024384e-02 7.926270365715026855e-02
9.995819330215454102e-01 -2.496072463691234589e-02 -1.459553558379411697e-02
-2.466212725266814232e-03 -7.079427689313888550e-02 -4.112124815583229065e-02
-8.639985322952270508e-02 -2.893056347966194153e-02 5.985175445675849915e-02
-1.902857869863510132e-01 1.883634366095066071e-02 7.449575066566467285e-01
6.997037678956985474e-02 -2.519272640347480774e-02 5.192956924438476562e-01
-3.059108508750796318e-03 -3.539090976119041443e-03 -7.883468270301818848e-02
7.525490224361419678e-02 -2.622386068105697632e-02 -7.507106661796569824e-02
5.855848789215087891e-01 7.781674712896347046e-02 -4.024479165673255920e-02
1.217577606439590454e-02 -2.204779535531997681e-02 4.259272217750549316e-01
-7.828222513198852539e-01 2.651823498308658600e-02 1.922539435327053070e-02
-1.596871316432952881e-01 -5.847231671214103699e-02 4.861247912049293518e-02
3.554117977619171143e-01 -9.819643944501876831e-02 -3.123846948146820068e-01
-5.131313204765319824e-01 4.374801646918058395e-03 -7.375638186931610107e-02
-4.837801214307546616e-03 8.212170004844665527e-02 1.822004467248916626e-02
4.884270131587982178e-01 2.669868059456348419e-02 6.807498633861541748e-02
4.569003582000732422e-01 -6.200391799211502075e-02 3.482117131352424622e-02
-3.863543868064880371e-01 8.578219264745712280e-02 6.490988191217184067e-03
-2.954606115818023682e-01 7.468183524906635284e-03 6.758519262075424194e-02
-7.354420423507690430e-01 5.510619655251502991e-02 1.070257648825645447e-01
7.376759648323059082e-01 8.591108769178390503e-02 -1.374485623091459274e-02
-7.711972296237945557e-02 -2.470294944941997528e-02 -7.290570437908172607e-02
-1.463349908590316772e-02 -1.029295660555362701e-02 -5.249512791633605957e-01
7.763432264328002930e-01 8.070389926433563232e-02 -2.158141508698463440e-02
-2.655580043792724609e-01 4.146955907344818115e-02 -7.592175155878067017e-02
-8.074919581413269043e-01 7.593493908643722534e-02 -2.683298289775848389e-01
-7.711972296237945557e-02 -2.470294944941997528e-02 -7.290570437908172607e-02
-4.404636099934577942e-02 2.615734003484249115e-02 -6.667569279670715332e-01
7.458373904228210449e-03 1.332978601567447186e-03 -4.738589823246002197e-01
8.809242397546768188e-02 -3.277150914072990417e-02 3.431278169155120850e-01
5.845795273780822754e-01 8.145146816968917847e-02 2.033385448157787323e-02
6.543342769145965576e-02 -6.022522971034049988e-02 1.160996779799461365e-01
8.435468673706054688e-01 -1.119877472519874573e-01 3.578057512640953064e-03
-9.740713238716125488e-02 3.069429472088813782e-02 -7.994313538074493408e-02
6.547734141349792480e-01 -2.820877544581890106e-02 -7.102389633655548096e-02
-2.833449244499206543e-01 -6.081812456250190735e-02 -4.297728091478347778e-02
7.236774265766143799e-02 -2.947190031409263611e-02 -3.818567991256713867e-01
-8.524078875780105591e-03 -4.645970463752746582e-02 2.268168032169342041e-01
4.282599315047264099e-02 -3.194660320878028870e-02 3.473038673400878906e-01
3.093978166580200195e-01 3.881441056728363037e-02 -5.975884571671485901e-02
2.808614075183868408e-01 -1.000524684786796570e-01 3.008000850677490234e-01
-7.162373065948486328e-01 9.859392791986465454e-02 -1.552354916930198669e-02
5.975459218025207520e-01 -3.975738584995269775e-02 5.387121811509132385e-02
3.406666815280914307e-01 -6.458173692226409912e-02 -7.102389633655548096e-02
6.780501455068588257e-02 -1.275835186243057251e-01 -1.501628160476684570e-01
6.406469941139221191e-01 8.735466003417968750e-02 -7.268934859894216061e-04
4.556629955768585205e-01 -5.138333141803741455e-02 4.647289589047431946e-02
2.613989114761352539e-01 -7.530545443296432495e-02 5.190894603729248047e-01
3.623718917369842529e-01 -5.032642185688018799e-02 2.709490060806274414e-01
6.406469941139221191e-01 8.735466003417968750e-02 -7.268934859894216061e-04
-8.155089020729064941e-01 3.198477625846862793e-01 -9.697688743472099304e-03
7.525490224361419678e-02 -2.622386068105697632e-02 -7.507106661796569824e-02
-2.155483663082122803e-01 6.820149719715118408e-02 4.337951540946960449e-02
-5.944613814353942871e-01 9.165961295366287231e-02 2.495375461876392365e-03
-7.915868163108825684e-01 3.192290961742401123e-01 -2.995370188727974892e-03
-7.127314805984497070e-01 2.705341875553131104e-01 -5.134956445544958115e-03
7.962696552276611328e-01 7.521314918994903564e-02 1.687958277761936188e-02
3.175952732563018799e-01 -5.421892926096916199e-02 -1.431253701448440552e-01
3.793339133262634277e-01 5.072391405701637268e-02 -5.682013928890228271e-02
7.263593673706054688e-01 -7.324320077896118164e-02 -2.609259076416492462e-02
7.060203552246093750e-01 -6.141102313995361328e-02 3.497584164142608643e-02
-6.875461935997009277e-01 7.013486325740814209e-02 -1.643923372030258179e-01
-7.931087166070938110e-02 6.838195025920867920e-02 -5.596945807337760925e-02
1.913596838712692261e-01 -8.100242167711257935e-02 5.149649381637573242e-01
-6.685220003128051758e-01 3.198320046067237854e-02 -5.483522638678550720e-02
-1.934049427509307861e-01 -6.218437850475311279e-02 3.451183438301086426e-02
3.184717297554016113e-01 -6.125635281205177307e-02 3.227115273475646973e-01
2.521951682865619659e-02 -7.582100480794906616e-02 -1.428619865328073502e-02
4.556629955768585205e-01 -5.138333141803741455e-02 4.647289589047431946e-02
2.808614075183868408e-01 -1.000524684786796570e-01 3.008000850677490234e-01
-1.624969393014907837e-01 1.022644620388746262e-02 6.425151824951171875e-01
8.613852858543395996e-01 -6.112746149301528931e-02 -3.588828817009925842e-02
7.690375670790672302e-03 -4.143296554684638977e-02 2.130770683288574219e-01
1.225578039884567261e-01 -7.471255958080291748e-02 7.315889000892639160e-03
5.020378828048706055e-01 8.619464933872222900e-02 -1.743113249540328979e-02
-8.524078875780105591e-03 -4.645970463752746582e-02 2.268168032169342041e-01
-8.222885727882385254e-01 6.085472181439399719e-02 1.454867571592330933e-01
-1.507421135902404785e-01 5.895712878555059433e-03 6.424894332885742188e-01
-3.964594304561614990e-01 2.259995415806770325e-02 -8.167027682065963745e-02
-7.240223288536071777e-01 2.116568833589553833e-01 -1.217239070683717728e-02
-2.005454897880554199e-01 -4.112362861633300781e-02 -6.612604856491088867e-02
6.508293747901916504e-01 2.543555013835430145e-02 6.841009110212326050e-02
2.202311903238296509e-01 -3.148259967565536499e-02 -1.086084321141242981e-01
-1.043414399027824402e-01 2.329596318304538727e-02 -8.167027682065963745e-02
1.907410025596618652e-01 -2.550207078456878662e-02 6.395047903060913086e-02
1.398024335503578186e-02 -5.097087845206260681e-02 -1.500339210033416748e-01
-1.121779978275299072e-01 -1.622193492949008942e-02 -4.622072875499725342e-01
7.763432264328002930e-01 8.070389926433563232e-02 -2.158141508698463440e-02
-5.288826674222946167e-02 5.935959145426750183e-02 5.276276171207427979e-02
6.012313067913055420e-02 1.097400952130556107e-02 -4.888103306293487549e-01
-1.121779978275299072e-01 -1.622193492949008942e-02 -4.622072875499725342e-01
2.171378135681152344e-01 -3.073503635823726654e-02 1.044221743941307068e-01
1.069362387061119080e-01 -1.771707274019718170e-02 4.361096024513244629e-01
-4.657262191176414490e-02 -7.605301588773727417e-02 -1.339957671007141471e-04
3.805970549583435059e-01 -8.355446159839630127e-02 -2.825078070163726807e-01
4.767228290438652039e-02 -4.199343093205243349e-04 -4.322015047073364258e-01
6.607023477554321289e-01 -7.295964658260345459e-02 -2.781972661614418030e-02
-8.482738584280014038e-02 -3.281305311247706413e-03 5.029265880584716797e-01
5.318880826234817505e-02 8.196702599525451660e-02 -3.160911425948143005e-02
8.404276967048645020e-01 -1.151584684848785400e-01 -7.454989477992057800e-03
-7.687215805053710938e-01 3.156974911689758301e-01 -9.465685114264488220e-03
-4.580176174640655518e-01 2.058925665915012360e-02 6.730163842439651489e-02
-1.981739103794097900e-01 1.053578127175569534e-02 -6.897768378257751465e-01
-4.811930656433105469e-02 1.814033836126327515e-02 5.929438471794128418e-01
1.961286365985870361e-01 -2.777054719626903534e-02 1.474974453449249268e-01
-7.076273560523986816e-01 4.237179458141326904e-02 -2.872196026146411896e-02
-1.057850196957588196e-01 1.574297063052654266e-02 -6.385040283203125000e-01
-5.582698434591293335e-02 -2.761587873101234436e-02 6.067665293812751770e-02
1.020126193761825562e-01 3.317902563139796257e-03 4.028300046920776367e-01
6.863516569137573242e-01 -3.594221547245979309e-02 5.526324734091758728e-02
8.334932923316955566e-01 -1.378174573183059692e-01 -1.872004009783267975e-02
-6.621556729078292847e-02 -3.238483145833015442e-02 -3.329814374446868896e-01
-2.234116569161415100e-02 -6.793289631605148315e-02 -5.571168288588523865e-02
-1.149362623691558838e-01 -7.066538184881210327e-02 -3.988389670848846436e-02
-4.969177767634391785e-02 7.361491024494171143e-02 -4.777201637625694275e-02
-1.696117073297500610e-01 7.829077541828155518e-03 -6.699018478393554688e-01
4.491926729679107666e-01 -6.251949071884155273e-02 -4.689555987715721130e-02
8.613852858543395996e-01 -6.112746149301528931e-02 -3.588828817009925842e-02
2.678692042827606201e-01 -4.468100517988204956e-02 2.049054056406021118e-01
-1.914715915918350220e-01 -2.606918290257453918e-02 -7.143635302782058716e-02
-4.722987115383148193e-01 5.678177624940872192e-02 5.284009501338005066e-02
3.036492764949798584e-01 5.974626541137695312e-02 5.242764949798583984e-02
5.879306793212890625e-01 8.276615291833877563e-02 -2.908285520970821381e-02
-8.146325349807739258e-01 7.709495723247528076e-02 2.359938323497772217e-01
-7.834667563438415527e-01 8.023989200592041016e-02 -2.840287387371063232e-01
1.757896840572357178e-01 1.582030393183231354e-02 -8.154138177633285522e-02
-4.920199140906333923e-02 -1.373724662698805332e-03 6.645095348358154297e-02
1.828786730766296387e-01 -4.888284578919410706e-02 -5.576895475387573242e-01
8.525681495666503906e-02 -1.103895083069801331e-01 -1.287411749362945557e-01
-3.169338107109069824e-01 -6.574175506830215454e-02 -2.684015594422817230e-02
6.939046978950500488e-01 8.160613477230072021e-02 1.968939974904060364e-02
-3.717897534370422363e-01 8.467373251914978027e-02 -2.317966148257255554e-02
-6.922893524169921875e-01 1.378282755613327026e-01 8.455734932795166969e-04
-6.863871961832046509e-02 4.737275093793869019e-02 6.034153327345848083e-02
5.516350269317626953e-01 6.291697919368743896e-02 -6.238822638988494873e-02
-1.865488663315773010e-02 -3.808180615305900574e-02 2.520278394222259521e-01
8.152424097061157227e-01 3.301432356238365173e-02 5.748016387224197388e-02
1.793470531702041626e-01 -8.514269255101680756e-03 -2.940564155578613281e-01
-6.711771488189697266e-01 -2.456407761201262474e-03 2.481924928724765778e-02
7.091137766838073730e-01 -1.637660339474678040e-02 -7.313770055770874023e-02
-6.800963282585144043e-01 8.134835213422775269e-02 5.511418450623750687e-03
1.810226440429687500e-01 -3.728268295526504517e-02 7.323061674833297729e-02
4.073805212974548340e-01 4.742431268095970154e-02 -7.321504503488540649e-02
-9.714934229850769043e-02 2.151727117598056793e-02 -7.497367858886718750e-01
1.139736846089363098e-01 -2.155800722539424896e-02 6.217179074883460999e-02
7.504867762327194214e-02 -7.437742501497268677e-02 5.270290970802307129e-01
6.775346398353576660e-02 3.855662792921066284e-02 -7.723643630743026733e-02
2.412403970956802368e-01 -6.153991445899009705e-02 -1.276327073574066162e-01
1.032241955399513245e-01 -5.012019723653793335e-02 -2.161548584699630737e-01
6.420390009880065918e-01 7.887364923954010010e-02 -3.823409974575042725e-02
2.054345458745956421e-01 -2.395537495613098145e-02 5.189089775085449219e-01
-6.021174788475036621e-01 4.948656260967254639e-02 -1.670934446156024933e-02
-1.764953881502151489e-02 -1.026718225330114365e-02 -4.247000813484191895e-01
5.516350269317626953e-01 6.291697919368743896e-02 -6.238822638988494873e-02
-8.639985322952270508e-02 -2.893056347966194153e-02 5.985175445675849915e-02
-7.884676456451416016e-01 5.067235603928565979e-02 6.928654760122299194e-02
-3.885971009731292725e-01 -5.952921509742736816e-02 4.454514477401971817e-03
5.951743125915527344e-01 8.439017087221145630e-02 1.113105379045009613e-02
4.330555796623229980e-01 8.807644248008728027e-02 -4.078052472323179245e-03
1.173754781484603882e-02 -3.828803449869155884e-02 2.288532853126525879e-01
-6.447545289993286133e-01 1.482684165239334106e-01 -1.145060174167156219e-02
-7.928241491317749023e-01 5.093013867735862732e-02 -8.558855950832366943e-02
1.270947605371475220e-01 -2.868851646780967712e-03 4.134763777256011963e-01
-1.507421135902404785e-01 5.895712878555059433e-03 6.424894332885742188e-01
7.599740624427795410e-01 7.312512397766113281e-02 -4.238437861204147339e-02
-3.138920068740844727e-01 -2.921412512660026550e-02 5.766061320900917053e-02
4.411756992340087891e-01 -7.306274026632308960e-02 -2.740727551281452179e-02
-6.447545289993286133e-01 1.482684165239334106e-01 -1.145060174167156219e-02
-1.954929679632186890e-01 2.829692699015140533e-02 -8.141047954559326172e-01
2.962767481803894043e-01 -6.037989631295204163e-02 -2.792597711086273193e-01
2.877441644668579102e-01 6.479877978563308716e-02 4.752979800105094910e-02
9.047441482543945312e-01 6.565942894667387009e-03 -6.143443286418914795e-02
-1.248866319656372070e-01 2.391463890671730042e-02 -7.863674759864807129e-01
-6.870306134223937988e-01 5.647243931889533997e-02 6.052198633551597595e-02
4.769806191325187683e-02 -8.746271021664142609e-03 -3.873733282089233398e-01
3.254051133990287781e-02 -1.258048415184020996e-01 1.234206631779670715e-01
-9.297422133386135101e-03 -4.692370444536209106e-02 -2.359009236097335815e-01
-1.932511664927005768e-02 5.410084873437881470e-02 -6.960610300302505493e-02
-6.481829881668090820e-01 2.528088353574275970e-02 4.482309147715568542e-02
3.988995254039764404e-01 -6.102436408400535583e-02 2.669275999069213867e-01
3.487352728843688965e-01 -3.318395465612411499e-02 -1.066235229372978210e-01
9.170135855674743652e-02 -4.725882411003112793e-02 5.399955511093139648e-01
-7.563996315002441406e-01 5.930803716182708740e-02 1.366448551416397095e-01
8.202176094055175781e-01 -2.508961781859397888e-02 -6.537848711013793945e-02
5.048735141754150391e-01 -3.581332415342330933e-02 5.567568913102149963e-02
-1.954929679632186890e-01 2.829692699015140533e-02 -8.141047954559326172e-01
-7.068540453910827637e-01 5.783867835998535156e-02 -1.406248956918716431e-01
9.280981123447418213e-02 -4.767127707600593567e-02 -8.458320796489715576e-02
3.143214583396911621e-01 5.698800459504127502e-02 -4.991159588098526001e-02
5.102095603942871094e-01 4.536205902695655823e-02 -7.414305210113525391e-02
-8.352549672126770020e-01 7.990477234125137329e-02 -5.160734523087739944e-03
7.763432264328002930e-01 8.070389926433563232e-02 -2.158141508698463440e-02
-5.182095766067504883e-01 3.865974023938179016e-02 -9.800801053643226624e-03
-7.604210376739501953e-01 5.105902999639511108e-02 -7.259636372327804565e-02
4.455312713980674744e-02 -1.066001206636428833e-01 1.234206631779670715e-01
3.689701482653617859e-02 -7.480821295757777989e-06 -4.421003162860870361e-01
1.877497881650924683e-02 -3.620000183582305908e-02 -3.241395354270935059e-01
-8.897767215967178345e-02 2.106326632201671600e-03 5.350719094276428223e-01
-1.257115304470062256e-01 3.329788520932197571e-02 -7.487571835517883301e-01
-3.174493908882141113e-01 -5.906521156430244446e-02 2.938198111951351166e-02
2.363683283329010010e-01 -5.429626256227493286e-02 4.863770008087158203e-01
1.156492531299591064e-01 -5.708029866218566895e-02 -1.583860367536544800e-01
-6.556071043014526367e-01 6.477300077676773071e-02 -1.289473921060562134e-01
-7.026006579399108887e-01 2.853890182450413704e-03 -2.934063598513603210e-02
1.558631658554077148e-01 -2.524428628385066986e-02 -5.148204565048217773e-01
4.840705096721649170e-01 5.389462783932685852e-02 4.013146832585334778e-02
7.561579346656799316e-02 -3.204971924424171448e-02 -2.319826483726501465e-01
-3.949384987354278564e-01 8.758666366338729858e-02 -1.114126481115818024e-02
-5.718797445297241211e-01 4.580028727650642395e-02 -6.323889642953872681e-02
3.450231850147247314e-01 1.705765537917613983e-02 6.877098977565765381e-02
2.224223464727401733e-01 -3.418930247426033020e-02 5.185738801956176758e-01
-6.775701045989990234e-01 5.373995751142501831e-02 -5.344320833683013916e-02
-4.984635412693023682e-01 3.865974023938179016e-02 4.740090295672416687e-02
-3.851170539855957031e-01 -4.609880968928337097e-02 4.098214581608772278e-02
-2.879333794116973877e-01 -1.704683341085910797e-02 6.106332316994667053e-02
2.511907517910003662e-01 -2.954923361539840698e-02 -5.068808197975158691e-01
7.632220983505249023e-01 -7.695524394512176514e-02 -6.887869909405708313e-03
3.988995254039764404e-01 -6.102436408400535583e-02 2.669275999069213867e-01
-7.586681246757507324e-01 7.467181235551834106e-02 -2.787128277122974396e-02
-1.296040266752243042e-01 9.463094756938517094e-04 5.636598467826843262e-01
1.304201334714889526e-01 -3.692179173231124878e-02 1.369026452302932739e-01
-8.097088932991027832e-01 2.317638248205184937e-01 -5.341181531548500061e-03
1.916165277361869812e-02 3.744816407561302185e-02 -7.772622257471084595e-02
-1.091361716389656067e-01 1.308781653642654419e-02 6.125094294548034668e-01
-3.502400964498519897e-02 -5.285268276929855347e-02 -1.856077611446380615e-01
8.992534279823303223e-01 4.995056614279747009e-02 -2.351477555930614471e-02
2.215458899736404419e-01 -6.862890720367431641e-02 -5.502654314041137695e-01
-5.420544147491455078e-01 3.706149756908416748e-02 -2.665971033275127411e-02
2.737466394901275635e-01 1.656786724925041199e-02 6.871943920850753784e-02
1.486968547105789185e-01 -6.916024256497621536e-03 -3.246035277843475342e-01
-1.248866319656372070e-01 2.391463890671730042e-02 -7.863674759864807129e-01
-7.852712273597717285e-01 6.711880862712860107e-02 1.922998726367950439e-01
3.689701482653617859e-02 -7.480821295757777989e-06 -4.421003162860870361e-01
-9.444265067577362061e-02 -2.795098908245563507e-02 -3.811349868774414062e-01
7.376759648323059082e-01 8.591108769178390503e-02 -1.374485623091459274e-02
1.369668263942003250e-02 -4.853775724768638611e-03 6.557449698448181152e-02
-1.329303532838821411e-02 -2.663630433380603790e-02 -7.409150153398513794e-02
-7.573792338371276855e-01 1.757737100124359131e-01 -1.597741065779700875e-04
1.474594920873641968e-01 -3.279728442430496216e-02 -3.591977953910827637e-01
-6.405021250247955322e-02 -1.786168548278510571e-03 4.940073192119598389e-01
9.247470647096633911e-02 -2.867277711629867554e-02 -5.237655043601989746e-01
4.740943908691406250e-01 3.193164616823196411e-02 6.665717810392379761e-02
-3.190992176532745361e-01 5.946270376443862915e-02 5.268542841076850891e-02
-1.658223271369934082e-01 1.226291898638010025e-02 6.817809492349624634e-02
-7.978767156600952148e-01 2.365327924489974976e-01 -3.124260809272527695e-03
-6.401660442352294922e-01 8.601419627666473389e-02 -1.508532091975212097e-02
3.698475658893585205e-01 -6.966003775596618652e-02 -3.485716134309768677e-02
-7.620708346366882324e-01 7.673406600952148438e-02 2.454286366701126099e-01
2.009233683347702026e-01 -8.657049387693405151e-02 2.827811837196350098e-01
2.117244154214859009e-01 8.335904777050018311e-02 1.435332372784614563e-02
-1.138793602585792542e-01 -4.560901969671249390e-02 6.688918173313140869e-02
-1.536034792661666870e-01 1.384537667036056519e-03 -6.186806559562683105e-01
-3.561691567301750183e-02 7.313515990972518921e-03 5.269259810447692871e-01
6.407758593559265137e-01 8.722577244043350220e-02 -1.271373219788074493e-02
3.184717297554016113e-01 -6.125635281205177307e-02 3.227115273475646973e-01
1.991446614265441895e-01 -5.517271906137466431e-02 -3.058370351791381836e-01
8.048280477523803711e-01 -1.003518048673868179e-02 -7.171990722417831421e-02
-2.234116569161415100e-02 -6.793289631605148315e-02 -5.571168288588523865e-02
-2.312214821577072144e-01 -6.275147944688796997e-02 3.167624026536941528e-02
-6.021174788475036621e-01 4.948656260967254639e-02 -1.670934446156024933e-02
9.033511579036712646e-02 -1.205460950732231140e-01 -1.067266315221786499e-01
3.201473057270050049e-01 -5.032642185688018799e-02 -3.029498755931854248e-01
7.909078598022460938e-01 -5.496649071574211121e-02 -5.259252712130546570e-02
2.962767481803894043e-01 -6.037989631295204163e-02 -2.792597711086273193e-01
-1.891267299652099609e-02 -5.720918998122215271e-02 1.367479711771011353e-01
8.809242397546768188e-02 -3.277150914072990417e-02 3.431278169155120850e-01
-4.366475641727447510e-01 -4.138140752911567688e-02 4.178126901388168335e-02
6.545919924974441528e-02 9.942885488271713257e-03 4.663215875625610352e-01
1.668446511030197144e-01 -7.053649425506591797e-02 -4.243593290448188782e-02
-3.342825472354888916e-01 -2.333670482039451599e-02 -7.184880226850509644e-02
5.240511964075267315e-04 -5.749275162816047668e-02 -1.084537655115127563e-01
-1.556399613618850708e-01 -7.669746130704879761e-02 -8.589228615164756775e-03
2.806551754474639893e-01 -6.321550160646438599e-02 -3.104255497455596924e-01
7.058905810117721558e-02 -3.591644018888473511e-02 -3.296044766902923584e-01
1.307800691574811935e-02 -6.767511367797851562e-02 -5.803171545267105103e-02
9.920279681682586670e-02 1.023643300868570805e-03 -4.046446681022644043e-01
1.169639378786087036e-01 -1.113433018326759338e-01 1.372377425432205200e-01
2.873317301273345947e-01 -7.110361009836196899e-02 2.739706449210643768e-02
6.784635782241821289e-01 2.979205921292304993e-02 -8.002047240734100342e-02
1.195933148264884949e-01 -1.476833247579634190e-03 -4.369189143180847168e-01
1.991446614265441895e-01 -5.517271906137466431e-02 -3.058370351791381836e-01
-1.267942190170288086e-01 -4.800638929009437561e-02 6.444026529788970947e-02
-6.315561532974243164e-01 -7.534704171121120453e-03 3.703809157013893127e-02
6.520142406225204468e-02 -2.972968667745590210e-02 -7.563818991184234619e-02
-1.169727295637130737e-01 3.369452198967337608e-03 5.672945976257324219e-01
-7.711972296237945557e-02 -2.470294944941997528e-02 -7.290570437908172607e-02
1.453198939561843872e-01 -6.133369728922843933e-02 1.109955981373786926e-01
1.483101695775985718e-01 -5.573983862996101379e-02 -1.717133522033691406e-01
-3.218841180205345154e-02 -9.097120491787791252e-04 -6.078538298606872559e-01
-8.639985322952270508e-02 -2.893056347966194153e-02 5.985175445675849915e-02
1.618952453136444092e-01 -5.927145108580589294e-02 2.949484586715698242e-01
1.078375242650508881e-02 -2.869856171309947968e-02 2.845340967178344727e-01
-2.401674538850784302e-02 -4.272186756134033203e-02 -2.412370145320892334e-01
-1.783247292041778564e-01 3.922685608267784119e-02 6.402780860662460327e-02
-7.620708346366882324e-01 7.673406600952148438e-02 2.454286366701126099e-01
2.867378853261470795e-02 -3.564865794032812119e-03 -5.633091926574707031e-01
-1.157353892922401428e-01 -7.409386336803436279e-02 -2.287032082676887512e-02
-6.625413894653320312e-01 8.134835213422775269e-02 -4.902952816337347031e-03
-4.461348056793212891e-02 -3.455019742250442505e-02 -3.045996725559234619e-01
7.422377914190292358e-02 -1.238972544670104980e-01 9.949854016304016113e-02
3.391200006008148193e-01 -4.486145824193954468e-02 -3.238559961318969727e-01
-3.564269095659255981e-02 -2.908523194491863251e-02 -3.305067121982574463e-01
-1.106055229902267456e-01 1.295892428606748581e-02 7.029649615287780762e-01
2.935700416564941406e-01 -6.424662470817565918e-02 -1.073968559503555298e-01
7.980741262435913086e-01 -7.476410269737243652e-02 1.495636097388342023e-04
8.288523554801940918e-02 -6.453018635511398315e-02 -5.486413836479187012e-01
3.216424286365509033e-01 -2.142912521958351135e-02 -9.613181650638580322e-02
-4.837801214307546616e-03 8.212170004844665527e-02 1.822004467248916626e-02
-6.351650357246398926e-01 5.894714221358299255e-02 5.322677269577980042e-02
-1.226181536912918091e-01 9.143762290477752686e-03 -6.157934665679931641e-01
1.488247886300086975e-02 -5.517271906137466431e-02 1.008132249116897583e-01
-2.116558700799942017e-01 -5.063575878739356995e-02 4.688534140586853027e-02
-4.267745316028594971e-01 3.690682351589202881e-02 -7.788088917732238770e-02
-6.154705286026000977e-01 -1.373724662698805332e-03 4.575110971927642822e-02
8.566927164793014526e-02 -4.725882411003112793e-02 -1.094075590372085571e-01
8.329004645347595215e-01 -1.457571238279342651e-01 5.408306140452623367e-03
9.781077504158020020e-02 -5.287845805287361145e-02 -1.930060982704162598e-01
-7.711448073387145996e-01 6.459255516529083252e-02 -1.563495695590972900e-01
3.602065145969390869e-01 -4.390766844153404236e-02 -3.228763937950134277e-01
-1.120500732213258743e-02 8.709687739610671997e-02 -1.333240792155265808e-02
4.017084091901779175e-02 -9.132940322160720825e-03 5.254824161529541016e-01
5.173501372337341309e-01 6.905217468738555908e-02 4.652444645762443542e-02
8.288523554801940918e-02 -6.453018635511398315e-02 -5.486413836479187012e-01
7.050665616989135742e-01 -6.775245070457458496e-02 2.525747753679752350e-02
-5.680654942989349365e-02 -1.105893970816396177e-04 -5.115724205970764160e-01
1.758928000926971436e-01 -7.362986356019973755e-02 4.945486485958099365e-01
1.737016290426254272e-01 -6.197814270853996277e-02 -1.199765950441360474e-01
2.140702158212661743e-01 -5.656473711133003235e-02 2.795331180095672607e-01
2.754995524883270264e-01 -2.096511237323284149e-02 6.477537751197814941e-02
1.304201334714889526e-01 -3.692179173231124878e-02 1.369026452302932739e-01
2.429150417447090149e-02 -1.039607543498277664e-02 3.814341425895690918e-01
-1.113015413284301758e-01 -2.714184112846851349e-03 5.288593769073486328e-01
-2.597579061985015869e-01 -6.713378429412841797e-02 -3.354247659444808960e-02
3.817312717437744141e-01 -9.626308083534240723e-02 -3.012227416038513184e-01
5.842177197337150574e-02 -3.547821193933486938e-02 3.196439146995544434e-01
3.493788093328475952e-02 -5.684829875826835632e-02 -1.557566672563552856e-01
6.069024652242660522e-02 -1.197469681501388550e-01 -1.222450807690620422e-01
-4.526300132274627686e-01 8.719998598098754883e-02 -1.855518494267016649e-04
6.543342769145965576e-02 -6.022522971034049988e-02 1.160996779799461365e-01
5.670503377914428711e-01 -8.399268984794616699e-02 -6.243417039513587952e-03
3.622172176837921143e-01 3.280810266733169556e-02 -7.927291095256805420e-02
6.863516569137573242e-01 -3.594221547245979309e-02 5.526324734091758728e-02
6.340478062629699707e-01 -7.667168229818344116e-02 -8.718119002878665924e-03
-2.237458378076553345e-01 2.401775307953357697e-02 6.877098977565765381e-02
8.639106154441833496e-02 -4.212896898388862610e-02 -1.501370221376419067e-01
-7.563996315002441406e-01 5.930803716182708740e-02 1.366448551416397095e-01
3.737400770187377930e-01 3.242142871022224426e-02 -7.940179854631423950e-02
-8.356416225433349609e-01 7.168154418468475342e-02 -2.276776880025863647e-01
-7.536671161651611328e-01 6.464411318302154541e-02 -3.578517213463783264e-02
3.911403119564056396e-01 -5.537894368171691895e-02 -5.563434958457946777e-02
6.780501455068588257e-02 -1.275835186243057251e-01 -1.501628160476684570e-01
-7.397469878196716309e-01 7.031530141830444336e-02 1.631705760955810547e-01
-3.399794995784759521e-01 8.833422511816024780e-02 -7.609658408910036087e-03
-3.836992681026458740e-01 6.510812044143676758e-02 -6.011974066495895386e-02
5.574084445834159851e-02 -1.735617779195308685e-02 3.186128139495849609e-01
1.544969230890274048e-01 -2.421316131949424744e-02 3.701433241367340088e-01
-1.179007589817047119e-01 7.557404786348342896e-02 3.152156993746757507e-02
3.201473057270050049e-01 -5.032642185688018799e-02 -3.029498755931854248e-01
3.718066811561584473e-01 -5.452826246619224548e-02 2.915715277194976807e-01
2.147920131683349609e-01 -2.575984783470630646e-02 -1.582829207181930542e-01
-5.090841650962829590e-01 -4.169074073433876038e-02 -1.642578467726707458e-02
-1.690188199281692505e-01 -3.803024813532829285e-02 -6.754385679960250854e-02
2.570939362049102783e-01 -2.996168844401836395e-02 2.300906479358673096e-01
-1.556399613618850708e-01 -7.669746130704879761e-02 -8.589228615164756775e-03
9.920279681682586670e-02 1.023643300868570805e-03 -4.046446681022644043e-01
-1.271035522222518921e-01 3.910798579454421997e-03 6.279505491256713867e-01
9.817167371511459351e-02 -6.477796006947755814e-03 5.193987488746643066e-01
3.028759360313415527e-01 -7.600146532058715820e-02 3.233301937580108643e-01
-6.457855701446533203e-01 5.853468924760818481e-02 -6.805941462516784668e-02
1.346468087285757065e-02 -6.013792939484119415e-03 -7.813866436481475830e-02
8.145979642868041992e-01 7.627005875110626221e-02 -1.864270679652690887e-02
-1.951320916414260864e-01 -7.138717174530029297e-02 1.850360445678234100e-02
3.610571920871734619e-01 6.443788856267929077e-02 -6.081575527787208557e-02
6.354655623435974121e-01 -4.808372259140014648e-02 4.881870746612548828e-02
1.001308113336563110e-01 -2.947190031409263611e-02 3.704784214496612549e-01
1.295436769723892212e-01 -3.153415769338607788e-02 1.812410503625869751e-01
2.416270673274993896e-01 -5.300735309720039368e-02 2.900505959987640381e-01
8.185411244630813599e-02 -3.395730257034301758e-02 5.047052502632141113e-01
-7.175004482269287109e-01 1.814033836126327515e-02 -4.380217567086219788e-02
4.459704160690307617e-01 -3.107014670968055725e-02 5.758327245712280273e-02
-8.877145498991012573e-02 -1.800062321126461029e-02 4.217769205570220947e-01
-7.552147656679153442e-02 -1.158186700195074081e-02 5.054785609245300293e-01
1.268369704484939575e-01 -5.035219714045524597e-02 2.027658075094223022e-01
3.401253521442413330e-01 8.477684110403060913e-02 9.971038438379764557e-03
6.359037756919860840e-01 4.474338144063949585e-02 -7.442661374807357788e-02
8.183873295783996582e-01 7.039263844490051270e-02 2.056585624814033508e-02
