8.004116415977478027e-01 4.444218426942825317e-02 -6.514639407396316528e-02
-2.702487111091613770e-01 4.744720458984375000e-02 -6.478681415319442749e-02
7.817949354648590088e-02 -7.352411001920700073e-02 2.474013715982437134e-01
1.063804402947425842e-01 -8.138338476419448853e-02 -2.435983270406723022e-01
4.814942479133605957e-01 8.674361556768417358e-02 -1.686060614883899689e-02
1.478086262941360474e-01 -4.416737705469131470e-02 2.752684354782104492e-01
1.637583374977111816e-01 -1.248405948281288147e-01 2.474784106016159058e-01
-2.530106157064437866e-02 -5.695797130465507507e-02 4.816630389541387558e-03
2.024126648902893066e-01 -9.723038226366043091e-02 -2.631181180477142334e-01
-3.388761579990386963e-01 1.495702844113111496e-02 -7.131054252386093140e-02
1.429543644189834595e-01 3.347894409671425819e-03 6.745973974466323853e-02
4.440470933914184570e-01 3.810211084783077240e-03 -6.984655559062957764e-02
-3.970974683761596680e-02 5.076042935252189636e-02 -6.342557072639465332e-02
-8.000783622264862061e-02 -1.788892550393939018e-03 5.353439450263977051e-01
6.003594994544982910e-01 6.902170926332473755e-02 4.755469411611557007e-02
-2.584042400121688843e-02 -1.881733722984790802e-02 -1.942851990461349487e-01
8.334195613861083984e-02 -7.914888858795166016e-02 -2.620907723903656006e-01
2.219324558973312378e-01 -7.352411001920700073e-02 2.890093326568603516e-01
7.494331896305084229e-02 -8.741911500692367554e-02 2.495844960212707520e-01
1.941938251256942749e-01 -3.695018962025642395e-02 -2.732889652252197266e-01
1.868482083082199097e-01 -3.235277161002159119e-02 2.464253753423690796e-01
-8.010842204093933105e-01 5.972412601113319397e-02 -1.573051325976848602e-02
-4.697830229997634888e-02 -1.242204196751117706e-02 -4.382568299770355225e-01
1.090001985430717468e-01 -1.140533536672592163e-01 2.526665627956390381e-01
1.290593594312667847e-01 -6.545934826135635376e-02 -2.561064064502716064e-01
1.198645010590553284e-01 -6.908078491687774658e-02 2.862611413002014160e-01
-7.956391572952270508e-01 7.028021663427352905e-02 -2.780196256935596466e-02
-1.867460645735263824e-02 -2.297813072800636292e-02 -3.118919134140014648e-01
2.269921898841857910e-01 -1.057317480444908142e-01 2.791723906993865967e-01
-3.606262803077697754e-02 -2.369728125631809235e-02 2.700802683830261230e-01
-3.331743180751800537e-01 8.682067692279815674e-02 1.390874199569225311e-02
4.664434492588043213e-01 2.171190455555915833e-02 -7.128485292196273804e-02
-5.241913255304098129e-03 -1.478495728224515915e-02 -2.160908430814743042e-01
9.538772702217102051e-02 -7.398641109466552734e-02 2.585224807262420654e-01
9.782769531011581421e-02 -4.385916516184806824e-02 2.536682486534118652e-01
2.953628003597259521e-01 -5.020309984683990479e-02 -1.742565259337425232e-02
8.594076037406921387e-01 6.945833563804626465e-02 -2.353842742741107941e-02
-5.372074842453002930e-01 -4.547725617885589600e-02 2.546651102602481842e-02
-3.016601204872131348e-01 7.110210508108139038e-02 4.485788196325302124e-02
8.287667036056518555e-01 6.537459045648574829e-02 -4.501019045710563660e-02
-4.451562762260437012e-01 2.957118675112724304e-02 -7.025749981403350830e-02
-5.390567183494567871e-01 5.656500160694122314e-02 -5.967571586370468140e-02
-2.855049371719360352e-01 6.750635802745819092e-02 -5.155959352850914001e-02
-4.561705142259597778e-02 -5.718531552702188492e-03 4.846695363521575928e-01
9.574729949235916138e-02 6.581121683120727539e-02 5.050834640860557556e-02
8.287667036056518555e-01 6.537459045648574829e-02 -4.501019045710563660e-02
-6.182361394166946411e-02 -1.663420535624027252e-02 -6.571143865585327148e-02
4.495177567005157471e-01 8.048054762184619904e-03 6.807615607976913452e-02
-4.535806179046630859e-01 -5.105067044496536255e-02 -1.097898650914430618e-02
1.442642509937286377e-01 -7.665755599737167358e-02 -2.562605142593383789e-01
1.117227002978324890e-01 -9.648170322179794312e-03 1.419688165187835693e-01
-3.405199646949768066e-01 -4.755765944719314575e-02 -2.523356862366199493e-02
1.618577390909194946e-01 -7.485967129468917847e-02 -2.899835407733917236e-01
-7.823862433433532715e-01 4.896255955100059509e-02 -1.858142949640750885e-02
-4.574547335505485535e-02 -2.503284998238086700e-02 -1.034411415457725525e-01
-6.744623780250549316e-01 6.131652742624282837e-02 -9.617738425731658936e-03
8.206505775451660156e-01 5.366271734237670898e-02 5.618449300527572632e-02
7.599635422229766846e-02 -9.486744552850723267e-02 2.575978934764862061e-01
2.097069174051284790e-01 -3.073467686772346497e-02 -7.205536961555480957e-02
-4.761568009853363037e-01 6.288324296474456787e-02 5.276853218674659729e-02
-3.534389436244964600e-01 -5.228349938988685608e-02 -7.310985238291323185e-04
2.269921898841857910e-01 -1.057317480444908142e-01 2.791723906993865967e-01
-4.211418032646179199e-01 8.643540740013122559e-02 1.683671027421951294e-02
7.181460261344909668e-01 -2.541810646653175354e-02 -5.587449297308921814e-02
4.653688892722129822e-02 -5.205234512686729431e-02 -5.864835903048515320e-02
7.286292314529418945e-02 -1.237067114561796188e-02 -2.731862366199493408e-01
-6.115881204605102539e-01 8.820760250091552734e-02 3.378330264240503311e-03
-3.783780336380004883e-01 4.449355229735374451e-02 6.368420273065567017e-02
-6.611581444740295410e-01 7.829360663890838623e-02 3.145086765289306641e-02
9.791717529296875000e-01 -2.636455465108156204e-03 -2.818722091615200043e-02
1.126730144023895264e-01 -6.222317740321159363e-02 -2.486323863267898560e-01
-8.886407017707824707e-01 2.839705348014831543e-01 -2.272134181112051010e-03
-8.771300315856933594e-02 -3.499821200966835022e-02 5.664680525660514832e-02
-1.322746276855468750e-01 4.426620434969663620e-03 -5.215755105018615723e-01
-5.594199523329734802e-02 -2.074362710118293762e-02 -2.713883519172668457e-01
-8.095855712890625000e-01 6.737793236970901489e-02 -7.649869471788406372e-02
7.044862955808639526e-02 -7.319021970033645630e-02 2.436001300811767578e-01
9.312754124402999878e-02 -7.501377165317535400e-02 2.323762625455856323e-01
-4.332903027534484863e-01 -3.117130324244499207e-02 -5.145685747265815735e-02
1.343245655298233032e-01 -4.439853131771087646e-02 2.526408731937408447e-01
-2.341884672641754150e-01 2.666890434920787811e-02 -6.954814791679382324e-01
2.793617248535156250e-01 6.740362197160720825e-02 4.927551746368408203e-02
-2.702487111091613770e-01 4.744720458984375000e-02 -6.478681415319442749e-02
2.106828987598419189e-01 -7.986804097890853882e-02 -2.044303417205810547e-01
-6.209884881973266602e-01 8.789939433336257935e-02 5.741252098232507706e-03
7.557986974716186523e-01 7.680393755435943604e-02 3.743522241711616516e-02
8.464886546134948730e-01 4.616301134228706360e-02 5.631291493773460388e-02
-2.312604933977127075e-01 6.157336756587028503e-02 5.377020686864852905e-02
8.066785335540771484e-01 1.315916143357753754e-02 6.897509098052978516e-02
5.755529925227165222e-02 -1.106079109013080597e-02 2.978702783584594727e-01
1.618577390909194946e-01 -7.485967129468917847e-02 -2.899835407733917236e-01
2.163333743810653687e-01 -7.082729041576385498e-02 -2.585977613925933838e-01
1.193508356809616089e-01 -7.578430324792861938e-02 -2.645050585269927979e-01
9.791717529296875000e-01 -2.636455465108156204e-03 -2.818722091615200043e-02
-8.169881999492645264e-03 -3.355606226250529289e-03 3.977807760238647461e-01
6.996022462844848633e-01 -5.035720020532608032e-02 -1.629556156694889069e-02
9.538730978965759277e-01 1.357009727507829666e-02 -3.144907951354980469e-02
5.755745172500610352e-01 3.106085956096649170e-02 -7.005202770233154297e-02
9.988658130168914795e-03 3.095812350511550903e-02 6.774226576089859009e-02
-1.505615860223770142e-01 3.476316342130303383e-03 -5.336983203887939453e-01
-7.015332579612731934e-01 5.260967090725898743e-02 5.089360103011131287e-02
5.755745172500610352e-01 3.106085956096649170e-02 -7.005202770233154297e-02
5.519237369298934937e-02 -9.853643365204334259e-03 -1.839602589607238770e-01
-8.452403359115123749e-03 -3.663820447400212288e-03 3.774391114711761475e-01
-7.873689532279968262e-01 5.047791078686714172e-02 2.767532877624034882e-02
2.247833758592605591e-01 5.659068375825881958e-02 5.759710818529129028e-02
-1.964073926210403442e-01 1.529092341661453247e-02 6.552621722221374512e-01
1.304504461586475372e-02 -2.189940400421619415e-02 -3.314887583255767822e-01
-1.260077655315399170e-01 -4.691176116466522217e-03 -5.218323469161987305e-01
-2.689131498336791992e-01 8.242871612310409546e-02 -2.903478965163230896e-02
-5.913748741149902344e-01 -3.397085517644882202e-02 3.550892695784568787e-02
1.669174730777740479e-01 -1.141047179698944092e-01 -2.350712567567825317e-01
1.078958064317703247e-01 -1.427127979695796967e-02 -6.815141439437866211e-02
8.006427884101867676e-01 5.561469122767448425e-02 -5.895656719803810120e-02
1.974855177104473114e-02 -3.106857091188430786e-02 1.792618930339813232e-01
-8.696602582931518555e-01 7.968053966760635376e-02 -1.991137713193893433e-01
9.538772702217102051e-02 -7.398641109466552734e-02 2.585224807262420654e-01
-3.526642918586730957e-02 -2.588041312992572784e-02 -2.112109065055847168e-01
-4.164930284023284912e-01 6.293461471796035767e-02 5.274284631013870239e-02
1.891340762376785278e-01 -3.556326031684875488e-02 2.669725120067596436e-01
8.869407773017883301e-01 -5.022877827286720276e-02 -2.991284243762493134e-03
-2.042923718690872192e-01 1.737132482230663300e-02 6.335335373878479004e-01
6.343650221824645996e-01 6.123947724699974060e-02 5.402704328298568726e-02
-8.524006605148315430e-01 5.890223756432533264e-02 7.251947373151779175e-02
1.357885450124740601e-01 -7.978715002536773682e-03 -6.211569160223007202e-02
6.510338783264160156e-01 -3.921037539839744568e-02 -4.128602519631385803e-02
-2.146686762571334839e-01 -6.720206234604120255e-03 6.424924731254577637e-02
1.141883581876754761e-01 -8.980390615761280060e-03 -1.215483099222183228e-01
-5.219214037060737610e-02 -1.933101564645767212e-02 3.374492228031158447e-01
-1.250317692756652832e-01 -8.415342308580875397e-03 4.338666796684265137e-01
4.489270448684692383e-01 8.540805429220199585e-02 -2.184328995645046234e-02
1.188371479511260986e-01 7.310544699430465698e-02 4.226380214095115662e-02
7.001200318336486816e-02 -8.608355373144149780e-02 -2.680751085281372070e-01
-7.707570213824510574e-03 -8.492393419146537781e-03 3.119707405567169189e-01
-3.466840982437133789e-01 -5.105067044496536255e-02 8.617851883172988892e-03
9.533635526895523071e-02 -8.973067253828048706e-02 -2.392834424972534180e-01
-7.931436598300933838e-02 4.067045170813798904e-03 -4.900870025157928467e-01
-5.283423885703086853e-02 -2.616293728351593018e-02 -1.098621189594268799e-01
3.009917400777339935e-02 -1.160014979541301727e-02 1.584065407514572144e-01
-6.308212131261825562e-02 -1.969058997929096222e-02 -2.958394587039947510e-01
-9.290415048599243164e-01 7.549405843019485474e-02 -1.840372979640960693e-01
1.545635014772415161e-01 -8.300147205591201782e-02 2.562366425991058350e-01
3.530232310295104980e-01 8.766824007034301758e-02 7.513443008065223694e-03
3.521027415990829468e-02 -8.492393419146537781e-03 3.354458808898925781e-01
1.098477765917778015e-01 -5.379885062575340271e-02 2.655342221260070801e-01
5.223872140049934387e-02 -1.008479669690132141e-02 2.090038955211639404e-01
1.974855177104473114e-02 -3.106857091188430786e-02 1.792618930339813232e-01
-1.518457829952239990e-01 1.297936867922544479e-02 5.840920209884643555e-01
1.438019424676895142e-01 -3.194182366132736206e-02 1.341095268726348877e-01
-1.029949560761451721e-01 -1.023889984935522079e-02 6.278526782989501953e-02
1.126730144023895264e-01 -6.222317740321159363e-02 -2.486323863267898560e-01
2.728893756866455078e-01 -3.895353898406028748e-02 -4.159422963857650757e-02
-6.875827908515930176e-02 -1.773861236870288849e-02 -3.115066587924957275e-01
6.255040168762207031e-01 8.052811026573181152e-02 -3.360652923583984375e-02
3.120358474552631378e-02 8.761686831712722778e-02 7.898702286183834076e-03
6.476949453353881836e-01 6.244662031531333923e-02 -5.543786659836769104e-02
1.227154284715652466e-01 -4.406463727355003357e-02 6.198906525969505310e-02
-5.263174772262573242e-01 -9.519748389720916748e-03 6.309346854686737061e-02
2.215471863746643066e-01 -1.102007552981376648e-01 -2.874921560287475586e-01
1.345814019441604614e-01 -7.963687926530838013e-02 2.651746273040771484e-01
1.442642509937286377e-01 -7.665755599737167358e-02 -2.562605142593383789e-01
9.171193838119506836e-01 2.600112371146678925e-02 4.552566260099411011e-02
1.017059758305549622e-01 5.635952949523925781e-02 5.777689442038536072e-02
-8.576915264129638672e-01 6.444997340440750122e-02 1.208566278219223022e-01
-3.376690447330474854e-01 5.443323403596878052e-02 -6.157632917165756226e-02
2.510066628456115723e-01 -3.258392587304115295e-02 -5.171370133757591248e-02
8.348537683486938477e-01 -5.146160721778869629e-02 5.869671236723661423e-03
1.646315902471542358e-01 -3.448453173041343689e-02 2.388229370117187500e-01
1.142911016941070557e-01 -8.898583799600601196e-02 2.787871062755584717e-01
2.402194142341613770e-01 -4.511768370866775513e-02 4.591092094779014587e-02
1.124418526887893677e-01 -8.030466735363006592e-02 2.800713181495666504e-01
-2.560927160084247589e-02 4.919371008872985840e-02 6.173222512006759644e-02
1.364049762487411499e-01 -1.863754540681838989e-02 2.002199739217758179e-01
-8.261259794235229492e-01 6.103400513529777527e-02 1.037254408001899719e-01
1.472178995609283447e-01 8.114451915025711060e-02 2.980709448456764221e-02
-9.749859571456909180e-02 -1.203677617013454437e-02 3.763346970081329346e-01
-4.417916834354400635e-01 8.712887763977050781e-02 -1.377853564918041229e-02
-8.235576152801513672e-01 7.392733544111251831e-02 -1.555072609335184097e-02
6.972947716712951660e-02 -7.193170487880706787e-02 2.339686602354049683e-01
-1.941729038953781128e-01 2.158348821103572845e-02 -6.953786611557006836e-01
7.171956300735473633e-01 -9.879323653876781464e-03 6.293936818838119507e-02
-5.326871275901794434e-01 8.047673851251602173e-02 3.132244572043418884e-02
2.196465730667114258e-01 -9.324936568737030029e-02 -2.971493303775787354e-01
-8.984519839286804199e-01 2.859738469123840332e-01 -1.630036043934524059e-03
1.131353229284286499e-01 -2.133436501026153564e-02 -2.455246448516845703e-01
-4.597961008548736572e-01 -4.383348301053047180e-02 -3.417157381772994995e-02
-4.520611092448234558e-02 8.743708580732345581e-02 9.131530299782752991e-03
-8.512192368507385254e-01 7.893570512533187866e-02 -9.622538345865905285e-04
5.985358953475952148e-01 5.330314114689826965e-02 -6.237253174185752869e-02
7.451912164688110352e-01 6.819982081651687622e-02 4.863341897726058960e-02
-6.839397549629211426e-01 7.377323508262634277e-02 3.574008122086524963e-02
5.547448396682739258e-01 4.249020665884017944e-02 -6.686721742153167725e-02
4.058807492256164551e-01 -3.037510067224502563e-02 -5.207327008247375488e-02
-1.920668184757232666e-01 2.484534680843353271e-02 -7.096589803695678711e-01
6.993967294692993164e-01 -3.990384563803672791e-02 3.802595287561416626e-02
6.181883066892623901e-02 8.607583492994308472e-02 1.786406710743904114e-02
-1.781204491853713989e-01 2.196874842047691345e-02 6.883944272994995117e-01
-8.336257338523864746e-01 9.293344616889953613e-02 -2.888548653572797775e-03
8.869407773017883301e-01 -5.022877827286720276e-02 -2.991284243762493134e-03
4.864297062158584595e-02 -1.778998225927352905e-02 3.381170034408569336e-01
7.422888875007629395e-01 6.147063151001930237e-02 -5.618270114064216614e-02
-1.941729038953781128e-01 2.158348821103572845e-02 -6.953786611557006836e-01
5.582891702651977539e-01 -2.585094422101974487e-03 -6.827983260154724121e-02
-7.953566312789916992e-01 5.679615586996078491e-02 -6.840825080871582031e-02
-9.290415048599243164e-01 7.549405843019485474e-02 -1.840372979640960693e-01
-1.977429687976837158e-01 3.011055104434490204e-02 7.006713151931762695e-01
5.774494409561157227e-01 1.403241418302059174e-02 6.884667277336120605e-02
-5.840765312314033508e-02 -8.980390615761280060e-03 3.526027500629425049e-01
-8.898221254348754883e-01 7.644435763359069824e-02 -1.707073450088500977e-01
1.475774794816970825e-01 3.360356763005256653e-02 6.738268584012985229e-02
7.745992541313171387e-01 -3.692450746893882751e-02 4.203264787793159485e-02
1.587499827146530151e-01 -8.852352946996688843e-02 -2.567228376865386963e-01
6.813666224479675293e-01 -4.229244962334632874e-02 3.491819649934768677e-02
7.745992541313171387e-01 -3.692450746893882751e-02 4.203264787793159485e-02
-8.239428997039794922e-01 7.649572938680648804e-02 -6.509982980787754059e-03
6.848596334457397461e-01 2.723395265638828278e-02 6.823025643825531006e-02
-2.075542211532592773e-01 2.733668871223926544e-02 -7.054001837968826294e-02
6.476949453353881836e-01 6.244662031531333923e-02 -5.543786659836769104e-02
3.247965872287750244e-01 4.254157841205596924e-02 -6.684153527021408081e-02
2.547606639564037323e-02 -1.154877897351980209e-02 -1.982405185699462891e-01
5.850560590624809265e-02 -1.064984500408172607e-02 -2.629383504390716553e-01
8.039817214012145996e-01 7.641868293285369873e-02 3.376242145895957947e-02
-1.854660511016845703e-01 -4.483515769243240356e-02 -3.178296983242034912e-02
-3.010395728051662445e-02 -2.883406728506088257e-02 -1.196220144629478455e-01
3.110300004482269287e-01 7.310544699430465698e-02 -4.459924995899200439e-02
-3.658186197280883789e-01 8.037400245666503906e-02 3.165633976459503174e-02
1.424663662910461426e-01 -1.215273663401603699e-01 -2.569796741008758545e-01
-7.436549067497253418e-01 8.980000764131546021e-02 -7.408920675516128540e-03
-5.421644449234008789e-01 -2.171962149441242218e-02 5.484893172979354858e-02
-5.283423885703086853e-02 -2.616293728351593018e-02 -1.098621189594268799e-01
1.012950241565704346e-01 -1.070673316717147827e-01 -2.490433305501937866e-01
2.889161705970764160e-01 3.784521017223596573e-03 -6.984655559062957764e-02
-1.600348204374313354e-02 5.235283449292182922e-02 6.042233854532241821e-02
-5.631482601165771484e-01 7.236061990261077881e-02 -4.493314027786254883e-02
2.001011073589324951e-01 -8.829236775636672974e-02 -2.909338176250457764e-01
-2.341884672641754150e-01 2.666890434920787811e-02 -6.954814791679382324e-01
1.198645010590553284e-01 -6.908078491687774658e-02 2.862611413002014160e-01
1.974855177104473114e-02 -3.106857091188430786e-02 1.792618930339813232e-01
6.698130071163177490e-02 6.414175778627395630e-02 -5.415367335081100464e-02
-7.309671044349670410e-01 6.308872252702713013e-02 -8.461961522698402405e-03
1.870536655187606812e-01 7.097368687391281128e-02 4.501198232173919678e-02
2.853245474398136139e-02 -1.023889984935522079e-02 -2.678953409194946289e-01
2.984233573079109192e-02 -8.877658285200595856e-03 2.960210442543029785e-01
7.016568779945373535e-01 7.893952541053295135e-03 6.805046647787094116e-02
9.852074980735778809e-01 -7.798932492733001709e-03 2.243580669164657593e-02
-8.230439424514770508e-01 6.540027260780334473e-02 6.306778639554977417e-02
-2.892804741859436035e-01 4.539249092340469360e-02 7.890497446060180664e-01
1.224072203040122986e-01 -8.616060018539428711e-02 2.328642457723617554e-01
7.093662768602371216e-02 -2.695913985371589661e-02 2.584454417228698730e-01
-7.708798646926879883e-01 8.779665827751159668e-02 4.200216382741928101e-03
6.896625161170959473e-01 -3.646219149231910706e-02 4.252064228057861328e-02
-4.822695553302764893e-01 -3.153087943792343140e-02 -5.117433890700340271e-02
7.627888023853302002e-02 -3.415063768625259399e-02 -1.431741714477539062e-01
-3.550570607185363770e-01 8.710318803787231445e-02 -1.400968991219997406e-02
9.533635526895523071e-02 -8.973067253828048706e-02 -2.392834424972534180e-01
-7.697754502296447754e-01 6.917580962181091309e-02 3.083445131778717041e-02
-4.332903027534484863e-01 -3.117130324244499207e-02 -5.145685747265815735e-02
1.284686326980590820e-01 -1.174436286091804504e-01 -2.403108030557632446e-01
-7.803316116333007812e-01 -7.875983603298664093e-03 3.378330264240503311e-03
-1.781204491853713989e-01 2.196874842047691345e-02 6.883944272994995117e-01
9.074622392654418945e-01 4.115464165806770325e-02 -2.931731194257736206e-02
1.079728454351425171e-01 -1.391170453280210495e-02 -2.171695679426193237e-01
-5.599335581064224243e-02 -7.101664086803793907e-04 4.189957082271575928e-01
-2.525781691074371338e-01 3.650585189461708069e-02 7.480068206787109375e-01
9.171193838119506836e-01 2.600112371146678925e-02 4.552566260099411011e-02
-2.380924224853515625e-01 4.005023464560508728e-02 -7.710435986518859863e-01
-8.853788375854492188e-01 6.647899746894836426e-02 1.242469027638435364e-01
8.073462843894958496e-01 -6.129477638751268387e-03 -6.735520809888839722e-02
9.176629036664962769e-02 -7.914888858795166016e-02 -2.639143466949462891e-01
1.555394977331161499e-01 8.399543166160583496e-02 -2.525925077497959137e-02
-9.007892012596130371e-01 7.112778723239898682e-02 1.589715778827667236e-01
3.337602615356445312e-01 1.839867979288101196e-02 6.938603520393371582e-02
-2.756937146186828613e-01 -5.184687301516532898e-02 -4.994631279259920120e-03
1.458052694797515869e-01 -3.091446869075298309e-02 1.427393406629562378e-01
-8.098424077033996582e-01 3.630418563261628151e-03 -1.765680871903896332e-02
7.712090015411376953e-01 8.705183118581771851e-02 -1.164676900953054428e-02
-3.160945177078247070e-01 7.264314591884613037e-02 -7.978832721710205078e-01
2.793617248535156250e-01 6.740362197160720825e-02 4.927551746368408203e-02
1.405657529830932617e-01 -1.072471141815185547e-01 -2.838193774223327637e-01
-1.012186147272586823e-02 -3.135109692811965942e-02 -1.008213832974433899e-01
2.219581305980682373e-01 -3.628240898251533508e-02 2.691556513309478760e-01
-9.312247037887573242e-01 8.407249301671981812e-02 -2.423141300678253174e-01
-8.308004736900329590e-01 2.199918478727340698e-01 -4.326848778873682022e-03
5.973544716835021973e-01 -2.559404354542493820e-03 6.597007066011428833e-02
-5.567272901535034180e-01 5.892792344093322754e-02 5.505440011620521545e-02
1.117227002978324890e-01 -9.648170322179794312e-03 1.419688165187835693e-01
9.043801426887512207e-01 4.197653010487556458e-02 3.124539554119110107e-02
8.233217000961303711e-01 -1.994742453098297119e-02 -6.093422695994377136e-02
4.199555516242980957e-01 -3.936447575688362122e-02 -4.105487093329429626e-02
6.347759366035461426e-01 2.386935614049434662e-02 -7.100232690572738647e-02
2.446884214878082275e-01 -1.174693033099174500e-01 -2.628869712352752686e-01
7.579088956117630005e-02 -1.404012646526098251e-02 -2.922180294990539551e-01
5.680747628211975098e-01 -4.293454810976982117e-02 -3.635470941662788391e-02
-4.977784678339958191e-02 -2.369728125631809235e-02 1.726868003606796265e-01
-5.113909766077995300e-02 -2.762692049145698547e-02 -6.750931590795516968e-02
-1.238246262073516846e-01 8.125105872750282288e-03 -5.503158569335937500e-01
9.733970463275909424e-02 -7.226558774709701538e-02 2.456034868955612183e-01
9.465017914772033691e-01 1.161811873316764832e-02 -4.064392298460006714e-02
1.462932825088500977e-01 -7.208580523729324341e-02 2.674091458320617676e-01
1.283915787935256958e-01 3.974202647805213928e-02 6.566186249256134033e-02
-8.789321184158325195e-01 2.408215254545211792e-01 -2.220766386017203331e-03
2.439734339714050293e-02 -8.646495640277862549e-03 -3.014128506183624268e-01
3.413627445697784424e-01 -3.854259476065635681e-02 3.979814425110816956e-02
1.169365420937538147e-01 -6.571619212627410889e-02 2.444733977317810059e-01
-8.886407017707824707e-01 2.839705348014831543e-01 -2.272134181112051010e-03
1.169365420937538147e-01 -6.571619212627410889e-02 2.444733977317810059e-01
1.704618632793426514e-01 -3.872238472104072571e-02 -2.745731472969055176e-01
5.945590883493423462e-02 -1.005911640822887421e-02 -2.140104472637176514e-01
-7.671556472778320312e-01 1.004845201969146729e-01 4.200216382741928101e-03
-8.401038125157356262e-03 -1.501611061394214630e-02 2.242087721824645996e-01
-2.807492762804031372e-02 -1.655715331435203552e-02 -2.615770697593688965e-01
-7.733255159109830856e-03 -1.958785019814968109e-02 5.294831842184066772e-02
-9.613735228776931763e-02 -6.026736460626125336e-03 -5.115587711334228516e-01
7.805107533931732178e-02 -8.774917572736740112e-03 -7.631890475749969482e-02
5.293219164013862610e-02 -2.213056758046150208e-02 3.079640865325927734e-01
8.066785335540771484e-01 1.315916143357753754e-02 6.897509098052978516e-02
2.141502201557159424e-01 -5.279717594385147095e-02 4.270042851567268372e-02
4.205976426601409912e-01 5.635952949523925781e-02 -6.011234223842620850e-02
-1.263888645917177200e-02 -1.103510148823261261e-02 2.936067581176757812e-01
-1.856715083122253418e-01 8.319924026727676392e-02 -2.715986222028732300e-02
-9.224150776863098145e-01 8.181229978799819946e-02 -2.491460740566253662e-01
-3.970974683761596680e-02 5.076042935252189636e-02 -6.342557072639465332e-02
-8.742320537567138672e-01 2.119784504175186157e-01 -2.015294972807168961e-03
1.461648643016815186e-01 -9.794953465461730957e-02 -2.559009492397308350e-01
4.436875283718109131e-01 -3.258392587304115295e-02 -4.991582408547401428e-02
-7.386937737464904785e-02 -1.755881868302822113e-02 3.252750635147094727e-01
7.601906061172485352e-01 8.864422887563705444e-02 1.164713103207759559e-04
2.858382463455200195e-02 -1.162583939731121063e-02 -1.695772409439086914e-01
6.111210584640502930e-01 2.566723339259624481e-02 -7.077117264270782471e-02
-7.374095171689987183e-02 -5.046933656558394432e-04 6.681764125823974609e-02
-8.239428997039794922e-01 6.565710902214050293e-02 2.508125081658363342e-02
-7.304533720016479492e-01 7.916685938835144043e-02 -2.464283630251884460e-02
5.931936502456665039e-01 2.160916849970817566e-02 -7.131054252386093140e-02
1.435451060533523560e-01 -5.153865739703178406e-02 5.682659149169921875e-02
1.555651724338531494e-01 -3.474137559533119202e-02 -2.551560997962951660e-01
1.591352373361587524e-01 -5.377316102385520935e-02 -5.656796321272850037e-02
6.750483512878417969e-01 -5.043425038456916809e-02 1.342074666172266006e-02
-9.224150776863098145e-01 8.181229978799819946e-02 -2.491460740566253662e-01
-7.612955570220947266e-02 3.170295432209968567e-02 -6.997497379779815674e-02
1.352491974830627441e-01 -4.681281745433807373e-02 -2.384101897478103638e-01
-5.867774486541748047e-01 8.733434975147247314e-02 -1.226318255066871643e-02
2.050581276416778564e-01 -9.186244010925292969e-02 -2.776552140712738037e-01
-3.260855674743652344e-01 5.029812455177307129e-02 -6.360536068677902222e-02
-6.245841979980468750e-01 5.987822636961936951e-02 -5.482145398855209351e-02
-9.475041180849075317e-02 6.738175172358751297e-03 5.585108399391174316e-01
9.520238637924194336e-01 1.801342330873012543e-02 -1.924921199679374695e-02
2.305365800857543945e-01 -8.161454647779464722e-02 -2.914731800556182861e-01
-6.991405785083770752e-02 -1.082963775843381882e-02 4.553127586841583252e-01
-1.905771493911743164e-01 1.220885664224624634e-02 6.024303436279296875e-01
1.939112991094589233e-01 -4.041752219200134277e-02 -2.412097305059432983e-01
1.891854405403137207e-01 -3.091446869075298309e-02 -9.519659727811813354e-02
-4.591283202171325684e-01 -4.622208699584007263e-02 2.610860764980316162e-02
-7.959474325180053711e-01 7.569953054189682007e-02 3.044439246878027916e-03
9.227442145347595215e-01 3.118927590548992157e-02 -2.715986222028732300e-02
-1.900850236415863037e-02 -8.723546750843524933e-03 3.180578351020812988e-01
-2.312604933977127075e-01 6.157336756587028503e-02 5.377020686864852905e-02
1.205836534500122070e-01 -3.060626424849033356e-02 -1.747653931379318237e-01
1.304462850093841553e-01 -3.009257651865482330e-02 -1.702193468809127808e-01
2.566571235656738281e-01 -1.078635230660438538e-01 2.830763459205627441e-01
-6.683753132820129395e-01 7.410712540149688721e-02 -3.871763125061988831e-02
3.493504226207733154e-01 -5.051130428910255432e-02 1.272728201001882553e-02
6.169041246175765991e-02 -8.086971938610076904e-02 -2.344034910202026367e-01
1.290850490331649780e-01 -8.004405535757541656e-03 -7.007770985364913940e-02
3.377197682857513428e-02 -9.648170322179794312e-03 -2.797356247901916504e-01
-3.427801132202148438e-01 4.408260807394981384e-02 6.386398524045944214e-02
3.369707465171813965e-01 4.554659128189086914e-02 6.324756890535354614e-02
-4.728650674223899841e-02 -2.269560657441616058e-02 1.919754296541213989e-01
9.004546701908111572e-02 -9.057441726326942444e-03 1.455645710229873657e-01
1.660955846309661865e-01 -3.404790535569190979e-02 -2.493772208690643311e-01
7.128807902336120605e-01 -1.892006956040859222e-02 -6.085717678070068359e-02
8.300807327032089233e-02 -5.695797130465507507e-02 1.845479756593704224e-02
1.946602761745452881e-02 -6.540413945913314819e-03 3.514983355998992920e-01
5.749067068099975586e-01 5.638521537184715271e-02 5.775121599435806274e-02
8.347038179636001587e-02 -2.960458956658840179e-02 -2.205084860324859619e-01
-3.490726947784423828e-01 -3.386812284588813782e-02 4.588523879647254944e-02
1.959146410226821899e-01 -5.595629289746284485e-02 2.246149070560932159e-02
1.442385762929916382e-01 -7.244539260864257812e-02 2.428810000419616699e-01
7.759861946105957031e-01 8.751413226127624512e-02 2.556444611400365829e-03
9.571349620819091797e-01 -3.617966920137405396e-02 2.135708183050155640e-02
-8.308004736900329590e-01 2.199918478727340698e-01 -4.326848778873682022e-03
-2.148484736680984497e-01 -4.899594932794570923e-02 1.940510235726833344e-02
6.820343732833862305e-01 -2.621430903673171997e-02 5.294831842184066772e-02
-1.448854506015777588e-01 7.534377276897430420e-03 -6.112381219863891602e-01
1.063804402947425842e-01 -1.124095693230628967e-01 2.422388941049575806e-01
-8.697630167007446289e-01 6.606805324554443359e-02 -1.319503039121627808e-01
-4.821411073207855225e-01 4.064096510410308838e-02 -6.761205196380615234e-02
-2.195999771356582642e-01 -5.066540464758872986e-02 -1.406105887144804001e-02
8.189554214477539062e-01 8.168388158082962036e-02 1.293275225907564163e-02
8.298239111900329590e-02 -9.196516126394271851e-02 2.465024292469024658e-01
-6.410475969314575195e-01 6.632488965988159180e-02 -4.896551743149757385e-02
-8.235576152801513672e-01 7.392733544111251831e-02 -1.555072609335184097e-02
1.538443565368652344e-01 -6.607577204704284668e-02 2.352271825075149536e-01
9.079030901193618774e-02 -8.937108516693115234e-02 2.258268594741821289e-01
-6.652162075042724609e-01 4.207926616072654724e-02 5.808510631322860718e-02
5.845423415303230286e-02 -1.003343611955642700e-02 -8.253441751003265381e-02
-8.696602582931518555e-01 7.968053966760635376e-02 -1.991137713193893433e-01
6.307734549045562744e-02 -2.888543903827667236e-02 -2.445743232965469360e-01
1.086149588227272034e-01 -7.619522511959075928e-02 -2.536150515079498291e-01
2.045701146125793457e-01 -8.793278038501739502e-02 -2.317580580711364746e-01
2.219581305980682373e-01 -3.628240898251533508e-02 2.691556513309478760e-01
-4.930311143398284912e-01 2.012334298342466354e-03 -6.961540132761001587e-02
4.748719930648803711e-02 -2.803786657750606537e-02 -2.591114342212677002e-01
-6.652162075042724609e-01 4.207926616072654724e-02 5.808510631322860718e-02
-8.596435785293579102e-01 1.847573183476924896e-02 -1.963927177712321281e-03
4.489270448684692383e-01 8.540805429220199585e-02 -2.184328995645046234e-02
6.215230822563171387e-01 -5.667160730808973312e-03 6.466019153594970703e-02
7.206373214721679688e-01 6.257504224777221680e-02 5.299969017505645752e-02
8.337750434875488281e-01 7.801108062267303467e-02 1.501315087080001831e-02
-4.291608929634094238e-03 -1.360349915921688080e-02 2.492249161005020142e-01
-2.586610987782478333e-02 -1.745608821511268616e-02 -2.425966560840606689e-01
-1.441662907600402832e-01 -3.278555115684866905e-03 -5.269177556037902832e-01
-1.303226500749588013e-01 -3.111994266510009766e-02 4.914709553122520447e-02
1.050448790192604065e-01 -7.914888858795166016e-02 2.647379934787750244e-01
1.557192802429199219e-01 -3.679608553647994995e-02 -6.594259291887283325e-02
-1.627100855112075806e-01 8.859286457300186157e-02 -2.785813063383102417e-03
8.233217000961303711e-01 7.205241173505783081e-02 -3.802416473627090454e-02
1.465758085250854492e-01 -5.146160721778869629e-02 -2.394375503063201904e-01
2.566571235656738281e-01 -1.078635230660438538e-01 2.830763459205627441e-01
-8.960119485855102539e-01 2.958108186721801758e-01 -1.989611191675066948e-03
5.849491357803344727e-01 -3.430474922060966492e-02 -4.765563830733299255e-02
-1.203316152095794678e-01 -2.842312119901180267e-02 -5.358862504363059998e-02
8.759994506835937500e-01 5.802898481488227844e-02 3.312031924724578857e-02
1.030929163098335266e-01 4.852593317627906799e-02 6.201474368572235107e-02
-8.432828783988952637e-01 2.404619455337524414e-01 1.580455224029719830e-03
-7.708798646926879883e-01 8.779665827751159668e-02 4.200216382741928101e-03
1.063804402947425842e-01 -1.124095693230628967e-01 2.422388941049575806e-01
9.990810602903366089e-02 -2.344044670462608337e-02 -6.815141439437866211e-02
6.603057384490966797e-01 7.403007149696350098e-02 -4.336642101407051086e-02
7.522583752870559692e-02 -8.980390615761280060e-03 1.282536089420318604e-01
-3.865198493003845215e-01 3.725068271160125732e-02 -6.902466714382171631e-02
4.617731645703315735e-02 -3.289213031530380249e-02 -1.606135666370391846e-01
3.387471288442611694e-02 4.790951684117317200e-02 -6.460703164339065552e-02
3.690499961376190186e-01 7.806245237588882446e-02 3.579144924879074097e-02
-9.164266288280487061e-02 6.121756043285131454e-03 -5.256335735321044922e-01
-6.470021605491638184e-02 -1.491337921470403671e-02 4.032257795333862305e-01
-1.781204491853713989e-01 2.196874842047691345e-02 6.883944272994995117e-01
-4.964213967323303223e-01 8.237735182046890259e-02 2.680207416415214539e-02
-7.078731060028076172e-02 -1.190835423767566681e-02 -3.495445251464843750e-01
-2.424802072346210480e-02 -5.695797130465507507e-02 1.475631166249513626e-02
-8.440790772438049316e-01 5.394523590803146362e-02 2.793216891586780548e-02
-2.997553721070289612e-02 -2.760124020278453827e-02 -1.672400087118148804e-01
3.206101059913635254e-01 5.969844013452529907e-02 5.520850792527198792e-02
7.003470063209533691e-01 5.271241068840026855e-02 6.029392406344413757e-02
-6.609269380569458008e-01 -3.433043137192726135e-02 -1.074783131480216980e-02
2.265083417296409607e-02 -3.176203370094299316e-02 1.633378416299819946e-01
1.282117962837219238e-01 -9.391336701810359955e-03 1.099666357040405273e-01
1.744171828031539917e-01 -9.879709035158157349e-02 2.501752376556396484e-01
6.750483512878417969e-01 -5.043425038456916809e-02 1.342074666172266006e-02
-8.476748466491699219e-01 6.963811814785003662e-02 1.581240147352218628e-01
-1.905771493911743164e-01 1.220885664224624634e-02 6.024303436279296875e-01
2.228827625513076782e-01 -3.761797025799751282e-02 -2.746502161026000977e-01
7.286292314529418945e-02 -1.237067114561796188e-02 -2.731862366199493408e-01
5.704161897301673889e-02 -1.093237008899450302e-02 -2.975345849990844727e-01
1.769598871469497681e-01 -9.070666134357452393e-02 2.119832187891006470e-01
-1.250317692756652832e-01 -8.415342308580875397e-03 4.338666796684265137e-01
-3.803614061325788498e-03 -2.554652839899063110e-02 2.561852633953094482e-01
-3.035094141960144043e-01 4.654826596379280090e-02 6.283663213253021240e-02
-9.346621483564376831e-02 4.734825342893600464e-03 -4.998212456703186035e-01
1.461905390024185181e-01 -1.106887608766555786e-01 2.197397649288177490e-01
4.748719930648803711e-02 -2.803786657750606537e-02 -2.591114342212677002e-01
1.842798143625259399e-01 3.116359189152717590e-02 6.771657615900039673e-02
-2.720167487859725952e-02 -5.695797130465507507e-02 2.639113180339336395e-02
-2.337476797401905060e-02 -7.131143007427453995e-03 3.353945314884185791e-01
8.200341463088989258e-01 -5.205234512686729431e-02 -3.453595330938696861e-03
-9.235194325447082520e-01 7.770287990570068359e-02 1.920781731605529785e-01
1.371497958898544312e-01 -1.005911640822887421e-02 1.092988550662994385e-01
-2.522400952875614166e-02 -2.164256945252418518e-02 3.258914649486541748e-01
3.110300004482269287e-01 7.310544699430465698e-02 -4.459924995899200439e-02
8.200341463088989258e-01 -5.205234512686729431e-02 -3.453595330938696861e-03
1.226126849651336670e-01 -2.433937974274158478e-02 6.581596285104751587e-02
2.550647258758544922e-01 -4.688986763358116150e-02 -2.787596285343170166e-01
-2.195999771356582642e-01 -5.066540464758872986e-02 -1.406105887144804001e-02
-3.418353153392672539e-03 -2.757555805146694183e-02 -2.467831373214721680e-01
2.380619496107101440e-01 -9.497018903493881226e-02 2.933242321014404297e-01
2.608949840068817139e-01 -3.733544424176216125e-02 -4.370031133294105530e-02
6.734087318181991577e-02 -8.079265803098678589e-02 2.562623322010040283e-01
9.879299998283386230e-01 -2.873133681714534760e-02 1.383169088512659073e-02
9.885922074317932129e-03 8.877264708280563354e-02 -1.347512705251574516e-03
8.454911410808563232e-02 -2.654820308089256287e-02 -2.541544437408447266e-01
2.059313803911209106e-01 -6.230023875832557678e-02 2.572383284568786621e-01
6.341123580932617188e-02 -3.553757816553115845e-02 1.046243757009506226e-01
-8.018547296524047852e-01 1.785932108759880066e-02 -3.694543987512588501e-02
-6.855280697345733643e-02 -2.174148336052894592e-03 -4.147560298442840576e-01
2.176689356565475464e-01 8.841308206319808960e-02 1.862978446297347546e-03
5.917297005653381348e-01 -4.218970984220504761e-02 3.504661843180656433e-02
-8.624430894851684570e-01 6.260072439908981323e-02 -1.038007140159606934e-01
-2.062186598777770996e-01 8.602446317672729492e-02 -2.032793685793876648e-02
7.098799198865890503e-02 -9.237234480679035187e-03 -1.534477472305297852e-01
-8.624430894851684570e-01 6.260072439908981323e-02 -1.038007140159606934e-01
1.719772070646286011e-01 -7.288201898336410522e-02 2.880590260028839111e-01
-1.905771493911743164e-01 1.220885664224624634e-02 6.024303436279296875e-01
-2.307981848716735840e-01 2.487103268504142761e-02 7.122033834457397461e-01
-3.086462020874023438e-01 3.023897297680377960e-02 6.781931221485137939e-02
6.644193828105926514e-02 -5.685523897409439087e-02 4.614207521080970764e-02
1.731586605310440063e-01 -1.421990897506475449e-02 -1.013350561261177063e-01
2.728893756866455078e-01 -3.895353898406028748e-02 -4.159422963857650757e-02
-1.203316152095794678e-01 -2.842312119901180267e-02 -5.358862504363059998e-02
7.044862955808639526e-02 -7.319021970033645630e-02 2.436001300811767578e-01
4.113771021366119385e-01 -5.130750313401222229e-02 -9.181112051010131836e-03
-8.441304564476013184e-01 1.390104144811630249e-01 -2.862864872440695763e-03
8.627410046756267548e-03 -1.319255400449037552e-02 2.024801671504974365e-01
1.627823710441589355e-01 -5.939793586730957031e-02 -2.545910477638244629e-01
-8.349356055259704590e-01 2.255138903856277466e-01 1.862978446297347546e-03
-1.735743880271911621e-01 2.029928937554359436e-02 -6.815608143806457520e-01
-9.457062929868698120e-02 -4.203178919851779938e-03 5.268682241439819336e-01
-2.062186598777770996e-01 8.602446317672729492e-02 -2.032793685793876648e-02
1.417472064495086670e-01 -8.354083448648452759e-02 2.401584982872009277e-01
1.169365420937538147e-01 -6.571619212627410889e-02 2.444733977317810059e-01
-4.299000203609466553e-01 -3.050352260470390320e-02 4.963509365916252136e-02
-2.418936342000961304e-01 -5.615799687802791595e-03 6.468587368726730347e-02
-6.245841979980468750e-01 5.987822636961936951e-02 -5.482145398855209351e-02
8.454911410808563232e-02 -2.654820308089256287e-02 -2.541544437408447266e-01
-1.034059002995491028e-01 -1.057279389351606369e-02 3.918220996856689453e-01
1.015518680214881897e-01 -8.877658285200595856e-03 1.283306479454040527e-01
1.646315902471542358e-01 -3.448453173041343689e-02 2.388229370117187500e-01
9.079030901193618774e-02 -8.826288394629955292e-03 -1.338509172201156616e-01
1.667062984779477119e-03 -3.040079213678836823e-02 1.655209958553314209e-01
1.005501970648765564e-01 -8.055767044425010681e-03 7.642342895269393921e-02
2.097069174051284790e-01 -3.073467686772346497e-02 -7.205536961555480957e-02
7.539493441581726074e-01 -3.171066939830780029e-02 -5.104591697454452515e-02
-8.470070362091064453e-01 6.868781149387359619e-02 -9.804750978946685791e-02
-4.298486411571502686e-01 3.255052864551544189e-02 6.753679364919662476e-02
2.038766592741012573e-01 -9.733310341835021973e-02 2.726743519306182861e-01
1.371497958898544312e-01 -1.005911640822887421e-02 1.092988550662994385e-01
-1.128062233328819275e-01 8.782234042882919312e-02 6.331982556730508804e-03
1.398722827434539795e-01 -9.047549962997436523e-02 2.487626075744628906e-01
2.038766592741012573e-01 -9.733310341835021973e-02 2.726743519306182861e-01
1.843867078423500061e-02 -2.608588710427284241e-02 -2.837679982185363770e-01
-8.953955769538879395e-01 8.476595580577850342e-02 -2.400796413421630859e-01
7.057704776525497437e-02 -2.256719395518302917e-02 -2.945552468299865723e-01
1.514043807983398438e-01 -8.913993835449218750e-02 2.630172073841094971e-01
-1.333790570497512817e-01 7.608478516340255737e-02 -4.069529473781585693e-02
2.247833758592605591e-01 5.659068375825881958e-02 5.759710818529129028e-02
1.166283339262008667e-01 -1.951079815626144409e-02 2.552863359451293945e-01
-3.341718390583992004e-02 -2.159119956195354462e-02 1.420972347259521484e-01
2.463578730821609497e-01 6.154768168926239014e-02 2.903657779097557068e-02
8.149272203445434570e-02 -3.779776394367218018e-02 6.067918241024017334e-02
-1.733904704451560974e-02 -2.105184085667133331e-02 6.024255603551864624e-02
2.054433673620223999e-01 -8.598081767559051514e-02 2.889066040515899658e-01
5.641194581985473633e-01 8.789939433336257935e-02 -7.999651134014129639e-03
-8.770829439163208008e-01 7.135894149541854858e-02 1.740223616361618042e-01
7.579088956117630005e-02 -1.404012646526098251e-02 -2.922180294990539551e-01
3.091293871402740479e-01 6.642763316631317139e-02 5.004603415727615356e-02
5.383328199386596680e-01 4.837566521018743515e-03 -6.997497379779815674e-02
-1.799183338880538940e-01 1.426356751471757889e-02 -6.528460979461669922e-01
3.218942880630493164e-01 8.728298544883728027e-02 -1.272549387067556381e-02
8.752843737602233887e-02 -3.435610979795455933e-02 1.363954097032546997e-01
-1.075410023331642151e-01 6.889328360557556152e-02 4.776016622781753540e-02
-2.578905783593654633e-02 6.683857738971710205e-02 4.973782598972320557e-02
-4.672146216034889221e-02 4.107759147882461548e-02 -6.743226945400238037e-02
1.604451090097427368e-01 -5.993730574846267700e-02 -2.659176588058471680e-01
8.430469632148742676e-01 7.777992635965347290e-02 -1.784139545634388924e-03
2.001524865627288818e-01 -7.003109157085418701e-02 2.153735011816024780e-01
1.169365420937538147e-01 -6.571619212627410889e-02 2.444733977317810059e-01
-2.069378197193145752e-01 4.503291472792625427e-02 6.345304846763610840e-02
7.458373904228210449e-02 -9.276137501001358032e-02 -2.407474219799041748e-01
1.260800212621688843e-01 -1.755881868302822113e-02 -6.815141439437866211e-02
4.436875283718109131e-01 -3.258392587304115295e-02 -4.991582408547401428e-02
8.370569907128810883e-03 -1.439970172941684723e-02 1.481843292713165283e-01
6.184451654553413391e-02 3.992181271314620972e-02 -6.792026013135910034e-02
5.209190845489501953e-01 3.925403207540512085e-02 6.586733460426330566e-02
5.679206848144531250e-01 7.359344512224197388e-02 -4.395714774727821350e-02
-9.022532105445861816e-01 6.812276691198348999e-02 -1.312311440706253052e-01
1.861845888197422028e-02 -1.427127979695796967e-02 3.830125331878662109e-01
1.522005945444107056e-01 -7.015951722860336304e-02 -2.950946092605590820e-01
-6.305685639381408691e-01 -4.075141623616218567e-02 -2.939916681498289108e-03
1.131866872310638428e-01 -1.802113652229309082e-02 6.581596285104751587e-02
-7.177141904830932617e-01 8.034832030534744263e-02 -2.443736605346202850e-02
-3.212882671505212784e-03 -3.137677535414695740e-02 -1.221133619546890259e-01
-5.056676268577575684e-01 1.267493353225290775e-03 6.717721372842788696e-02
6.032916158437728882e-02 -3.132540732622146606e-02 1.978056877851486206e-01
-6.616974472999572754e-01 -9.673860855400562286e-03 -5.068634077906608582e-02
-4.964213967323303223e-01 8.237735182046890259e-02 2.680207416415214539e-02
-1.340940315276384354e-02 -1.899711973965167999e-02 -1.111463159322738647e-01
-2.443592995405197144e-01 -2.112889289855957031e-02 -5.916203558444976807e-02
-3.584730327129364014e-01 -4.768607020378112793e-02 2.256422489881515503e-02
1.981491446495056152e-01 -3.754092007875442505e-02 2.267771512269973755e-01
8.429442048072814941e-01 3.784141689538955688e-02 -6.455565989017486572e-02
-2.997553721070289612e-02 -2.760124020278453827e-02 -1.672400087118148804e-01
-1.576246768236160278e-01 -1.146792899817228317e-03 5.473896861076354980e-01
-4.501389563083648682e-01 8.805349469184875488e-02 -6.843874230980873108e-03
9.227997064590454102e-02 -8.826668560504913330e-02 -2.786312103271484375e-01
-5.910666584968566895e-01 7.903844118118286133e-02 3.340284526348114014e-02
1.131866872310638428e-01 -1.802113652229309082e-02 6.581596285104751587e-02
1.282117962837219238e-01 -9.391336701810359955e-03 1.099666357040405273e-01
1.652993857860565186e-01 -1.475927699357271194e-02 -1.209832653403282166e-01
-5.844402313232421875e-01 2.594975382089614868e-02 -6.802299618721008301e-02
-7.656201720237731934e-03 -3.481842577457427979e-02 6.501976400613784790e-02
-6.410475969314575195e-01 6.632488965988159180e-02 -4.896551743149757385e-02
-3.550570607185363770e-01 8.710318803787231445e-02 -1.400968991219997406e-02
2.494399398565292358e-01 -1.029065251350402832e-01 2.886754572391510010e-01
3.369707465171813965e-01 4.554659128189086914e-02 6.324756890535354614e-02
9.772495925426483154e-02 -8.456819504499435425e-02 -2.251059114933013916e-01
1.015518680214881897e-01 -8.877658285200595856e-03 1.283306479454040527e-01
9.533635526895523071e-02 -8.973067253828048706e-02 -2.392834424972534180e-01
-5.704225040972232819e-03 -3.291780874133110046e-02 -5.913635343313217163e-02
1.124418526887893677e-01 -8.030466735363006592e-02 2.800713181495666504e-01
2.494399398565292358e-01 -1.029065251350402832e-01 2.886754572391510010e-01
5.965325832366943359e-01 -5.179550126194953918e-02 -5.302838049829006195e-03
4.864297062158584595e-02 -1.778998225927352905e-02 3.381170034408569336e-01
9.495110064744949341e-02 2.641206420958042145e-02 -7.066843658685684204e-02
1.605992317199707031e-01 -2.950184792280197144e-02 -1.419156640768051147e-01
-7.358983755111694336e-01 1.420668065547943115e-01 -5.867884494364261627e-03
3.850198118016123772e-03 -2.616293728351593018e-02 -2.773470282554626465e-01
1.340163499116897583e-01 -1.202688664197921753e-01 2.527179419994354248e-01
-3.544621169567108154e-02 -1.814955845475196838e-02 -2.574933469295501709e-01
-3.010395728051662445e-02 -2.883406728506088257e-02 -1.196220144629478455e-01
8.537098765373229980e-02 -5.433820933103561401e-02 -2.526904344558715820e-01
-8.227357268333435059e-01 1.258859336376190186e-01 1.734558725729584694e-03
-7.767101526260375977e-01 7.569953054189682007e-02 2.104887552559375763e-02
-9.392380118370056152e-01 8.019421249628067017e-02 -2.227686792612075806e-01
2.234735041856765747e-01 -1.183939427137374878e-01 2.560568451881408691e-01
9.605550765991210938e-02 -3.497252985835075378e-02 1.233222857117652893e-01
5.029917359352111816e-01 8.219756931066513062e-02 -2.957415394484996796e-02
5.965325832366943359e-01 -5.179550126194953918e-02 -5.302838049829006195e-03
-7.823862433433532715e-01 4.896255955100059509e-02 -1.858142949640750885e-02
1.496321856975555420e-01 -8.428566902875900269e-02 -2.625274062156677246e-01
7.686406373977661133e-01 5.001559853553771973e-02 -6.370809674263000488e-02
-3.672312498092651367e-01 5.954433605074882507e-02 -5.767237022519111633e-02
-7.158135175704956055e-01 1.326151192188262939e-01 -4.480952396988868713e-03
1.371497958898544312e-01 -1.005911640822887421e-02 1.092988550662994385e-01
-4.779803454875946045e-01 -4.866206645965576172e-02 2.020130492746829987e-02
5.231577157974243164e-02 -4.671008512377738953e-02 -6.291189044713973999e-02
5.480926632881164551e-01 5.669341981410980225e-02 -5.985550209879875183e-02
-8.785982728004455566e-01 8.145273476839065552e-02 -2.131628692150115967e-01
1.978666186332702637e-01 -5.451800301671028137e-02 -2.113650143146514893e-01
2.219067662954330444e-01 5.851697921752929688e-02 -5.844288691878318787e-02
