7.083258032798767090e-01 -7.183014601469039917e-02 -7.498435676097869873e-02
9.274720549583435059e-01 -1.543638296425342560e-02 5.678109079599380493e-02
9.506618231534957886e-02 -6.524701416492462158e-02 2.532978057861328125e-01
4.810995236039161682e-02 -9.332817792892456055e-02 1.906294971704483032e-01
-7.118557691574096680e-01 2.714697718620300293e-01 -2.098212204873561859e-02
-4.220952093601226807e-01 1.997365057468414307e-02 1.648369878530502319e-01
1.815983355045318604e-01 -9.278815239667892456e-02 -1.946378797292709351e-01
-6.702483296394348145e-01 1.981553137302398682e-01 -5.641332827508449554e-04
2.483039498329162598e-01 -8.890513330698013306e-02 -1.942007094621658325e-01
5.788233280181884766e-01 9.303095936775207520e-02 -2.132769441232085228e-03
-1.535552460700273514e-02 -8.800509572029113770e-02 -2.536545991897583008e-01
8.827273845672607422e-01 -1.546210423111915588e-02 7.483326643705368042e-02
-6.594993472099304199e-01 2.708525955677032471e-01 1.597196459770202637e-01
9.858918935060501099e-02 6.987400352954864502e-03 -9.568520635366439819e-02
2.888570427894592285e-01 -6.064397469162940979e-02 -8.313611149787902832e-02
-1.546812951564788818e-01 5.880382657051086426e-02 1.122491136193275452e-01
2.232314795255661011e-01 -9.672261774539947510e-02 1.302241384983062744e-01
2.944373190402984619e-01 -1.085773780941963196e-01 1.028774399310350418e-02
-2.955242693424224854e-01 1.431627478450536728e-02 7.655619829893112183e-02
2.725020945072174072e-01 -5.318652093410491943e-02 -1.932235211133956909e-01
8.967936635017395020e-01 -4.305467009544372559e-02 7.411323487758636475e-02
3.506510257720947266e-01 -1.088088303804397583e-01 9.156269021332263947e-03
2.217399924993515015e-01 -5.141215771436691284e-02 2.656411528587341309e-01
-4.586881399154663086e-01 2.519386820495128632e-02 9.514840692281723022e-02
5.831894651055335999e-02 -8.283632248640060425e-02 -1.021911874413490295e-01
6.899908185005187988e-01 -6.280406564474105835e-02 7.869057357311248779e-02
1.552861090749502182e-02 -9.186241030693054199e-02 -1.017797440290451050e-01
-5.768299475312232971e-02 -5.686381831765174866e-02 6.245502829551696777e-01
-5.356027483940124512e-01 7.173864543437957764e-02 9.850583039224147797e-03
5.613314360380172729e-02 -4.236036166548728943e-02 5.483043193817138672e-01
2.731963992118835449e-01 -1.034857407212257385e-01 2.936853468418121338e-02
4.814650118350982666e-01 -6.074682995676994324e-02 -8.305896818637847900e-02
-7.671234756708145142e-02 -6.334408372640609741e-02 5.525473356246948242e-01
-6.319067478179931641e-01 2.342596501111984253e-01 -3.547113621607422829e-03
-8.098110556602478027e-02 -2.623683027923107147e-02 -8.456991314888000488e-01
7.724856138229370117e-01 -5.238934606313705444e-02 -8.596479892730712891e-02
-4.891405999660491943e-02 -5.418942123651504517e-02 6.500341892242431641e-01
-2.213097512722015381e-01 3.412964753806591034e-03 -1.719055026769638062e-01
-2.616057097911834717e-01 -4.395471140742301941e-02 7.573330402374267578e-02
2.141742408275604248e-02 -9.811123460531234741e-02 1.193722635507583618e-01
-2.883036993443965912e-02 -3.678013011813163757e-02 9.057107567787170410e-02
7.772687077522277832e-01 -2.525965124368667603e-02 -9.352511912584304810e-02
-4.587910175323486328e-01 9.771114587783813477e-02 -6.915824487805366516e-03
9.954634308815002441e-01 -3.786017373204231262e-02 -2.154785767197608948e-02
-1.365262567996978760e-01 5.612943321466445923e-02 1.111947819590568542e-01
-6.788114905357360840e-01 1.626681238412857056e-01 4.836089909076690674e-03
-4.036315679550170898e-01 8.633180521428585052e-03 1.531879454851150513e-01
1.296018958091735840e-01 -1.265009939670562744e-01 -5.810064263641834259e-03
-4.035287201404571533e-01 2.640248648822307587e-02 7.573330402374267578e-02
-7.475799322128295898e-02 -8.952231705188751221e-02 -5.690646544098854065e-02
2.308174967765808105e-01 8.847934007644653320e-02 2.373686991631984711e-02
-2.209754586219787598e-01 8.941763080656528473e-03 -1.027009566314518452e-03
9.782341122627258301e-01 -6.514415889978408813e-02 3.044858016073703766e-02
-7.306077331304550171e-02 -5.053783580660820007e-02 -6.315159201622009277e-01
-6.202576756477355957e-01 2.755842208862304688e-01 5.852973833680152893e-02
-4.207377880811691284e-02 -3.258852660655975342e-02 -7.988200187683105469e-01
-9.610173106193542480e-02 -2.510536089539527893e-02 -8.641884922981262207e-01
9.221178293228149414e-02 -7.617603987455368042e-02 4.149701893329620361e-01
1.063809320330619812e-01 -1.551478803157806396e-01 -8.789345622062683105e-02
1.831926852464675903e-01 -7.941617816686630249e-02 -3.331664502620697021e-01
6.312826871871948242e-01 -5.355970468372106552e-03 9.435122460126876831e-02
-7.498887777328491211e-01 2.622379362583160400e-01 2.863420248031616211e-01
-9.805608540773391724e-02 -5.166931450366973877e-02 -6.855696439743041992e-01
-6.042627692222595215e-01 6.978428363800048828e-02 1.261656405404210091e-03
8.827273845672607422e-01 -1.546210423111915588e-02 7.483326643705368042e-02
-5.051300525665283203e-01 -1.109049282968044281e-02 4.353768751025199890e-02
-2.514224350452423096e-01 -9.546256065368652344e-02 -1.715053431689739227e-02
3.306187689304351807e-01 -5.426656454801559448e-02 8.362792432308197021e-02
-1.487667560577392578e-01 2.275090664625167847e-02 1.316384822130203247e-01
9.467843174934387207e-01 -6.671278923749923706e-02 -5.250914022326469421e-02
-3.859393894672393799e-01 7.004143297672271729e-02 3.039714694023132324e-02
-1.668189167976379395e-01 -1.577068679034709930e-02 1.204265877604484558e-01
1.037322580814361572e-01 -9.127095341682434082e-02 -2.151587158441543579e-01
-4.971325993537902832e-01 -2.888551540672779083e-02 3.219722211360931396e-02
2.236889116466045380e-02 -4.868633300065994263e-02 -5.343890786170959473e-01
-6.478042900562286377e-02 -1.082173734903335571e-01 -1.517045218497514725e-02
5.650913715362548828e-01 -3.513434529304504395e-02 9.123966842889785767e-02
-1.233342885971069336e-01 4.270602017641067505e-02 8.051636815071105957e-02
-1.983459442853927612e-01 4.291174188256263733e-02 2.062531560659408569e-02
9.091112613677978516e-01 1.027896162122488022e-02 4.294623807072639465e-02
6.948766708374023438e-01 1.655350625514984131e-02 -9.445086866617202759e-02
-1.635016500949859619e-01 -1.682502031326293945e-02 -1.302209198474884033e-01
4.798449575901031494e-01 7.996755838394165039e-02 -4.492311179637908936e-02
2.897827923297882080e-01 -8.108767867088317871e-02 -1.787972152233123779e-01
8.804588764905929565e-02 -1.508791446685791016e-01 -1.103943809866905212e-01
-5.050529241561889648e-01 -2.649398893117904663e-02 -3.329977020621299744e-02
3.993559181690216064e-01 -1.087059602141380310e-01 -1.259891688823699951e-02
8.652868866920471191e-02 -1.110974997282028198e-01 1.199122816324234009e-01
1.894875057041645050e-02 -8.101052790880203247e-02 -3.621219396591186523e-01
-4.251296222209930420e-01 -4.186239384580403566e-04 -1.271350830793380737e-01
-3.756275773048400879e-01 5.908669531345367432e-02 1.273954510688781738e-01
4.777565225958824158e-02 -1.265009939670562744e-01 -4.212014004588127136e-02
-1.174197569489479065e-01 -2.276525646448135376e-02 -9.591665118932723999e-02
-4.378587007522583008e-01 2.480813488364219666e-02 -1.920776069164276123e-02
-2.449164241552352905e-01 -5.278824828565120697e-03 8.758808672428131104e-02
6.312826871871948242e-01 -5.355970468372106552e-03 9.435122460126876831e-02
-1.215599179267883301e-01 5.273500457406044006e-02 -1.246149688959121704e-01
5.013944506645202637e-01 5.630943924188613892e-02 -7.346715033054351807e-02
2.141742408275604248e-02 -9.811123460531234741e-02 1.193722635507583618e-01
-4.090574979782104492e-01 8.948224037885665894e-02 1.501936838030815125e-02
1.576004736125469208e-02 -6.812714040279388428e-02 -5.059478878974914551e-01
2.308174967765808105e-01 8.847934007644653320e-02 2.373686991631984711e-02
9.264893829822540283e-02 -1.349356174468994141e-01 1.059745624661445618e-01
1.110557094216346741e-02 -9.435679018497467041e-02 7.915344834327697754e-02
-5.935137271881103516e-01 3.290846943855285645e-02 -3.031679242849349976e-02
-7.151784747838973999e-02 -3.747443854808807373e-02 7.148883342742919922e-01
-3.290313482284545898e-01 9.246522188186645508e-02 1.437648385763168335e-02
1.746037602424621582e-01 -1.265009939670562744e-01 -1.064454950392246246e-02
5.903897807002067566e-02 3.995447605848312378e-02 -8.519334346055984497e-02
6.503065675497055054e-02 -5.861246213316917419e-02 3.974580466747283936e-01
1.930159479379653931e-01 -9.222241491079330444e-02 -1.983923166990280151e-01
3.174525201320648193e-01 6.739275157451629639e-02 -6.240954995155334473e-02
3.252442777156829834e-01 -1.063144430518150330e-01 -2.540516294538974762e-02
-1.605700999498367310e-01 -3.004270605742931366e-02 -8.731887936592102051e-01
8.015128225088119507e-02 -8.551071584224700928e-02 -2.992993295192718506e-01
1.056351885199546814e-01 -1.328012347221374512e-01 1.163378506898880005e-01
7.398014068603515625e-01 -1.024314165115356445e-01 -3.440553322434425354e-02
8.760872483253479004e-02 -1.753858625888824463e-01 -9.164790064096450806e-02
-2.263297513127326965e-02 -7.105868309736251831e-02 4.768156409263610840e-01
7.772687077522277832e-01 -2.525965124368667603e-02 -9.352511912584304810e-02
-4.131719470024108887e-01 4.134310409426689148e-02 -5.904083698987960815e-02
1.094667837023735046e-01 -7.609889656305313110e-02 -4.177699685096740723e-01
-4.682028293609619141e-01 1.828032433986663818e-01 9.670575149357318878e-03
-3.978970646858215332e-01 9.533219039440155029e-03 -1.569134593009948730e-01
-9.602457284927368164e-02 -3.179134801030158997e-02 -7.946027517318725586e-01
-5.397429466247558594e-01 1.113659963011741638e-01 1.046775095164775848e-02
-3.577553927898406982e-01 1.881645992398262024e-02 -2.775653265416622162e-03
4.602701216936111450e-02 -8.216771483421325684e-02 1.431589573621749878e-01
2.358834445476531982e-01 6.566982716321945190e-02 6.161558255553245544e-02
3.296673297882080078e-01 -9.435679018497467041e-02 -8.845919370651245117e-02
3.234644606709480286e-02 -1.075744777917861938e-01 1.571368239820003510e-02
-3.558267652988433838e-01 -1.440777070820331573e-02 -1.437471956014633179e-01
-7.084925472736358643e-02 -4.660338908433914185e-02 -6.535025835037231445e-01
-2.722261548042297363e-01 5.394363030791282654e-02 6.274705380201339722e-02
-3.657271564006805420e-01 2.815113030374050140e-02 5.312951654195785522e-02
6.878509372472763062e-02 -9.258244186639785767e-02 -1.978265792131423950e-01
-5.596980452537536621e-01 2.317138463258743286e-01 -5.064319353550672531e-03
1.102896705269813538e-01 -6.444983929395675659e-02 2.311568707227706909e-01
-1.169054359197616577e-01 -5.339224636554718018e-02 6.761866807937622070e-01
-2.225183695554733276e-01 6.448692083358764648e-02 5.729540437459945679e-02
-7.042697072029113770e-01 2.651695013046264648e-01 2.802731990814208984e-01
6.104477494955062866e-02 -1.577965766191482544e-01 1.022972688078880310e-01
3.435224294662475586e-02 -8.926515281200408936e-02 2.431402355432510376e-01
2.976002693176269531e-01 7.112147659063339233e-02 -5.788365006446838379e-02
-6.095086932182312012e-01 1.135775223374366760e-01 -3.841258003376424313e-04
8.699982166290283203e-01 3.866870701313018799e-02 3.489733114838600159e-02
-2.926698625087738037e-01 1.411055028438568115e-02 8.719107136130332947e-03
-7.120100259780883789e-01 2.637037336826324463e-01 3.136260211467742920e-01
-1.420293301343917847e-01 -8.724682033061981201e-03 1.540622711181640625e-01
9.076969027519226074e-01 2.641505561769008636e-03 -5.595499649643898010e-02
7.168118953704833984e-01 -1.073173433542251587e-01 -1.997922174632549286e-02
-2.731776237487792969e-01 7.017001509666442871e-02 -1.128743495792150497e-02
8.528975248336791992e-01 4.638331383466720581e-02 -4.713463038206100464e-02
3.061120510101318359e-01 2.128513343632221222e-02 -9.262508153915405273e-02
-4.519507288932800293e-01 2.077082730829715729e-02 -9.859104454517364502e-02
7.717655897140502930e-01 8.624210208654403687e-02 -1.630192622542381287e-02
1.037836819887161255e-01 -4.956065490841865540e-02 -4.333534538745880127e-01
7.228238135576248169e-02 -9.705691039562225342e-02 -1.376783698797225952e-01
-2.700660526752471924e-01 4.442894831299781799e-02 -1.695654094219207764e-01
8.520232439041137695e-01 -8.039336651563644409e-02 -6.500679999589920044e-02
3.131837844848632812e-01 8.961081504821777344e-02 -2.054496109485626221e-02
9.010311961174011230e-02 -1.395129561424255371e-01 -1.067428067326545715e-01
8.025211691856384277e-01 -1.084488034248352051e-01 1.108491979539394379e-02
9.403297305107116699e-01 -9.147667139768600464e-02 1.833664812147617340e-02
9.498958587646484375e-01 1.561459852382540703e-03 -2.319364249706268311e-02
5.085947513580322266e-01 -1.106860488653182983e-01 -1.849900698289275169e-03
-5.580779910087585449e-01 6.191538274288177490e-02 -3.135668346658349037e-03
2.067993730306625366e-01 -5.431799963116645813e-02 -9.707383811473846436e-02
9.038910865783691406e-01 -1.026885807514190674e-01 -9.255921468138694763e-03
-5.922793745994567871e-01 2.773071527481079102e-01 -3.018821775913238525e-02
-2.371302060782909393e-02 -2.096519060432910919e-02 -9.612236171960830688e-02
1.370281353592872620e-02 -1.060829982161521912e-01 8.149354904890060425e-02
-2.208725661039352417e-01 3.488855436444282532e-02 -4.695462435483932495e-02
1.931445151567459106e-01 -8.486783504486083984e-02 2.732014656066894531e-01
3.139498084783554077e-02 -8.623073995113372803e-02 1.265468448400497437e-01
-4.132748544216156006e-01 7.765317708253860474e-02 4.387654189486056566e-04
1.013150066137313843e-01 -1.167805865406990051e-01 7.462754845619201660e-02
-1.637845337390899658e-01 -3.351427987217903137e-02 -8.495563864707946777e-01
-2.405448257923126221e-01 -8.571642637252807617e-02 -4.739178344607353210e-02
1.434624642133712769e-01 -6.483557820320129395e-02 -1.508703380823135376e-01
3.257843255996704102e-01 -5.352082476019859314e-02 9.617701917886734009e-02
1.032436639070510864e-01 -7.036437839269638062e-02 -4.639289975166320801e-01
1.407623589038848877e-01 8.554778993129730225e-02 -3.293975442647933960e-02
1.352281030267477036e-02 -6.897574663162231445e-02 4.944820404052734375e-01
-5.596980452537536621e-01 2.317138463258743286e-01 -5.064319353550672531e-03
1.804411411285400391e-01 -1.397060975432395935e-02 9.414550662040710449e-02
-6.503759324550628662e-02 -2.898837253451347351e-02 9.224256873130798340e-02
3.174525201320648193e-01 6.739275157451629639e-02 -6.240954995155334473e-02
1.253588646650314331e-01 -6.509272754192352295e-02 1.846892386674880981e-01
3.062148988246917725e-01 -7.231874018907546997e-02 -7.462433725595474243e-02
4.814650118350982666e-01 -6.074682995676994324e-02 -8.305896818637847900e-02
2.275002449750900269e-01 9.274809062480926514e-02 7.216341909952461720e-04
-2.070891708135604858e-01 8.361914008855819702e-02 2.761989273130893707e-02
8.233708888292312622e-02 -1.101460233330726624e-01 -1.479388028383255005e-01
-3.731588721275329590e-01 -1.175908930599689484e-02 1.386587768793106079e-01
1.384479701519012451e-01 -9.199098497629165649e-02 2.025614082813262939e-01
8.090785741806030273e-01 2.624819427728652954e-02 -8.287896215915679932e-02
4.831567779183387756e-02 -7.005578279495239258e-02 -3.141371011734008789e-01
-3.736732006072998047e-01 -1.024188753217458725e-02 6.773583590984344482e-02
6.753844618797302246e-01 -3.775730729103088379e-02 -9.306223690509796143e-02
-8.609845489263534546e-02 -4.778629168868064880e-02 7.157369256019592285e-01
-3.628984689712524414e-01 2.241660840809345245e-02 -7.174422591924667358e-02
5.746574997901916504e-01 6.654414534568786621e-02 -6.343816220760345459e-02
-3.916482329368591309e-01 2.503957226872444153e-02 1.402531266212463379e-01
4.025188982486724854e-01 5.898383259773254395e-02 6.863586604595184326e-02
-7.498887777328491211e-01 2.622379362583160400e-01 2.863420248031616211e-01
-6.034398674964904785e-01 2.385284006595611572e-01 -4.421435762196779251e-03
-7.210618853569030762e-01 2.625465393066406250e-01 -2.481000721454620361e-01
-1.297117024660110474e-01 2.719966322183609009e-02 -9.751100093126296997e-02
2.830913290381431580e-02 -8.255345374345779419e-02 3.369755744934082031e-01
6.158479675650596619e-02 -1.271695792675018311e-01 1.249267756938934326e-01
-6.607336401939392090e-01 1.161233410239219666e-01 3.396030515432357788e-03
-1.350090503692626953e-01 -1.267228508368134499e-03 1.031973063945770264e-01
6.284025311470031738e-01 7.287012040615081787e-02 5.287236347794532776e-02
3.335246145725250244e-01 8.914794027805328369e-02 -2.296220138669013977e-02
6.104477494955062866e-02 -1.577965766191482544e-01 1.022972688078880310e-01
8.688870072364807129e-02 -1.253695040941238403e-01 -1.272122263908386230e-01
-3.513779640197753906e-01 -4.166604205965995789e-02 -6.081519648432731628e-02
6.878509372472763062e-02 -9.258244186639785767e-02 -1.978265792131423950e-01
-7.680181264877319336e-01 2.609778940677642822e-01 3.446130156517028809e-01
-4.971325993537902832e-01 -2.888551540672779083e-02 3.219722211360931396e-02
-2.378447204828262329e-01 1.827643811702728271e-02 -8.804775029420852661e-02
8.514005690813064575e-02 -1.247523427009582520e-01 5.891546607017517090e-02
-2.523481845855712891e-01 2.545102126896381378e-02 -8.370184898376464844e-02
3.296673297882080078e-01 -9.435679018497467041e-02 -8.845919370651245117e-02
6.415944695472717285e-01 -3.860591724514961243e-02 -9.272794425487518311e-02
5.644172802567481995e-02 -6.982434540987014771e-02 -4.861727952957153320e-01
-2.739233374595642090e-01 7.731887698173522949e-02 3.271152824163436890e-02
1.876157075166702271e-01 -1.265009939670562744e-01 -2.108498290181159973e-02
-5.704984664916992188e-01 4.391464218497276306e-02 6.456157192587852478e-03
8.130847662687301636e-02 -1.427787989377975464e-01 -9.221363812685012817e-02
5.389902591705322266e-01 -6.429555267095565796e-02 7.761052995920181274e-02
-1.597729325294494629e-01 -3.719156980514526367e-02 -8.168721795082092285e-01
-6.901005506515502930e-01 2.633951306343078613e-01 2.143133282661437988e-01
-6.339179724454879761e-02 -6.385838985443115234e-02 -5.621873736381530762e-01
7.711686939001083374e-02 -1.143119111657142639e-01 1.279097497463226318e-01
-2.803319506347179413e-02 -9.024234116077423096e-02 5.315522849559783936e-02
-1.611615568399429321e-01 -3.719156980514526367e-02 8.851383626461029053e-02
1.669920086860656738e-01 -5.766099318861961365e-02 2.186335027217864990e-01
8.472861349582672119e-02 -1.378157436847686768e-01 1.008829250931739807e-01
8.045986294746398926e-02 -9.656833112239837646e-02 4.420629143714904785e-02
6.899908185005187988e-01 -6.280406564474105835e-02 7.869057357311248779e-02
7.468217015266418457e-01 8.184477686882019043e-02 -3.653990849852561951e-02
-8.499269187450408936e-02 -1.073687672615051270e-01 -1.977349817752838135e-02
-2.822037041187286377e-01 3.203414753079414368e-02 1.010773703455924988e-02
-7.084925472736358643e-02 -4.660338908433914185e-02 -6.535025835037231445e-01
-4.983669221401214600e-01 2.026040554046630859e-01 -4.164282232522964478e-03
-7.263334989547729492e-01 2.652209401130676270e-01 2.579522728919982910e-01
-7.640923839062452316e-03 -7.283304631710052490e-02 -4.596088230609893799e-01
4.035475254058837891e-01 -8.548500388860702515e-02 5.894118547439575195e-02
5.075863748788833618e-02 -8.335062116384506226e-02 3.242464661598205566e-01
-5.881906151771545410e-01 7.181579619646072388e-02 2.731969834712799639e-05
8.114700913429260254e-01 -8.903370797634124756e-02 -5.639215558767318726e-02
-3.105420172214508057e-01 1.539631560444831848e-02 -6.899268180131912231e-02
2.807769738137722015e-02 -5.349510163068771362e-02 6.318791508674621582e-01
-1.445751637220382690e-01 2.300805971026420593e-02 -1.233549267053604126e-01
-1.134081557393074036e-01 4.814141720999032259e-04 1.538565456867218018e-01
4.177166521549224854e-01 8.475062251091003418e-02 -3.468840196728706360e-02
3.435224294662475586e-02 -8.926515281200408936e-02 2.431402355432510376e-01
-1.406150013208389282e-01 -4.867376293987035751e-03 -9.697097539901733398e-02
5.615885555744171143e-02 -7.149584591388702393e-02 -2.676694691181182861e-01
6.480748057365417480e-01 4.864626377820968628e-02 -7.904738187789916992e-02
-4.273411333560943604e-01 -2.027087099850177765e-02 5.498102307319641113e-02
-4.682028293609619141e-01 1.828032433986663818e-01 9.670575149357318878e-03
-1.362433880567550659e-01 5.990958958864212036e-02 -1.484016776084899902e-01
-1.445751637220382690e-01 2.300805971026420593e-02 -1.233549267053604126e-01
9.562732577323913574e-01 -8.587073534727096558e-02 -2.273076586425304413e-02
3.002489805221557617e-01 3.851441666483879089e-02 -8.578480035066604614e-02
2.217657119035720825e-01 6.898710131645202637e-02 5.760398507118225098e-02
8.748015761375427246e-02 -1.147233620285987854e-01 -1.293723136186599731e-01
-4.013171792030334473e-01 1.997365057468414307e-02 -9.884819388389587402e-02
-2.019203752279281616e-01 -7.464628200978040695e-03 9.059678763151168823e-02
9.506618231534957886e-02 -6.524701416492462158e-02 2.532978057861328125e-01
1.820354908704757690e-01 -5.262077972292900085e-02 -3.569017052650451660e-01
1.536200344562530518e-01 -1.177577748894691467e-01 7.321320474147796631e-02
5.825006365776062012e-01 6.833104882389307022e-03 9.280829876661300659e-02
8.367483615875244141e-01 8.684610016644001007e-03 8.128783106803894043e-02
-4.592024385929107666e-01 1.407169038429856300e-03 -5.729219317436218262e-02
9.987495094537734985e-02 -1.521134674549102783e-01 8.645661175251007080e-02
4.035475254058837891e-01 -8.548500388860702515e-02 5.894118547439575195e-02
9.107570648193359375e-01 1.449628174304962158e-02 3.489733114838600159e-02
-4.166949689388275146e-01 8.004470169544219971e-02 -8.664468303322792053e-03
-4.215551614761352539e-01 2.344522066414356232e-02 -4.678589291870594025e-03
2.254944443702697754e-01 -5.308365449309349060e-02 1.646312773227691650e-01
-1.617015898227691650e-01 3.411709144711494446e-02 -6.747547537088394165e-02
-3.029559850692749023e-01 -2.811405248939990997e-02 7.460182905197143555e-02
7.034142017364501953e-01 -1.073944792151451111e-01 -1.954206079244613647e-02
5.220695734024047852e-01 4.435180127620697021e-02 -8.218464255332946777e-02
1.614577509462833405e-02 -5.087213963270187378e-02 -5.210428237915039062e-01
-6.131859421730041504e-01 1.188748851418495178e-01 6.919033359736204147e-03
-3.629332175478339195e-03 -7.604746520519256592e-02 4.236619770526885986e-01
-1.860540211200714111e-01 -4.421186074614524841e-02 -8.658197522163391113e-02
-4.036315679550170898e-01 8.633180521428585052e-03 1.531879454851150513e-01
1.725208014249801636e-01 1.565347239375114441e-02 9.170254319906234741e-02
-2.497766464948654175e-01 4.535469785332679749e-02 -1.352466922253370285e-02
1.604603230953216553e-01 -1.264495700597763062e-01 4.706069082021713257e-02
7.782201766967773438e-01 -8.391635864973068237e-02 6.020123884081840515e-02
-7.439485192298889160e-01 2.630093991756439209e-01 2.621695995330810547e-01
-6.326524615287780762e-01 2.768699824810028076e-01 2.393132075667381287e-03
4.728163592517375946e-03 -7.252446562051773071e-02 3.924178481101989746e-01
-1.252886503934860229e-01 -4.161461070179939270e-02 -7.761390805244445801e-01
-6.966837048530578613e-01 3.063912093639373779e-01 -1.001294236630201340e-03
6.323057413101196289e-02 -7.239589095115661621e-02 -2.354481220245361328e-01
1.226587593555450439e-01 8.395343273878097534e-02 3.350870683789253235e-02
-1.812709569931030273e-01 3.674005717039108276e-02 6.117841973900794983e-02
-3.098991215229034424e-01 -7.036437839269638062e-02 4.119759425520896912e-02
-2.803319506347179413e-02 -9.024234116077423096e-02 5.315522849559783936e-02
8.084559440612792969e-02 -7.224159687757492065e-02 -4.600717127323150635e-01
3.905266290530562401e-03 -1.213321983814239502e-01 -5.937514081597328186e-02
-1.906827986240386963e-01 3.630289807915687561e-02 5.428670719265937805e-02
2.101166546344757080e-01 -1.001427471637725830e-01 -9.571092575788497925e-02
3.860867619514465332e-01 -8.710506558418273926e-02 7.174742966890335083e-02
-3.146307766437530518e-01 -1.669644005596637726e-02 1.170321553945541382e-01
3.002489805221557617e-01 3.851441666483879089e-02 -8.578480035066604614e-02
-4.587910175323486328e-01 9.771114587783813477e-02 -6.915824487805366516e-03
9.858918935060501099e-02 6.987400352954864502e-03 -9.568520635366439819e-02
-3.435090780258178711e-01 4.183169826865196228e-02 1.672285348176956177e-01
2.641960382461547852e-01 -1.865080744028091431e-02 -9.643095731735229492e-02
-1.619587540626525879e-01 8.144586347043514252e-03 9.129109978675842285e-02
3.442393615841865540e-03 -9.381676465272903442e-02 -1.148431450128555298e-01
-1.342375874519348145e-01 -2.464247867465019226e-02 8.763292431831359863e-01
4.831567779183387756e-02 -7.005578279495239258e-02 -3.141371011734008789e-01
7.724544405937194824e-02 -8.831367641687393188e-02 2.530663609504699707e-01
8.063986897468566895e-02 -6.216118112206459045e-02 -5.379120707511901855e-01
3.091978728771209717e-01 -2.754831314086914062e-02 9.242257475852966309e-02
-2.367132455110549927e-01 8.889078348875045776e-02 4.901960492134094238e-04
8.299080133438110352e-01 -1.317469179630279541e-01 1.051918230950832367e-02
6.454206258058547974e-02 -4.917492717504501343e-02 4.787442684173583984e-01
-3.898995816707611084e-01 2.115655504167079926e-02 4.896362870931625366e-02
-4.065631330013275146e-01 7.379587739706039429e-02 -9.075913578271865845e-03
-5.761301517486572266e-01 3.041408210992813110e-02 3.458875045180320740e-02
-4.215551614761352539e-01 2.344522066414356232e-02 -4.678589291870594025e-03
2.344176769256591797e-01 -9.921700507402420044e-02 8.887385576963424683e-02
1.721865087747573853e-01 -9.106522053480148315e-02 -2.178331166505813599e-01
7.758544087409973145e-01 4.471181705594062805e-02 -7.786447554826736450e-02
1.026264876127243042e-01 -8.214200288057327271e-02 -6.588111817836761475e-02
-7.074639201164245605e-02 -6.000109016895294189e-02 -5.661989450454711914e-01
-5.555064082145690918e-01 2.893676459789276123e-01 9.787876624614000320e-04
4.728163592517375946e-03 -7.252446562051773071e-02 3.924178481101989746e-01
-6.367669701576232910e-01 2.734755575656890869e-01 -9.805101901292800903e-02
-5.125874876976013184e-01 6.471835821866989136e-02 -1.527331303805112839e-02
5.085947513580322266e-01 -1.106860488653182983e-01 -1.849900698289275169e-03
2.773796673864126205e-03 -4.989495873451232910e-02 6.739236712455749512e-01
2.588472366333007812e-01 -5.197789520025253296e-02 1.118119433522224426e-01
2.565842866897583008e-01 -1.056972593069076538e-01 2.461119554936885834e-02
1.226587593555450439e-01 8.395343273878097534e-02 3.350870683789253235e-02
-2.455078810453414917e-01 1.071612257510423660e-02 5.423527583479881287e-02
-3.230654001235961914e-01 -9.033263660967350006e-03 1.060002744197845459e-01
-4.158978164196014404e-01 2.303377538919448853e-02 -8.437044918537139893e-02
3.306187689304351807e-01 -5.426656454801559448e-02 8.362792432308197021e-02
2.388609759509563446e-02 -4.346611723303794861e-02 5.746368169784545898e-01
-3.046017587184906006e-01 1.498487126082181931e-02 3.001141920685768127e-02
-2.484651803970336914e-01 1.092184614390134811e-02 -1.175030972808599472e-02
-7.498887777328491211e-01 2.622379362583160400e-01 2.863420248031616211e-01
6.607781648635864258e-01 -1.088859662413597107e-01 -1.162173319607973099e-02
4.364374577999114990e-01 6.129821389913558960e-02 6.693866103887557983e-02
-4.809116944670677185e-02 8.421058952808380127e-02 -3.584559634327888489e-02
5.991329997777938843e-02 -8.260487765073776245e-02 9.810566902160644531e-02
-1.383831817656755447e-02 -6.748425215482711792e-02 -9.275365620851516724e-02
-6.216205954551696777e-01 5.165495723485946655e-02 3.473176620900630951e-03
-2.472050935029983521e-01 3.367992863059043884e-02 -9.380798786878585815e-02
5.785607174038887024e-02 -9.093664586544036865e-02 2.939537465572357178e-01
-8.928716182708740234e-02 -3.665155172348022461e-02 7.388806939125061035e-01
-1.764622032642364502e-01 3.697149455547332764e-02 8.355078101158142090e-02
-1.455523520708084106e-01 2.380523458123207092e-02 -1.617479324340820312e-01
-1.476352810859680176e-01 -5.895993206650018692e-03 -1.302980631589889526e-01
1.172273419797420502e-02 -7.262732088565826416e-02 -4.603545963764190674e-01
3.559998571872711182e-01 -1.016342341899871826e-01 3.335441276431083679e-02
7.775975018739700317e-02 -1.548650115728378296e-01 1.409217268228530884e-01
-5.580779910087585449e-01 6.191538274288177490e-02 -3.135668346658349037e-03
4.173052310943603516e-01 -1.165623217821121216e-02 -9.730527549982070923e-02
-6.901005506515502930e-01 2.633951306343078613e-01 2.143133282661437988e-01
-6.293095350265502930e-01 2.750184834003448486e-01 6.552431732416152954e-02
1.517428010702133179e-01 -5.076928064227104187e-02 -3.770368695259094238e-01
9.398411512374877930e-01 7.385672070086002350e-04 3.222293406724929810e-02
-2.751062512397766113e-01 3.295990079641342163e-02 -1.745027452707290649e-01
-6.943435668945312500e-01 2.729612588882446289e-01 -4.852325841784477234e-02
1.625175476074218750e-01 9.117945283651351929e-02 9.207699447870254517e-03
4.584700241684913635e-02 -8.149911463260650635e-02 -3.531215488910675049e-01
5.825006365776062012e-01 6.833104882389307022e-03 9.280829876661300659e-02
1.261817514896392822e-01 -8.201342821121215820e-02 -3.397238850593566895e-01
-2.378447204828262329e-01 1.827643811702728271e-02 -8.804775029420852661e-02
1.494027078151702881e-01 -8.715648949146270752e-02 2.675698399543762207e-01
2.066708058118820190e-01 -1.059544160962104797e-01 2.407117374241352081e-02
6.132764369249343872e-02 -6.239261478185653687e-02 -5.461667180061340332e-01
3.063692152500152588e-01 -9.695404767990112305e-02 -4.626031219959259033e-02
-1.969830244779586792e-01 7.193120196461677551e-03 -2.039066515862941742e-02
-3.876623213291168213e-01 2.077082730829715729e-02 1.671770811080932617e-01
-4.132748544216156006e-01 7.765317708253860474e-02 4.387654189486056566e-04
-3.016757406294345856e-02 5.907354876399040222e-03 9.293688088655471802e-02
2.953116297721862793e-01 2.768825553357601166e-02 -9.005355089902877808e-02
1.306562274694442749e-01 -4.788915812969207764e-02 4.501745402812957764e-01
8.773730695247650146e-02 -5.886960774660110474e-02 -3.723566830158233643e-01
-2.480022907257080078e-01 3.342277556657791138e-02 9.311689436435699463e-02
1.703607290983200073e-01 -6.007823348045349121e-02 -1.721626520156860352e-01
7.302812486886978149e-02 -7.918473333120346069e-02 -1.131202131509780884e-01
2.596903406083583832e-02 -1.253437995910644531e-01 -1.901331357657909393e-03
1.693750964477658272e-03 -8.005905896425247192e-02 -3.241146504878997803e-01
-1.494610756635665894e-01 4.982917010784149170e-02 -1.200890764594078064e-01
-3.916482329368591309e-01 2.503957226872444153e-02 1.402531266212463379e-01
-3.345087170600891113e-01 -1.700502261519432068e-02 -1.248464211821556091e-01
8.120872974395751953e-01 -9.546256065368652344e-02 -4.839468374848365784e-02
-4.381930232048034668e-01 2.478241920471191406e-02 -5.410348996520042419e-02
-3.356916308403015137e-01 -8.621819317340850830e-03 7.380465418100357056e-02
-7.355395555496215820e-01 2.655552327632904053e-01 -1.859717965126037598e-01
9.650421738624572754e-01 -3.243423625826835632e-02 -4.764893651008605957e-02
-7.439742684364318848e-01 2.624694108963012695e-01 2.755158543586730957e-01
-9.347876161336898804e-02 -9.924271702766418457e-02 3.847176954150199890e-02
3.535514324903488159e-02 -1.263981163501739502e-01 4.562063515186309814e-02
5.912438631057739258e-01 6.024388596415519714e-02 6.771011650562286377e-02
1.132469326257705688e-01 -8.823654055595397949e-02 -2.559432685375213623e-01
-2.627886235713958740e-01 7.932467758655548096e-02 -3.306833654642105103e-02
-4.158978164196014404e-01 2.303377538919448853e-02 -8.437044918537139893e-02
-1.245171949267387390e-01 5.394363030791282654e-02 -1.409185081720352173e-01
7.977123856544494629e-01 -1.692787744104862213e-02 9.031391143798828125e-02
-4.131719470024108887e-01 4.134310409426689148e-02 -5.904083698987960815e-02
2.236686348915100098e-01 -1.179120689630508423e-01 -7.588439434766769409e-02
-3.599154949188232422e-01 -3.109703026711940765e-02 -6.557253748178482056e-02
-1.177797615528106689e-01 7.302441447973251343e-02 -5.556926876306533813e-02
-2.278414666652679443e-01 4.139453917741775513e-02 -7.902166247367858887e-02
-1.012705042958259583e-01 5.013775080442428589e-02 7.509042322635650635e-02
-3.391374647617340088e-01 2.938546612858772278e-02 -7.624440640211105347e-02
-6.607593297958374023e-01 2.776671648025512695e-01 -3.804267384111881256e-03
-2.164495438337326050e-01 3.154555708169937134e-02 9.252543747425079346e-02
-1.617015898227691650e-01 3.411709144711494446e-02 -6.747547537088394165e-02
-6.345040202140808105e-01 -9.444711729884147644e-03 1.368217077106237411e-02
9.056599438190460205e-02 -6.491272151470184326e-02 -2.724268138408660889e-01
1.199329271912574768e-01 -7.023579627275466919e-02 7.326463609933853149e-02
-6.304666399955749512e-01 2.764071226119995117e-01 2.155106700956821442e-02
-1.350090503692626953e-01 -1.267228508368134499e-03 1.031973063945770264e-01
-4.027315378189086914e-01 4.903199523687362671e-02 -1.286779940128326416e-01
8.514005690813064575e-02 -1.247523427009582520e-01 5.891546607017517090e-02
5.567026883363723755e-02 -7.234445214271545410e-02 -2.571261823177337646e-01
-4.308126866817474365e-01 1.485629752278327942e-02 1.559394896030426025e-01
2.431866079568862915e-01 -5.107786133885383606e-02 -1.854317635297775269e-01
-1.869283467531204224e-01 -8.530499786138534546e-02 -5.520925298333168030e-02
7.800459265708923340e-01 5.890668928623199463e-02 -6.552110612392425537e-02
7.038770914077758789e-01 3.884871676564216614e-02 -8.563050627708435059e-02
6.117132902145385742e-01 -4.848061129450798035e-02 8.591658622026443481e-02
2.944373190402984619e-01 -1.085773780941963196e-01 1.028774399310350418e-02
-5.177820324897766113e-01 2.395953051745891571e-02 -4.734035581350326538e-02
3.307730853557586670e-01 5.854667350649833679e-02 -7.184708863496780396e-02
-9.857039898633956909e-02 -1.314772199839353561e-02 9.424836188554763794e-02
2.566100060939788818e-01 -9.705691039562225342e-02 -1.139688268303871155e-01
-6.865518093109130859e-01 2.416913807392120361e-01 7.870501838624477386e-03
3.213612437248229980e-01 -1.208436116576194763e-01 5.603535100817680359e-02
3.306187689304351807e-01 -5.426656454801559448e-02 8.362792432308197021e-02
-6.691481173038482666e-02 -3.377142921090126038e-02 7.483696341514587402e-01
-2.061119973659515381e-01 -1.250483654439449310e-02 1.557080447673797607e-01
1.306562274694442749e-01 -4.788915812969207764e-02 4.501745402812957764e-01
1.554715335369110107e-01 1.047153724357485771e-03 -9.643095731735229492e-02
8.699982166290283203e-01 3.866870701313018799e-02 3.489733114838600159e-02
-4.971325993537902832e-01 -2.888551540672779083e-02 3.219722211360931396e-02
-3.032903075218200684e-01 3.105696663260459900e-02 -3.939430788159370422e-02
2.725020945072174072e-01 -5.318652093410491943e-02 -1.932235211133956909e-01
1.633147150278091431e-01 -6.727852672338485718e-02 4.043240547180175781e-01
-6.965551376342773438e-01 2.767671346664428711e-01 8.924830704927444458e-03
-2.876039445400238037e-01 4.975202679634094238e-02 -1.270177774131298065e-02
1.576004736125469208e-02 -6.812714040279388428e-02 -5.059478878974914551e-01
-6.678825020790100098e-01 2.876704335212707520e-01 1.008202135562896729e-02
1.671151444315910339e-02 -7.633033394813537598e-02 4.189817905426025391e-01
1.211672648787498474e-01 -6.900145858526229858e-02 1.269068568944931030e-01
-6.837231516838073730e-01 2.455743998289108276e-01 -1.644178060814738274e-03
7.547677755355834961e-01 -1.325058378279209137e-02 -9.601950645446777344e-02
-1.978830546140670776e-01 -9.692833572626113892e-02 3.026857227087020874e-02
-3.948369324207305908e-01 1.231047417968511581e-02 -6.870981305837631226e-02
-6.274891644716262817e-02 -2.901409380137920380e-02 -7.975600361824035645e-01
-4.911923408508300781e-01 3.794867917895317078e-02 -4.752036556601524353e-02
1.601719669997692108e-02 -8.571642637252807617e-02 -1.934035271406173706e-01
-1.527012139558792114e-01 3.542857617139816284e-02 1.706486642360687256e-01
-4.659967496991157532e-02 -5.961536243557929993e-02 -5.981374382972717285e-01
-3.650585412979125977e-01 1.796784996986389160e-02 6.912446022033691406e-02
4.777565225958824158e-02 -1.265009939670562744e-01 -4.212014004588127136e-02
-1.151310801506042480e-01 5.857238918542861938e-02 1.409217268228530884e-01
-6.006883382797241211e-01 2.870789766311645508e-01 1.139350328594446182e-02
2.414893805980682373e-01 8.973938971757888794e-02 1.694802008569240570e-02
8.531804084777832031e-01 -1.713485568761825562e-01 -2.147071249783039093e-02
5.271299928426742554e-02 -8.108767867088317871e-02 -3.585217893123626709e-01
-2.902526259422302246e-01 -5.370082706212997437e-02 -6.647257506847381592e-02
-7.107757329940795898e-01 2.607721686363220215e-01 2.918193936347961426e-01
-2.984300851821899414e-01 2.282805182039737701e-02 7.660762965679168701e-02
1.139412447810173035e-01 -7.846470177173614502e-02 3.846004009246826172e-01
3.972674906253814697e-02 -7.008150219917297363e-02 3.446901440620422363e-01
9.848631918430328369e-02 -7.455597817897796631e-02 7.012736052274703979e-02
7.468217015266418457e-01 8.184477686882019043e-02 -3.653990849852561951e-02
-1.672561019659042358e-01 -2.914266474545001984e-02 -9.306223690509796143e-02
-7.069698572158813477e-01 2.710840404033660889e-01 -9.190504997968673706e-02
-3.603066504001617432e-02 7.685600221157073975e-02 4.803787544369697571e-02
-6.728969812393188477e-01 3.542857617139816284e-02 -3.135668346658349037e-03
6.513148546218872070e-01 -9.769979119300842285e-02 4.181476309895515442e-02
-3.859393894672393799e-01 7.004143297672271729e-02 3.039714694023132324e-02
-6.274891644716262817e-02 -2.901409380137920380e-02 -7.975600361824035645e-01
-1.747135668992996216e-01 3.704864159226417542e-02 -1.679051853716373444e-02
-7.120357751846313477e-01 2.718812227249145508e-01 6.920161098241806030e-02
8.768385052680969238e-01 1.341623626649379730e-02 -6.541824340820312500e-02
-2.699374854564666748e-01 -8.538213372230529785e-02 -3.383979573845863342e-02
-4.989123716950416565e-02 -4.230892658233642578e-02 -6.538112163543701172e-01
-5.356027483940124512e-01 7.173864543437957764e-02 9.850583039224147797e-03
-5.704984664916992188e-01 4.391464218497276306e-02 6.456157192587852478e-03
-7.123497128486633301e-02 -5.874102935194969177e-02 -6.104550361633300781e-01
-1.863626092672348022e-01 -1.795648969709873199e-02 1.233324185013771057e-01
1.565718092024326324e-02 -1.002199053764343262e-01 9.044249355792999268e-02
1.552861090749502182e-02 -9.186241030693054199e-02 -1.017797440290451050e-01
-8.777892217040061951e-04 -9.083379805088043213e-02 2.177334725856781006e-01
2.172600664198398590e-02 -8.065052330493927002e-02 -2.522402405738830566e-01
-4.381930232048034668e-01 2.478241920471191406e-02 -5.410348996520042419e-02
-1.005816366523504257e-02 -5.745527148246765137e-02 -9.308796375989913940e-02
3.826097771525382996e-02 -8.859655261039733887e-02 -2.551460862159729004e-01
7.898691892623901367e-01 -1.083973795175552368e-01 -1.414183713495731354e-02
-4.287554621696472168e-01 4.360605403780937195e-02 1.512335836887359619e-01
1.254360079765319824e-01 -1.020199730992317200e-01 -8.879348635673522949e-02
-1.671843975782394409e-02 -8.540784567594528198e-02 -2.942334413528442383e-01
4.926769137382507324e-01 9.584647603332996368e-03 9.247400611639022827e-02
-9.805608540773391724e-02 -5.166931450366973877e-02 -6.855696439743041992e-01
1.309390962123870850e-01 -4.935493320226669312e-02 4.621064364910125732e-01
-2.519110143184661865e-01 -2.199380286037921906e-02 1.269840002059936523e-01
2.265487611293792725e-01 -1.106088906526565552e-01 -5.384179530665278435e-04
7.631969451904296875e-02 -1.241094470024108887e-01 1.452676206827163696e-01
2.192198783159255981e-01 7.809033989906311035e-02 -4.898613691329956055e-02
-3.885624110698699951e-01 4.358034208416938782e-02 1.601053774356842041e-01
4.149651229381561279e-01 6.466692686080932617e-02 6.284991651773452759e-02
-7.303450703620910645e-01 2.640894651412963867e-01 2.240080088376998901e-01
1.625175476074218750e-01 9.117945283651351929e-02 9.207699447870254517e-03
8.910334110260009766e-01 -8.769651502370834351e-02 5.058369785547256470e-02
2.872058190405368805e-02 -1.119203791022300720e-01 -8.161891251802444458e-02
5.160521864891052246e-01 3.149412572383880615e-02 8.568514883518218994e-02
-6.260179281234741211e-01 2.735269963741302490e-01 1.148206442594528198e-01
-6.607336401939392090e-01 1.161233410239219666e-01 3.396030515432357788e-03
-7.835812121629714966e-02 -3.647153824567794800e-02 7.304203510284423828e-01
-2.968614399433135986e-01 -6.437269598245620728e-02 -5.551783367991447449e-02
-6.280751824378967285e-01 2.743755877017974854e-01 8.679090440273284912e-02
3.180642426013946533e-02 -8.319632709026336670e-02 -3.307749330997467041e-01
-1.635787934064865112e-01 -6.084969639778137207e-02 -8.033315092325210571e-02
1.523342728614807129e-01 -6.262405216693878174e-02 -1.689996719360351562e-01
4.979999959468841553e-01 -4.737485200166702271e-02 8.637946844100952148e-02
-2.437078207731246948e-01 4.900627955794334412e-02 -7.238710671663284302e-02
1.013150066137313843e-01 -1.167805865406990051e-01 7.462754845619201660e-02
-4.766631722450256348e-01 -3.978881984949111938e-02 2.445689961314201355e-02
-3.813106715679168701e-01 3.717721998691558838e-02 6.094697862863540649e-02
-4.592024385929107666e-01 1.407169038429856300e-03 -5.729219317436218262e-02
-2.514224350452423096e-01 -9.546256065368652344e-02 -1.715053431689739227e-02
1.013150066137313843e-01 -1.167805865406990051e-01 7.462754845619201660e-02
5.422472488135099411e-03 -1.086288243532180786e-01 1.013345178216695786e-02
3.905266290530562401e-03 -9.211956709623336792e-02 -5.376919358968734741e-02
6.058189645409584045e-02 -7.846470177173614502e-02 -3.912831544876098633e-01
7.878836989402770996e-02 7.724173367023468018e-02 -5.042619630694389343e-02
7.454533129930496216e-02 -7.908187806606292725e-02 1.074917688965797424e-01
1.253588646650314331e-01 -6.509272754192352295e-02 1.846892386674880981e-01
-1.334404051303863525e-01 -2.039945125579833984e-02 9.332261234521865845e-02
8.082299828529357910e-01 -1.053115427494049072e-01 -2.774525620043277740e-02
5.734176561236381531e-02 -7.751324027776718140e-02 6.796727329492568970e-02
-1.513383090496063232e-01 7.001572102308273315e-02 -5.824366211891174316e-02
1.876157075166702271e-01 -1.265009939670562744e-01 -2.108498290181159973e-02
1.943274289369583130e-01 -7.257588952779769897e-02 -3.469755947589874268e-01
-6.483131647109985352e-01 -3.195878816768527031e-03 1.314214803278446198e-02
4.113135337829589844e-01 -7.342450320720672607e-02 7.095025479793548584e-02
1.008778512477874756e-01 -9.667117893695831299e-02 1.911180764436721802e-01
-1.109651923179626465e-01 -3.896593302488327026e-02 7.513526082038879395e-01
-6.810744404792785645e-01 1.967923939228057861e-01 6.327580194920301437e-03
3.777807354927062988e-01 -1.085516661405563354e-01 -3.293975442647933960e-02
2.819910645484924316e-01 -5.151502415537834167e-02 -1.573248952627182007e-01
-8.404123038053512573e-02 -3.487718477845191956e-02 7.508897781372070312e-01
-4.649369716644287109e-01 1.098487973213195801e-01 1.270498707890510559e-02
-8.499269187450408936e-02 -1.073687672615051270e-01 -1.977349817752838135e-02
9.056599438190460205e-02 -6.491272151470184326e-02 -2.724268138408660889e-01
-4.061516821384429932e-01 2.761110663414001465e-02 9.972573816776275635e-02
-2.225183695554733276e-01 3.481140732765197754e-02 2.440547198057174683e-02
3.234644606709480286e-02 -1.075744777917861938e-01 1.571368239820003510e-02
1.259503215551376343e-01 -8.497068285942077637e-02 9.342547506093978882e-02
6.399660836905241013e-03 -4.680911451578140259e-02 5.638620853424072266e-01
1.091839075088500977e-01 -9.034518897533416748e-02 2.247023284435272217e-01
-1.657131910324096680e-01 5.855921190232038498e-03 -6.840122491121292114e-02
-6.983809471130371094e-01 2.905248403549194336e-01 -2.338492311537265778e-03
-2.131322771310806274e-01 -1.816221326589584351e-02 -1.209633946418762207e-01
-6.428099870681762695e-01 2.737070024013519287e-01 9.059678763151168823e-02
2.953116297721862793e-01 2.768825553357601166e-02 -9.005355089902877808e-02
8.472861349582672119e-02 -1.378157436847686768e-01 1.008829250931739807e-01
-3.824421167373657227e-01 2.192801795899868011e-02 9.615130722522735596e-02
-2.142637521028518677e-01 5.798093602061271667e-02 1.105261817574501038e-01
-5.729157328605651855e-01 1.554678231477737427e-01 1.028774399310350418e-02
-6.002308800816535950e-02 -2.803690731525421143e-02 -8.236353993415832520e-01
4.765019714832305908e-01 -5.611806735396385193e-02 8.290789276361465454e-02
-7.183874249458312988e-01 2.716497778892517090e-01 -6.238383799791336060e-02
7.122805714607238770e-02 -1.691113263368606567e-01 1.368329823017120361e-01
5.024744868278503418e-01 -4.614051431417465210e-02 -8.974496275186538696e-02
2.802681326866149902e-01 2.704536914825439453e-02 8.745951205492019653e-02
3.366361856460571289e-01 8.925080299377441406e-02 1.954527013003826141e-02
2.946632355451583862e-02 -3.919737040996551514e-02 9.360547363758087158e-02
1.315819770097732544e-01 -5.539803579449653625e-02 -4.732893705368041992e-01
-7.263334989547729492e-01 2.652209401130676270e-01 2.579522728919982910e-01
-3.509408235549926758e-01 -7.352735847234725952e-02 9.516282938420772552e-03
2.273202240467071533e-01 -9.682546555995941162e-02 -1.306323707103729248e-01
2.414324507117271423e-02 -7.440167665481567383e-02 -3.413182497024536133e-01
2.320261448621749878e-01 8.313054591417312622e-02 -3.813426196575164795e-02
-5.239794254302978516e-01 1.203406602144241333e-01 1.129064243286848068e-02
3.744377195835113525e-01 8.721929043531417847e-02 -2.939104288816452026e-02
-2.741602994501590729e-02 -4.102315753698348999e-02 -6.478967070579528809e-01
-2.061119973659515381e-01 -1.250483654439449310e-02 1.557080447673797607e-01
-5.294567942619323730e-01 -1.343059167265892029e-02 3.703170642256736755e-02
-1.789308637380599976e-01 5.367331672459840775e-03 9.555984288454055786e-02
3.435224294662475586e-02 -8.926515281200408936e-02 2.431402355432510376e-01
-1.192455291748046875e-01 -8.574216067790985107e-02 5.863260105252265930e-02
-3.859393894672393799e-01 7.004143297672271729e-02 3.039714694023132324e-02
-9.129296243190765381e-02 -5.421513319015502930e-02 -6.303844451904296875e-01
7.121059894561767578e-01 -1.038200557231903076e-01 2.867422066628932953e-02
-1.169054359197616577e-01 -5.339224636554718018e-02 6.761866807937622070e-01
-3.772219121456146240e-01 1.642493158578872681e-02 6.765868514776229858e-02
-3.614841103553771973e-01 2.835685387253761292e-02 3.980896249413490295e-02
5.883325263857841492e-02 -8.103623986244201660e-02 1.237438693642616272e-01
-3.831621706485748291e-01 -8.107513189315795898e-03 1.189093813300132751e-01
-3.778648078441619873e-01 3.959446027874946594e-02 -1.562448441982269287e-01
-3.703356534242630005e-02 -4.305467009544372559e-02 -7.485208511352539062e-01
-6.169660687446594238e-01 5.054920166730880737e-02 -7.764431182295084000e-03
2.395350039005279541e-01 -1.066744476556777954e-01 -2.342507801949977875e-02
1.006721258163452148e-01 9.300523996353149414e-02 -6.155640003271400928e-04
9.387096762657165527e-01 -3.909451141953468323e-02 5.966121330857276917e-02
-7.024439573287963867e-01 2.326138764619827271e-01 -1.012569773592986166e-04
-5.393058061599731445e-01 -2.222523838281631470e-02 -2.789954841136932373e-02
1.614577509462833405e-02 -5.087213963270187378e-02 -5.210428237915039062e-01
1.836041361093521118e-01 -8.468781411647796631e-02 9.347690641880035400e-02
-1.215599179267883301e-01 5.273500457406044006e-02 -1.246149688959121704e-01
-5.297708511352539062e-02 -6.799855828285217285e-02 4.898018538951873779e-01
4.008133430033922195e-03 -6.915575265884399414e-02 5.028138160705566406e-01
6.680501252412796021e-02 -7.573888450860977173e-02 1.760746091604232788e-01
9.608248472213745117e-01 -6.050284020602703094e-03 -2.648520283401012421e-02
-1.084708049893379211e-01 -5.539803579449653625e-02 6.537114977836608887e-01
