2.360909879207611084e-01 5.030520260334014893e-03 -4.902687668800354004e-02
9.885581582784652710e-02 -1.298805419355630875e-02 -1.709055453538894653e-01
-6.262974739074707031e-01 6.242375820875167847e-02 3.007095074281096458e-04
3.438249826431274414e-01 -1.584877446293830872e-02 -2.622056566178798676e-02
3.625984787940979004e-01 1.333456020802259445e-02 -4.276904836297035217e-02
-2.805871665477752686e-01 -1.419988647103309631e-02 1.087300181388854980e-01
-7.928372174501419067e-02 -1.668315380811691284e-02 -9.307007491588592529e-02
-9.044849127531051636e-02 -7.226876448839902878e-03 2.306087017059326172e-01
-1.732703447341918945e-01 -1.483560353517532349e-02 -2.002676725387573242e-01
-3.051814138889312744e-01 -1.439854688942432404e-02 1.117298007011413574e-01
-3.907448351383209229e-01 6.858225911855697632e-02 6.737333722412586212e-03
2.533149123191833496e-01 -2.737336908467113972e-04 -1.133335232734680176e-01
-1.641120612621307373e-01 -1.445814501494169235e-02 -1.102344021201133728e-01
-1.669926494359970093e-01 -7.226876448839902878e-03 -1.225911378860473633e-01
3.814315795898437500e-01 -1.153782568871974945e-02 -6.917113065719604492e-02
-1.072750985622406006e-01 -2.699367143213748932e-02 2.390166558325290680e-02
-1.306575089693069458e-01 -5.633594095706939697e-02 1.523759067058563232e-01
-6.299349665641784668e-02 -7.286474108695983887e-03 -2.422845214605331421e-01
-6.941026449203491211e-02 6.359585374593734741e-02 -2.314131706953048706e-02
-6.221871450543403625e-02 -6.154106929898262024e-03 -2.191802263259887695e-01
1.043388694524765015e-01 -2.637800993397831917e-03 -1.357027739286422729e-01
6.682388186454772949e-01 5.044448003172874451e-02 3.460950404405593872e-02
-2.765344679355621338e-01 -5.212431401014328003e-02 -1.610122174024581909e-01
-1.307568699121475220e-01 -5.633594095706939697e-02 1.328077614307403564e-01
7.068564742803573608e-02 4.943130910396575928e-02 3.635772317647933960e-02
-2.417687475681304932e-01 -8.597639389336109161e-03 2.031934410333633423e-01
-2.488212138414382935e-01 9.222273714840412140e-03 -4.096123203635215759e-02
1.750193419866263866e-03 -1.315292119979858398e-01 1.105775684118270874e-01
4.759148359298706055e-01 -2.584143355488777161e-02 -1.883036643266677856e-02
-2.242468446493148804e-01 -8.299649693071842194e-03 1.952867358922958374e-01
1.468722373247146606e-01 -1.290858909487724304e-02 -1.315706223249435425e-01
-7.854866981506347656e-02 -5.816382821649312973e-03 1.900420635938644409e-01
-2.386100441217422485e-01 -1.596797071397304535e-02 9.422774612903594971e-02
-7.835000753402709961e-02 -6.769956555217504501e-03 2.254434973001480103e-01
-5.511041879653930664e-01 2.048638612031936646e-01 2.863439498469233513e-03
1.006834954023361206e-01 -1.326639787293970585e-03 -7.324368506669998169e-02
-2.065063714981079102e-01 -2.844389900565147400e-02 -3.591768145561218262e-01
-2.207503914833068848e-01 -2.898028120398521423e-02 3.630958795547485352e-01
1.715459674596786499e-01 -1.992132887244224548e-02 -7.234970480203628540e-02
-5.386878252029418945e-01 1.555958688259124756e-01 -4.208900500088930130e-03
-2.631844282150268555e-01 1.214259304106235504e-02 -4.155721515417098999e-02
3.625984787940979004e-01 1.333456020802259445e-02 -4.276904836297035217e-02
-3.297756612300872803e-01 -1.239207107573747635e-02 7.040826231241226196e-02
-2.352526634931564331e-01 8.004500716924667358e-02 -3.275192808359861374e-03
6.144413352012634277e-01 -1.767645776271820068e-02 -2.900182455778121948e-02
-1.290284991264343262e-01 -2.236486598849296570e-02 -3.027768731117248535e-01
-4.369732737541198730e-01 3.071741946041584015e-02 3.478829935193061829e-02
-5.415306612849235535e-02 -5.639553815126419067e-02 1.321124434471130371e-01
-1.204065904021263123e-01 -1.545145362615585327e-02 -2.190808951854705811e-01
4.839010238647460938e-01 6.363558769226074219e-02 -2.212814427912235260e-02
7.199701666831970215e-01 -2.754992432892322540e-02 1.464405097067356110e-02
-2.653299868106842041e-01 -1.996106281876564026e-02 2.878231108188629150e-01
3.378452658653259277e-01 -1.092197559773921967e-02 3.256329149007797241e-02
1.576198041439056396e-01 -1.704094465821981430e-03 -1.156777292490005493e-01
-4.425974190235137939e-02 -5.144886672496795654e-02 -1.201078742742538452e-01
-1.682045012712478638e-01 -1.392176002264022827e-02 -1.212402433156967163e-01
4.118863344192504883e-01 -1.125970017164945602e-02 4.166197776794433594e-02
-3.204207494854927063e-02 -5.434932187199592590e-02 1.920684128999710083e-01
2.374200336635112762e-02 -1.327807754278182983e-01 -1.238029748201370239e-01
1.924054026603698730e-01 -2.166954986751079559e-02 -5.903940275311470032e-02
-3.726687282323837280e-02 -1.553091872483491898e-02 2.124709188938140869e-01
-4.639117121696472168e-01 6.494674831628799438e-02 -1.511540170758962631e-02
-1.462325751781463623e-01 -6.909019779413938522e-03 -1.541782617568969727e-01
-5.103616975247859955e-03 -1.388399451971054077e-01 1.066639423370361328e-01
1.021316926926374435e-02 -4.405889194458723068e-03 3.659611567854881287e-02
-3.541911244392395020e-01 -1.304765138775110245e-02 -6.672300398349761963e-03
-2.661643624305725098e-01 -2.290125004947185516e-02 -3.157097399234771729e-01
2.900275290012359619e-01 9.579661418683826923e-04 -9.485802799463272095e-02
-9.177952259778976440e-02 -1.733873412013053894e-02 1.806652545928955078e-01
3.784714937210083008e-01 -2.607983164489269257e-02 1.770343445241451263e-02
-7.435692846775054932e-02 -1.688181422650814056e-02 2.444752603769302368e-01
-5.415306612849235535e-02 -5.639553815126419067e-02 1.321124434471130371e-01
-4.507405459880828857e-01 1.519603729248046875e-01 3.896477865055203438e-03
-7.803215831518173218e-02 -2.609969489276409149e-02 -1.990955770015716553e-01
-3.081216216087341309e-01 -3.370842337608337402e-02 1.227952316403388977e-01
6.180549412965774536e-02 -3.352983156219124794e-03 1.346751749515533447e-01
6.250697374343872070e-01 3.177032619714736938e-02 -4.308690875768661499e-02
7.830650210380554199e-01 5.926503986120223999e-02 1.257797516882419586e-02
-2.718659341335296631e-01 -9.114160202443599701e-03 2.054383158683776855e-01
-1.793712563812732697e-02 -4.763476550579071045e-03 1.758179217576980591e-01
3.890601694583892822e-01 2.785648684948682785e-03 -6.966777890920639038e-02
-2.415502220392227173e-01 -9.392286650836467743e-03 2.221258580684661865e-01
-1.363193541765213013e-01 -6.293169688433408737e-03 9.400922060012817383e-02
-3.777324855327606201e-01 -2.260346431285142899e-03 2.304742112755775452e-02
-3.013671338558197021e-01 -2.768898196518421173e-02 3.496663570404052734e-01
7.245373725891113281e-02 -3.213920164853334427e-03 -1.690579950809478760e-01
-5.386878252029418945e-01 1.555958688259124756e-01 -4.208900500088930130e-03
9.381200671195983887e-01 -1.876909472048282623e-02 -2.520280191674828529e-03
3.385803103446960449e-01 -2.598070306703448296e-03 3.737089782953262329e-02
-1.669131964445114136e-01 -1.851083524525165558e-02 7.928841561079025269e-02
3.385803103446960449e-01 -2.598070306703448296e-03 3.737089782953262329e-02
-2.747663855552673340e-01 -1.839164085686206818e-02 -3.514045476913452148e-02
4.142106771469116211e-01 -1.088224537670612335e-02 -4.640454798936843872e-02
-1.111291199922561646e-01 6.168870627880096436e-02 2.541149035096168518e-02
-1.464113444089889526e-01 -1.588850654661655426e-02 2.894766069948673248e-02
6.931111812591552734e-01 3.153192996978759766e-02 -4.225252941250801086e-02
3.088208734989166260e-01 2.030532195931300521e-04 9.466480463743209839e-02
-6.142406910657882690e-02 -4.731671884655952454e-02 -1.962944567203521729e-01
-2.866463363170623779e-01 7.054899632930755615e-02 -5.083010066300630569e-03
4.329026490449905396e-02 6.192709878087043762e-02 -2.544578723609447479e-02
-1.455173641443252563e-01 -9.690487058833241463e-04 3.719210252165794373e-02
4.986814260482788086e-01 -2.969546243548393250e-02 -1.805099658668041229e-03
-2.645969204604625702e-02 -5.764710158109664917e-02 1.083326861262321472e-01
2.230389565229415894e-01 -1.841150410473346710e-02 -8.409059047698974609e-02
2.383159995079040527e-01 9.778332896530628204e-04 7.342790812253952026e-02
-1.673701256513595581e-01 6.816506385803222656e-02 -1.499620638787746429e-02
-4.028631746768951416e-01 1.613967865705490112e-01 -3.394389525055885315e-03
-2.343388348817825317e-01 -2.143115550279617310e-02 1.873647421598434448e-02
1.294496506452560425e-01 -2.200748538598418236e-03 1.294503808021545410e-01
3.082447648048400879e-01 -1.717980392277240753e-02 5.423723533749580383e-02
2.038681507110595703e-01 -1.445814501494169235e-02 -1.168498247861862183e-01
2.986096739768981934e-01 -1.870949752628803253e-02 2.467644587159156799e-02
-8.309802412986755371e-02 -1.451774314045906067e-02 1.125840395689010620e-01
-2.976720035076141357e-01 -9.551213122904300690e-03 -2.005656659603118896e-01
-4.991741478443145752e-01 8.101844787597656250e-02 7.611443754285573959e-03
-2.521587312221527100e-01 -7.445404306054115295e-03 -7.554814964532852173e-02
-2.190418839454650879e-01 -1.052465382963418961e-02 2.536136507987976074e-01
-9.785855561494827271e-02 -1.537198852747678757e-02 2.136628925800323486e-01
2.445341050624847412e-01 -2.584143355488777161e-02 1.782263070344924927e-02
5.044823288917541504e-01 6.995301693677902222e-02 1.413212507031857967e-03
-1.296244710683822632e-01 -2.453027106821537018e-02 -3.833890333771705627e-02
-6.607453227043151855e-01 5.747708678245544434e-02 7.194254547357559204e-03
-1.304389834403991699e-01 -1.765659078955650330e-02 -2.571642696857452393e-01
9.999632835388183594e-01 8.288565091788768768e-03 -2.162689808756113052e-03
-2.394642978906631470e-01 -4.248924553394317627e-02 2.007101774215698242e-01
6.901710033416748047e-01 6.554273515939712524e-02 -1.654576323926448822e-02
-2.894077003002166748e-01 -5.176672711968421936e-02 -1.777990907430648804e-01
-3.756485506892204285e-02 -1.182586327195167542e-01 -9.479843080043792725e-02
-2.488212138414382935e-01 9.222273714840412140e-03 -4.096123203635215759e-02
-2.242667078971862793e-01 -1.555078197270631790e-02 -3.050217330455780029e-01
-3.337310627102851868e-02 -1.721953786909580231e-02 2.449719011783599854e-01
-2.446294873952865601e-01 -2.302044630050659180e-02 1.237931195646524429e-02
-1.543776690959930420e-01 4.311388358473777771e-02 -4.102082923054695129e-02
-4.207447543740272522e-02 3.347881138324737549e-02 4.223809763789176941e-02
-1.173472255468368530e-01 -1.731886714696884155e-02 -1.315110176801681519e-01
-1.004808619618415833e-01 -5.635580420494079590e-02 -1.897386312484741211e-01
-7.835000753402709961e-02 -6.769956555217504501e-03 2.254434973001480103e-01
2.908221781253814697e-01 8.368030190467834473e-03 -4.171614348888397217e-02
3.830804526805877686e-01 -1.253113429993391037e-02 5.147584155201911926e-02
2.876436114311218262e-01 2.944598905742168427e-02 -4.362329095602035522e-02
-6.423094868659973145e-01 6.162910535931587219e-02 -8.713917923159897327e-04
5.992835164070129395e-01 -1.588850654661655426e-02 2.950391173362731934e-02
-3.106843233108520508e-01 -5.079329013824462891e-02 -1.309150308370590210e-01
-5.289335846900939941e-01 8.111777901649475098e-02 -6.116048898547887802e-03
3.123153559863567352e-02 -2.017959207296371460e-02 6.846138089895248413e-02
-8.685270696878433228e-02 -2.375549264252185822e-02 1.945516765117645264e-01
-3.506172820925712585e-02 -9.292954578995704651e-03 2.553420066833496094e-01
-1.408488601446151733e-01 -9.213489480316638947e-03 2.539911270141601562e-01
-1.472655981779098511e-01 -4.411827400326728821e-02 2.007697820663452148e-01
1.663013100624084473e-01 3.163106972351670265e-03 5.262808129191398621e-02
-2.616944909095764160e-01 -1.068358402699232101e-02 -2.423639893531799316e-01
-4.317882061004638672e-01 4.561701416969299316e-02 -3.388889133930206299e-02
-4.991741478443145752e-01 8.101844787597656250e-02 7.611443754285573959e-03
-3.707396388053894043e-01 6.182777136564254761e-02 -2.387636341154575348e-02
-2.847391963005065918e-01 -1.447801198810338974e-02 1.183849498629570007e-01
-2.236727811396121979e-02 -1.324629187583923340e-01 1.046574562788009644e-01
6.931111812591552734e-01 3.153192996978759766e-02 -4.225252941250801086e-02
-2.019173055887222290e-01 -1.572958007454872131e-02 -2.302059233188629150e-01
-1.181021258234977722e-01 -4.769416898488998413e-02 -1.334181725978851318e-01
-2.520395517349243164e-01 -1.443828176707029343e-02 2.900878489017486572e-01
6.265397667884826660e-01 -1.624629367142915726e-03 3.780795261263847351e-02
-2.077976763248443604e-01 -5.623660609126091003e-02 -1.855270117521286011e-01
3.890601694583892822e-01 2.785648684948682785e-03 -6.966777890920639038e-02
-1.317501515150070190e-01 -1.056438498198986053e-02 -3.309424594044685364e-02
-2.264539711177349091e-02 -1.966307125985622406e-02 -7.260797172784805298e-02
-7.076115906238555908e-02 -1.646462455391883850e-02 9.385028481483459473e-02
3.274135291576385498e-02 -1.425747722387313843e-01 -9.825513511896133423e-02
2.734393179416656494e-01 -1.704074442386627197e-02 8.260605484247207642e-02
-1.454975008964538574e-01 -1.517332717776298523e-02 -2.136177122592926025e-01
-2.247633486986160278e-01 -1.467667333781719208e-02 -2.010424584150314331e-01
1.789361685514450073e-01 -1.346503267996013165e-03 1.304039657115936279e-01
-1.117251142859458923e-01 -5.635580420494079590e-02 -1.951422095298767090e-01
1.511037200689315796e-01 3.798820311203598976e-03 -4.560990631580352783e-02
-8.860091865062713623e-02 -8.796299807727336884e-03 -2.646736502647399902e-01
-3.488292545080184937e-02 -5.357454344630241394e-02 -1.951819509267807007e-01
-2.802096903324127197e-01 -9.153891354799270630e-03 -1.086451187729835510e-01
-4.595809578895568848e-01 2.237364836037158966e-02 -3.196187689900398254e-02
-1.092815771698951721e-01 -2.627849020063877106e-02 1.996771395206451416e-01
3.625984787940979004e-01 1.333456020802259445e-02 -4.276904836297035217e-02
7.843344658613204956e-02 -1.346484106034040451e-02 -1.303389221429824829e-01
-5.071623623371124268e-02 -2.292111329734325409e-02 -1.938310563564300537e-01
2.734393179416656494e-01 -1.704074442386627197e-02 8.260605484247207642e-02
3.889409601688385010e-01 -9.332684800028800964e-03 3.365593031048774719e-02
-1.685422062873840332e-01 -1.928561553359031677e-02 -7.417739182710647583e-02
9.253838658332824707e-02 -1.841150410473346710e-02 -8.307741582393646240e-02
-6.631114333868026733e-02 -2.812603861093521118e-02 1.778289861977100372e-02
-2.210483700037002563e-01 -4.960131645202636719e-02 1.229740232229232788e-01
-2.305642664432525635e-01 -1.656395383179187775e-02 -2.495158165693283081e-01
4.541593790054321289e-02 -3.611242165789008141e-03 1.133190840482711792e-01
-1.000835597515106201e-01 -2.037825249135494232e-02 6.575959175825119019e-02
5.321955680847167969e-01 -1.252117753028869629e-01 -3.632782958447933197e-03
-2.231542021036148071e-01 -8.180450648069381714e-03 1.182260215282440186e-01
-2.487040497362613678e-02 -4.876694083213806152e-02 -1.220150217413902283e-01
-3.609257638454437256e-01 9.826224297285079956e-02 4.869917873293161392e-03
-3.436641767621040344e-02 -7.266610860824584961e-03 3.466910123825073242e-02
4.738268628716468811e-02 2.002944424748420715e-02 -4.344449937343597412e-02
-1.800446957349777222e-01 -2.323897369205951691e-02 -3.140608668327331543e-01
-5.710100531578063965e-01 6.089406087994575500e-02 1.243891194462776184e-02
-4.207447543740272522e-02 3.347881138324737549e-02 4.223809763789176941e-02
-2.478676438331604004e-01 -2.921867929399013519e-02 2.001539170742034912e-01
-2.231542021036148071e-01 -8.180450648069381714e-03 1.182260215282440186e-01
1.982837729156017303e-02 -1.444223225116729736e-01 -9.448056668043136597e-02
2.813261747360229492e-01 6.854252517223358154e-02 -1.054619345813989639e-02
8.588939905166625977e-01 -2.458987012505531311e-02 3.002502257004380226e-03
9.597311727702617645e-03 3.232657909393310547e-02 -4.312663897871971130e-02
-2.394841611385345459e-01 -2.147088944911956787e-02 -3.461843729019165039e-01
1.178259309381246567e-02 -4.207224585115909576e-03 -1.366563439369201660e-01
-2.222821861505508423e-02 -1.737846806645393372e-02 1.231329590082168579e-01
-3.075256049633026123e-01 -4.894573986530303955e-02 -1.904140710830688477e-01
-2.261738330125808716e-01 -2.413295023143291473e-02 3.234629631042480469e-01
-1.027058735489845276e-01 -5.359441414475440979e-02 -1.600586324930191040e-01
-1.361206918954849243e-01 6.848292797803878784e-02 -1.328771933913230896e-02
1.477662026882171631e-01 -1.902755349874496460e-03 -1.492315977811813354e-01
4.483208060264587402e-01 -3.114569000899791718e-02 -3.493720199912786484e-03
-1.948449462652206421e-01 -2.208673954010009766e-02 3.036365509033203125e-01
-1.610527038574218750e-01 -7.226876448839902878e-03 1.982070505619049072e-01
1.702725328505039215e-02 -1.235231608152389526e-01 -9.535468369722366333e-02
1.400581598281860352e-01 2.567120594903826714e-03 3.903964906930923462e-02
-5.876202136278152466e-02 -5.419061053544282913e-03 1.376153677701950073e-01
4.041186869144439697e-01 -1.787511818110942841e-02 2.805368602275848389e-02
-2.216443717479705811e-01 -1.537198852747678757e-02 -2.235110402107238770e-01
6.963274627923965454e-02 -1.187576795928180218e-03 -6.913139671087265015e-02
-8.262122422456741333e-02 -3.670840058475732803e-03 6.776606291532516479e-02
9.087778329849243164e-01 2.932679094374179840e-02 7.929301820695400238e-03
-2.281207293272018433e-01 -7.246743422001600266e-03 -8.029615879058837891e-02
-5.538854598999023438e-01 3.540582582354545593e-02 -2.322078123688697815e-02
-3.318814933300018311e-01 -8.657237514853477478e-03 3.884098678827285767e-02
-3.051814138889312744e-01 -9.571080096065998077e-03 1.032668277621269226e-01
-2.596085071563720703e-01 6.989341974258422852e-02 -6.155780982226133347e-03
-1.332599967718124390e-01 -1.600770466029644012e-02 -2.323911935091018677e-01
8.061494231224060059e-01 3.260470181703567505e-02 3.451017290353775024e-02
6.204388663172721863e-02 -3.392713842913508415e-03 -1.730113476514816284e-01
3.691323474049568176e-02 -2.085503935813903809e-02 -6.392647325992584229e-02
-1.602997817099094391e-02 -1.088224537670612335e-02 -3.299491852521896362e-02
1.656655818223953247e-01 -1.666328683495521545e-02 -9.690424054861068726e-02
-2.412721067667007446e-01 -1.686194725334644318e-02 2.555605471134185791e-01
-3.318814933300018311e-01 -8.657237514853477478e-03 3.884098678827285767e-02
4.702927172183990479e-01 5.030541867017745972e-02 -3.613376244902610779e-02
-6.631114333868026733e-02 -2.812603861093521118e-02 1.778289861977100372e-02
4.040193259716033936e-01 -1.199474558234214783e-02 -3.021365590393543243e-02
-8.274043351411819458e-02 -2.655661478638648987e-02 -2.725360542535781860e-02
-6.960891187191009521e-02 -2.051731571555137634e-02 6.486561149358749390e-02
-2.447883933782577515e-01 -7.286474108695983887e-03 -7.459457963705062866e-02
-4.992933273315429688e-01 1.837660521268844604e-01 3.340226598083972931e-03
2.329124212265014648e-01 -2.256352640688419342e-02 -3.929247707128524780e-02
6.041286513209342957e-03 -2.548384480178356171e-02 1.790209673345088959e-02
-8.393239229917526245e-02 -1.733873412013053894e-02 1.356287449598312378e-01
-1.753981038928031921e-02 -4.723745863884687424e-03 -1.539398729801177979e-01
6.144413352012634277e-01 -1.767645776271820068e-02 -2.900182455778121948e-02
-5.085529759526252747e-02 -4.227072373032569885e-02 -1.988969147205352783e-01
2.249460965394973755e-01 -1.439854688942432404e-02 1.167559325695037842e-01
5.993430614471435547e-01 6.741014868021011353e-02 1.365074422210454941e-02
-5.296110734343528748e-02 -5.399194080382585526e-03 -2.042210251092910767e-01
1.178259309381246567e-02 -4.207224585115909576e-03 -1.366563439369201660e-01
-2.575225830078125000e-01 -2.983452938497066498e-02 3.629170656204223633e-01
4.590683579444885254e-01 6.816506385803222656e-02 -1.132097374647855759e-02
-5.322145298123359680e-03 -4.513144493103027344e-02 -6.009230762720108032e-02
1.393231153488159180e-01 -1.380256470292806625e-02 1.224575117230415344e-01
2.880409061908721924e-01 6.715188920497894287e-02 1.655120030045509338e-02
5.707756280899047852e-01 -1.274965889751911163e-02 -3.220026940107345581e-02
-2.369810044765472412e-01 -1.719967089593410492e-02 2.594741582870483398e-01
-2.001889497041702271e-01 -1.741819828748703003e-02 -3.248481452465057373e-01
-2.019967585802078247e-01 -2.985439263284206390e-02 -2.008437812328338623e-01
6.216129660606384277e-01 1.051357109099626541e-02 -4.251078888773918152e-02
-4.377281963825225830e-01 1.629264801740646362e-01 -4.367829766124486923e-03
-1.797686703503131866e-02 -1.791485212743282318e-02 1.949490010738372803e-01
-1.113476455211639404e-01 -5.428972467780113220e-02 1.957039088010787964e-01
5.548806488513946533e-02 1.456626038998365402e-02 4.219836369156837463e-02
-5.018361806869506836e-01 1.774883568286895752e-01 3.439557272940874100e-03
2.637049257755279541e-01 2.328729024156928062e-03 6.718994677066802979e-02
-2.076983451843261719e-01 -1.793471723794937134e-02 8.234780281782150269e-02
1.400760095566511154e-02 -1.739833131432533264e-02 1.792150288820266724e-01
-2.684291005134582520e-01 -2.707313373684883118e-02 3.444018363952636719e-01
3.074699938297271729e-01 5.115966126322746277e-02 3.502669185400009155e-02
-1.528678387403488159e-01 -4.443612694740295410e-02 1.218813881278038025e-01
-2.515627741813659668e-01 -8.716834709048271179e-03 -1.629392206668853760e-01
-2.527745962142944336e-01 -1.278939284384250641e-02 2.749498486518859863e-01
-1.015536412596702576e-01 -1.459720823913812637e-02 1.100411787629127502e-01
-7.266830652952194214e-02 4.057101905345916748e-02 -4.149761423468589783e-02
8.061494231224060059e-01 3.260470181703567505e-02 3.451017290353775024e-02
-1.999108195304870605e-01 -5.625646933913230896e-02 1.508660614490509033e-01
-4.046113789081573486e-01 2.761830389499664307e-02 -3.744493052363395691e-02
5.885558128356933594e-01 6.901930272579193115e-02 -6.255111657083034515e-03
-1.739259362220764160e-01 -1.449787989258766174e-02 3.026631176471710205e-01
1.515209078788757324e-01 4.112726822495460510e-02 4.066867381334304810e-02
-2.236727811396121979e-02 -1.324629187583923340e-01 1.046574562788009644e-01
-3.413576483726501465e-01 -1.414028834551572800e-02 9.220599196851253510e-03
1.892665475606918335e-01 6.621818244457244873e-02 -1.879063621163368225e-02
-2.409939616918563843e-01 -1.497466675937175751e-02 1.206894218921661377e-01
-3.265573680400848389e-01 -2.272245287895202637e-02 1.655471324920654297e-01
1.149473711848258972e-01 -2.512625791132450104e-02 3.592066839337348938e-02
-3.210167959332466125e-02 -5.021735560148954391e-03 -1.954799294471740723e-01
-9.243510663509368896e-02 -2.979479543864727020e-02 -6.433906964957714081e-03
-3.005923330783843994e-01 -1.600770466029644012e-02 -4.566950350999832153e-02
2.665258944034576416e-01 -1.787511818110942841e-02 7.936787605285644531e-02
-2.863483428955078125e-01 -3.452292829751968384e-02 1.216032579541206360e-01
-4.968320205807685852e-02 -5.299861542880535126e-03 1.714473813772201538e-01
-4.290268421173095703e-01 1.196183264255523682e-01 4.492462147027254105e-03
-1.168505474925041199e-01 -5.428972467780113220e-02 1.358870118856430054e-01
-2.677755244076251984e-02 -1.466671973466873169e-01 1.136965453624725342e-01
2.660888433456420898e-01 4.931211099028587341e-02 -3.696814179420471191e-02
-4.753149151802062988e-01 1.205917671322822571e-01 4.472595639526844025e-03
1.275822222232818604e-01 -1.368336845189332962e-02 1.235700026154518127e-01
-5.152060985565185547e-01 7.342958450317382812e-02 -5.996851716190576553e-03
8.129237890243530273e-01 5.382172390818595886e-02 1.500164251774549484e-02
3.217139840126037598e-01 -1.308738254010677338e-02 -9.044774621725082397e-02
-4.141471087932586670e-01 5.431837588548660278e-02 2.892779558897018433e-02
-1.994539052248001099e-01 -2.544411085546016693e-02 3.600563406944274902e-01
-3.512133285403251648e-02 -2.846376225352287292e-02 -1.589858680963516235e-01
-1.618891581892967224e-02 -4.397920519113540649e-02 -1.560854166746139526e-01
-2.102610766887664795e-01 -2.288138307631015778e-02 -1.216375604271888733e-01
1.522758305072784424e-01 -6.213704589754343033e-03 1.612361967563629150e-01
-9.636858850717544556e-02 -1.785525493323802948e-02 -8.530241996049880981e-02
9.208146482706069946e-02 -2.768898196518421173e-02 -2.194934897124767303e-02
6.707816123962402344e-01 -2.933787554502487183e-02 9.995377622544765472e-03
9.759452342987060547e-01 -1.491506863385438919e-02 -2.952741924673318863e-04
2.164632827043533325e-01 1.136759878136217594e-03 -7.012470811605453491e-02
3.635698556900024414e-02 -1.277745068073272705e-01 -1.035196632146835327e-01
-4.789106547832489014e-01 7.374723907560110092e-03 -1.461874973028898239e-02
1.663013100624084473e-01 3.163106972351670265e-03 5.262808129191398621e-02
-9.893130511045455933e-02 -6.154106929898262024e-03 1.922472119331359863e-01
-1.178438737988471985e-01 -6.452099885791540146e-03 -1.608930230140686035e-01
-4.600974619388580322e-01 6.675457209348678589e-02 1.007484272122383118e-02
-2.394642978906631470e-01 -4.248924553394317627e-02 2.007101774215698242e-01
-4.872743487358093262e-01 1.402989625930786133e-01 -4.785018507391214371e-03
-3.295969069004058838e-01 4.625273123383522034e-02 -3.883555531501770020e-02
-2.353917062282562256e-01 -8.418845944106578827e-03 1.380524188280105591e-01
-8.989222347736358643e-02 -1.473627146333456039e-02 -1.081285998225212097e-01
2.761808335781097412e-01 -6.690491456538438797e-03 1.194577217102050781e-01
5.044823288917541504e-01 -5.061469972133636475e-03 -4.648401215672492981e-02
-4.738448262214660645e-01 1.659461408853530884e-01 -4.328097216784954071e-03
6.919569522142410278e-02 3.345894441008567810e-02 -4.288824647665023804e-02
2.104021236300468445e-02 -1.433296948671340942e-01 1.132594868540763855e-01
-2.391861379146575928e-01 -1.108090579509735107e-02 2.583020627498626709e-01
-1.095001026988029480e-01 -3.021197952330112457e-02 -6.294843740761280060e-03
-5.659868940711021423e-03 -4.942274186760187149e-03 3.621866181492805481e-02
-2.566882073879241943e-01 -2.248406037688255310e-02 -4.872888326644897461e-02
-2.631844282150268555e-01 1.214259304106235504e-02 -4.155721515417098999e-02
-3.609257638454437256e-01 9.826224297285079956e-02 4.869917873293161392e-03
-1.609732061624526978e-01 -7.167278323322534561e-03 1.530910730361938477e-01
-2.029304951429367065e-01 -4.252897948026657104e-02 -1.224719434976577759e-01
-4.106109440326690674e-01 3.796855360269546509e-02 3.598026558756828308e-02
9.529004693031311035e-01 1.474505569785833359e-02 -1.197655498981475830e-02
-2.902619540691375732e-01 -5.055489018559455872e-02 -1.546153277158737183e-01
-6.897320598363876343e-02 -1.253113429993391037e-02 -2.826525270938873291e-01
-9.171990305185317993e-02 -7.385806646198034286e-03 -2.340996861457824707e-01
-1.081094518303871155e-01 -1.731886714696884155e-02 -1.453775614500045776e-01
-4.422001540660858154e-02 -5.432945862412452698e-02 -1.674289703369140625e-01
-8.812413364648818970e-02 -4.831001907587051392e-02 -1.590851992368698120e-01
-5.021539926528930664e-01 2.047248035669326782e-01 -3.632782958447933197e-03
-1.411667019128799438e-01 -2.333830296993255615e-02 4.444323480129241943e-02
5.842846035957336426e-01 6.739006843417882919e-03 4.060907289385795593e-02
1.508036348968744278e-02 -8.319512940943241119e-03 -3.468353673815727234e-02
-2.083965344354510307e-03 -1.231059804558753967e-01 -1.104728057980537415e-01
-4.823276400566101074e-01 1.536090578883886337e-02 -2.409489080309867859e-02
-2.470729947090148926e-01 -4.175419732928276062e-02 -2.013603150844573975e-01
2.046826481819152832e-01 -3.007292188704013824e-02 6.002287380397319794e-03
3.625765070319175720e-02 -3.809903049841523170e-03 1.583754569292068481e-01
-2.552598901093006134e-02 1.842029020190238953e-02 4.259568452835083008e-02
-2.345991879701614380e-02 -1.307345777750015259e-01 9.537997841835021973e-02
-3.037708997726440430e-01 -2.844389900565147400e-02 1.990414261817932129e-01
4.145285189151763916e-01 -2.266285568475723267e-02 -2.280359156429767609e-02
-1.170094832777976990e-01 -1.618649996817111969e-02 2.350984364748001099e-01
-8.542234450578689575e-02 -4.634327441453933716e-02 1.207490190863609314e-01
-1.918868906795978546e-02 -1.632556132972240448e-02 -2.333447635173797607e-01
-2.714686095714569092e-01 3.151206672191619873e-02 -4.292797669768333435e-02
1.323302388191223145e-01 -1.908695511519908905e-02 7.756005972623825073e-02
-2.300874739885330200e-01 -1.509386207908391953e-02 -2.180478572845458984e-01
-2.829313576221466064e-01 -5.125020816922187805e-02 1.608189940452575684e-01
8.173539042472839355e-01 -1.493493188172578812e-02 -2.441274933516979218e-02
1.185431480407714844e-01 -2.172914892435073853e-02 -5.806596577167510986e-02
-3.320801556110382080e-01 -1.046505663543939590e-02 -2.185001783072948456e-02
-3.768782615661621094e-01 1.042816713452339172e-01 -5.440600216388702393e-03
-2.487040497362613678e-02 -4.876694083213806152e-02 -1.220150217413902283e-01
-1.000835597515106201e-01 -2.037825249135494232e-02 6.575959175825119019e-02
-2.939989045262336731e-02 -2.204700559377670288e-02 5.356178805232048035e-02
2.962237037718296051e-02 -1.715994067490100861e-02 -2.890249155461788177e-02
-2.095260322093963623e-01 -2.441107667982578278e-02 -1.839331164956092834e-02
4.398558288812637329e-02 -3.710574470460414886e-03 -1.845535635948181152e-01
3.784714937210083008e-01 -2.607983164489269257e-02 1.770343445241451263e-02
4.329026490449905396e-02 6.192709878087043762e-02 -2.544578723609447479e-02
-9.394695051014423370e-03 -2.214633673429489136e-02 -1.122806146740913391e-01
-3.011485934257507324e-01 -1.449787989258766174e-02 3.935750946402549744e-02
2.521229684352874756e-01 -4.445619881153106689e-03 -1.237632408738136292e-01
-4.308764636516571045e-02 -5.121068097651004791e-03 1.255963593721389771e-01
-2.147110849618911743e-01 -8.140719495713710785e-03 -2.040223777294158936e-01
-8.287949115037918091e-02 -3.674793615937232971e-02 1.607395261526107788e-01
-7.455557584762573242e-02 -7.703663315623998642e-03 2.463227957487106323e-01
1.964978128671646118e-01 1.434553269064053893e-04 7.603037357330322266e-02
7.128163427114486694e-02 -1.376283355057239532e-02 -1.661972701549530029e-01
-1.173670887947082520e-01 -2.393428981304168701e-02 -1.216574236750602722e-01
-1.981427371501922607e-01 -2.097423560917377472e-02 2.338514477014541626e-02
7.355253696441650391e-01 6.329786032438278198e-02 -1.509553659707307816e-02
4.114275798201560974e-03 -1.247548609972000122e-01 9.828042984008789062e-02
-2.312198430299758911e-01 -2.010012604296207428e-02 -2.879766225814819336e-01
-3.106445968151092529e-01 -3.889368148520588875e-03 3.141105920076370239e-02
-3.902084231376647949e-01 1.468547731637954712e-01 -3.950641490519046783e-03
-3.707396388053894043e-01 6.182777136564254761e-02 -2.387636341154575348e-02
-8.989222347736358643e-02 -1.473627146333456039e-02 -1.081285998225212097e-01
-1.170094832777976990e-01 -1.618649996817111969e-02 2.350984364748001099e-01
-3.851227164268493652e-01 3.177032619714736938e-02 3.872179239988327026e-02
4.203095734119415283e-01 3.922012075781822205e-02 4.098653048276901245e-02
1.718042194843292236e-01 -3.134643775410950184e-04 7.686474919319152832e-02
-1.787534207105636597e-01 -2.590103074908256531e-02 3.333761394023895264e-01
3.351613506674766541e-02 -1.491506863385438919e-02 -1.680646836757659912e-01
-5.071623623371124268e-02 -2.292111329734325409e-02 -1.938310563564300537e-01
-1.095001026988029480e-01 -3.021197952330112457e-02 -6.294843740761280060e-03
-6.352987885475158691e-02 -2.208673954010009766e-02 5.300553515553474426e-02
-1.946264207363128662e-01 -5.625646933913230896e-02 -1.799843609333038330e-01
-2.728791236877441406e-01 -2.069610916078090668e-02 3.371308445930480957e-01
-5.685487389564514160e-02 -5.305802449584007263e-02 1.231726855039596558e-01
-2.406562566757202148e-01 -8.557908236980438232e-03 1.722420156002044678e-01
-2.401596009731292725e-01 -1.694141142070293427e-02 -3.152329623699188232e-01
-3.513304293155670166e-01 1.234127581119537354e-01 3.022368531674146652e-03
9.086962789297103882e-02 2.354574762284755707e-02 -4.382195323705673218e-02
8.795745968818664551e-01 -7.008348125964403152e-03 -2.492926828563213348e-02
-8.230337500572204590e-02 -5.875980947166681290e-03 1.961409598588943481e-01
3.625587224960327148e-01 4.635205864906311035e-02 -3.887528926134109497e-02
8.322117477655410767e-02 -2.459007315337657928e-03 3.731129691004753113e-02
-3.840101957321166992e-01 1.190819367766380310e-01 -5.162474699318408966e-03
6.699274182319641113e-01 5.707976594567298889e-02 2.978203818202018738e-02
8.591125607490539551e-01 4.633219167590141296e-02 1.426659431308507919e-02
-2.019967585802078247e-01 -2.985439263284206390e-02 -2.008437812328338623e-01
-2.944537103176116943e-01 -5.246203765273094177e-02 1.393437087535858154e-01
-2.083965344354510307e-03 -1.203445866703987122e-01 1.056904941797256470e-01
-1.798857748508453369e-01 -9.571080096065998077e-03 -2.485423535108566284e-01
4.398558288812637329e-02 -3.710574470460414886e-03 -1.845535635948181152e-01
1.043388694524765015e-01 -2.637800993397831917e-03 -1.357027739286422729e-01
-4.056464135646820068e-02 -1.636529341340065002e-02 9.506212174892425537e-02
-2.645969204604625702e-02 -5.764710158109664917e-02 1.083326861262321472e-01
-4.729925841093063354e-02 -5.432945862412452698e-02 -1.934138685464859009e-01
-3.165249526500701904e-01 -1.660368777811527252e-02 -2.546810209751129150e-01
-3.116796351969242096e-02 -4.050263389945030212e-02 -1.189357712864875793e-01
4.638362228870391846e-01 6.846305727958679199e-02 9.161001071333885193e-03
2.934246361255645752e-01 4.460383951663970947e-02 -4.008712247014045715e-02
-2.481081336736679077e-02 -6.620939821004867554e-02 -1.113866418600082397e-01
-2.488212138414382935e-01 9.222273714840412140e-03 -4.096123203635215759e-02
-1.592250168323516846e-01 -1.928561553359031677e-02 -7.421712577342987061e-02
-4.566407203674316406e-01 1.085131615400314331e-01 -5.361135583370923996e-03
-3.335528774186968803e-03 -4.445619881153106689e-03 1.195769160985946655e-01
-1.782567352056503296e-01 -2.004052884876728058e-02 2.830552458763122559e-01
2.326938956975936890e-01 5.805078544653952122e-04 8.052011579275131226e-02
1.449452191591262817e-01 -1.193514745682477951e-02 -1.622240543365478516e-01
-3.655168041586875916e-02 -2.671554498374462128e-02 1.582165360450744629e-01
-9.346812963485717773e-02 -6.909019779413938522e-03 2.229403555393218994e-01
-8.113126456737518311e-02 -5.637566745281219482e-02 -1.249750629067420959e-01
1.913127601146697998e-01 -2.538451366126537323e-02 -2.840583957731723785e-02
-2.247633486986160278e-01 -1.467667333781719208e-02 -2.010424584150314331e-01
-2.453049272298812866e-01 -2.055704593658447266e-02 2.922532558441162109e-01
-3.246701061725616455e-01 -2.770885452628135681e-02 -1.256306469440460205e-01
9.046853780746459961e-01 1.633434742689132690e-02 2.253090217709541321e-02
3.081225557252764702e-03 -1.638516038656234741e-02 -2.939914539456367493e-02
3.514138460159301758e-01 -1.155769266188144684e-02 -8.709037303924560547e-02
-2.727400362491607666e-01 -1.096171047538518906e-02 -2.443903386592864990e-01
5.044823288917541504e-01 6.995301693677902222e-02 1.413212507031857967e-03
-1.533843427896499634e-01 -2.127222903072834015e-02 -5.899967253208160400e-02
2.606256604194641113e-01 1.144727971404790878e-02 -4.257038980722427368e-02
1.256949603557586670e-01 -2.021951135247945786e-03 -9.897030889987945557e-02
2.285220026969909668e-01 -2.313964255154132843e-02 2.378246933221817017e-02
-2.905003428459167480e-01 -3.847629204392433167e-02 -2.003471404314041138e-01
-2.417687475681304932e-01 -8.597639389336109161e-03 2.031934410333633423e-01
-7.695938646793365479e-02 -1.205434743314981461e-02 -3.218040615320205688e-02
-4.926601052284240723e-02 -5.639553815126419067e-02 -1.402322351932525635e-01
-8.999156951904296875e-02 -8.120852522552013397e-03 -2.501515448093414307e-01
6.508339941501617432e-02 -1.382243167608976364e-02 1.223979070782661438e-01
-2.391464114189147949e-01 -8.538041263818740845e-03 -1.770243197679519653e-01
1.006834954023361206e-01 -1.326639787293970585e-03 -7.324368506669998169e-02
1.789361685514450073e-01 -1.346503267996013165e-03 1.304039657115936279e-01
-5.118685364723205566e-01 6.870145350694656372e-02 5.406303331255912781e-03
2.760218977928161621e-01 -1.954387500882148743e-02 4.972762614488601685e-02
-2.949304878711700439e-01 -3.442359715700149536e-02 -2.007643282413482666e-01
-1.319090873003005981e-01 -1.658382080495357513e-02 -2.447081953287124634e-01
7.692361623048782349e-02 -1.042532175779342651e-02 -3.335250914096832275e-02
-3.297756612300872803e-01 -1.239207107573747635e-02 7.040826231241226196e-02
6.143419742584228516e-01 6.202643364667892456e-02 -2.431341819465160370e-02
2.121899835765361786e-02 -2.544411085546016693e-02 -3.422661498188972473e-02
-1.082683876156806946e-01 -1.731886714696884155e-02 -1.856859326362609863e-01
4.980635643005371094e-02 2.447924809530377388e-03 3.997335955500602722e-02
2.964641451835632324e-01 -1.855056732892990112e-02 -4.098109900951385498e-02
1.248009800910949707e-01 -3.968833014369010925e-03 1.647723466157913208e-01
5.941954441368579865e-03 -3.452311735600233078e-03 8.449333906173706055e-02
9.038510322570800781e-01 -2.139142528176307678e-02 3.936210181564092636e-03
-2.414111495018005371e-01 6.828425824642181396e-02 -1.436049118638038635e-02
6.863169670104980469e-01 -2.232513017952442169e-02 2.217331342399120331e-02
-4.798443913459777832e-01 3.490917384624481201e-02 -3.231946751475334167e-02
1.595447584986686707e-02 -2.886108495295047760e-02 1.412753108888864517e-02
-7.985983788967132568e-02 -5.430958792567253113e-02 1.693018376827239990e-01
-1.448617875576019287e-01 -1.902735419571399689e-02 7.559331506490707397e-02
5.156272053718566895e-01 -1.301584541797637939e-01 9.260332211852073669e-03
-6.567542254924774170e-02 -1.781552098691463470e-02 -2.540254294872283936e-01
-1.361206918954849243e-01 6.848292797803878784e-02 -1.328771933913230896e-02
5.842621903866529465e-03 -4.326424095779657364e-03 -1.460927575826644897e-01
8.928034454584121704e-02 -1.330591086298227310e-02 1.731757223606109619e-01
4.175680577754974365e-01 1.297697145491838455e-02 4.207916557788848877e-02
-2.662835419178009033e-01 -1.938494481146335602e-02 7.177902013063430786e-02
-4.562036693096160889e-01 5.926503986120223999e-02 -2.395582757890224457e-02
7.452399134635925293e-01 2.499597705900669098e-02 -4.131882265210151672e-02
5.973941832780838013e-02 -2.617937512695789337e-03 8.614222705364227295e-02
1.372570395469665527e-01 2.046650089323520660e-02 4.283408075571060181e-02
-9.044849127531051636e-02 -7.226876448839902878e-03 2.306087017059326172e-01
-1.058447211980819702e-01 -7.763261441141366959e-03 2.362904101610183716e-01
-5.802696943283081055e-02 -1.541171874850988388e-02 2.106829732656478882e-01
4.189963266253471375e-02 -2.697402611374855042e-03 8.117569983005523682e-02
2.521030902862548828e-01 -1.211394462734460831e-02 -1.242400184273719788e-01
9.038510322570800781e-01 -2.139142528176307678e-02 3.936210181564092636e-03
-8.166765421628952026e-02 -1.733873412013053894e-02 1.249010488390922546e-01
1.915312856435775757e-01 -2.340029896004125476e-04 8.286432176828384399e-02
3.151184320449829102e-01 6.335745751857757568e-02 2.217331342399120331e-02
-1.301032584160566330e-02 -4.703878890722990036e-03 1.919889450073242188e-01
5.296526551246643066e-01 6.893984228372573853e-02 6.399609614163637161e-03
4.338185489177703857e-01 9.281871840357780457e-03 4.140371829271316528e-02
-3.202995359897613525e-01 -2.498719096183776855e-02 1.627857536077499390e-01
-1.091822311282157898e-01 -6.273302715271711349e-03 1.361651420593261719e-01
-8.113126456737518311e-02 -5.637566745281219482e-02 -1.249750629067420959e-01
8.709924817085266113e-01 -1.008759811520576477e-02 2.288849279284477234e-02
-7.248950749635696411e-02 -1.874923147261142731e-02 -2.639783322811126709e-01
-2.063275873661041260e-01 -5.623660609126091003e-02 1.391251981258392334e-01
-5.473495125770568848e-01 2.235777527093887329e-01 2.625046065077185631e-03
-1.790911257266998291e-01 -1.602756977081298828e-02 2.346415221691131592e-01
6.970049738883972168e-01 -1.197488233447074890e-02 3.143092617392539978e-02
8.657478094100952148e-01 6.043692119419574738e-03 -3.031298704445362091e-02
3.241177797317504883e-01 7.215795572847127914e-03 -4.495432227849960327e-02
-2.303457260131835938e-01 -4.564815666526556015e-03 -5.385434627532958984e-02
7.151427268981933594e-01 6.093379482626914978e-02 -2.236653864383697510e-02
2.964641451835632324e-01 -1.855056732892990112e-02 -4.098109900951385498e-02
-2.949920669198036194e-02 -1.152787283062934875e-01 1.047369241714477539e-01
-2.824744284152984619e-01 -3.142381832003593445e-02 -2.009232491254806519e-01
2.137793600559234619e-02 -1.706060767173767090e-02 -1.869176328182220459e-01
-4.931745231151580811e-01 1.949306018650531769e-02 -2.496900036931037903e-02
-1.795698888599872589e-02 -5.472677946090698242e-02 -1.550722420215606689e-01
7.443459033966064453e-01 -2.745059132575988770e-02 1.190252508968114853e-02
2.431811951100826263e-02 -1.151992604136466980e-01 9.726726263761520386e-02
8.901433944702148438e-01 2.366494573652744293e-02 2.278916351497173309e-02
-6.129274964332580566e-01 3.206831589341163635e-02 9.737119078636169434e-03
-4.807403683662414551e-02 -5.639553815126419067e-02 -1.781169325113296509e-01
1.030475720763206482e-01 -2.937760204076766968e-02 8.366355672478675842e-03
-1.533843427896499634e-01 -5.631606653332710266e-02 -1.780573427677154541e-01
-8.997170627117156982e-02 -4.606514796614646912e-02 1.965780258178710938e-01
3.385803103446960449e-01 -2.598070306703448296e-03 3.737089782953262329e-02
7.858462333679199219e-01 5.151725187897682190e-02 2.519296295940876007e-02
1.270259916782379150e-01 -2.689433842897415161e-02 2.596774324774742126e-02
5.296526551246643066e-01 6.893984228372573853e-02 6.399609614163637161e-03
2.952125966548919678e-01 -1.739833131432533264e-02 -6.462178379297256470e-02
-1.611321568489074707e-01 -5.061448737978935242e-02 2.010478973388671875e-01
6.345856189727783203e-01 6.897956877946853638e-02 -6.235245615243911743e-03
2.208934128284454346e-01 6.689362972974777222e-02 -1.771786436438560486e-02
7.640708982944488525e-02 -1.342510618269443512e-02 1.489191949367523193e-01
1.532095372676849365e-01 -1.547487954667303711e-05 6.983213871717453003e-02
-1.330215930938720703e-01 -6.670624483376741409e-03 1.340394616127014160e-01
-3.156727645546197891e-03 -3.329122811555862427e-02 -1.135719120502471924e-01
1.042792648077011108e-01 -1.276952587068080902e-02 1.536075919866561890e-01
-4.562036693096160889e-01 5.926503986120223999e-02 -2.395582757890224457e-02
-2.727003097534179688e-01 3.278349712491035461e-02 4.199970141053199768e-02
3.284068778157234192e-02 -1.509386207908391953e-02 1.802282035350799561e-01
-5.900616645812988281e-01 6.381437927484512329e-02 2.108526881784200668e-03
-3.088169097900390625e-01 -1.723940484225749969e-02 -8.176624774932861328e-02
1.393231153488159180e-01 -1.380256470292806625e-02 1.224575117230415344e-01
-3.126907944679260254e-01 -1.207440276630222797e-03 -3.361076489090919495e-02
-1.269226670265197754e-01 -6.591163109987974167e-03 1.565477848052978516e-01
-2.120092958211898804e-01 -2.524545416235923767e-02 3.313941136002540588e-02
-1.664165556430816650e-01 -7.226876448839902878e-03 1.215039342641830444e-01
6.387156993150711060e-02 -2.788764797151088715e-02 -1.495647337287664413e-02
-3.038106560707092285e-01 -1.640502735972404480e-02 -9.108346700668334961e-02
5.321955680847167969e-01 -1.252117753028869629e-01 -3.632782958447933197e-03
-1.722194999456405640e-02 -3.813856840133666992e-02 -1.939105093479156494e-01
6.200435757637023926e-01 6.248334795236587524e-02 2.294809184968471527e-02
-1.660192161798477173e-01 -1.614676788449287415e-02 1.995778083801269531e-01
-2.966787219047546387e-01 -3.901267424225807190e-02 1.993195563554763794e-01
-4.066397249698638916e-02 -5.641540139913558960e-02 1.531904041767120361e-01
-6.835734844207763672e-02 -2.518605208024382591e-03 6.208435446023941040e-02
-2.156249284744262695e-01 -1.352443825453519821e-02 2.874257862567901611e-01
1.356280148029327393e-01 -2.121283439919352531e-03 1.487602591514587402e-01
-3.210167959332466125e-02 -5.021735560148954391e-03 -1.954799294471740723e-01
2.741942107677459717e-01 -1.892802491784095764e-02 2.668292261660099030e-02
1.248009800910949707e-01 -3.968833014369010925e-03 1.647723466157913208e-01
-7.924604229629039764e-03 -2.554344385862350464e-02 2.402086183428764343e-02
-2.020563781261444092e-01 -2.351710014045238495e-02 -3.179744780063629150e-01
7.600997686386108398e-01 5.149719770997762680e-03 -3.784225136041641235e-02
-3.726687282323837280e-02 -1.553091872483491898e-02 2.124709188938140869e-01
-1.799453794956207275e-01 -1.594810746610164642e-02 -2.336030304431915283e-01
-1.181021258234977722e-01 -4.995891079306602478e-02 1.699971407651901245e-01
-4.619053006172180176e-01 1.534085371531546116e-03 -3.771845949813723564e-03
-1.064009815454483032e-01 -2.157021872699260712e-02 -1.227301955223083496e-01
-5.069218873977661133e-01 2.237962782382965088e-01 -3.275192808359861374e-03
-7.076115906238555908e-02 -1.646462455391883850e-02 9.385028481483459473e-02
8.382530808448791504e-01 4.968956857919692993e-02 1.470364909619092941e-02
-2.497748136520385742e-01 -1.880882866680622101e-02 -2.768317461013793945e-01
-2.987646460533142090e-01 -1.447801198810338974e-02 -2.082141190767288208e-01
2.694660723209381104e-01 -1.515346020460128784e-02 1.008828878402709961e-01
6.863169670104980469e-01 -2.232513017952442169e-02 2.217331342399120331e-02
1.215826645493507385e-01 -2.006039209663867950e-02 -7.083988189697265625e-02
6.970049738883972168e-01 -1.197488233447074890e-02 3.143092617392539978e-02
-6.897320598363876343e-02 -1.253113429993391037e-02 -2.826525270938873291e-01
-1.036793291568756104e-01 -5.428972467780113220e-02 1.324899047613143921e-01
1.253751013427972794e-02 -1.315292119979858398e-01 -1.115058362483978271e-01
3.625587224960327148e-01 4.635205864906311035e-02 -3.887528926134109497e-02
2.364684641361236572e-01 -1.491506863385438919e-02 -1.126183420419692993e-01
-3.422515988349914551e-01 -9.173758327960968018e-03 -2.153215929865837097e-02
-2.430401742458343506e-01 6.655590981245040894e-02 1.814048923552036285e-02
3.599939867854118347e-02 5.845052748918533325e-02 -3.069044277071952820e-02
4.145285189151763916e-01 -2.266285568475723267e-02 -2.280359156429767609e-02
7.713240981101989746e-01 -1.938494481146335602e-02 -2.306185103952884674e-02
5.925687551498413086e-01 -2.355683036148548126e-02 2.125947177410125732e-02
8.286158554255962372e-03 -1.928561553359031677e-02 -2.651855722069740295e-02
8.431380987167358398e-02 -2.478853426873683929e-02 3.762915357947349548e-02
2.813261747360229492e-01 6.854252517223358154e-02 -1.054619345813989639e-02
6.375257372856140137e-01 -2.119276300072669983e-02 2.433871850371360779e-02
-1.596024483442306519e-01 -2.737112902104854584e-02 -2.202881500124931335e-02
7.110284268856048584e-02 7.074765861034393311e-02 -1.714848076517228037e-05
-2.779251039028167725e-01 -2.047758176922798157e-02 -3.357745409011840820e-01
-1.830643564462661743e-01 -7.564600557088851929e-03 -1.740841120481491089e-01
-5.967763662338256836e-01 2.575088851153850555e-02 -2.778539899736642838e-03
-1.319090873003005981e-01 -1.658382080495357513e-02 -2.447081953287124634e-01
-5.029685497283935547e-01 1.323723793029785156e-01 4.254067782312631607e-03
-2.670384645462036133e-01 -8.498529205098748207e-04 3.536441549658775330e-02
-1.950654946267604828e-02 -2.947693504393100739e-02 -8.062928915023803711e-03
1.215826645493507385e-01 -2.006039209663867950e-02 -7.083988189697265625e-02
-5.659868940711021423e-03 -4.942274186760187149e-03 3.621866181492805481e-02
-5.185435414314270020e-01 5.296748131513595581e-02 2.348447591066360474e-02
3.154561817646026611e-01 2.467792015522718430e-03 -7.209145277738571167e-02
-1.753981038928031921e-02 -4.723745863884687424e-03 -1.539398729801177979e-01
-7.517143338918685913e-02 -3.120528906583786011e-02 -7.521950756199657917e-04
1.457994729280471802e-01 -1.580904424190521240e-02 -2.987593226134777069e-02
-5.967763662338256836e-01 2.575088851153850555e-02 -2.778539899736642838e-03
