-2.560210525989532471e-01 -6.270832568407058716e-02 5.274756997823715210e-02
3.056983351707458496e-01 5.164418742060661316e-02 -7.672992348670959473e-02
-1.801312714815139771e-01 -1.268512662500143051e-02 5.746555328369140625e-01
-5.830625295639038086e-01 1.397625077515840530e-02 5.072448030114173889e-02
2.379096113145351410e-02 -7.896527647972106934e-02 2.485788613557815552e-02
7.345203161239624023e-01 2.873366698622703552e-03 -9.166222810745239258e-02
-5.008867383003234863e-01 5.835745949298143387e-03 5.154334753751754761e-02
3.056501746177673340e-01 -7.559346407651901245e-02 -2.759557068347930908e-01
5.073566436767578125e-01 -7.727937400341033936e-02 -3.723158314824104309e-02
3.157020732760429382e-02 -1.290848255157470703e-01 1.596098393201828003e-01
1.663791015744209290e-02 -1.764650270342826843e-02 4.421675205230712891e-01
1.160340458154678345e-01 -4.274240508675575256e-02 -6.150861084461212158e-02
7.441299557685852051e-01 -7.390756160020828247e-02 -4.472181573510169983e-02
-6.579889655113220215e-01 9.275618195533752441e-02 -1.745832897722721100e-02
2.134552597999572754e-01 -1.858579367399215698e-02 1.401256024837493896e-01
1.251379251480102539e-01 -8.479368686676025391e-02 2.602824568748474121e-01
-6.093626618385314941e-01 1.303696818649768829e-02 3.947708755731582642e-02
1.228017508983612061e-01 -6.605605781078338623e-02 -2.501372992992401123e-01
1.280280500650405884e-01 -4.129733890295028687e-02 2.300325036048889160e-01
1.321464776992797852e-01 -6.497226655483245850e-02 2.367279529571533203e-01
-5.127362608909606934e-01 1.420568525791168213e-01 -4.493857547640800476e-02
-4.092370346188545227e-02 -3.583019226789474487e-02 -2.432732433080673218e-01
-1.708828806877136230e-01 2.560900151729583740e-02 -8.898886293172836304e-02
9.821162372827529907e-02 -3.067614138126373291e-02 7.731360197067260742e-02
5.560551881790161133e-01 -4.775194451212882996e-02 -7.475500553846359253e-02
-8.372159302234649658e-02 -2.641320787370204926e-02 -3.342157602310180664e-01
-4.656272232532501221e-01 1.127461940050125122e-01 2.129340171813964844e-02
3.468826115131378174e-01 -6.571886688470840454e-02 6.438031047582626343e-02
9.715190529823303223e-02 -1.752607896924018860e-02 -2.199596017599105835e-01
2.000643461942672729e-01 7.869091629981994629e-02 -4.879207536578178406e-02
8.678994178771972656e-01 -1.853762380778789520e-02 6.551227718591690063e-02
9.027494788169860840e-01 3.603752329945564270e-02 -5.312725529074668884e-02
3.586839139461517334e-01 -5.706986994482576847e-04 8.316610008478164673e-02
-2.182808816432952881e-01 -4.255602601915597916e-03 -7.319447994232177734e-01
-4.643025696277618408e-01 6.293974816799163818e-02 -4.053113982081413269e-02
-5.208044648170471191e-01 2.683729678392410278e-02 3.073446825146675110e-02
3.328173160552978516e-01 -1.044528093189001083e-02 -9.014491736888885498e-02
7.032193243503570557e-02 6.797337532043457031e-02 -6.278508156538009644e-02
9.147435426712036133e-01 -2.359534241259098053e-02 5.260306224226951599e-02
1.106391474604606628e-01 -8.775606751441955566e-02 2.250711172819137573e-01
3.508652746677398682e-02 -8.975505828857421875e-02 -6.114596035331487656e-03
1.579889953136444092e-01 -7.747204601764678955e-02 -3.674989566206932068e-02
-7.264279574155807495e-02 -8.349312841892242432e-02 -1.220793742686510086e-02
1.258845478296279907e-01 -1.569566689431667328e-02 -2.264864593744277954e-01
2.262681424617767334e-01 -8.445649594068527222e-02 -3.344895550981163979e-03
-4.477325379848480225e-01 3.090124344453215599e-03 2.529140375554561615e-02
7.082770764827728271e-02 -1.641820184886455536e-02 2.512267529964447021e-01
5.399668812751770020e-01 -3.493907302618026733e-02 -8.255834132432937622e-02
-6.844094991683959961e-01 1.264020353555679321e-01 2.155832760035991669e-02
1.695100218057632446e-02 -2.983319200575351715e-02 2.422432750463485718e-01
-5.431460216641426086e-02 -2.720799483358860016e-02 8.148019760847091675e-02
-1.362254917621612549e-01 5.104207620024681091e-02 6.890816986560821533e-02
7.690331339836120605e-01 6.437846925109624863e-03 -8.922971040010452271e-02
-5.911307930946350098e-01 1.180929169058799744e-01 2.601393498480319977e-02
2.703184187412261963e-01 -4.471732303500175476e-02 -1.285594701766967773e-01
-1.001230403780937195e-01 -3.843130171298980713e-02 -3.734250664710998535e-01
-1.677760034799575806e-01 -6.832629442214965820e-03 6.320967078208923340e-01
-5.007904171943664551e-01 3.179867565631866455e-02 4.388452693819999695e-02
8.506155759096145630e-02 -4.495816305279731750e-02 2.025040835142135620e-01
-1.045304909348487854e-01 -2.865305356681346893e-02 3.461913466453552246e-01
-8.843335323035717010e-03 -1.858579367399215698e-02 -3.180551528930664062e-01
1.807487010955810547e-01 1.017092261463403702e-02 -9.103603661060333252e-02
-1.808778792619705200e-01 -1.637003012001514435e-02 5.423102378845214844e-01
-1.643319427967071533e-01 -2.200577035546302795e-02 5.324597954750061035e-01
-6.193336248397827148e-01 3.690456226468086243e-02 -1.474897563457489014e-01
2.217884361743927002e-01 9.104619175195693970e-02 -4.091510083526372910e-03
2.549044191837310791e-01 8.073808252811431885e-02 3.622569888830184937e-02
-9.980995208024978638e-02 -1.116781495511531830e-02 -5.094535350799560547e-01
-4.269959330558776855e-01 1.879312284290790558e-02 -2.687530964612960815e-02
1.703201830387115479e-01 -9.442743659019470215e-02 -2.741975486278533936e-01
-7.106373906135559082e-01 1.046297699213027954e-01 -1.914423331618309021e-02
-3.365022689104080200e-02 -7.927836477756500244e-02 2.415943704545497894e-02
6.735955923795700073e-02 -1.317822635173797607e-01 1.414020806550979614e-01
-5.438290834426879883e-01 1.473554074764251709e-01 3.311881795525550842e-02
2.325059920549392700e-01 -1.181986927986145020e-01 -2.360238581895828247e-01
-4.959735274314880371e-01 1.511607468128204346e-01 -4.163901880383491516e-02
-8.827354758977890015e-02 -2.918291091918945312e-02 3.637247681617736816e-01
1.472473740577697754e-01 -2.703939937055110931e-02 -7.436966150999069214e-02
1.258845478296279907e-01 -1.569566689431667328e-02 -2.264864593744277954e-01
8.091336488723754883e-01 8.312243223190307617e-02 -6.379523780196905136e-03
-8.434779196977615356e-02 2.329690381884574890e-02 -8.930196613073348999e-02
-1.708828806877136230e-01 2.560900151729583740e-02 -8.898886293172836304e-02
6.206100434064865112e-02 -5.444739013910293579e-02 2.403406202793121338e-01
7.511472702026367188e-02 7.613798230886459351e-02 -5.213979631662368774e-02
-2.182808816432952881e-01 -4.255602601915597916e-03 -7.319447994232177734e-01
2.145149707794189453e-01 -7.976005971431732178e-02 -6.562703847885131836e-02
-5.691417455673217773e-01 4.920535720884799957e-03 1.683779433369636536e-02
8.515790104866027832e-02 -3.583019226789474487e-02 -3.010034561157226562e-01
-5.390363335609436035e-01 1.504622995853424072e-01 1.756032556295394897e-02
-5.226590037345886230e-01 4.950067773461341858e-02 -1.426247209310531616e-01
-6.664425730705261230e-01 2.163329869508743286e-01 -4.452775698155164719e-03
5.989341065287590027e-02 -3.120599873363971710e-02 -3.795184493064880371e-01
-2.361996322870254517e-01 -7.785739749670028687e-02 -3.585877642035484314e-02
7.231284379959106445e-01 -1.714073494076728821e-02 8.078175038099288940e-02
4.903136566281318665e-02 -6.441832333803176880e-02 -5.992788355797529221e-04
6.913129687309265137e-01 -7.843541353940963745e-02 2.611027099192142487e-02
-4.545965790748596191e-01 3.119656816124916077e-02 3.056587837636470795e-02
2.294954359531402588e-01 -4.452464729547500610e-02 -2.657198607921600342e-01
7.626508474349975586e-01 7.835373282432556152e-02 -4.395111650228500366e-02
-4.578238725662231445e-01 2.683729678392410278e-02 7.324334979057312012e-02
5.370373278856277466e-02 -2.015127800405025482e-02 -2.261011004447937012e-01
2.095295041799545288e-01 8.292349055409431458e-03 8.299751579761505127e-02
5.560551881790161133e-01 -4.775194451212882996e-02 -7.475500553846359253e-02
-1.010864153504371643e-01 -8.735293522477149963e-03 5.416840910911560059e-01
-6.857340931892395020e-01 6.761211156845092773e-02 -2.588798999786376953e-01
1.521693356335163116e-02 5.222221091389656067e-02 -7.629641145467758179e-02
-5.417819619178771973e-01 6.749168783426284790e-02 -1.832536607980728149e-02
8.607223033905029297e-01 -5.849356576800346375e-02 -4.766010493040084839e-02
-2.380059808492660522e-01 9.082943201065063477e-02 -5.319812335073947906e-03
-6.513897776603698730e-01 5.771344155073165894e-02 -2.241743654012680054e-01
-4.807675257325172424e-02 -1.109556201845407486e-02 -5.282874703407287598e-01
7.713693380355834961e-01 -8.700944483280181885e-02 -2.054112404584884644e-02
2.101797908544540405e-01 -1.002558469772338867e-01 -2.825548350811004639e-01
5.015282630920410156e-01 8.586805313825607300e-02 -3.212570026516914368e-02
-4.840276539325714111e-01 9.892177581787109375e-02 -1.707159215584397316e-03
1.267515867948532104e-01 -5.382120981812477112e-02 -6.150861084461212158e-02
8.956446647644042969e-01 -5.974594876170158386e-02 2.435211464762687683e-02
-4.469618499279022217e-01 1.021009087562561035e-01 -1.427919231355190277e-02
-5.007576197385787964e-02 -1.569566689431667328e-02 -3.980152308940887451e-01
4.525888264179229736e-01 -1.904339902102947235e-02 -8.901294320821762085e-02
-1.030131578445434570e-01 -1.343174092471599579e-02 -4.838518798351287842e-01
8.096722513437271118e-02 -6.316594034433364868e-02 -8.937421441078186035e-02
-1.972311735153198242e-01 8.509106002748012543e-03 8.297342807054519653e-02
7.341348566114902496e-03 -1.396578550338745117e-01 1.574422419071197510e-01
-1.183548942208290100e-01 -2.511265315115451813e-02 -3.928370773792266846e-01
-4.184700548648834229e-01 2.308013662695884705e-02 6.433214247226715088e-02
-2.920031249523162842e-01 8.569946140050888062e-02 1.493513025343418121e-02
-6.323150396347045898e-01 2.610576450824737549e-01 -7.728247903287410736e-03
-6.137459278106689453e-01 1.583378762006759644e-01 1.409217715263366699e-02
-7.979584485292434692e-02 -2.600377425551414490e-02 3.243709504604339600e-01
4.809207841753959656e-02 -2.677447907626628876e-02 1.665220558643341064e-01
4.423857852816581726e-02 -3.510766103863716125e-02 1.080211549997329712e-01
-4.220016673207283020e-02 -1.290188357234001160e-02 5.156007409095764160e-01
1.482348293066024780e-01 -3.021853603422641754e-02 2.712889909744262695e-01
-6.445981264114379883e-01 6.197637319564819336e-02 -2.409611493349075317e-01
-1.732190549373626709e-01 -2.174084074795246124e-02 5.266795158386230469e-01
3.058275021612644196e-02 7.902809977531433105e-02 4.007919877767562866e-02
5.819218158721923828e-01 -7.968779653310775757e-02 -3.145133703947067261e-02
-5.667486414313316345e-02 -6.519529037177562714e-03 8.237132430076599121e-02
-6.559177637100219727e-01 4.841688275337219238e-02 1.705682277679443359e-01
-5.708429589867591858e-02 -3.368668258190155029e-02 -2.619867920875549316e-01
2.258827686309814453e-01 -5.883075669407844543e-02 8.319019526243209839e-02
4.712060093879699707e-01 9.044408053159713745e-02 3.159266198053956032e-04
-4.687822461128234863e-01 1.922664605081081390e-02 7.642248272895812988e-02
-4.887153953313827515e-02 6.481833010911941528e-02 5.833513662219047546e-02
-3.068784996867179871e-02 -1.824861392378807068e-02 3.383157551288604736e-01
-3.740103542804718018e-01 6.924984604120254517e-02 3.812836855649948120e-02
-5.478512048721313477e-01 3.837370499968528748e-02 1.486032903194427490e-01
7.162249088287353516e-02 -2.142775058746337891e-02 -1.999454796314239502e-01
-4.268755018711090088e-01 1.408767104148864746e-01 2.623069286346435547e-02
3.921373281627893448e-03 -6.225073337554931641e-02 -7.521261274814605713e-02
3.721952438354492188e-01 2.161099575459957123e-02 8.123935759067535400e-02
2.826977968215942383e-01 -8.835817128419876099e-02 2.509136199951171875e-01
-4.351364374160766602e-01 1.083628460764884949e-01 -2.434645220637321472e-02
2.227759063243865967e-01 -4.702942073345184326e-02 -2.429842352867126465e-01
-5.473454594612121582e-01 1.097115650773048401e-01 -2.995810657739639282e-02
-1.490865349769592285e-01 4.314240440726280212e-02 -8.183581382036209106e-02
6.433609724044799805e-01 8.536227792501449585e-02 2.507464401423931122e-02
2.061336040496826172e-01 -7.467824965715408325e-02 -7.800639420747756958e-02
-5.820991396903991699e-01 5.359501764178276062e-02 1.591522395610809326e-01
5.752745270729064941e-01 8.832465857267379761e-02 1.650061272084712982e-02
1.321705579757690430e-01 -1.453961897641420364e-02 2.684952318668365479e-01
-2.575055323541164398e-02 -1.473229564726352692e-02 -3.844075798988342285e-01
2.826977968215942383e-01 -7.231798768043518066e-02 -2.682727873325347900e-01
2.931985557079315186e-01 -2.398068644106388092e-02 6.071949005126953125e-02
1.295935362577438354e-01 -6.685084849596023560e-02 5.322925373911857605e-02
3.178368210792541504e-01 -4.139368236064910889e-02 -6.931194663047790527e-02
4.525888264179229736e-01 -1.904339902102947235e-02 -8.901294320821762085e-02
3.395455703139305115e-02 -6.150410696864128113e-02 -4.573197569698095322e-03
2.862622737884521484e-01 -4.751110821962356567e-02 8.600805699825286865e-02
4.903136566281318665e-02 -6.441832333803176880e-02 -5.992788355797529221e-04
-5.900229215621948242e-01 5.814696103334426880e-02 -1.927683502435684204e-01
-4.533442258834838867e-01 1.426526904106140137e-02 1.546498574316501617e-02
2.134552597999572754e-01 -1.858579367399215698e-02 1.401256024837493896e-01
-4.314996898174285889e-01 4.077586811035871506e-03 1.674145832657814026e-02
7.629157304763793945e-01 -6.203396618366241455e-02 -6.008763611316680908e-02
-3.497573733329772949e-01 -2.689489349722862244e-02 7.025688886642456055e-02
-6.520401239395141602e-01 5.446205660700798035e-02 1.884388327598571777e-01
7.889596372842788696e-02 -7.961555570363998413e-02 -6.680717319250106812e-02
7.870329171419143677e-02 -1.285372115671634674e-02 3.362204432487487793e-01
-2.859579026699066162e-01 -4.093607515096664429e-02 -7.923469692468643188e-02
-2.301785498857498169e-01 -1.003584731370210648e-02 6.625634431838989258e-01
2.482089847326278687e-01 8.914352953433990479e-02 1.035910379141569138e-02
3.072725422680377960e-02 -9.936472028493881226e-02 -2.217886224389076233e-02
1.357919815927743912e-02 -1.350336521863937378e-01 1.520473659038543701e-01
-1.730986386537551880e-01 -1.926015689969062805e-02 6.205121278762817383e-01
2.662240862846374512e-01 3.153375163674354553e-02 -8.665268868207931519e-02
5.792965888977050781e-01 -2.453463338315486908e-02 7.859008014202117920e-02
2.262681424617767334e-01 -8.445649594068527222e-02 -3.344895550981163979e-03
4.267309606075286865e-02 -7.188447564840316772e-02 -8.166722208261489868e-02
-5.268496870994567871e-01 4.446704685688018799e-02 4.140383750200271606e-02
-2.215563505887985229e-01 7.635473459959030151e-02 4.359551146626472473e-02
1.709551550447940826e-02 -9.201899170875549316e-02 1.756032556295394897e-02
1.922366791404783726e-03 -6.391254812479019165e-02 5.763669312000274658e-02
-5.515120625495910645e-01 9.658558666706085205e-02 -1.105188857764005661e-02
2.826977968215942383e-01 -6.263608485460281372e-02 -2.270885556936264038e-01
-4.783437848091125488e-01 7.310334593057632446e-02 3.446892835199832916e-03
3.707501590251922607e-01 4.123974218964576721e-02 7.435123622417449951e-02
-1.183548942208290100e-01 -2.511265315115451813e-02 -3.928370773792266846e-01
1.691159605979919434e-01 -5.702441930770874023e-02 1.340804398059844971e-01
-6.151428818702697754e-01 1.901533156633377075e-01 -7.824585773050785065e-03
-5.007576197385787964e-02 -1.569566689431667328e-02 -3.980152308940887451e-01
2.308200746774673462e-01 -5.056982114911079407e-02 1.543353796005249023e-01
-1.677760034799575806e-01 -6.832629442214965820e-03 6.320967078208923340e-01
-1.057346910238265991e-01 -7.868254557251930237e-03 5.657202601432800293e-01
1.170061528682708740e-02 -3.127825260162353516e-02 3.833535313606262207e-01
1.100129485130310059e-01 -2.626870200037956238e-02 8.201005309820175171e-02
2.101797908544540405e-01 -1.002558469772338867e-01 -2.825548350811004639e-01
-5.207081437110900879e-01 -1.779100857675075531e-02 -4.407154023647308350e-02
-4.283928275108337402e-01 7.064047269523143768e-03 -2.998219244182109833e-02
-7.494610268622636795e-03 -5.813231319189071655e-02 8.487609028816223145e-02
8.015951514244079590e-01 8.451933413743972778e-02 -1.948002725839614868e-03
-4.599433243274688721e-01 1.063879281282424927e-01 -2.316631749272346497e-02
-7.037492394447326660e-01 1.447783857583999634e-01 -6.885295733809471130e-03
-5.617719888687133789e-01 3.384584933519363403e-02 7.565178722143173218e-02
9.596849679946899414e-01 2.413985133171081543e-02 -1.500172354280948639e-02
2.058445960283279419e-01 7.197137922048568726e-02 4.930350929498672485e-02
1.620833277702331543e-01 4.386493936181068420e-02 -8.152271807193756104e-02
-2.010846585035324097e-01 -1.189033966511487961e-02 6.083014607429504395e-01
-7.045680880546569824e-01 3.061854466795921326e-02 2.868868410587310791e-03
-1.364663392305374146e-01 -1.839311793446540833e-02 6.311574578285217285e-01
5.168064311146736145e-02 -6.400889158248901367e-02 6.960661709308624268e-02
-6.273295879364013672e-01 6.014596298336982727e-02 1.072036847472190857e-02
3.963518738746643066e-01 2.421210333704948425e-02 8.090217411518096924e-02
5.073566436767578125e-01 -7.727937400341033936e-02 -3.723158314824104309e-02
1.843372732400894165e-01 -5.083474889397621155e-02 -2.444533854722976685e-01
6.440353989601135254e-01 -9.650494903326034546e-03 -9.024125337600708008e-02
-5.732120275497436523e-01 1.717046946287155151e-01 -1.153357699513435364e-02
1.267515867948532104e-01 -5.382120981812477112e-02 -6.150861084461212158e-02
-4.169527590274810791e-01 -4.832997545599937439e-02 -4.558885097503662109e-02
7.645534873008728027e-01 8.721677958965301514e-02 4.771532490849494934e-03
7.522463798522949219e-01 -6.422563642263412476e-02 -5.806455016136169434e-02
2.276409566402435303e-01 -2.366759441792964935e-02 -1.743919849395751953e-01
-6.093868017196655273e-01 4.783885926008224487e-02 -5.078968591988086700e-03
3.601289689540863037e-01 -7.349812984466552734e-02 -4.638363793492317200e-02
5.894842743873596191e-01 4.085439443588256836e-02 7.451982796192169189e-02
1.816157400608062744e-01 -6.588747352361679077e-02 -6.150861084461212158e-02
1.124454736709594727e-01 -9.228391945362091064e-02 2.562121748924255371e-01
-5.958908051252365112e-02 -2.814728580415248871e-02 4.353998303413391113e-01
5.254921913146972656e-01 4.834463074803352356e-02 7.097942382097244263e-02
1.081584542989730835e-01 -1.728524081408977509e-02 2.074895501136779785e-01
-4.184700548648834229e-01 2.308013662695884705e-02 6.433214247226715088e-02
2.268308401107788086e-02 -1.396578550338745117e-01 1.232906430959701538e-01
-4.664220213890075684e-01 1.683569848537445068e-01 -2.540616318583488464e-02
-1.189088374376296997e-01 -1.485271938145160675e-02 4.788480103015899658e-01
8.564112186431884766e-01 -6.935561448335647583e-02 -2.966909483075141907e-02
1.521693356335163116e-02 5.222221091389656067e-02 -7.629641145467758179e-02
-6.153355240821838379e-01 2.735574245452880859e-01 -1.416762534063309431e-04
-5.958908051252365112e-02 -2.814728580415248871e-02 4.353998303413391113e-01
9.797951206564903259e-03 -1.617736369371414185e-02 3.199635148048400879e-01
8.375050425529479980e-01 2.799334563314914703e-02 -7.595922797918319702e-02
-3.271093592047691345e-02 -3.021853603422641754e-02 8.364778757095336914e-02
-4.666628539562225342e-01 1.381310969591140747e-01 -4.628730192780494690e-02
-5.377839803695678711e-01 4.567126557230949402e-02 -1.252839863300323486e-01
8.906109333038330078e-01 -5.179812014102935791e-02 3.829695284366607666e-02
8.299666047096252441e-01 7.808880507946014404e-02 6.601943168789148331e-03
1.372370310127735138e-02 -1.385740637779235840e-01 -1.362182796001434326e-01
2.894501574337482452e-02 -5.584429576992988586e-02 -1.196964159607887268e-01
-1.970547018572688103e-04 -1.522780507802963257e-01 1.552746593952178955e-01
2.098425924777984619e-01 -1.812819018959999084e-02 1.498315930366516113e-01
-5.133142471313476562e-01 9.809659793972969055e-03 4.624478891491889954e-02
-1.395491361618041992e-01 -1.913973316550254822e-02 4.632654190063476562e-01
2.276409566402435303e-01 -2.366759441792964935e-02 -1.743919849395751953e-01
-6.738846898078918457e-01 3.551552593708038330e-01 -5.006715655326843262e-03
-7.247421145439147949e-02 -1.328723598271608353e-02 -4.522531628608703613e-01
-4.965755157172679901e-03 2.970333769917488098e-02 -8.739930391311645508e-02
-2.435935586690902710e-01 -1.584018208086490631e-02 6.466436982154846191e-01
-2.697885595262050629e-02 -2.419745363295078278e-02 -8.894069492816925049e-02
-6.110639125108718872e-02 -9.409655816853046417e-03 -5.079602599143981934e-01
2.947640419006347656e-01 -1.017731577157974243e-01 -2.718613743782043457e-01
-2.896910011768341064e-01 -7.275150716304779053e-02 -4.766010493040084839e-02
-4.878088831901550293e-01 1.039313226938247681e-01 -2.155266888439655304e-02
7.182633876800537109e-01 1.886537484824657440e-02 8.135978132486343384e-02
-5.391808152198791504e-01 -3.053163550794124603e-02 -8.812043815851211548e-03
1.199841848574578762e-03 -7.850767672061920166e-02 6.177920103073120117e-02
2.000643461942672729e-01 7.869091629981994629e-02 -4.879207536578178406e-02
-6.163712739944458008e-01 3.254529088735580444e-02 -1.304380446672439575e-01
-1.499776542186737061e-01 -2.359534241259098053e-02 -4.987841248512268066e-01
-1.798663437366485596e-01 -1.836903765797615051e-02 -6.505155563354492188e-01
-6.226243078708648682e-02 -3.561343625187873840e-02 2.276481539011001587e-01
-5.255731940269470215e-01 1.605777144432067871e-01 2.367775142192840576e-02
-1.148626804351806641e-01 -2.467913925647735596e-02 3.832331001758575439e-01
2.961937710642814636e-02 -3.558934479951858521e-02 -2.842648327350616455e-01
2.962090969085693359e-01 -1.096005663275718689e-01 2.523587048053741455e-01
-6.342418789863586426e-01 1.046056896448135376e-01 2.704956196248531342e-02
-4.894707202911376953e-01 6.411988288164138794e-02 2.704956196248531342e-02
-5.177939534187316895e-01 2.260630726814270020e-01 -3.104051807895302773e-03
6.763806939125061035e-01 -2.528124861419200897e-02 -8.648408949375152588e-02
2.940655946731567383e-01 -4.958236590027809143e-02 -2.400941103696823120e-01
-7.045680880546569824e-01 3.061854466795921326e-02 2.868868410587310791e-03
7.037010788917541504e-02 -1.374902576208114624e-01 -1.746328324079513550e-01
2.730727940797805786e-02 -1.897114701569080353e-02 4.288007020950317383e-01
-6.475604772567749023e-01 2.666211426258087158e-01 -1.201387844048440456e-03
-6.169975269585847855e-03 -5.740977078676223755e-02 1.716279387474060059e-01
6.737313866615295410e-01 4.453930258750915527e-02 7.285800576210021973e-02
1.115302741527557373e-01 -1.952508650720119476e-02 1.787087470293045044e-01
8.375050425529479980e-01 2.799334563314914703e-02 -7.595922797918319702e-02
-8.372159302234649658e-02 -2.641320787370204926e-02 -3.342157602310180664e-01
-6.353891640901565552e-02 -2.477547340095043182e-02 -5.265534520149230957e-01
-7.103484272956848145e-01 4.663463681936264038e-02 -6.981632672250270844e-03
1.403592377901077271e-01 -4.642730951309204102e-02 5.322925373911857605e-02
-6.119156479835510254e-01 1.589881479740142822e-01 -2.133590914309024811e-02
-5.734528899192810059e-01 5.983286723494529724e-02 -2.122044414281845093e-01
2.058774419128894806e-02 -6.865716725587844849e-02 -9.350744949188083410e-05
-2.859579026699066162e-01 -4.093607515096664429e-02 -7.923469692468643188e-02
7.991621270775794983e-03 -6.258790194988250732e-02 1.711462438106536865e-01
-3.006165847182273865e-02 -3.224162384867668152e-02 3.295009136199951172e-01
-1.911378204822540283e-01 -1.851354166865348816e-02 6.296641826629638672e-01
-2.050016634166240692e-02 -3.294006735086441040e-02 3.154838085174560547e-01
-3.225333243608474731e-02 -3.465005382895469666e-02 2.566216289997100830e-01
-3.723726272583007812e-01 1.256313174962997437e-01 3.340782970190048218e-02
-4.877366423606872559e-01 1.917669624090194702e-01 -1.080965972505509853e-03
2.858528196811676025e-01 -5.172586068511009216e-02 9.732770919799804688e-02
-3.486013412475585938e-01 -3.546893224120140076e-02 -7.511627674102783203e-02
-4.965755157172679901e-03 2.970333769917488098e-02 -8.739930391311645508e-02
8.033292889595031738e-01 -7.949513196945190430e-02 7.998836226761341095e-03
-1.838643401861190796e-01 -1.068612840026617050e-02 -6.078380942344665527e-01
-4.472267627716064453e-01 -3.751610219478607178e-02 -4.905700311064720154e-02
3.574796915054321289e-01 -7.995272427797317505e-02 2.247353270649909973e-02
3.915678337216377258e-02 -5.408613756299018860e-02 -1.100626736879348755e-01
2.483775764703750610e-01 -6.463507562875747681e-02 -9.920062869787216187e-02
2.961937710642814636e-02 -3.558934479951858521e-02 -2.842648327350616455e-01
1.223441436886787415e-01 8.805973082780838013e-02 -2.675488777458667755e-02
2.820956707000732422e-01 -1.141766011714935303e-01 2.586206197738647461e-01
7.162249088287353516e-02 -2.142775058746337891e-02 -1.999454796314239502e-01
5.793688297271728516e-01 -2.575985854491591454e-04 -9.149363636970520020e-02
-5.708429589867591858e-02 -5.659090355038642883e-02 -8.222115784883499146e-02
-2.001212984323501587e-01 -7.954329252243041992e-02 -3.174034878611564636e-02
-5.177939534187316895e-01 2.260630726814270020e-01 -3.104051807895302773e-03
1.109281629323959351e-01 -3.703441470861434937e-02 -2.780028879642486572e-01
-3.234966471791267395e-02 -4.642730951309204102e-02 1.213638931512832642e-01
8.079775571823120117e-01 4.439479112625122070e-02 -7.381571829319000244e-02
-5.431460216641426086e-02 -2.720799483358860016e-02 8.148019760847091675e-02
-4.681560695171356201e-01 1.709580868482589722e-01 1.072036847472190857e-02
-1.613454818725585938e-01 -2.150000259280204773e-02 -5.667020082473754883e-01
4.539462924003601074e-02 -8.939380198717117310e-02 -1.385544687509536743e-01
2.262681424617767334e-01 -8.445649594068527222e-02 -3.344895550981163979e-03
-5.196725130081176758e-01 1.412075571715831757e-02 6.185145303606987000e-02
4.175788909196853638e-02 -3.802186623215675354e-02 -8.744746446609497070e-02
7.971636652946472168e-01 -4.948602244257926941e-02 -6.936011463403701782e-02
1.719184964895248413e-02 1.098978985100984573e-02 -9.091561287641525269e-02
-5.879034399986267090e-01 2.741532213985919952e-02 6.760761141777038574e-02
2.564545534551143646e-02 -1.947691477835178375e-02 2.585002183914184570e-01
-1.809501349925994873e-01 -9.819089435040950775e-03 -9.021716564893722534e-02
3.902826309204101562e-01 -1.482863817363977432e-02 8.128752559423446655e-02
2.094091027975082397e-01 -4.307958856225013733e-02 8.653791248798370361e-02
1.285666413605213165e-02 -1.364849880337715149e-02 3.567643761634826660e-01
-5.066910386085510254e-01 -3.939467296004295349e-02 -7.607826497405767441e-03
-4.774767160415649414e-01 1.846620887517929077e-01 -6.114596035331487656e-03
8.704282641410827637e-01 4.345550760626792908e-02 5.204911902546882629e-02
4.524443149566650391e-01 -5.018446594476699829e-02 -7.287643104791641235e-02
7.451261579990386963e-02 -1.930832862854003906e-02 2.087419331073760986e-01
-4.268755018711090088e-01 1.408767104148864746e-01 2.623069286346435547e-02
-2.514691352844238281e-01 -2.826770953834056854e-02 7.412711381912231445e-01
2.058445960283279419e-01 7.197137922048568726e-02 4.930350929498672485e-02
2.632857859134674072e-01 -1.150499656796455383e-02 -2.215491533279418945e-01
-5.054868459701538086e-01 6.991794798523187637e-03 3.639429062604904175e-02
-2.130305022001266479e-01 -1.706848293542861938e-02 -6.640991568565368652e-01
5.541371926665306091e-02 -1.538257673382759094e-02 2.892077565193176270e-01
7.082682847976684570e-01 -6.032398715615272522e-02 5.597487092018127441e-02
-1.525306105613708496e-01 -1.410610415041446686e-02 -6.666280627250671387e-01
-1.477619111537933350e-01 8.907127380371093750e-02 -1.909606344997882843e-02
-1.970547018572688103e-04 -1.522780507802963257e-01 1.552746593952178955e-01
-5.999938845634460449e-01 5.477515235543251038e-02 2.056109607219696045e-01
-1.057346910238265991e-01 -7.868254557251930237e-03 5.657202601432800293e-01
-2.050016634166240692e-02 -4.336859658360481262e-02 1.268069595098495483e-01
3.696510568261146545e-02 -1.251831501722335815e-01 1.466283798217773438e-01
-2.994210720062255859e-01 7.211588323116302490e-02 -5.233247205615043640e-02
-4.548374414443969727e-01 1.422495245933532715e-01 -3.345033898949623108e-02
-9.884657710790634155e-02 -2.805094234645366669e-02 -3.991712629795074463e-01
2.232576012611389160e-01 -2.094606310129165649e-02 -1.029577925801277161e-01
2.061336040496826172e-01 -7.467824965715408325e-02 -7.800639420747756958e-02
5.490226149559020996e-01 -3.636005148291587830e-02 7.367687672376632690e-02
4.513605237007141113e-01 7.811288535594940186e-02 -4.953869059681892395e-02
-1.936819963157176971e-02 -3.703441470861434937e-02 1.649083942174911499e-01
8.845745772123336792e-02 -2.323407121002674103e-02 3.505988121032714844e-01
1.327967494726181030e-01 -9.127238392829895020e-02 -2.304362952709197998e-01
-1.312641054391860962e-01 -2.036803402006626129e-02 -6.155450940132141113e-01
7.027049064636230469e-01 -8.409524708986282349e-02 -7.680079434067010880e-03
1.849634796380996704e-01 -5.574795231223106384e-02 5.322925373911857605e-02
7.853865027427673340e-01 -3.395161032676696777e-02 7.167787104845046997e-02
1.919084787368774414e-02 -1.034108921885490417e-01 1.283979229629039764e-02
2.662240862846374512e-01 3.153375163674354553e-02 -8.665268868207931519e-02
-1.029409170150756836e-01 -9.915423579514026642e-03 5.926706194877624512e-01
2.764840126037597656e-01 -2.289688959717750549e-02 -6.150861084461212158e-02
-5.642766952514648438e-01 -1.913973316550254822e-02 -2.509306743741035461e-02
2.058445960283279419e-01 -4.900433495640754700e-02 2.571755647659301758e-01
1.961867809295654297e-01 -7.694218307733535767e-02 -2.146851271390914917e-01
1.883593499660491943e-01 2.618702128529548645e-02 8.058907836675643921e-02
-5.257899761199951172e-01 2.825827524065971375e-02 -1.246096342802047729e-01
-5.195039510726928711e-01 4.148058965802192688e-02 1.413539052009582520e-01
1.760128326714038849e-02 -3.900932893157005310e-02 1.104295998811721802e-01
-2.469894438982009888e-01 -6.116693466901779175e-02 5.484290793538093567e-02
-3.839330971240997314e-01 -6.068523973226547241e-02 3.205910697579383850e-02
2.752557098865509033e-01 -4.630688577890396118e-02 2.145221829414367676e-01
8.079775571823120117e-01 4.439479112625122070e-02 -7.381571829319000244e-02
-4.747465252876281738e-02 8.897493034601211548e-02 1.161148864775896072e-02
-6.632875800132751465e-01 7.006871700286865234e-02 2.489628046751022339e-01
-1.010864153504371643e-01 -8.735293522477149963e-03 5.416840910911560059e-01
8.448026180267333984e-01 -7.475051283836364746e-02 -1.399017963558435440e-02
7.193953394889831543e-01 -8.366172760725021362e-02 2.652109134942293167e-03
9.806383848190307617e-01 -3.643230348825454712e-02 7.253607036545872688e-04
-5.338340997695922852e-01 2.941432408988475800e-02 1.170768812298774719e-01
3.157655894756317139e-01 -8.397482335567474365e-02 2.676763534545898438e-01
-8.923691511154174805e-02 -1.605693995952606201e-02 4.308719635009765625e-01
-3.683505058288574219e-01 1.209348738193511963e-01 -3.850805386900901794e-02
-5.483810305595397949e-01 4.992788191884756088e-03 2.218452095985412598e-02
-2.697885595262050629e-02 -2.419745363295078278e-02 -8.894069492816925049e-02
-6.189240813255310059e-01 1.096393167972564697e-01 3.054179251194000244e-02
-4.044201597571372986e-02 -2.862897142767906189e-02 2.454705685377120972e-01
-6.081343889236450195e-01 4.054129868745803833e-02 1.521677970886230469e-01
1.085919737815856934e-01 -2.475139126181602478e-02 1.285169422626495361e-01
2.826977968215942383e-01 -6.263608485460281372e-02 -2.270885556936264038e-01
7.735457271337509155e-02 7.972653955221176147e-02 3.868230432271957397e-02
1.170061528682708740e-02 -3.127825260162353516e-02 3.833535313606262207e-01
-4.031764864921569824e-01 7.864274084568023682e-02 -1.418285630643367767e-02
2.138165235519409180e-01 -5.179812014102935791e-02 2.175808846950531006e-01
-4.772358536720275879e-01 5.513641983270645142e-02 6.890955381095409393e-03
8.768676221370697021e-02 -3.881665319204330444e-02 -2.569772303104400635e-01
1.874441653490066528e-01 -1.110937967896461487e-01 -2.294247299432754517e-01
-1.417167186737060547e-01 -1.685171574354171753e-02 4.869644045829772949e-01
-6.653106808662414551e-01 2.841786444187164307e-01 -1.972087193280458450e-03
-2.560210525989532471e-01 -6.270832568407058716e-02 5.274756997823715210e-02
1.741014271974563599e-01 1.684229634702205658e-02 -9.014491736888885498e-02
1.393477022647857666e-01 7.269391417503356934e-02 -5.661948770284652710e-02
2.960645854473114014e-01 -4.336859658360481262e-02 -9.414292126893997192e-02
-4.501803219318389893e-02 -2.879755757749080658e-02 -4.336118996143341064e-01
-3.214823305606842041e-01 -1.427469868212938309e-02 7.726543396711349487e-02
-4.866046905517578125e-01 4.653830081224441528e-02 4.520916566252708435e-02
-5.431460216641426086e-02 -2.720799483358860016e-02 8.148019760847091675e-02
2.619940228760242462e-02 -3.207303583621978760e-02 -3.766764700412750244e-01
2.572406232357025146e-01 -4.878757894039154053e-02 8.600805699825286865e-02
-1.936819963157176971e-02 -3.703441470861434937e-02 1.649083942174911499e-01
-1.396936327219009399e-01 4.511102102696895599e-03 8.350328356027603149e-02
-6.137459278106689453e-01 1.583378762006759644e-01 1.409217715263366699e-02
-1.677760034799575806e-01 -6.832629442214965820e-03 6.320967078208923340e-01
-5.807504653930664062e-01 1.953973807394504547e-02 -8.518353849649429321e-02
-1.801312714815139771e-01 -1.268512662500143051e-02 5.746555328369140625e-01
3.100576102733612061e-01 -3.043529391288757324e-02 8.179329335689544678e-02
-1.278200596570968628e-01 4.935616999864578247e-02 7.020872831344604492e-02
-5.526680946350097656e-01 2.777658961713314056e-02 -1.213582456111907959e-01
7.511472702026367188e-02 7.613798230886459351e-02 -5.213979631662368774e-02
1.118192821741104126e-01 9.051633626222610474e-02 -8.137681521475315094e-03
8.805677890777587891e-01 6.715450435876846313e-02 9.203053079545497894e-03
6.432493031024932861e-02 -1.333236545324325562e-01 -1.433713436126708984e-01
5.103036761283874512e-02 -8.898437023162841797e-02 -1.537276059389114380e-01
-2.832604944705963135e-01 -1.222752127796411514e-02 -7.410486936569213867e-01
5.522104725241661072e-02 8.815606683492660522e-02 1.784933730959892273e-02
-3.017331957817077637e-01 3.560400754213333130e-02 7.538190484046936035e-01
2.404779046773910522e-01 -9.674584493041038513e-03 8.196189254522323608e-02
3.049517273902893066e-01 -6.774196028709411621e-02 5.508375167846679688e-02
6.971173286437988281e-01 -5.663908272981643677e-02 -6.784279644489288330e-02
-7.282670736312866211e-01 1.277266591787338257e-01 1.271937042474746704e-02
-3.245892524719238281e-01 -5.839724093675613403e-02 -6.028031185269355774e-02
2.459932118654251099e-01 -7.983230054378509521e-02 -2.898764610290527344e-01
2.325059920549392700e-01 -1.181986927986145020e-01 -2.360238581895828247e-01
-6.093626618385314941e-01 9.335828572511672974e-02 -2.632136829197406769e-02
2.375636845827102661e-01 -8.968281745910644531e-02 -2.885759174823760986e-01
4.327520728111267090e-02 1.404850278049707413e-02 8.225090056657791138e-02
3.241710364818572998e-01 6.057948246598243713e-02 6.158652529120445251e-02
3.258175402879714966e-02 -3.344584256410598755e-02 3.367984890937805176e-01
-1.497127264738082886e-01 -2.294506132602691650e-02 -4.539872705936431885e-01
5.040571093559265137e-01 8.314652740955352783e-02 3.042137064039707184e-02
5.933137536048889160e-01 8.851733803749084473e-02 1.500738505274057388e-02
6.810530424118041992e-01 3.875905275344848633e-02 -8.349762856960296631e-02
-1.090583428740501404e-01 -4.141776263713836670e-02 -8.075201511383056641e-02
1.569292843341827393e-01 -2.942375838756561279e-02 -9.158997237682342529e-02
1.843372732400894165e-01 -5.083474889397621155e-02 -2.444533854722976685e-01
-4.853523075580596924e-01 7.356094568967819214e-02 -4.597282037138938904e-03
9.182116389274597168e-01 4.018003121018409729e-02 -4.464956372976303101e-02
3.403075337409973145e-01 -6.200988590717315674e-02 -7.971639186143875122e-02
2.689784578979015350e-02 -1.294942498207092285e-01 -4.306884657125920057e-04
-3.574644029140472412e-01 -2.855671942234039307e-02 6.830605864524841309e-02
-5.911307930946350098e-01 1.180929169058799744e-01 2.601393498480319977e-02
2.404779046773910522e-01 -9.674584493041038513e-03 8.196189254522323608e-02
-5.712371468544006348e-01 2.539223432540893555e-02 9.848375618457794189e-02
-8.639496564865112305e-02 -2.699123695492744446e-02 -4.581056833267211914e-01
-5.190704464912414551e-01 1.864861696958541870e-02 7.873458415269851685e-02
-8.574467897415161133e-02 -1.150499656796455383e-02 5.719822049140930176e-01
3.800949156284332275e-01 5.718358606100082397e-02 6.421171873807907104e-02
1.160340458154678345e-01 -4.274240508675575256e-02 -6.150861084461212158e-02
-4.599433243274688721e-01 1.063879281282424927e-01 -2.316631749272346497e-02
-4.990562796592712402e-01 3.247303515672683716e-02 -5.854623764753341675e-02
6.104377508163452148e-01 7.941345125436782837e-02 3.940483555197715759e-02
-9.373193606734275818e-03 -6.668225675821304321e-02 1.730248332023620605e-01
3.157020732760429382e-02 -1.290848255157470703e-01 1.596098393201828003e-01
-7.408785074949264526e-02 6.799746304750442505e-02 5.448164045810699463e-02
-4.848706424236297607e-01 1.456936001777648926e-01 -3.147542104125022888e-02
-5.642766952514648438e-01 -1.913973316550254822e-02 -2.509306743741035461e-02
8.526059389114379883e-01 -2.171676047146320343e-02 -7.579064369201660156e-02
-4.168804585933685303e-01 -6.116693466901779175e-02 6.192509550601243973e-03
-5.558472275733947754e-01 5.099390819668769836e-02 -1.930091977119445801e-01
7.342794537544250488e-01 -7.525628805160522461e-02 3.379318118095397949e-02
1.832381822168827057e-02 -1.670721173286437988e-02 -8.932604640722274780e-02
-6.756099313497543335e-02 -2.439012005925178528e-02 -5.342363119125366211e-01
-5.368687510490417480e-01 5.655739083886146545e-02 -3.829129785299301147e-02
-4.477325379848480225e-01 3.090124344453215599e-03 2.529140375554561615e-02
2.475586980581283569e-01 -4.035805538296699524e-02 2.444590330123901367e-01
-7.406223416328430176e-01 1.290272176265716553e-01 -1.557974796742200851e-02
6.902138143777847290e-02 -3.479456901550292969e-02 -3.220050036907196045e-01
-3.146423995494842529e-01 -7.942286878824234009e-02 -2.261237986385822296e-02
3.197964280843734741e-02 -3.525216504931449890e-02 -2.477047741413116455e-01
-2.985059022903442383e-01 4.352775961160659790e-02 -7.654942870140075684e-01
-1.208837628364562988e-01 -2.636504545807838440e-02 -4.307217597961425781e-01
-5.477219820022583008e-02 -1.128823868930339813e-02 -4.650178849697113037e-01
-1.525306105613708496e-01 -1.410610415041446686e-02 -6.666280627250671387e-01
1.960028149187564850e-02 -1.774284616112709045e-02 -2.972462773323059082e-01
7.815811634063720703e-01 -5.950511991977691650e-02 -6.186987832188606262e-02
3.049998879432678223e-01 4.140833392739295959e-02 7.427898049354553223e-02
1.915384978055953979e-01 -4.951010271906852722e-02 2.490350604057312012e-01
-5.515120625495910645e-01 9.658558666706085205e-02 -1.105188857764005661e-02
7.656372189521789551e-01 -6.350942887365818024e-03 8.051682263612747192e-02
-6.062317490577697754e-01 8.960112929344177246e-02 1.165965758264064789e-02
6.769674271345138550e-02 -5.020854622125625610e-02 1.632465869188308716e-01
7.618800997734069824e-01 -1.300481855869293213e-01 -2.598418854176998138e-02
2.200872078537940979e-02 -2.451054379343986511e-02 -2.178642451763153076e-01
-1.703201979398727417e-02 -1.557525340467691422e-02 -3.642007708549499512e-01
-5.710444450378417969e-01 4.933208972215652466e-02 -1.981873214244842529e-01
-9.865389764308929443e-02 -2.622053213417530060e-02 4.727305769920349121e-01
-5.820991396903991699e-01 5.359501764178276062e-02 1.591522395610809326e-01
1.960028149187564850e-02 -1.342870295047760010e-01 1.287096291780471802e-01
1.547376066446304321e-01 5.650922656059265137e-02 -7.299684733152389526e-02
-5.133142471313476562e-01 9.809659793972969055e-03 4.624478891491889954e-02
1.695100218057632446e-02 -2.983319200575351715e-02 2.422432750463485718e-01
-5.820991396903991699e-01 5.359501764178276062e-02 1.591522395610809326e-01
5.949032902717590332e-01 8.035273849964141846e-02 -4.542026296257972717e-02
9.007111191749572754e-02 -4.228480160236358643e-02 2.205432653427124023e-01
7.635179162025451660e-01 7.474108040332794189e-02 4.174101725220680237e-02
1.882148683071136475e-01 -5.319500714540481567e-02 -1.674316078424453735e-01
2.174291759729385376e-01 -1.192584112286567688e-01 2.498298287391662598e-01
-5.900229215621948242e-01 5.814696103334426880e-02 -1.927683502435684204e-01
6.619060039520263672e-01 8.873409032821655273e-02 1.271937042474746704e-02
-6.007645130157470703e-01 6.650423258543014526e-02 2.252156287431716919e-01
2.376688085496425629e-02 -1.177169978618621826e-01 -6.942319305380806327e-05
2.461858987808227539e-01 -8.315595239400863647e-02 6.505606230348348618e-03
8.015951514244079590e-01 8.451933413743972778e-02 -1.948002725839614868e-03
-6.328449249267578125e-01 6.380678713321685791e-02 2.163285017013549805e-01
1.108559072017669678e-01 -4.257380962371826172e-02 2.209286242723464966e-01
1.763412654399871826e-01 -2.133140712976455688e-02 1.139459088444709778e-01
3.319262266159057617e-01 -5.023263022303581238e-02 -8.821816742420196533e-02
7.657095789909362793e-01 5.511233210563659668e-02 6.274257600307464600e-02
5.950959324836730957e-01 -8.168680220842361450e-02 -2.598418854176998138e-02
-6.244635581970214844e-01 3.760300576686859131e-02 1.378616690635681152e-01
-4.009366631507873535e-01 1.218500733375549316e-01 -4.301182925701141357e-02
-3.512987792491912842e-01 -6.988546997308731079e-02 2.842236869037151337e-02
2.504970133304595947e-01 -6.894617527723312378e-02 2.800075411796569824e-01
6.440353989601135254e-01 -9.650494903326034546e-03 -9.024125337600708008e-02
-4.044201597571372986e-02 -2.862897142767906189e-02 2.454705685377120972e-01
1.903342753648757935e-01 -5.844540521502494812e-02 8.333469927310943604e-02
3.009537160396575928e-01 -7.944694906473159790e-02 -5.543935298919677734e-02
5.015282630920410156e-01 8.586805313825607300e-02 -3.212570026516914368e-02
-7.579784840345382690e-02 -2.896615304052829742e-02 -3.997492790222167969e-01
1.928718946874141693e-02 -3.428879380226135254e-02 -3.161043226718902588e-01
9.870204143226146698e-03 -1.474852561950683594e-01 1.256509125232696533e-01
7.485853508114814758e-03 -3.077247366309165955e-02 3.946009278297424316e-01
2.306755781173706055e-01 -1.085167676210403442e-01 -2.783159911632537842e-01
2.663291804492473602e-02 -8.180722594261169434e-02 1.686188019812107086e-02
-6.105186939239501953e-01 5.135517194867134094e-02 -2.041361629962921143e-01
4.513605237007141113e-01 7.811288535594940186e-02 -4.953869059681892395e-02
-6.273295879364013672e-01 6.014596298336982727e-02 1.072036847472190857e-02
-3.858598172664642334e-01 1.646961420774459839e-01 4.313929472118616104e-03
-4.413742423057556152e-01 -5.524217709898948669e-02 8.239679969847202301e-03
6.401337385177612305e-01 7.341644167900085449e-02 4.740084335207939148e-02
5.599569082260131836e-01 8.873409032821655273e-02 -2.162492088973522186e-02
5.755876302719116211e-01 4.781477153301239014e-02 7.136477530002593994e-02
1.070264875888824463e-01 5.911033600568771362e-02 -7.099784910678863525e-02
1.364094018936157227e-01 8.979380130767822266e-02 -1.362891495227813721e-02
-4.184941351413726807e-01 7.792022079229354858e-02 -1.018485147505998611e-02
2.241815626621246338e-02 -5.341177433729171753e-02 -9.197393432259559631e-03
2.384789139032363892e-01 -1.143692806363105774e-01 -2.279796898365020752e-01
-5.284545570611953735e-02 -8.337270468473434448e-02 4.988291300833225250e-03
-5.337136983871459961e-01 1.511848270893096924e-01 3.138474375009536743e-02
7.645534873008728027e-01 8.721677958965301514e-02 4.771532490849494934e-03
6.567278504371643066e-01 -7.181221246719360352e-02 -4.929784685373306274e-02
-4.119431972503662109e-01 1.728607565164566040e-01 -1.553157903254032135e-02
-1.252824906259775162e-02 -1.836903765797615051e-02 3.163508772850036621e-01
3.399944603443145752e-01 -8.216849714517593384e-02 -2.237153612077236176e-02
2.286524921655654907e-01 -7.821864634752273560e-02 -4.554068669676780701e-02
2.076268345117568970e-01 -6.521311402320861816e-02 -2.163469344377517700e-01
6.555323302745819092e-02 -3.843130171298980713e-02 5.322925373911857605e-02
2.572406232357025146e-01 -4.878757894039154053e-02 8.600805699825286865e-02
-5.373744964599609375e-01 -2.694306522607803345e-02 -2.446687407791614532e-02
-4.106820747256278992e-02 -2.292097918689250946e-02 -5.187982320785522461e-01
-4.184700548648834229e-01 2.308013662695884705e-02 6.433214247226715088e-02
8.498842716217041016e-01 3.514640033245086670e-02 6.250172853469848633e-02
-5.911307930946350098e-01 1.180929169058799744e-01 2.601393498480319977e-02
1.996549367904663086e-01 -2.434195764362812042e-02 -8.903703838586807251e-02
-4.075598418712615967e-01 1.060507446527481079e-01 2.635111473500728607e-02
8.096722513437271118e-02 -6.316594034433364868e-02 -8.937421441078186035e-02
-6.582538485527038574e-01 9.921078383922576904e-02 -2.776643075048923492e-02
-6.438186019659042358e-02 -3.741975873708724976e-02 -2.203208506107330322e-01
-2.793347239494323730e-01 -8.566707372665405273e-03 -8.944647014141082764e-02
3.915678337216377258e-02 -4.346493259072303772e-02 1.522881984710693359e-01
1.283893138170242310e-01 -2.357125282287597656e-02 1.237723231315612793e-01
-4.860748350620269775e-01 8.201456069946289062e-02 -1.495355460792779922e-02
-2.811082266271114349e-02 -4.510266706347465515e-02 1.690268367528915405e-01
1.203779689967632294e-02 -4.088790342211723328e-02 -2.230183035135269165e-01
1.557009816169738770e-01 -5.476050078868865967e-02 1.472545713186264038e-01
6.215734034776687622e-02 -3.048346377909183502e-02 1.479530334472656250e-01
3.915678337216377258e-02 -2.147592045366764069e-02 2.187369465827941895e-01
-4.122803509235382080e-01 -6.126327812671661377e-02 -2.181759476661682129e-02
-4.878088831901550293e-01 1.039313226938247681e-01 -2.155266888439655304e-02
-5.083046555519104004e-01 1.269318759441375732e-01 2.707364596426486969e-02
8.091336488723754883e-01 8.312243223190307617e-02 -6.379523780196905136e-03
-5.694066882133483887e-01 3.302698209881782532e-02 -8.776056021451950073e-02
-6.462357640266418457e-01 4.461155459284782410e-02 -1.651435941457748413e-01
-3.947863355278968811e-02 8.663875609636306763e-02 2.199184708297252655e-02
1.756669133901596069e-01 9.061267226934432983e-02 -9.364598663523793221e-04
-2.406552731990814209e-01 -1.463596150279045105e-02 -7.190115451812744141e-01
-2.001212984323501587e-01 -7.954329252243041992e-02 -3.174034878611564636e-02
2.920184135437011719e-01 -4.464507102966308594e-02 2.241559177637100220e-01
-5.323649644851684570e-01 4.795927926898002625e-02 -1.349418163299560547e-01
-4.031764864921569824e-01 7.864274084568023682e-02 -1.418285630643367767e-02
-5.046679377555847168e-01 4.030045494437217712e-02 -9.382981806993484497e-02
5.298120155930519104e-02 -2.701531723141670227e-02 1.595616787672042847e-01
1.988930068910121918e-02 -1.128278747200965881e-01 -1.393733322620391846e-01
-4.316201210021972656e-01 5.723175406455993652e-02 7.517149206250905991e-03
9.821162372827529907e-02 -3.067614138126373291e-02 7.731360197067260742e-02
-9.901516884565353394e-02 -2.838812395930290222e-02 3.751648366451263428e-01
-5.143498778343200684e-01 2.987192943692207336e-02 1.190517991781234741e-01
7.733201980590820312e-01 -7.190855592489242554e-02 -4.595011845231056213e-02
-4.461670517921447754e-01 1.208867058157920837e-01 -4.537209495902061462e-02
4.516495168209075928e-01 8.813197910785675049e-02 1.804201304912567139e-02
6.769674271345138550e-02 -5.020854622125625610e-02 1.632465869188308716e-01
5.054057836532592773e-01 -5.435106530785560608e-02 6.139385327696800232e-02
8.015951514244079590e-01 8.451933413743972778e-02 -1.948002725839614868e-03
