-1.026284322142601013e-01 4.743887484073638916e-02 -6.645838022232055664e-01
1.902245432138442993e-01 -5.809444189071655273e-02 9.324789792299270630e-02
-7.858926057815551758e-02 1.184496190398931503e-02 -4.684720039367675781e-01
-3.177955979481339455e-03 9.155941009521484375e-02 2.848822064697742462e-02
1.485211998224258423e-01 -3.695059195160865784e-02 3.187911808490753174e-01
-5.310305356979370117e-01 -4.595532268285751343e-02 3.613825887441635132e-02
-7.063437700271606445e-01 2.801540493965148926e-01 -4.715063143521547318e-03
3.118282556533813477e-01 -4.175842553377151489e-02 3.050051927566528320e-01
3.181235790252685547e-01 -4.765533283352851868e-02 1.070073470473289490e-01
-4.767365157604217529e-01 1.136682834476232529e-02 -7.380446046590805054e-02
-6.431248188018798828e-01 4.257791861891746521e-02 7.545094937086105347e-02
3.860505670309066772e-02 6.143738329410552979e-02 6.955404579639434814e-02
-1.796600520610809326e-01 5.923268571496009827e-02 8.168138861656188965e-01
-2.863621115684509277e-01 8.733594417572021484e-02 -3.868866711854934692e-02
3.366111814975738525e-01 6.048112735152244568e-02 -7.080288231372833252e-02
-3.788897302001714706e-03 -1.701980363577604294e-03 -3.949200809001922607e-01
1.756745576858520508e-02 2.458994458720553666e-05 -8.992797881364822388e-02
-1.961819976568222046e-01 4.727950319647789001e-02 7.436338663101196289e-01
8.884497880935668945e-01 -6.194601953029632568e-02 -1.767762377858161926e-02
5.568482354283332825e-02 -9.023521840572357178e-02 1.439559608697891235e-01
-3.873798251152038574e-01 2.236375771462917328e-02 -8.453577011823654175e-02
-2.653245329856872559e-01 2.889816276729106903e-02 8.589005470275878906e-02
1.040553748607635498e-01 -5.952882394194602966e-02 8.713850378990173340e-02
-3.729828894138336182e-01 -5.597898270934820175e-04 8.705881237983703613e-02
1.093147695064544678e-01 -1.211453042924404144e-02 -3.156837224960327148e-01
-3.598280251026153564e-02 9.542778716422617435e-04 -3.860215842723846436e-01
-4.763380289077758789e-01 -2.736148424446582794e-02 -6.424190849065780640e-02
1.844402402639389038e-02 -5.785537883639335632e-02 8.713850378990173340e-02
3.584456443786621094e-01 -6.590386480093002319e-02 -3.513839244842529297e-01
-3.125465661287307739e-02 -2.669741585850715637e-02 2.427955120801925659e-01
-2.417103499174118042e-01 6.813116371631622314e-02 -8.801130056381225586e-01
-6.489154696464538574e-01 4.273729398846626282e-02 1.150292605161666870e-01
-2.848480641841888428e-01 -5.772256478667259216e-02 6.827903538942337036e-02
-3.257643198594450951e-03 -6.377008743584156036e-03 -3.253525495529174805e-01
6.508799642324447632e-02 -9.092585742473602295e-02 6.251494586467742920e-02
-1.063737645745277405e-01 9.634067118167877197e-02 -2.988492138683795929e-03
2.585170567035675049e-01 -9.355554729700088501e-02 -3.785370849072933197e-03
-5.679790973663330078e-01 2.701221778988838196e-02 -1.624324358999729156e-02
-1.978554427623748779e-01 9.610161185264587402e-02 -5.883818492293357849e-03
-6.538029909133911133e-01 2.919035218656063080e-02 -6.493254005908966064e-02
3.339814841747283936e-01 -3.171775490045547485e-02 -3.106368482112884521e-01
-1.197018753737211227e-02 -5.712941754609346390e-03 8.905100822448730469e-02
-6.896722596138715744e-03 1.683872938156127930e-02 8.859944343566894531e-02
4.746837019920349121e-01 1.396996807307004929e-02 8.881194144487380981e-02
7.549991011619567871e-01 6.725459545850753784e-02 -3.879491612315177917e-02
-6.785593032836914062e-01 5.724048614501953125e-02 -2.317608892917633057e-02
7.470367103815078735e-02 1.080901734530925751e-02 -8.950297534465789795e-02
-7.520580887794494629e-01 1.734519898891448975e-01 1.234965748153626919e-03
1.547102928161621094e-01 -9.111179411411285400e-02 -2.837554514408111572e-01
-6.962500214576721191e-01 3.112942539155483246e-02 1.023057550191879272e-01
8.601934462785720825e-02 -1.324963569641113281e-01 -1.646486520767211914e-01
-1.005299836397171021e-01 6.945929676294326782e-02 -6.333877891302108765e-02
-7.509955763816833496e-01 5.160921066999435425e-02 -5.712929414585232735e-04
-8.687680214643478394e-02 5.682424642145633698e-03 -4.539953768253326416e-01
2.333154715597629547e-02 -7.678573951125144958e-03 -3.529245853424072266e-01
-1.651239581406116486e-02 -3.440058231353759766e-02 -1.880237460136413574e-01
-6.372013688087463379e-01 9.241821244359016418e-03 4.559455811977386475e-02
-2.616588771343231201e-01 4.828888177871704102e-02 -7.855916768312454224e-02
2.118730843067169189e-01 -2.608647756278514862e-02 2.242813557386398315e-01
2.911891043186187744e-01 9.110783040523529053e-02 -3.000268526375293732e-02
1.148461457341909409e-02 -4.146623611450195312e-02 1.372356265783309937e-01
-4.816240072250366211e-01 4.967014119029045105e-02 -1.632293127477169037e-02
4.348928630352020264e-01 4.576543346047401428e-02 -8.004666864871978760e-02
8.644435554742813110e-02 3.698980726767331362e-04 -3.009414672851562500e-01
-5.982339382171630859e-01 2.047161906957626343e-01 5.177747807465493679e-04
1.085178926587104797e-01 1.359809096902608871e-02 3.819571137428283691e-01
7.390084862709045410e-01 -8.067267388105392456e-02 -3.340269997715950012e-02
-3.855469822883605957e-01 7.169933058321475983e-03 -8.626233786344528198e-02
1.321118511259555817e-02 -5.863489350304007530e-04 -3.481166958808898926e-01
1.076742447912693024e-02 2.576377615332603455e-02 4.907045066356658936e-01
6.739034056663513184e-01 -4.478656128048896790e-02 -7.638103514909744263e-02
-7.667040918022394180e-03 -5.367623642086982727e-03 3.757945597171783447e-01
5.286058187484741211e-01 9.525161236524581909e-02 -1.488855015486478806e-02
2.615983188152313232e-01 -8.141642808914184570e-02 8.116191625595092773e-02
1.339712366461753845e-02 -1.297072768211364746e-01 -1.486845165491104126e-01
-5.012538433074951172e-01 9.825318306684494019e-02 -6.680697202682495117e-03
-6.679544597864151001e-02 -1.870206370949745178e-02 -8.759046345949172974e-02
-7.314189076423645020e-01 2.746024727821350098e-01 5.856862757354974747e-03
8.888810873031616211e-02 -9.188210219144821167e-02 -5.677781254053115845e-02
9.143812209367752075e-02 -6.154758110642433167e-02 -9.061860293149948120e-02
-5.752508714795112610e-02 -4.491063766181468964e-03 3.749710917472839355e-01
-2.433041185140609741e-01 5.769205093383789062e-02 8.140513896942138672e-01
3.359736800193786621e-01 -3.729590028524398804e-02 -1.049889922142028809e-01
-1.130941137671470642e-01 4.624355956912040710e-02 7.930253446102142334e-02
2.837781012058258057e-01 -3.859747573733329773e-02 -3.057227432727813721e-01
2.824765443801879883e-01 -4.967409372329711914e-02 -1.053608655929565430e-01
-3.469515144824981689e-01 8.444062620401382446e-02 4.341642186045646667e-02
-6.409466266632080078e-01 -5.686372518539428711e-03 4.076015204191207886e-02
-3.469515144824981689e-01 8.444062620401382446e-02 4.341642186045646667e-02
4.986166357994079590e-01 3.171380609273910522e-02 8.525255322456359863e-02
6.131546497344970703e-01 -5.217097699642181396e-02 7.247593253850936890e-02
-4.099049270153045654e-01 4.905920103192329407e-02 7.231655716896057129e-02
-3.630218803882598877e-01 -8.627739548683166504e-02 -1.324166636914014816e-02
-7.269829511642456055e-01 -3.428550669923424721e-03 -1.855419203639030457e-02
2.277044057846069336e-01 -1.578017324209213257e-02 -2.985242903232574463e-01
1.363289654254913330e-01 9.162134490907192230e-03 3.559257090091705322e-01
2.770312130451202393e-01 -1.580674387514591217e-02 2.814441323280334473e-01
1.031522452831268311e-01 -9.355554729700088501e-02 -8.274455554783344269e-03
3.095438778400421143e-01 -8.874770998954772949e-02 6.915561109781265259e-02
7.617461085319519043e-01 4.472948983311653137e-02 5.946024879813194275e-02
-7.529346346855163574e-01 2.336429059505462646e-01 4.183417651802301407e-03
1.366742700338363647e-01 -5.110847204923629761e-02 -1.241140812635421753e-01
1.902511119842529297e-01 -9.143053740262985229e-02 2.792659997940063477e-01
3.730019629001617432e-01 9.275471419095993042e-02 2.437101304531097412e-02
-2.583651244640350342e-01 2.140750177204608917e-02 8.761662244796752930e-02
-4.503067135810852051e-01 -2.704273536801338196e-02 6.875716894865036011e-02
-2.460135072469711304e-01 6.393427401781082153e-02 8.581719398498535156e-01
3.036735355854034424e-01 -1.413329038769006729e-02 3.050317466259002686e-01
-9.072838723659515381e-02 4.887326061725616455e-02 -6.678510308265686035e-01
6.191578507423400879e-01 -7.161482423543930054e-02 5.430709570646286011e-02
9.147102944552898407e-03 1.883093081414699554e-02 -5.214644670486450195e-01
-6.352887749671936035e-01 1.123313829302787781e-01 1.271002180874347687e-02
1.129867602139711380e-02 3.524663299322128296e-02 8.384473621845245361e-02
-2.052335068583488464e-02 3.498100861907005310e-02 8.395098149776458740e-02
6.182281374931335449e-01 6.999055296182632446e-02 -6.100127100944519043e-02
-3.255420029163360596e-01 8.186404407024383545e-02 9.419769644737243652e-01
-1.067987680435180664e-01 3.451161552220582962e-03 4.546324312686920166e-01
4.536726772785186768e-01 -8.946491032838821411e-02 -1.693387143313884735e-02
1.765447854995727539e-01 8.122654259204864502e-02 4.854300618171691895e-02
2.929687798023223877e-01 -9.355554729700088501e-02 -1.122290641069412231e-02
7.521303296089172363e-01 -7.793672382831573486e-02 3.611169382929801941e-02
2.721436917781829834e-01 -6.292884796857833862e-02 3.679851591587066650e-01
-5.427180528640747070e-01 -5.118815973401069641e-02 -2.240577340126037598e-02
3.446330726146697998e-01 -4.805376753211021423e-02 2.741925418376922607e-01
8.426823616027832031e-01 -1.117600593715906143e-03 -5.167778581380844116e-02
-7.170219421386718750e-01 7.030930370092391968e-02 -1.075982814654707909e-03
7.186614871025085449e-01 -6.757730245590209961e-02 -5.470592901110649109e-02
3.575159311294555664e-01 -3.285994380712509155e-02 8.286192268133163452e-02
-7.306751608848571777e-01 3.718570619821548462e-02 2.036156207323074341e-01
-3.454841673374176025e-02 -4.462718591094017029e-02 1.567857116460800171e-01
-6.309856772422790527e-01 6.417333334684371948e-02 -2.811673842370510101e-02
4.765165150165557861e-01 6.361551582813262939e-02 -6.825286895036697388e-02
2.911094129085540771e-01 -1.214109919965267181e-02 8.713850378990173340e-02
-8.796586096286773682e-02 -2.382865548133850098e-02 8.713850378990173340e-02
-7.843848466873168945e-01 4.603106155991554260e-02 2.648956179618835449e-01
1.502212285995483398e-01 -6.861324608325958252e-02 2.749894261360168457e-01
-5.216927384026348591e-04 2.116843871772289276e-02 -5.378801226615905762e-01
3.295455276966094971e-01 -9.177584946155548096e-02 -2.926805019378662109e-01
4.468790069222450256e-02 -4.677876457571983337e-02 8.713850378990173340e-02
-6.888124346733093262e-01 2.446220628917217255e-02 -4.847876261919736862e-03
-7.232908010482788086e-01 2.709190547466278076e-02 5.744148790836334229e-02
-2.295181155204772949e-01 -3.299275785684585571e-02 8.264942467212677002e-02
-7.388299107551574707e-01 3.269661962985992432e-02 1.342871636152267456e-01
6.010421514511108398e-01 -5.615536868572235107e-02 -6.995287537574768066e-02
1.752963364124298096e-01 -7.333255838602781296e-03 -1.800283938646316528e-01
3.296783268451690674e-01 -9.185554832220077515e-02 -3.223394602537155151e-02
6.240517273545265198e-02 -8.741077035665512085e-03 3.443975150585174561e-01
1.937573701143264771e-01 -1.066243574023246765e-01 3.072895705699920654e-01
5.686888694763183594e-01 -7.315544784069061279e-02 -5.329810455441474915e-02
3.295455276966094971e-01 -9.177584946155548096e-02 -2.926805019378662109e-01
2.945094108581542969e-01 8.792032301425933838e-02 3.690857440233230591e-02
-4.351925551891326904e-01 3.567163273692131042e-02 7.484000921249389648e-02
-2.044695317745208740e-01 6.321707367897033691e-02 -8.427394032478332520e-01
5.827935934066772461e-01 2.892472594976425171e-02 -8.636858314275741577e-02
3.516456186771392822e-01 -5.514599382877349854e-02 -8.389826118946075439e-02
5.864061117172241211e-01 6.027742754667997360e-03 8.942288160324096680e-02
1.625993996858596802e-01 -4.531781375408172607e-02 -3.057493269443511963e-01
3.516456186771392822e-01 -5.514599382877349854e-02 -8.389826118946075439e-02
4.087021350860595703e-01 9.078908711671829224e-02 3.026791661977767944e-02
4.498741924762725830e-01 3.051848709583282471e-02 -8.599670976400375366e-02
9.914129227399826050e-02 -9.355554729700088501e-02 3.762576356530189514e-02
2.523810863494873047e-01 -6.948981434106826782e-02 8.599630743265151978e-02
1.868510842323303223e-01 -3.214275836944580078e-02 -8.759046345949172974e-02
1.547368764877319336e-01 -4.247562214732170105e-02 1.559888273477554321e-01
-9.226901084184646606e-02 2.767628431320190430e-02 5.996112823486328125e-01
3.446330726146697998e-01 -4.805376753211021423e-02 2.741925418376922607e-01
-6.273997426033020020e-01 1.601441055536270142e-01 -1.114321872591972351e-02
-9.840498119592666626e-02 -9.201491624116897583e-02 -5.600749701261520386e-02
2.286872118711471558e-01 -6.393823027610778809e-02 3.091489672660827637e-01
1.684697419404983521e-01 -4.101467132568359375e-02 3.120974004268646240e-01
7.533788084983825684e-01 -8.805707842111587524e-02 3.052737738471478224e-04
8.618340492248535156e-01 3.081067092716693878e-02 -1.281666383147239685e-02
1.228085979819297791e-01 -3.793340921401977539e-02 1.814092695713043213e-01
-8.589397370815277100e-02 1.083557680249214172e-02 4.907045066356658936e-01
8.330996334552764893e-02 4.540233872830867767e-03 -3.314619362354278564e-01
-6.919203400611877441e-01 4.013415426015853882e-02 -6.323252618312835693e-02
3.327861726284027100e-01 -1.043134182691574097e-01 2.633284330368041992e-01
-8.390178531408309937e-02 6.886569899506866932e-04 -4.136201739311218262e-01
-1.026549935340881348e-01 1.821999065577983856e-02 5.405359864234924316e-01
2.696733474731445312e-01 -1.261478960514068604e-01 -3.009414672851562500e-01
-1.648381054401397705e-01 3.692007437348365784e-02 6.698694229125976562e-01
7.470367103815078735e-02 1.080901734530925751e-02 -8.950297534465789795e-02
-3.871875256299972534e-02 1.925592496991157532e-02 4.871982336044311523e-01
6.524737179279327393e-02 1.046369969844818115e-02 -8.952953666448593140e-02
-3.593828082084655762e-01 4.369354620575904846e-02 -4.077559337019920349e-03
-7.342876791954040527e-01 3.596382215619087219e-02 -1.852877885103225708e-01
9.542252123355865479e-02 -5.652724578976631165e-02 3.120177090167999268e-01
5.152714252471923828e-01 1.946842856705188751e-02 -8.852016180753707886e-02
1.026475504040718079e-01 -3.665840253233909607e-02 9.308852255344390869e-02
5.474387407302856445e-01 -4.072248190641403198e-02 7.946190983057022095e-02
-1.026549935340881348e-01 1.821999065577983856e-02 5.405359864234924316e-01
-1.609599590301513672e-01 5.336234346032142639e-02 -7.337529659271240234e-01
2.277044057846069336e-01 -1.578017324209213257e-02 -2.985242903232574463e-01
-7.114438414573669434e-01 3.506069257855415344e-02 -1.675705313682556152e-01
9.147102944552898407e-03 1.883093081414699554e-02 -5.214644670486450195e-01
-7.193861007690429688e-01 3.747789189219474792e-02 2.065906375646591187e-01
6.559205055236816406e-01 4.393261298537254333e-02 7.762908190488815308e-02
-7.045907378196716309e-01 -1.524892263114452362e-02 -1.239166222512722015e-02
-5.780994892120361328e-01 1.271267533302307129e-01 -1.026665233075618744e-02
-4.403191208839416504e-01 5.524829030036926270e-02 -1.138228178024291992e-02
4.746837019920349121e-01 1.396996807307004929e-02 8.881194144487380981e-02
2.682124078273773193e-01 -9.326335787773132324e-02 3.623804152011871338e-01
-3.822531998157501221e-01 -7.674140483140945435e-02 -3.401364386081695557e-02
-6.190059781074523926e-01 6.499677151441574097e-02 -1.244478765875101089e-02
-6.008371114730834961e-01 6.980460882186889648e-02 2.649602480232715607e-02
-7.949566841125488281e-01 3.784976899623870850e-02 9.203754365444183350e-03
-5.587820336222648621e-02 1.649342104792594910e-02 8.862601220607757568e-02
4.765165150165557861e-01 6.361551582813262939e-02 -6.825286895036697388e-02
5.592591166496276855e-01 -8.973053842782974243e-02 1.536628324538469315e-02
-1.492723971605300903e-01 -6.300852447748184204e-02 -8.312794566154479980e-02
9.014289826154708862e-03 -3.442713990807533264e-02 -1.683939546346664429e-01
-7.096578180789947510e-02 1.505903061479330063e-02 -5.118222236633300781e-01
5.391246080398559570e-01 -1.253953576087951660e-02 8.844006806612014771e-02
1.912339180707931519e-01 -6.290228664875030518e-02 -2.692256867885589600e-01
-5.367350950837135315e-02 -8.519797120243310928e-04 4.112025201320648193e-01
6.990582346916198730e-01 -1.622293144464492798e-03 -8.607639372348785400e-02
-2.506555989384651184e-02 1.208402309566736221e-02 -4.864017665386199951e-01
5.109582561999559402e-03 -4.353812336921691895e-02 -1.662158370018005371e-01
4.348928630352020264e-01 4.576543346047401428e-02 -8.004666864871978760e-02
1.629181504249572754e-01 -7.705132942646741867e-03 1.929108947515487671e-01
-6.433904170989990234e-01 3.123567625880241394e-02 -9.569206833839416504e-02
8.333057761192321777e-01 -7.844141125679016113e-02 9.442817419767379761e-03
-2.147492766380310059e-01 -9.089928120374679565e-02 -4.794750828295946121e-03
-3.784218430519104004e-02 -2.297864481806755066e-02 -2.780179381370544434e-01
2.197887450456619263e-01 1.819342188537120819e-02 -8.881235122680664062e-02
1.191695034503936768e-01 -6.624916940927505493e-02 -2.906351685523986816e-01
-2.790573835372924805e-01 -9.042115509510040283e-02 -1.055884081870317459e-02
-3.878844976425170898e-01 5.150296166539192200e-02 -5.883818492293357849e-03
-5.104444622993469238e-01 -5.801475420594215393e-02 2.139599993824958801e-02
3.339814841747283936e-01 -3.171775490045547485e-02 -3.106368482112884521e-01
7.988540530204772949e-01 -8.202736824750900269e-02 -1.510105002671480179e-02
3.794035613536834717e-01 -5.181690212339162827e-03 -8.952953666448593140e-02
4.995728731155395508e-01 7.770818046992644668e-05 -8.992797881364822388e-02
2.877093851566314697e-01 -1.437235251069068909e-02 -2.825070023536682129e-01
3.918943554162979126e-02 -9.582260972820222378e-04 -3.937778770923614502e-01
-1.651239581406116486e-02 -3.440058231353759766e-02 -1.880237460136413574e-01
1.072064740583300591e-03 -1.529761552810668945e-01 -1.332781761884689331e-01
6.089312434196472168e-01 -8.425863087177276611e-02 -3.356207907199859619e-02
-3.067888021469116211e-01 7.846403121948242188e-02 -9.193193912506103516e-01
-8.033239841461181641e-01 3.843414783477783203e-02 2.132313102483749390e-01
8.426620811223983765e-02 -8.757895231246948242e-02 7.228999584913253784e-02
1.424649357795715332e-01 -2.265989594161510468e-02 -2.551474869251251221e-01
1.245882734656333923e-01 -2.675054408609867096e-02 1.201292797923088074e-01
5.450215339660644531e-01 -8.133675158023834229e-02 3.988358750939369202e-02
-4.031250625848770142e-02 6.240244954824447632e-03 4.548715054988861084e-01
3.075782358646392822e-01 -1.276354044675827026e-01 -3.043414950370788574e-01
-5.219992399215698242e-01 9.689849615097045898e-02 -9.522898122668266296e-03
2.057902514934539795e-01 -4.287405684590339661e-02 1.471169143915176392e-01
-1.409848630428314209e-01 8.954064548015594482e-02 3.318980708718299866e-02
1.913465186953544617e-02 -6.911793351173400879e-02 8.604943007230758667e-02
1.490790247917175293e-01 6.983999628573656082e-03 -3.329229056835174561e-01
-1.135456785559654236e-01 -4.125373438000679016e-02 -8.655452728271484375e-02
-1.405598670244216919e-01 -8.306331187486648560e-02 -7.446852326393127441e-02
-3.255420029163360596e-01 8.186404407024383545e-02 9.419769644737243652e-01
-2.477337419986724854e-02 -2.491771802306175232e-02 -2.665162980556488037e-01
1.762791424989700317e-01 3.079294459894299507e-03 2.867035269737243652e-01
-3.788897302001714706e-03 -1.701980363577604294e-03 -3.949200809001922607e-01
2.420747876167297363e-01 -2.518334984779357910e-02 -2.167910635471343994e-01
1.663181781768798828e-01 -3.586151823401451111e-02 -1.827377825975418091e-01
-1.837178133428096771e-02 3.318356117233633995e-03 -3.876153528690338135e-01
-2.680339217185974121e-01 6.491708755493164062e-02 8.669641613960266113e-01
-7.582471966743469238e-01 3.285599499940872192e-02 -1.455501168966293335e-01
6.259111315011978149e-02 -1.413417160511016846e-01 -1.549533009529113770e-01
4.216646850109100342e-01 9.029318578541278839e-03 -8.963578939437866211e-02
-6.777624487876892090e-01 1.206189095973968506e-01 8.778751827776432037e-03
6.338469386100769043e-01 -8.585239201784133911e-02 -2.976362220942974091e-02
3.322283327579498291e-01 -5.551787093281745911e-02 -3.247947096824645996e-01
7.805789113044738770e-01 -5.140066146850585938e-02 5.821180716156959534e-02
-1.691678166389465332e-01 6.345614045858383179e-02 -7.916859984397888184e-01
6.679002642631530762e-01 1.683872938156127930e-02 8.612911403179168701e-02
1.828135550022125244e-01 -3.293963149189949036e-02 -3.187118768692016602e-01
-7.319236397743225098e-01 2.985619604587554932e-01 -5.140064749866724014e-03
4.421710669994354248e-01 2.119500376284122467e-02 8.766975253820419312e-02
3.565660491585731506e-02 1.298715174198150635e-02 4.095822274684906006e-01
-9.446734562516212463e-03 2.138094231486320496e-02 -5.413332581520080566e-01
-6.763014793395996094e-01 4.156854003667831421e-02 -5.029653012752532959e-02
4.640586674213409424e-01 6.252644956111907959e-02 6.867747753858566284e-02
-7.638455927371978760e-02 -9.355554729700088501e-02 2.888665907084941864e-02
-7.529081106185913086e-01 3.880602493882179260e-02 -2.334724068641662598e-01
-2.969075143337249756e-01 -3.288651257753372192e-02 8.267597854137420654e-02
-5.421336889266967773e-01 4.977639019489288330e-02 -5.552937090396881104e-02
5.167387053370475769e-02 -2.664428763091564178e-02 1.794701963663101196e-01
3.954739570617675781e-01 -8.245237171649932861e-02 3.781170397996902466e-02
-6.203606128692626953e-01 -1.781667699106037617e-03 4.628518223762512207e-02
-7.447268366813659668e-01 3.264527320861816406e-01 2.802160801365971565e-03
-7.690050601959228516e-01 2.531221136450767517e-02 -7.837323099374771118e-02
-8.448616415262222290e-02 3.171380609273910522e-02 -8.570451289415359497e-02
-7.263922691345214844e-02 -9.355554729700088501e-02 -5.272878333926200867e-03
6.362641453742980957e-01 5.894049257040023804e-02 -6.955443322658538818e-02
2.696733474731445312e-01 -1.261478960514068604e-01 -3.009414672851562500e-01
-6.701921224594116211e-01 3.192630410194396973e-02 -1.107530817389488220e-01
3.242329955101013184e-01 -1.271838396787643433e-01 3.003036081790924072e-01
2.463248074054718018e-01 -9.955869615077972412e-02 3.561116755008697510e-01
-1.608536988496780396e-01 8.106716722249984741e-02 4.880863428115844727e-02
3.047689422965049744e-02 -5.963507667183876038e-02 -1.050421074032783508e-01
-7.132766842842102051e-01 2.547601759433746338e-01 -7.158824242651462555e-03
7.627086341381072998e-02 7.017648965120315552e-02 6.206338107585906982e-02
4.731696248054504395e-01 9.267503768205642700e-02 -2.522141113877296448e-02
-2.159446030855178833e-01 6.937960535287857056e-02 -8.702847957611083984e-01
1.377899199724197388e-01 -6.129179964773356915e-04 -8.987484872341156006e-02
-2.972528040409088135e-01 9.171877801418304443e-02 2.811634354293346405e-02
2.211168855428695679e-01 -4.268811270594596863e-02 3.050051927566528320e-01
6.678206324577331543e-01 8.531717956066131592e-02 3.233980387449264526e-02
-2.015147358179092407e-02 7.568369153887033463e-03 -8.976859599351882935e-02
-5.012538433074951172e-01 9.825318306684494019e-02 -6.680697202682495117e-03
2.183277904987335205e-01 9.634067118167877197e-02 -3.015055088326334953e-03
7.864227294921875000e-01 -6.353978067636489868e-02 -4.833089932799339294e-02
1.940229982137680054e-01 -2.935367450118064880e-02 3.382615745067596436e-01
-3.104215301573276520e-02 6.771496962755918503e-03 4.174978733062744141e-01
1.869307756423950195e-01 6.903429329395294189e-02 6.336495280265808105e-02
-6.188136711716651917e-02 -7.299607992172241211e-02 -8.586388826370239258e-02
2.941906750202178955e-01 -1.217119321227073669e-01 2.810191214084625244e-01
1.376836597919464111e-01 -1.232703309506177902e-02 1.858186870813369751e-01
-1.509724110364913940e-01 -8.861489593982696533e-02 3.178198635578155518e-02
2.651577293872833252e-01 -1.036140136420726776e-02 3.108489513397216797e-01
4.710509628057479858e-02 -1.952550373971462250e-02 -3.057758808135986328e-01
-1.068253293633460999e-01 5.083889514207839966e-02 7.321853637695312500e-01
-3.016356229782104492e-01 7.671089470386505127e-02 5.475866049528121948e-02
-7.622050046920776367e-01 3.365465104579925537e-01 3.041224554181098938e-03
-7.787206768989562988e-02 1.622778922319412231e-02 5.240936875343322754e-01
-1.754100173711776733e-01 -7.865392416715621948e-02 -4.477150738239288330e-02
-1.845146901905536652e-02 8.940783143043518066e-02 -3.393395617604255676e-02
3.359736800193786621e-01 6.672334671020507812e-02 6.522433459758758545e-02
-2.047882974147796631e-01 4.751856252551078796e-02 7.373650670051574707e-01
-7.255485653877258301e-01 4.090447351336479187e-02 1.169948875904083252e-01
-8.155162334442138672e-01 4.239198192954063416e-02 3.008082807064056396e-01
-7.955942153930664062e-01 4.106384515762329102e-02 -2.764241695404052734e-01
-1.921710371971130371e-01 -6.011320278048515320e-02 -6.676536053419113159e-02
1.579775065183639526e-01 9.193128347396850586e-02 2.766477875411510468e-02
1.363289654254913330e-01 9.162134490907192230e-03 3.559257090091705322e-01
5.773014947772026062e-02 -4.995746538043022156e-03 3.691273331642150879e-01
3.103938698768615723e-01 6.969836354255676270e-02 6.259463727474212646e-02
8.811779320240020752e-02 -5.947569385170936584e-02 -3.018445968627929688e-01
1.233461778610944748e-02 -5.812099948525428772e-02 1.142058148980140686e-01
1.969448775053024292e-01 2.972160466015338898e-02 -8.618264645338058472e-02
-3.794907033443450928e-01 4.847482219338417053e-02 7.627439498901367188e-02
3.335564434528350830e-01 -2.592710405588150024e-02 2.691456377506256104e-01
-7.004734277725219727e-01 2.759659662842750549e-02 4.973832517862319946e-02
-4.898850023746490479e-01 8.871720731258392334e-02 6.520928815007209778e-03
-8.142412304878234863e-01 4.061228409409523010e-02 2.439376860857009888e-01
-1.284675206989049911e-02 -4.834595695137977600e-02 -1.500126421451568604e-01
-2.541087754070758820e-02 -1.415986008942127228e-02 3.246880769729614258e-01
7.203614711761474609e-01 7.097336649894714355e-02 4.461174085736274719e-02
2.620498836040496826e-01 9.153284132480621338e-02 2.856790833175182343e-02
2.643342614173889160e-01 -9.552118182182312012e-02 -2.585475146770477295e-01
5.231137201189994812e-02 8.745905943214893341e-04 4.073775410652160645e-01
1.234460920095443726e-01 -5.907725915312767029e-02 -9.593113511800765991e-02
-6.222731471061706543e-01 4.032009094953536987e-02 9.369946271181106567e-02
-1.694865673780441284e-01 4.494199156761169434e-02 7.237650752067565918e-01
2.896750271320343018e-01 -7.812266051769256592e-02 8.440254628658294678e-02
5.799577385187149048e-02 -1.303447932004928589e-01 1.612216681241989136e-01
3.304486572742462158e-01 -1.244744583964347839e-01 -3.236259520053863525e-01
1.940229982137680054e-01 -2.935367450118064880e-02 3.382615745067596436e-01
-7.195188403129577637e-01 1.059032231569290161e-01 -3.891621483489871025e-03
3.050813376903533936e-01 -3.301931917667388916e-02 -2.613631784915924072e-01
1.694260090589523315e-01 -5.591630563139915466e-02 -2.764773070812225342e-01
-1.539474278688430786e-01 -8.994302898645401001e-02 1.456940453499555588e-02
-6.087262034416198730e-01 4.191385209560394287e-02 3.847576677799224854e-02
-2.059039324522018433e-01 5.346859246492385864e-02 7.865059375762939453e-01
-1.651239581406116486e-02 -3.440058231353759766e-02 -1.880237460136413574e-01
3.918943554162979126e-02 -9.582260972820222378e-04 -3.937778770923614502e-01
2.197685278952121735e-02 -1.517011374235153198e-01 -1.800549626350402832e-01
-1.234004199504852295e-01 5.721392482519149780e-02 7.457588315010070801e-01
4.248320311307907104e-02 -8.436488360166549683e-02 1.353762298822402954e-01
-5.799057483673095703e-01 1.769582480192184448e-01 -3.200992941856384277e-03
1.710197478532791138e-01 -4.940846189856529236e-02 -3.128415346145629883e-01
1.942620426416397095e-01 -8.104456216096878052e-02 -2.613100409507751465e-01
-4.194143414497375488e-01 -7.745860517024993896e-02 -2.935366705060005188e-03
-2.172461748123168945e-01 -8.880083262920379639e-02 -1.959013566374778748e-02
2.985203862190246582e-01 -1.137077622115612030e-02 -1.199968680739402771e-01
-4.947194159030914307e-01 8.834532648324966431e-02 -7.982266135513782501e-03
-7.972145676612854004e-01 3.336068242788314819e-02 -1.702267974615097046e-01
8.296666741371154785e-01 5.921486299484968185e-03 -5.502467602491378784e-02
7.882024645805358887e-01 7.683442090637981892e-04 -6.843880563974380493e-02
-2.477337419986724854e-02 -2.491771802306175232e-02 -2.665162980556488037e-01
6.005905270576477051e-01 -3.641053335741162300e-03 8.907757699489593506e-02
1.968917548656463623e-01 -1.548798382282257080e-02 -1.166765466332435608e-01
5.820827931165695190e-02 -6.562942638993263245e-03 2.820285260677337646e-01
-6.839780807495117188e-01 4.305604472756385803e-02 -1.023858487606048584e-01
1.421993076801300049e-01 -4.331679549068212509e-03 -3.510651588439941406e-01
4.995728731155395508e-01 7.770818046992644668e-05 -8.992797881364822388e-02
-4.130392968654632568e-01 8.595468848943710327e-02 3.427887335419654846e-02
-1.058159470558166504e-01 1.335902884602546692e-02 -5.060315132141113281e-01
-3.598280251026153564e-02 9.542778716422617435e-04 -3.860215842723846436e-01
4.421710669994354248e-01 2.119500376284122467e-02 8.766975253820419312e-02
1.112538427114486694e-01 -1.968487910926342010e-02 2.792394459247589111e-01
-5.261430144309997559e-01 1.162360832095146179e-01 4.820920526981353760e-03
6.779738515615463257e-02 1.219026930630207062e-02 4.715528488159179688e-01
-8.589397370815277100e-02 1.083557680249214172e-02 4.907045066356658936e-01
-1.625537276268005371e-01 6.157019734382629395e-02 7.814324498176574707e-01
-7.609034776687622070e-01 4.164822772145271301e-02 -1.739189922809600830e-01
4.901431500911712646e-01 9.642036259174346924e-02 1.633405103348195553e-03
-3.130575716495513916e-01 2.645440213382244110e-02 8.647443354129791260e-02
7.392740845680236816e-01 -2.016301266849040985e-02 -7.733728736639022827e-02
-1.077018976211547852e-01 3.128879889845848083e-02 -6.212336421012878418e-01
-6.739905476570129395e-01 4.063884541392326355e-02 -1.616205126047134399e-01
-7.389361262321472168e-01 2.722471952438354492e-02 7.210405915975570679e-02
-8.155162334442138672e-01 4.239198192954063416e-02 3.008082807064056396e-01
7.818971760571002960e-03 -5.466786026954650879e-02 -8.759046345949172974e-02
6.524737179279327393e-02 1.046369969844818115e-02 -8.952953666448593140e-02
-1.158831790089607239e-01 3.163411095738410950e-02 -6.246867775917053223e-01
6.686769425868988037e-02 -9.617647156119346619e-03 -3.076883852481842041e-01
6.679002642631530762e-01 1.683872938156127930e-02 8.612911403179168701e-02
6.917864084243774414e-02 7.143374066799879074e-03 3.589007258415222168e-01
-6.708295941352844238e-01 4.231229051947593689e-02 -6.142627075314521790e-02
2.209309488534927368e-01 4.366698861122131348e-02 -8.097636699676513672e-02
-7.892988920211791992e-01 3.830133378505706787e-02 -2.317458242177963257e-01
3.675202140584588051e-03 -1.447860896587371826e-02 -3.170384466648101807e-01
-5.672088265419006348e-01 5.912643298506736755e-02 4.463829845190048218e-02
-7.017219066619873047e-01 4.560605436563491821e-02 2.350596012547612190e-03
1.902511119842529297e-01 -9.143053740262985229e-02 2.792659997940063477e-01
-6.896359324455261230e-01 2.802159823477268219e-02 5.212895944714546204e-02
-1.168128848075866699e-01 -1.612549275159835815e-02 -8.809515088796615601e-02
-7.588846683502197266e-01 2.685284242033958435e-02 -7.005912810564041138e-02
5.930202007293701172e-01 -3.121306002140045166e-02 8.336661010980606079e-02
-5.752838850021362305e-01 1.032735258340835571e-01 -1.356041803956031799e-02
-3.552655875682830811e-01 7.275306433439254761e-02 5.890243127942085266e-02
1.906761080026626587e-01 -9.355554729700088501e-02 1.255064550787210464e-02
1.962808221578598022e-01 -3.992560133337974548e-02 1.595482230186462402e-01
-6.777624487876892090e-01 1.206189095973968506e-01 8.778751827776432037e-03
7.853602170944213867e-01 6.507646292448043823e-02 -2.753236144781112671e-02
-3.125465661287307739e-02 -2.669741585850715637e-02 2.427955120801925659e-01
-1.802444308996200562e-01 4.783731698989868164e-02 7.228353619575500488e-01
2.640686631202697754e-01 -5.567724630236625671e-02 -8.764358609914779663e-02
6.453486084938049316e-01 3.421068936586380005e-02 -8.262325078248977661e-02
4.869885742664337158e-02 -4.967409372329711914e-02 -1.389625817537307739e-01
4.616149067878723145e-01 7.187649607658386230e-02 -6.062939390540122986e-02
-6.777624487876892090e-01 1.206189095973968506e-01 8.778751827776432037e-03
3.396127521991729736e-01 -9.002272784709930420e-02 -4.989809542894363403e-02
1.029928624629974365e-01 7.750777155160903931e-02 5.385553091764450073e-02
3.445002734661102295e-01 -9.554773569107055664e-02 -3.414229452610015869e-01
-6.943374872207641602e-01 3.192630410194396973e-02 1.144183203577995300e-01
8.445215225219726562e-02 -7.458984106779098511e-02 -3.001446127891540527e-01
-1.619427800178527832e-01 3.192630410194396973e-02 6.372239589691162109e-01
6.783393621444702148e-01 -4.437936004251241684e-03 8.705881237983703613e-02
-1.168128848075866699e-01 -1.612549275159835815e-02 -8.809515088796615601e-02
1.206570118665695190e-01 9.773072786629199982e-03 3.943087160587310791e-01
9.672408550977706909e-02 8.428123593330383301e-02 4.376173391938209534e-02
2.627670764923095703e-01 -7.706015557050704956e-02 2.523049116134643555e-01
4.165912270545959473e-01 -4.523812606930732727e-02 -7.725759595632553101e-02
-7.255485653877258301e-01 4.090447351336479187e-02 1.169948875904083252e-01
1.618290841579437256e-01 -2.765367366373538971e-02 3.050317466259002686e-01
2.799796760082244873e-01 -4.096154496073722839e-02 -3.638418018817901611e-01
-8.238770812749862671e-02 4.470292478799819946e-02 -8.055136352777481079e-02
8.500996232032775879e-02 1.593559980392456055e-02 -3.979747891426086426e-01
2.367091327905654907e-01 -9.355554729700088501e-02 4.134453088045120239e-02
5.130136013031005859e-01 2.783565968275070190e-02 -8.660764247179031372e-02
-1.354598402976989746e-01 5.001545324921607971e-02 -7.457857728004455566e-01
1.763057261705398560e-01 -6.497415155172348022e-02 -8.721858263015747070e-02
-3.552655875682830811e-01 7.275306433439254761e-02 5.890243127942085266e-02
6.792159676551818848e-01 -8.797740191221237183e-02 2.219287864863872528e-02
-6.586107611656188965e-01 2.751690521836280823e-02 3.887420892715454102e-02
5.074417591094970703e-02 7.439994812011718750e-02 -5.781375616788864136e-02
-3.523268969729542732e-03 -5.174596980214118958e-02 -1.052014827728271484e-01
-5.184929370880126953e-01 4.340136051177978516e-02 -1.738543622195720673e-02
3.438627719879150391e-01 -8.996959030628204346e-02 4.686956107616424561e-02
9.443969279527664185e-02 -1.469111163169145584e-02 2.069890946149826050e-01
4.796774983406066895e-01 5.105139687657356262e-02 -7.693884521722793579e-02
-3.822531998157501221e-01 -7.674140483140945435e-02 -3.401364386081695557e-02
2.184871733188629150e-01 -8.555143140256404877e-03 -1.446735560894012451e-01
-6.817733645439147949e-01 1.947020888328552246e-01 9.230316616594791412e-03
-3.608171939849853516e-01 -4.677876457571983337e-02 -7.356539368629455566e-02
5.130136013031005859e-01 2.783565968275070190e-02 -8.660764247179031372e-02
2.506279647350311279e-01 -9.355554729700088501e-02 3.252574056386947632e-02
2.107840180397033691e-01 -1.694893278181552887e-02 -8.790922164916992188e-02
2.703108489513397217e-01 -4.345843568444252014e-02 1.329855918884277344e-01
-3.036278188228607178e-01 5.904674530029296875e-02 -7.197163254022598267e-02
-6.620374321937561035e-01 -2.991149574518203735e-02 -4.290061071515083313e-03
-6.203606128692626953e-01 -1.781667699106037617e-03 4.628518223762512207e-02
1.803166717290878296e-01 -1.240672077983617783e-02 -2.987899184226989746e-01
6.769113242626190186e-02 1.901686377823352814e-02 4.278307557106018066e-01
-6.518373489379882812e-01 4.209979251027107239e-02 4.894144460558891296e-02
3.727692738175392151e-02 -6.695757620036602020e-03 -8.942329138517379761e-02
2.813874781131744385e-01 -9.355554729700088501e-02 2.745227888226509094e-02
4.986166357994079590e-01 3.171380609273910522e-02 8.525255322456359863e-02
-4.194940328598022461e-01 5.532797798514366150e-02 -6.793411821126937866e-02
1.544446796178817749e-01 -9.283835440874099731e-02 5.018988624215126038e-02
-1.318572671152651310e-03 -8.316081948578357697e-03 -3.521277010440826416e-01
-6.846889853477478027e-02 1.944186910986900330e-02 5.062702298164367676e-01
3.353627026081085205e-01 -9.018210321664810181e-02 -2.567147016525268555e-01
-7.419377565383911133e-01 3.822164610028266907e-02 -2.223161011934280396e-01
2.064872160553932190e-02 7.134524732828140259e-02 -6.124033033847808838e-02
7.542086392641067505e-02 -9.989524260163307190e-03 3.075551986694335938e-01
-7.542893290519714355e-01 4.518105462193489075e-02 2.187829017639160156e-01
1.066850721836090088e-01 -7.562578469514846802e-02 3.243958950042724609e-01
-7.309079170227050781e-02 1.033088378608226776e-02 -4.818330109119415283e-01
-2.460135072469711304e-01 6.393427401781082153e-02 8.581719398498535156e-01
4.869885742664337158e-02 -4.967409372329711914e-02 -1.389625817537307739e-01
-1.629989221692085266e-02 3.224505484104156494e-02 5.411734580993652344e-01
2.333154715597629547e-02 -7.678573951125144958e-03 -3.529245853424072266e-01
-4.816240072250366211e-01 4.967014119029045105e-02 -1.632293127477169037e-02
-3.869218751788139343e-02 -2.073857467621564865e-03 4.011884331703186035e-01
2.651577293872833252e-01 -1.036140136420726776e-02 3.108489513397216797e-01
4.142069444060325623e-02 -2.497084625065326691e-02 1.957796514034271240e-01
-3.871875256299972534e-02 1.925592496991157532e-02 4.871982336044311523e-01
-6.839780807495117188e-01 4.305604472756385803e-02 -1.023858487606048584e-01
1.144147962331771851e-01 -4.468031600117683411e-02 1.521638184785842896e-01
-9.446734562516212463e-03 2.138094231486320496e-02 -5.413332581520080566e-01
-1.566568017005920410e-01 2.509970776736736298e-02 -8.724515140056610107e-02
8.517136573791503906e-01 -7.573202252388000488e-02 -3.254118608310818672e-03
-6.352887749671936035e-01 1.123313829302787781e-01 1.271002180874347687e-02
2.512920200824737549e-01 -7.780390977859497070e-02 -8.506701886653900146e-02
2.216279134154319763e-02 -2.356302551925182343e-02 2.629034221172332764e-01
1.907026767730712891e-01 -7.492640055716037750e-03 1.753795593976974487e-01
1.794401258230209351e-01 2.828722260892391205e-02 -8.650139719247817993e-02
-3.769672811031341553e-01 4.175447672605514526e-02 -4.635375458747148514e-03
-3.492029383778572083e-02 5.296390503644943237e-02 7.537126541137695312e-02
5.433013290166854858e-02 -4.066935554146766663e-02 1.110183075070381165e-01
-1.284675206989049911e-02 -4.834595695137977600e-02 -1.500126421451568604e-01
-4.356675344752147794e-05 -1.255103796720504761e-01 -1.395204067230224609e-01
-1.369473487138748169e-01 3.083723597228527069e-02 -6.227477192878723145e-01
9.837096929550170898e-02 1.508559938520193100e-02 -3.895278871059417725e-01
-5.580446720123291016e-01 7.716245949268341064e-02 2.482257597148418427e-02
8.445215225219726562e-02 -7.458984106779098511e-02 -3.001446127891540527e-01
-1.284675206989049911e-02 -4.834595695137977600e-02 -1.500126421451568604e-01
-3.888798237312585115e-04 -3.673809021711349487e-02 1.685263961553573608e-01
2.265090942382812500e-01 -6.879918277263641357e-02 -3.643465042114257812e-01
1.214539036154747009e-01 -2.975212037563323975e-02 1.063964068889617920e-01
-2.270148694515228271e-02 1.458090730011463165e-02 4.532246291637420654e-01
8.288432359695434570e-01 -4.996628314256668091e-02 4.758675396442413330e-02
-7.966833114624023438e-01 1.859186775982379913e-02 -1.260416395962238312e-02
-5.131804347038269043e-01 8.401561528444290161e-02 1.148814056068658829e-02
-2.577541768550872803e-01 -8.109767735004425049e-02 4.044140130281448364e-02
5.074417591094970703e-02 7.439994812011718750e-02 -5.781375616788864136e-02
2.520357668399810791e-01 -2.382865548133850098e-02 2.754409909248352051e-01
-6.216887235641479492e-01 4.988264292478561401e-02 -4.145117849111557007e-02
-1.026284322142601013e-01 4.743887484073638916e-02 -6.645838022232055664e-01
-5.367350950837135315e-02 -8.519797120243310928e-04 4.112025201320648193e-01
2.426060289144515991e-01 -9.177584946155548096e-02 5.714929848909378052e-02
-1.026284322142601013e-01 4.743887484073638916e-02 -6.645838022232055664e-01
-7.378205657005310059e-01 4.595137387514114380e-02 1.725223101675510406e-02
-6.235948950052261353e-02 3.398043336346745491e-03 -4.357999563217163086e-01
9.547564387321472168e-02 3.265227889642119408e-03 -4.076435863971710205e-01
2.464044988155364990e-01 9.588910639286041260e-02 -8.486956357955932617e-03
7.627086341381072998e-02 7.017648965120315552e-02 6.206338107585906982e-02
-1.448630094528198242e-01 3.139505162835121155e-02 -6.274759173393249512e-01
2.424997985363006592e-01 -3.508237889036536217e-03 8.921039104461669922e-02
-3.957204818725585938e-01 -6.903825700283050537e-02 4.315079748630523682e-02
7.150223851203918457e-01 7.872965186834335327e-02 3.305699303746223450e-02
3.675831854343414307e-01 -4.082873836159706116e-02 -2.762647867202758789e-01
-3.279528766870498657e-02 1.864498667418956757e-02 5.334703326225280762e-01
7.643023878335952759e-02 -3.756153210997581482e-02 8.713850378990173340e-02
2.627670764923095703e-01 -7.706015557050704956e-02 2.523049116134643555e-01
3.675831854343414307e-01 -4.082873836159706116e-02 -2.762647867202758789e-01
8.131776750087738037e-02 -3.320526331663131714e-02 1.207933500409126282e-01
3.727692738175392151e-02 -6.695757620036602020e-03 -8.942329138517379761e-02
8.201572299003601074e-01 4.085134342312812805e-02 -4.094648733735084534e-02
5.375043153762817383e-01 5.724048614501953125e-02 7.284781336784362793e-02
-6.828624010086059570e-01 3.333412483334541321e-02 -1.352969408035278320e-01
-6.542280316352844238e-01 9.482660144567489624e-02 1.002719532698392868e-02
-5.012538433074951172e-01 9.825318306684494019e-02 -6.680697202682495117e-03
-7.158797979354858398e-01 1.209642291069030762e-01 -5.405690986663103104e-03
1.833182424306869507e-01 -6.346008926630020142e-02 3.056958317756652832e-01
-2.957653105258941650e-01 -2.667085826396942139e-02 -8.559826761484146118e-02
4.674321115016937256e-01 9.578286111354827881e-02 -9.682274423539638519e-03
-5.758150815963745117e-01 9.307347238063812256e-02 1.382565218955278397e-02
1.424649357795715332e-01 -2.265989594161510468e-02 -2.551474869251251221e-01
7.231303304433822632e-02 -4.550375789403915405e-02 1.535185128450393677e-01
3.718597590923309326e-01 -2.985836751759052277e-02 3.318068683147430420e-01
-9.840498119592666626e-02 -9.201491624116897583e-02 -5.600749701261520386e-02
2.696733474731445312e-01 9.371097385883331299e-02 2.062568254768848419e-02
6.885394454002380371e-01 8.268748223781585693e-02 3.536794334650039673e-02
2.654562518000602722e-02 -1.387120187282562256e-01 -1.800549626350402832e-01
-2.544072866439819336e-01 -4.372406005859375000e-02 7.768220454454421997e-02
-2.766136527061462402e-01 2.204500325024127960e-02 8.748381584882736206e-02
-7.982239127159118652e-01 4.581855610013008118e-02 2.998520433902740479e-01
7.029894590377807617e-01 -6.415072083473205566e-02 6.023056432604789734e-02
2.518232762813568115e-01 -1.150712817907333374e-01 -3.420870006084442139e-01
7.627086341381072998e-02 7.017648965120315552e-02 6.206338107585906982e-02
-7.889004349708557129e-01 2.783565968275070190e-02 -1.507448684424161911e-02
3.394533693790435791e-01 -1.129196956753730774e-01 -3.442386090755462646e-01
-5.382024049758911133e-01 -8.794205263257026672e-03 -6.124033033847808838e-02
9.143812209367752075e-02 -6.154758110642433167e-02 -9.061860293149948120e-02
4.224414005875587463e-02 -2.953961864113807678e-02 -3.118587136268615723e-01
2.989453673362731934e-01 -1.235978901386260986e-01 3.332677781581878662e-01
-6.385294795036315918e-01 4.188728705048561096e-02 -1.066093072295188904e-01
-6.045824289321899414e-01 6.454521417617797852e-02 -1.374635659158229828e-02
-8.092041127383708954e-03 -1.649736985564231873e-02 2.764503359794616699e-01
2.051527351140975952e-01 -3.628652542829513550e-02 2.707128226757049561e-01
5.162010788917541504e-01 -6.509814411401748657e-03 8.897131681442260742e-02
-1.643599867820739746e-01 4.961701110005378723e-02 7.539667487144470215e-01
1.968652009963989258e-01 -4.491063766181468964e-03 -2.804882526397705078e-01
2.455342561006546021e-02 2.377157472074031830e-02 4.731731414794921875e-01
-1.987851262092590332e-01 8.101404458284378052e-02 -4.934027791023254395e-02
1.940495520830154419e-01 -8.000861108303070068e-02 -3.590870797634124756e-01
1.911807954311370850e-01 -9.355554729700088501e-02 -1.905888132750988007e-02
-1.215612608939409256e-02 -2.072082273662090302e-02 -2.536600232124328613e-01
-1.204785183072090149e-01 3.577788546681404114e-02 -6.519400477409362793e-01
-1.084190979599952698e-01 2.167312614619731903e-02 -5.377738475799560547e-01
6.464110612869262695e-01 1.965437084436416626e-02 8.623537421226501465e-02
2.650780081748962402e-01 -5.389754846692085266e-02 2.528893053531646729e-01
-7.270361185073852539e-01 2.377157472074031830e-02 -2.722865669056773186e-03
-7.125594615936279297e-01 1.575940996408462524e-01 6.255302578210830688e-03
3.075782358646392822e-01 -1.276354044675827026e-01 -3.043414950370788574e-01
3.047689422965049744e-02 -5.963507667183876038e-02 -1.050421074032783508e-01
-4.076736569404602051e-01 -7.014506962150335312e-03 8.164004236459732056e-02
-7.670128941535949707e-01 2.956222929060459137e-02 -1.003936454653739929e-01
3.383012255653738976e-03 -1.004265248775482178e-02 3.013395369052886963e-01
1.233132779598236084e-01 1.049025822430849075e-02 -3.844809830188751221e-01
1.147866696119308472e-01 -1.091921236366033554e-02 -2.057941406965255737e-01
-7.232908010482788086e-01 2.709190547466278076e-02 5.744148790836334229e-02
2.780936956405639648e-01 -9.059825912117958069e-03 1.163839474320411682e-01
1.740744709968566895e-01 -4.996628314256668091e-02 3.050317466259002686e-01
2.676545977592468262e-01 -5.296785756945610046e-02 8.713850378990173340e-02
-3.022731542587280273e-01 7.750777155160903931e-02 9.210987687110900879e-01
7.787195444107055664e-01 7.203587144613265991e-02 -1.464948523789644241e-02
5.686888694763183594e-01 -7.315544784069061279e-02 -5.329810455441474915e-02
-7.220689058303833008e-01 5.317640304565429688e-02 1.363971363753080368e-02
3.188471123576164246e-02 -1.279807239770889282e-01 -1.716346144676208496e-01
5.085244774818420410e-01 -4.021779075264930725e-02 7.972753047943115234e-02
5.423121452331542969e-01 7.772027701139450073e-02 5.361646786332130432e-02
3.918943554162979126e-02 -9.582260972820222378e-04 -3.937778770923614502e-01
2.520357668399810791e-01 -2.382865548133850098e-02 2.754409909248352051e-01
-3.493687212467193604e-01 3.617632761597633362e-02 8.304785192012786865e-02
5.864061117172241211e-01 6.027742754667997360e-03 8.942288160324096680e-02
1.031585782766342163e-02 1.628091745078563690e-02 -4.377921819686889648e-01
4.318116307258605957e-01 2.154031582176685333e-02 8.759006857872009277e-02
4.476960599422454834e-01 -1.822393946349620819e-02 8.713850378990173340e-02
-6.919203400611877441e-01 4.013415426015853882e-02 -6.323252618312835693e-02
6.010421514511108398e-01 -5.615536868572235107e-02 -6.995287537574768066e-02
2.424997985363006592e-01 -3.508237889036536217e-03 8.921039104461669922e-02
3.325470983982086182e-01 -1.336297765374183655e-02 2.901566624641418457e-01
-1.652631163597106934e-01 9.626098722219467163e-02 -3.785370849072933197e-03
2.266748063266277313e-02 -1.374635696411132812e-01 -1.508626490831375122e-01
-6.188136711716651917e-02 -7.299607992172241211e-02 -8.586388826370239258e-02
2.812546491622924805e-01 -8.980139158666133881e-03 3.169849216938018799e-01
3.509284257888793945e-01 -1.226947605609893799e-01 2.987629473209381104e-01
