1.284844130277633667e-01 -1.097703818231821060e-02 -1.058397069573402405e-01
-4.481792449951171875e-01 8.679859340190887451e-03 9.107176214456558228e-02
2.641064524650573730e-01 1.204290315508842468e-01 2.100786007940769196e-02
8.025366663932800293e-01 7.256976328790187836e-03 -7.746105641126632690e-02
-7.634536027908325195e-01 8.330227434635162354e-02 -2.271801680326461792e-01
5.871036276221275330e-02 1.181892976164817810e-01 -2.818707004189491272e-02
4.729806780815124512e-01 -8.913031965494155884e-02 1.908433064818382263e-02
3.104292750358581543e-01 -4.428308457136154175e-02 -1.318205296993255615e-01
1.402890980243682861e-01 -1.124052982777357101e-02 3.992317914962768555e-01
-2.612279653549194336e-01 -6.952612102031707764e-02 -5.709271878004074097e-02
3.740901648998260498e-01 2.991773746907711029e-02 -1.048120632767677307e-01
1.011597514152526855e-01 -6.030372157692909241e-02 -3.137390315532684326e-01
3.288763016462326050e-02 -2.275535836815834045e-02 2.947024405002593994e-01
-5.131840109825134277e-01 -4.412498697638511658e-02 3.268078714609146118e-02
-2.120330184698104858e-01 1.339645497500896454e-02 -1.069463938474655151e-01
1.570761203765869141e-02 -7.724659144878387451e-02 1.097537204623222351e-01
7.192188501358032227e-01 2.056358568370342255e-02 -9.719699621200561523e-02
-6.718620061874389648e-01 6.925787031650543213e-02 9.684235602617263794e-02
-3.119248151779174805e-01 2.380459569394588470e-02 -1.018609032034873962e-01
-2.314527779817581177e-01 -8.728582412004470825e-02 2.538191527128219604e-02
1.508289873600006104e-01 -5.287309736013412476e-02 1.053533181548118591e-01
-1.321933865547180176e-01 1.171353161334991455e-01 -3.356241434812545776e-02
-7.403954118490219116e-02 -4.557422921061515808e-02 -4.355537891387939453e-01
-5.146069526672363281e-01 -8.587363408878445625e-04 7.816040515899658203e-02
-3.350335359573364258e-01 7.073345780372619629e-02 8.827869594097137451e-02
2.723539173603057861e-01 1.070433706045150757e-01 -5.427329614758491516e-02
7.665957212448120117e-01 5.782208964228630066e-02 6.930690258741378784e-02
2.768597304821014404e-01 -8.876141160726547241e-02 -2.718429565429687500e-01
-7.824254035949707031e-01 1.908618360757827759e-01 4.881829954683780670e-03
2.451346367597579956e-01 -4.470468312501907349e-02 1.097010225057601929e-01
1.638984531164169312e-01 3.379114717245101929e-02 1.057485640048980713e-01
3.325652703642845154e-02 -1.705773174762725830e-01 1.693831533193588257e-01
5.294744968414306641e-01 1.239072009921073914e-01 3.669742727652192116e-03
-3.403298258781433105e-01 -4.673359915614128113e-02 7.642132788896560669e-02
4.977780207991600037e-02 -3.861789777874946594e-02 3.153869509696960449e-01
8.152636289596557617e-01 5.755859240889549255e-02 -3.743582218885421753e-02
-1.761447042226791382e-01 1.782321371138095856e-02 7.878638505935668945e-01
2.414983958005905151e-01 -6.602159887552261353e-02 1.097010225057601929e-01
3.758819401264190674e-01 -5.914432927966117859e-02 -2.929754257202148438e-01
-4.140300154685974121e-01 -4.760314524173736572e-02 -6.093977391719818115e-02
-1.623638123273849487e-01 -1.337486039847135544e-02 -6.542037725448608398e-01
1.691157072782516479e-01 -8.662708848714828491e-02 3.038836270570755005e-02
5.212292820215225220e-02 1.209296733140945435e-01 1.634396053850650787e-02
2.802324891090393066e-01 -1.330026090145111084e-01 3.428170382976531982e-01
1.373906284570693970e-01 1.149482876062393188e-01 4.377401992678642273e-02
-1.194401159882545471e-01 2.882920904085040092e-03 -6.343623995780944824e-01
2.369398772716522217e-01 -6.199009716510772705e-02 -3.276516497135162354e-01
-7.787101864814758301e-01 4.015805721282958984e-01 6.752660032361745834e-03
3.902711719274520874e-02 -1.663876920938491821e-01 -1.612268239259719849e-01
-8.464815616607666016e-01 8.530484884977340698e-02 -1.744543910026550293e-01
-6.020352840423583984e-01 1.618953049182891846e-02 -6.739545613527297974e-02
-9.875559061765670776e-02 1.086688227951526642e-02 7.443341016769409180e-01
-6.719673871994018555e-01 1.582063362002372742e-02 5.004525557160377502e-02
-7.017162442207336426e-01 7.263063639402389526e-02 -1.290274560451507568e-01
-4.191682338714599609e-01 1.128666624426841736e-01 -4.072953760623931885e-02
3.136702775955200195e-01 -8.868237584829330444e-02 -1.859577186405658722e-02
-6.851422786712646484e-01 5.278928950428962708e-02 -5.946419015526771545e-02
-7.401319593191146851e-02 5.517888814210891724e-03 6.613588333129882812e-01
-1.676864475011825562e-01 -6.436157226562500000e-02 -8.779014647006988525e-02
3.435771763324737549e-01 -1.113167777657508850e-01 2.737543880939483643e-01
-8.439257144927978516e-01 9.152338653802871704e-02 2.788662314414978027e-01
1.736764423549175262e-02 -1.065474823117256165e-01 -2.697498351335525513e-02
6.996937394142150879e-01 -6.322852522134780884e-02 -6.781705468893051147e-02
1.458488851785659790e-01 -6.776069104671478271e-02 3.262693881988525391e-01
2.182315737009048462e-01 -5.271500349044799805e-02 -1.155364066362380981e-01
6.916570663452148438e-01 -8.075109124183654785e-02 -4.212607443332672119e-02
-7.993946671485900879e-01 7.020646333694458008e-02 4.119174554944038391e-02
3.844192624092102051e-01 -8.855061978101730347e-02 5.679078027606010437e-02
7.438844442367553711e-02 -3.308445960283279419e-02 1.469858735799789429e-01
1.660064309835433960e-01 -1.064157336950302124e-01 -2.876676432788372040e-02
-5.401134490966796875e-01 8.006125688552856445e-02 7.223172485828399658e-02
-2.621479518711566925e-02 1.442409586161375046e-02 -6.556266546249389648e-01
2.815499603748321533e-01 -5.840653553605079651e-02 3.241614103317260742e-01
-7.721226811408996582e-01 7.268333435058593750e-02 1.079619452357292175e-01
-4.383508265018463135e-01 -4.984286800026893616e-02 -5.008368939161300659e-02
1.340442150831222534e-01 -4.388783127069473267e-02 -2.026749402284622192e-01
2.118022441864013672e-01 -8.027680218219757080e-02 -4.563058540225028992e-02
1.983375549316406250e-01 -8.388671278953552246e-02 -3.228823542594909668e-01
7.792962193489074707e-01 -8.507245033979415894e-02 5.092627834528684616e-03
2.962531149387359619e-01 -4.415133595466613770e-02 3.375207185745239258e-01
5.557978749275207520e-01 -3.682611882686614990e-02 9.362769126892089844e-02
6.503933668136596680e-01 -1.115012243390083313e-01 2.036059973761439323e-03
3.670020997524261475e-01 -5.424328148365020752e-02 8.203382045030593872e-02
8.163461834192276001e-02 3.597816824913024902e-02 1.051161661744117737e-01
5.954805612564086914e-01 2.093248255550861359e-02 -1.066038459539413452e-01
1.798136830329895020e-01 -3.542957082390785217e-02 2.874562442302703857e-01
4.487675428390502930e-02 -1.171664074063301086e-01 2.118061929941177368e-01
3.576743006706237793e-01 -1.114748790860176086e-01 2.680892050266265869e-01
6.166657209396362305e-01 -8.175238966941833496e-02 -4.444484785199165344e-02
7.366096973419189453e-01 -2.507413178682327271e-02 -8.992447704076766968e-02
2.619457542896270752e-01 1.187163069844245911e-01 -2.779182419180870056e-02
-6.030102372169494629e-01 -2.022578567266464233e-02 -3.121728822588920593e-02
-7.125196456909179688e-01 2.817865088582038879e-02 -4.465564712882041931e-02
7.230681180953979492e-02 -2.304520644247531891e-02 -4.082554876804351807e-01
5.196483060717582703e-02 -4.178804345428943634e-03 4.288488626480102539e-01
4.039444029331207275e-01 -7.123884558677673340e-02 -6.009658426046371460e-02
3.924559354782104492e-01 -1.377455592155456543e-01 -2.885223329067230225e-01
3.681373968720436096e-02 -3.313715383410453796e-02 3.100906610488891602e-01
1.014759540557861328e-01 -2.942184172570705414e-02 1.602397859096527100e-01
-8.498543500900268555e-01 1.030118614435195923e-01 3.443716466426849365e-01
4.205733165144920349e-02 -8.428195863962173462e-02 -2.180368304252624512e-01
7.097593545913696289e-01 -7.308333367109298706e-02 5.407676100730895996e-02
-6.060404181480407715e-01 1.008775383234024048e-01 -5.055798590183258057e-02
-6.537048518657684326e-02 3.144601732492446899e-02 -1.042587235569953918e-01
-8.270355463027954102e-01 8.045650273561477661e-02 -1.436779052019119263e-01
3.850236535072326660e-03 -9.027151390910148621e-03 -4.293352663516998291e-01
-6.932843327522277832e-01 8.259083330631256104e-02 1.073031947016716003e-01
-1.050811610184609890e-03 -4.575867205858230591e-02 -1.354040950536727905e-01
3.156991899013519287e-01 -5.474391952157020569e-02 3.141748607158660889e-01
2.619984745979309082e-01 -7.885391265153884888e-02 2.710140049457550049e-01
-2.120330184698104858e-01 1.339645497500896454e-02 -1.069463938474655151e-01
4.015465676784515381e-01 -2.286075428128242493e-02 1.009002178907394409e-01
-5.896749719977378845e-02 -8.288543671369552612e-02 1.040885373950004578e-01
-7.144958376884460449e-01 7.170839607715606689e-02 -1.204110980033874512e-01
3.613368868827819824e-01 -7.782629132270812988e-02 -4.971479251980781555e-02
3.525910526514053345e-02 -9.969655424356460571e-02 -1.472878158092498779e-01
2.440279573202133179e-01 -1.235957369208335876e-01 2.939646244049072266e-01
-7.616091370582580566e-01 1.914070174098014832e-02 -1.029560901224613190e-02
-2.321378737688064575e-01 -4.523166641592979431e-02 -8.562947064638137817e-02
9.103597998619079590e-01 -5.126576125621795654e-02 -4.630419425666332245e-03
-1.384909600019454956e-01 -7.927551120519638062e-02 8.790980279445648193e-02
5.325837731361389160e-01 1.885085366666316986e-02 1.088051274418830872e-01
4.740632697939872742e-02 -1.791936755180358887e-01 -2.201447933912277222e-01
5.212292820215225220e-02 1.209296733140945435e-01 1.634396053850650787e-02
-2.952190935611724854e-01 -3.414665348827838898e-03 -9.922592341899871826e-02
1.495115011930465698e-01 -3.830170258879661560e-02 -3.271510303020477295e-01
-9.699015319347381592e-02 1.850830391049385071e-02 -7.131744623184204102e-01
5.693415999412536621e-01 9.750477224588394165e-02 7.036089152097702026e-02
6.004342436790466309e-01 4.670251160860061646e-02 -1.014656499028205872e-01
6.200647950172424316e-01 1.159495785832405090e-01 3.773993253707885742e-02
7.736574411392211914e-01 -6.278058141469955444e-02 -5.856829881668090820e-02
3.243968263268470764e-02 -1.398798674345016479e-01 -2.155335992574691772e-01
-8.173366636037826538e-02 -1.701933797448873520e-03 -5.607676506042480469e-01
1.809730827808380127e-01 -7.827423512935638428e-02 -3.466498255729675293e-01
-8.105142116546630859e-01 4.733835458755493164e-01 4.565633367747068405e-03
3.212853670120239258e-01 1.217728704214096069e-01 1.434138137847185135e-02
-3.784315288066864014e-01 4.480532929301261902e-02 9.692140668630599976e-02
-7.612403035163879395e-01 8.925730735063552856e-02 -1.753766238689422607e-01
-1.835226416587829590e-01 2.728276140987873077e-02 8.562150001525878906e-01
-7.799485921859741211e-01 8.388196676969528198e-02 2.306462526321411133e-01
4.203098267316818237e-02 -1.749777048826217651e-01 1.897778362035751343e-01
-2.503455281257629395e-01 -5.943417549133300781e-02 7.573623210191726685e-02
-9.280054271221160889e-02 -1.023924537003040314e-02 5.361185669898986816e-01
1.739113479852676392e-01 -1.674761995673179626e-02 -2.719219923019409180e-01
2.462413460016250610e-01 -7.089630514383316040e-02 2.972320020198822021e-01
-1.676864475011825562e-01 -6.436157226562500000e-02 -8.779014647006988525e-02
-7.195550799369812012e-01 2.847985923290252686e-01 -7.502539549022912979e-03
-1.854725182056427002e-01 -8.786552399396896362e-02 2.448602393269538879e-02
-8.455066680908203125e-01 4.185415804386138916e-02 4.723731894046068192e-03
-8.531481027603149414e-01 9.610824286937713623e-02 2.837145924568176270e-01
2.625254690647125244e-01 -1.152165308594703674e-01 -3.611685037612915039e-01
2.907460033893585205e-01 -9.121194481849670410e-02 8.201894350349903107e-03
-3.842021524906158447e-01 8.736013621091842651e-02 7.592067867517471313e-02
-3.672833368182182312e-02 1.173642650246620178e-02 -6.186580061912536621e-01
1.997626759111881256e-02 -6.602982524782419205e-03 -4.345788359642028809e-01
3.793337941169738770e-01 -1.013829335570335388e-01 -3.268875181674957275e-01
-2.070770412683486938e-02 -1.189927384257316589e-02 5.198081135749816895e-01
-6.219030022621154785e-01 2.358671724796295166e-01 5.962168332189321518e-03
-6.405849456787109375e-01 6.659655272960662842e-02 6.680367887020111084e-02
8.616676926612854004e-02 -1.780160702764987946e-02 -4.431161582469940186e-01
2.078761458396911621e-01 -4.950032755732536316e-02 1.051425188779830933e-01
6.616710424423217773e-01 -1.789828538894653320e-01 -4.762168508023023605e-03
4.052904993295669556e-02 -1.822502315044403076e-01 1.451677381992340088e-01
2.108009606599807739e-01 -2.283440716564655304e-02 1.860888600349426270e-01
-1.512705832719802856e-01 -4.549517109990119934e-02 -8.586661517620086670e-02
-8.470349907875061035e-01 9.423740208148956299e-02 2.618706822395324707e-01
2.432374805212020874e-01 -1.128450557589530945e-01 -3.751338422298431396e-01
3.562777638435363770e-01 -1.008822917938232422e-01 -3.649628758430480957e-01
7.206681370735168457e-01 -8.776012063026428223e-02 -1.437981612980365753e-02
2.581514120101928711e-01 -9.587583690881729126e-02 -9.453567862510681152e-02
-6.584500074386596680e-01 2.195039838552474976e-01 -8.055883459746837616e-03
8.025366663932800293e-01 7.256976328790187836e-03 -7.746105641126632690e-02
2.082713842391967773e-01 8.382926881313323975e-02 8.348304778337478638e-02
2.615505158901214600e-01 -4.612755775451660156e-02 1.820046752691268921e-01
4.002554416656494141e-01 -4.915778711438179016e-02 -9.543156623840332031e-02
2.575717270374298096e-01 -3.058123402297496796e-02 -3.277043700218200684e-01
4.366466403007507324e-02 -1.571652889251708984e-01 1.436921507120132446e-01
-2.585139274597167969e-01 2.733546309173107147e-02 1.054060161113739014e-01
9.256162643432617188e-01 -3.645721077919006348e-02 1.166519243270158768e-03
6.203283071517944336e-01 -9.055319428443908691e-02 1.713445037603378296e-02
-7.904620766639709473e-01 7.790058106184005737e-02 -1.568527668714523315e-01
-5.230124592781066895e-01 1.226951032876968384e-01 -1.099556800909340382e-03
-6.927573680877685547e-01 2.880659699440002441e-01 -6.316801533102989197e-03
5.562968552112579346e-03 -1.052909344434738159e-02 1.074349507689476013e-01
3.560142517089843750e-01 -1.248868778347969055e-01 2.780757546424865723e-01
-3.317398130893707275e-01 -7.366303354501724243e-02 4.137619212269783020e-02
2.964639067649841309e-01 -9.247672557830810547e-02 9.989891946315765381e-02
-7.826625704765319824e-01 9.710952639579772949e-02 2.722788155078887939e-01
2.366500347852706909e-01 -8.009236305952072144e-02 2.905391752719879150e-01
-7.860353589057922363e-01 9.484344720840454102e-02 -2.392483651638031006e-01
-7.410827279090881348e-01 8.807156980037689209e-02 -1.578540652990341187e-01
9.955242276191711426e-02 -7.525219116359949112e-03 3.878486752510070801e-01
-7.268011569976806641e-01 1.842217147350311279e-01 -7.186342962086200714e-03
-8.114628195762634277e-01 9.070653468370437622e-02 2.040066868066787720e-01
3.212326467037200928e-01 -1.126342713832855225e-01 2.771535217761993408e-01
7.858573794364929199e-01 -3.751119971275329590e-02 -7.495782524347305298e-02
6.159542798995971680e-01 1.163184717297554016e-01 -3.545959666371345520e-02
-7.504082471132278442e-02 1.168454661965370178e-01 -3.501164913177490234e-02
-6.844571232795715332e-01 6.543716043233871460e-02 -6.349570304155349731e-02
5.317691341042518616e-02 3.558292612433433533e-02 -1.034155339002609253e-01
2.021341398358345032e-02 -3.827533870935440063e-02 -2.604598701000213623e-01
2.012096643447875977e-01 -3.266286104917526245e-02 -3.134491741657257080e-01
5.462614819407463074e-02 1.092567443847656250e-01 5.196878686547279358e-02
-4.191682338714599609e-01 1.128666624426841736e-01 -4.072953760623931885e-02
1.241614460013806820e-03 1.018179208040237427e-02 6.065250635147094727e-01
1.132806316018104553e-01 -1.051772981882095337e-01 5.713333189487457275e-02
-5.233023166656494141e-01 5.197244882583618164e-02 -8.180876076221466064e-02
-1.082414835691452026e-01 -9.474279731512069702e-02 -7.588006556034088135e-02
3.020763993263244629e-01 9.992895275354385376e-02 -6.494493782520294189e-02
3.379120230674743652e-01 -4.254399612545967102e-02 3.052423298358917236e-01
4.887641668319702148e-01 1.185318529605865479e-01 -2.879311516880989075e-02
4.391213059425354004e-01 2.962788939476013184e-02 1.066444516181945801e-01
-2.642581760883331299e-01 -2.420459873974323273e-02 9.847603738307952881e-02
-9.082432091236114502e-02 3.831513226032257080e-03 -6.733072996139526367e-01
-1.944291591644287109e-02 9.127805009484291077e-03 5.887126326560974121e-01
-1.830483227968215942e-01 1.235119476914405823e-01 -1.600201707333326340e-03
5.517399907112121582e-01 5.201694555580615997e-03 -1.054971665143966675e-01
-1.285548787564039230e-02 -3.405939042568206787e-02 -2.764014601707458496e-01
-8.033471107482910156e-01 7.465956360101699829e-02 -9.743414819240570068e-02
-4.314735531806945801e-01 -2.894755080342292786e-02 -7.432543486356735229e-02
3.453162610530853271e-01 -7.376841455698013306e-02 5.773937329649925232e-02
-7.144168019294738770e-01 4.749299958348274231e-02 5.394501611590385437e-02
-7.055896520614624023e-01 7.423796504735946655e-02 -1.424131244421005249e-01
-1.195455119013786316e-01 -3.045768942683935165e-03 6.069993376731872559e-01
5.650992989540100098e-01 -9.031605720520019531e-02 -1.079625356942415237e-02
-8.450038731098175049e-02 -7.108074426651000977e-02 6.213977560400962830e-02
-5.678047612309455872e-02 1.916704885661602020e-02 -7.207104563713073730e-01
2.003137767314910889e-01 -1.029112115502357483e-01 2.899067699909210205e-01
-7.183429002761840820e-01 8.801886439323425293e-02 2.203435003757476807e-01
1.737005561590194702e-01 -2.475793845951557159e-02 -1.078422814607620239e-01
-6.020352840423583984e-01 1.618953049182891846e-02 -6.739545613527297974e-02
-1.888957433402538300e-02 -4.971111938357353210e-02 1.468014270067214966e-01
-7.357074022293090820e-01 3.321226835250854492e-01 8.070146664977073669e-03
1.265872418880462646e-01 -9.132555685937404633e-03 -4.190588593482971191e-01
-7.074582576751708984e-02 -2.207026816904544830e-02 -9.985832124948501587e-02
-2.039173245429992676e-01 1.189007461071014404e-01 -2.468255907297134399e-02
-8.684309720993041992e-01 9.832160919904708862e-02 -3.141606152057647705e-01
-4.997456967830657959e-01 -4.378242790699005127e-02 3.955806419253349304e-02
-3.949001431465148926e-01 1.214039772748947144e-01 9.624780155718326569e-03
-7.366822957992553711e-01 2.066980302333831787e-01 8.201894350349903107e-03
3.046323359012603760e-01 -4.747139289975166321e-02 8.659231662750244141e-02
4.916362762451171875e-01 1.048827022314071655e-01 5.929400771856307983e-02
4.951430484652519226e-02 -2.436269633471965790e-02 2.621605098247528076e-01
2.421571314334869385e-01 -7.830058038234710693e-02 -4.852905496954917908e-02
2.170194983482360840e-01 -4.481006786227226257e-02 1.949950754642486572e-01
-3.359271958470344543e-02 9.857361437752842903e-04 -5.332585573196411133e-01
4.126134812831878662e-01 -8.623183518648147583e-02 -3.084839135408401489e-02
7.990584969520568848e-01 2.738816477358341217e-02 7.336475700139999390e-02
3.088482916355133057e-01 -6.881467252969741821e-02 -1.078422814607620239e-01
-8.642939925193786621e-01 5.276294425129890442e-02 -1.596079953014850616e-02
5.559559464454650879e-01 -3.139806538820266724e-02 -9.548426419496536255e-02
-2.057595551013946533e-02 -6.665398925542831421e-02 -2.573769688606262207e-01
-5.737093091011047363e-01 8.683312684297561646e-02 -6.341665238142013550e-02
-6.625078320503234863e-01 4.683425277471542358e-02 6.485379487276077271e-02
1.009512133896350861e-02 -6.256978958845138550e-02 -2.642015516757965088e-01
-4.314735531806945801e-01 -2.894755080342292786e-02 -7.432543486356735229e-02
2.421571314334869385e-01 -7.830058038234710693e-02 -4.852905496954917908e-02
-3.023598790168762207e-01 -7.173950225114822388e-02 4.883316531777381897e-02
2.446603477001190186e-01 -2.702401950955390930e-02 -1.906331181526184082e-01
-8.892713487148284912e-02 -8.657437562942504883e-02 -2.934645861387252808e-02
2.662407755851745605e-01 -4.533707350492477417e-02 3.282192647457122803e-01
6.882579326629638672e-01 1.105215325951576233e-01 -3.250842541456222534e-02
-5.872794389724731445e-01 1.206134781241416931e-01 1.168005913496017456e-02
1.998658329248428345e-01 -8.417655527591705322e-02 4.161334410309791565e-02
2.026611194014549255e-02 -9.295101463794708252e-02 -9.759224206209182739e-02
6.535026431083679199e-01 -9.171258658170700073e-02 6.014868151396512985e-03
1.373642832040786743e-01 -3.798548877239227295e-02 -2.610132098197937012e-01
3.389660120010375977e-01 -1.520007550716400146e-01 -3.033572137355804443e-01
3.720898553729057312e-02 -7.340775802731513977e-03 -5.631918311119079590e-01
-5.586900115013122559e-01 9.621363878250122070e-02 -5.825210362672805786e-02
6.764269471168518066e-01 1.062792316079139709e-01 4.727853089570999146e-02
1.530160158872604370e-01 6.169550120830535889e-02 -9.630110859870910645e-02
5.907925218343734741e-02 -2.228106744587421417e-02 -2.736347317695617676e-01
2.659245729446411133e-01 -3.013328835368156433e-02 -1.761144250631332397e-01
-8.171544075012207031e-01 7.508116215467453003e-02 -8.194050937891006470e-02
9.417708963155746460e-02 -4.146366566419601440e-02 2.279849201440811157e-01
-7.140479683876037598e-01 2.912724204361438751e-02 4.664614051580429077e-02
1.315146386623382568e-01 -7.076455652713775635e-02 -3.143450617790222168e-01
-6.248541474342346191e-01 1.295196861028671265e-01 1.183815672993659973e-02
6.965844035148620605e-01 1.113383769989013672e-01 -2.165234088897705078e-02
-2.612806558609008789e-01 6.319743394851684570e-02 -9.385058283805847168e-02
-4.742654860019683838e-01 1.134463548660278320e-01 -3.901680558919906616e-02
3.452635705471038818e-01 -1.267840713262557983e-01 -2.753211259841918945e-01
-2.264726907014846802e-01 2.533288300037384033e-02 1.072504967451095581e-01
1.184188276529312134e-01 -1.087163295596837997e-02 -3.462809026241302490e-01
3.339858949184417725e-01 3.473974019289016724e-02 1.056168153882026672e-01
2.401808947324752808e-01 -5.208259448409080505e-02 -3.440148532390594482e-01
-4.639100432395935059e-01 1.195331439375877380e-01 2.127135917544364929e-02
-1.285548787564039230e-02 -3.405939042568206787e-02 -2.764014601707458496e-01
-8.158368468284606934e-01 3.877469599246978760e-01 4.881829954683780670e-03
3.185449838638305664e-01 -6.264883279800415039e-02 -3.240154087543487549e-01
1.398938596248626709e-01 -4.907872900366783142e-02 1.097010225057601929e-01
8.804791569709777832e-01 -3.748485073447227478e-02 -4.560423642396926880e-02
2.859240174293518066e-01 -6.083070486783981323e-02 3.126992881298065186e-01
5.871036276221275330e-02 1.181892976164817810e-01 -2.818707004189491272e-02
6.503933668136596680e-01 -1.115012243390083313e-01 2.036059973761439323e-03
-1.567490771412849426e-02 -4.428308457136154175e-02 2.002386599779129028e-01
-1.753015071153640747e-01 1.958864741027355194e-02 -7.939100265502929688e-01
3.011014759540557861e-01 -4.033061861991882324e-02 -1.386714577674865723e-01
1.196836158633232117e-01 9.869050979614257812e-02 -6.615702062845230103e-02
4.366466403007507324e-02 -1.571652889251708984e-01 1.436921507120132446e-01
3.702694475650787354e-01 -8.278002589941024780e-02 -2.748468220233917236e-01
3.763058036565780640e-02 -1.225944608449935913e-01 1.855091750621795654e-01
8.913353085517883301e-01 -2.952724695205688477e-02 -4.246862232685089111e-02
-2.273685783147811890e-01 -5.906527116894721985e-02 7.852930575609207153e-02
2.934073507785797119e-01 -1.047820448875427246e-01 -5.872639641165733337e-02
2.581514120101928711e-01 -9.587583690881729126e-02 -9.453567862510681152e-02
-7.530718445777893066e-01 3.415822386741638184e-01 7.912048138678073883e-03
6.669656839221715927e-03 8.416358381509780884e-03 5.802016258239746094e-01
-1.728773415088653564e-01 -5.969768017530441284e-02 9.225749969482421875e-02
3.649204671382904053e-01 -5.848557502031326294e-02 -7.682865858078002930e-02
3.459750115871429443e-01 -1.106580272316932678e-01 3.773878514766693115e-01
2.017102986574172974e-01 -1.174940261989831924e-03 1.060647591948509216e-01
1.493797451257705688e-01 -1.274246163666248322e-02 -3.482308089733123779e-01
-7.941488176584243774e-02 -7.258267700672149658e-02 -5.793590471148490906e-02
7.224599123001098633e-01 9.575749747455120087e-03 1.006367132067680359e-01
-6.395836472511291504e-01 6.920517235994338989e-02 -7.946363091468811035e-02
5.642017815262079239e-03 -4.085762053728103638e-02 2.541238665580749512e-01
-8.006330728530883789e-01 1.049353927373886108e-01 1.362993847578763962e-02
8.382163941860198975e-02 -3.434923663735389709e-02 2.981542348861694336e-01
-7.786024361848831177e-02 9.918299503624439240e-03 7.349271774291992188e-01
3.477931618690490723e-01 -7.785263657569885254e-02 -3.701537847518920898e-01
2.955152988433837891e-01 -4.918413609266281128e-02 -2.975075840950012207e-01
3.710072636604309082e-01 -1.498664170503616333e-01 -3.089697360992431641e-01
1.983375549316406250e-01 -8.388671278953552246e-02 -3.228823542594909668e-01
-8.507783524692058563e-03 -1.197832264006137848e-02 5.195446014404296875e-01
1.914075613021850586e-01 1.142895445227622986e-01 -4.344356060028076172e-02
1.581300981342792511e-02 -1.686801314353942871e-01 1.430070698261260986e-01
4.946160316467285156e-02 -1.754626282490789890e-03 -4.561065733432769775e-01
7.911800146102905273e-01 4.401483386754989624e-02 -6.589352339506149292e-02
4.126684367656707764e-02 4.680790752172470093e-02 1.029554903507232666e-01
4.018650576472282410e-02 -3.830170258879661560e-02 -3.161631822586059570e-01
2.079310826957225800e-02 3.436260623857378960e-03 -5.187925696372985840e-01
7.630911469459533691e-01 2.909267088398337364e-03 -9.108386933803558350e-02
-5.522584170103073120e-02 7.749466458335518837e-04 6.446794271469116211e-01
-1.715598553419113159e-01 2.101152949035167694e-02 8.444367051124572754e-01
-7.149964570999145508e-01 1.106269359588623047e-01 1.473662629723548889e-02
-8.297210186719894409e-02 1.160813271999359131e-01 4.050665348768234253e-02
-5.855403542518615723e-01 1.175569146871566772e-01 -2.341777272522449493e-02
3.141182363033294678e-01 -9.100113809108734131e-02 3.646345734596252441e-01
-6.948104500770568848e-02 -5.898623168468475342e-02 2.655332684516906738e-01
6.461269408464431763e-02 -1.599847078323364258e-01 1.649563908576965332e-01
3.087165355682373047e-01 -1.077595651149749756e-01 3.638704717159271240e-01
2.540430985391139984e-02 -1.961365193128585815e-01 -1.560359299182891846e-01
-6.863784790039062500e-02 -9.843993000686168671e-03 -5.385285019874572754e-01
3.363046646118164062e-01 -6.517840176820755005e-02 -1.078422814607620239e-01
5.905515048652887344e-03 -4.014617577195167542e-02 -2.575614154338836670e-01
3.642880618572235107e-01 -1.059677824378013611e-01 -2.761643230915069580e-01
2.813655138015747070e-01 -4.704979434609413147e-02 -3.471504449844360352e-01
-2.585139274597167969e-01 2.733546309173107147e-02 1.054060161113739014e-01
2.366236895322799683e-01 -4.491547495126724243e-02 8.817329257726669312e-02
5.182231664657592773e-01 8.539951522834599018e-04 -1.046276241540908813e-01
-5.063331127166748047e-01 -1.782796345651149750e-02 -6.694751232862472534e-02
-2.344039529561996460e-01 4.952193424105644226e-02 8.828018903732299805e-01
1.155203580856323242e-01 -4.678631201386451721e-02 3.126992881298065186e-01
4.986189603805541992e-01 -2.818341180682182312e-02 9.942463040351867676e-02
6.837785243988037109e-01 8.180034160614013672e-02 7.823946326971054077e-02
2.768333852291107178e-01 -1.049138009548187256e-01 6.337821483612060547e-02
1.747281849384307861e-01 -7.234553992748260498e-02 2.985231280326843262e-01
3.326684236526489258e-01 -3.809089213609695435e-02 -3.273618221282958984e-01
5.791963934898376465e-01 -6.175294145941734314e-02 -7.435178756713867188e-02
5.864162445068359375e-01 -2.594367600977420807e-02 -9.914688020944595337e-02
-7.458783388137817383e-01 2.753917574882507324e-01 8.728889748454093933e-03
2.916946113109588623e-01 -9.793112426996231079e-02 -2.840955853462219238e-01
-4.140300154685974121e-01 -4.760314524173736572e-02 -6.093977391719818115e-02
-6.742334961891174316e-01 6.983756273984909058e-02 -1.007015109062194824e-01
6.166153028607368469e-02 -4.133191332221031189e-02 2.292760759592056274e-01
-6.779465824365615845e-02 -1.035699620842933655e-01 5.252212658524513245e-02
-1.224439814686775208e-01 2.894279919564723969e-02 8.274938464164733887e-01
3.523516654968261719e-01 1.655842736363410950e-02 -1.074733883142471313e-01
1.487473547458648682e-01 -4.093666002154350281e-02 2.333075702190399170e-01
2.011042535305023193e-01 -4.243859276175498962e-02 3.285618126392364502e-01
-6.934688091278076172e-01 2.186344414949417114e-01 -8.846375159919261932e-03
-3.949001431465148926e-01 1.214039772748947144e-01 9.624780155718326569e-03
-2.155112028121948242e-01 6.274949014186859131e-02 -9.535251557826995850e-02
-2.929530441761016846e-01 -1.442884746938943863e-02 9.895032644271850586e-02
1.899583339691162109e-01 -1.885560527443885803e-02 -2.668101489543914795e-01
1.382865160703659058e-01 -2.697130665183067322e-02 -1.501335948705673218e-01
6.675997376441955566e-01 7.347382605075836182e-02 8.564372360706329346e-02
-5.371886491775512695e-01 1.700637117028236389e-02 -7.846233993768692017e-02
8.197957873344421387e-01 2.622877433896064758e-02 6.213977560400962830e-02
1.913307607173919678e-02 4.438373073935508728e-02 -1.016501039266586304e-01
5.762452483177185059e-01 1.082027554512023926e-01 5.431391298770904541e-02
6.497609615325927734e-01 1.402885373681783676e-02 1.079092398285865784e-01
-8.188143968582153320e-01 1.019578725099563599e-01 3.210784792900085449e-01
6.313424706459045410e-01 -4.127922281622886658e-02 -8.863334357738494873e-02
-1.224439814686775208e-01 2.894279919564723969e-02 8.274938464164733887e-01
-7.181584835052490234e-01 6.804578751325607300e-02 -7.933188229799270630e-02
1.222395375370979309e-01 -4.810380190610885620e-02 1.626639664173126221e-01
3.088482916355133057e-01 -6.881467252969741821e-02 -1.078422814607620239e-01
-6.194260716438293457e-01 1.165819764137268066e-01 2.519746683537960052e-02
-6.692511588335037231e-02 1.877180486917495728e-02 7.049939632415771484e-01
-1.557500362396240234e-01 1.157832890748977661e-02 7.288931608200073242e-01
8.761578202247619629e-01 -6.715464591979980469e-02 -2.812288934364914894e-03
2.768597304821014404e-01 -8.876141160726547241e-02 -2.718429565429687500e-01
7.996119260787963867e-01 -5.421693250536918640e-02 6.240327283740043640e-02
-7.090151309967041016e-01 8.216923475265502930e-02 8.959618955850601196e-02
6.450729817152023315e-02 -7.803707569837570190e-02 -2.167983949184417725e-01
6.500793993473052979e-02 1.219309642910957336e-01 -9.505118243396282196e-03
3.569628298282623291e-01 1.230640038847923279e-01 -6.079654209315776825e-03
-6.837984323501586914e-01 6.920517235994338989e-02 -9.801384061574935913e-02
3.709281980991363525e-01 -7.361032068729400635e-02 3.657676279544830322e-01
-2.952190935611724854e-01 -3.414665348827838898e-03 -9.922592341899871826e-02
-3.622768819332122803e-02 2.448969520628452301e-02 -1.056552603840827942e-01
-6.856428980827331543e-01 8.364482223987579346e-02 1.664319783449172974e-01
7.728691399097442627e-02 -1.102973055094480515e-02 -5.267501473426818848e-01
3.560142517089843750e-01 -1.248868778347969055e-01 2.780757546424865723e-01
6.965844035148620605e-01 1.113383769989013672e-01 -2.165234088897705078e-02
2.926168441772460938e-01 -3.411208093166351318e-02 -1.330326199531555176e-01
4.820186197757720947e-01 -3.703690692782402039e-02 -9.171625226736068726e-02
3.127743899822235107e-01 -3.674706071615219116e-02 -3.117891550064086914e-01
-6.221401095390319824e-01 1.166346743702888489e-01 -2.265362814068794250e-02
1.496695876121520996e-01 6.896802037954330444e-02 9.315339475870132446e-02
-2.782762348651885986e-01 1.064636781811714172e-01 5.441930517554283142e-02
-5.131840109825134277e-01 -4.412498697638511658e-02 3.268078714609146118e-02
-2.821496427059173584e-01 -6.839307397603988647e-02 -5.535363405942916870e-02
1.772050559520721436e-01 -2.309790998697280884e-02 1.796068251132965088e-01
-6.846153140068054199e-01 2.034833580255508423e-01 -9.136222302913665771e-03
7.973743975162506104e-02 -2.097176620736718178e-03 4.532750248908996582e-01
1.251116544008255005e-01 -2.386204898357391357e-02 1.943099796772003174e-01
-8.440047502517700195e-01 3.820554614067077637e-01 3.327196463942527771e-03
7.064678519964218140e-02 -2.417824231088161469e-02 3.985466659069061279e-01
-1.358032971620559692e-01 -9.079853072762489319e-03 -6.668516397476196289e-01
1.336753219366073608e-01 -2.760371565818786621e-02 1.491992622613906860e-01
6.755837798118591309e-01 7.874377071857452393e-02 8.121697604656219482e-02
7.728691399097442627e-02 -1.102973055094480515e-02 -5.267501473426818848e-01
-2.055246531963348389e-01 1.044611036777496338e-01 -5.738256126642227173e-02
5.686587840318679810e-02 -4.820918664336204529e-02 -2.513428628444671631e-01
2.374652540311217308e-03 -3.110821731388568878e-02 -4.526547491550445557e-01
2.485074102878570557e-01 -4.723425582051277161e-02 -3.247005045413970947e-01
-6.060404181480407715e-01 1.008775383234024048e-01 -5.055798590183258057e-02
1.872443109750747681e-01 -2.109532989561557770e-02 -2.059159427881240845e-01
-1.910059601068496704e-01 -4.995645955204963684e-03 1.050371155142784119e-01
-1.593840494751930237e-02 -1.706381514668464661e-02 4.687950611114501953e-01
1.812629252672195435e-01 -8.839252591133117676e-02 -1.943896338343620300e-02
-4.742654860019683838e-01 1.134463548660278320e-01 -3.901680558919906616e-02
-1.979095786809921265e-01 -8.462449908256530762e-02 4.113904759287834167e-02
4.126684367656707764e-02 4.680790752172470093e-02 1.029554903507232666e-01
-7.919640541076660156e-01 7.516020536422729492e-02 -1.234940215945243835e-01
-7.424001693725585938e-01 2.758133411407470703e-01 -7.028244901448488235e-03
-6.194260716438293457e-01 1.165819764137268066e-01 2.519746683537960052e-02
-7.334939837455749512e-01 7.663579285144805908e-02 1.673542112112045288e-01
8.152636289596557617e-01 5.755859240889549255e-02 -3.743582218885421753e-02
2.957524657249450684e-01 -4.257853142917156219e-03 -1.036526858806610107e-01
-4.663605690002441406e-01 -5.914432927966117859e-02 1.289214659482240677e-02
8.171591907739639282e-03 -3.759025782346725464e-02 -3.153727054595947266e-01
2.902717292308807373e-01 -8.652168512344360352e-02 -2.887216396629810333e-02
3.897441551089286804e-02 -1.213560104370117188e-01 -1.723991036415100098e-01
-3.783502429723739624e-02 -1.072062179446220398e-01 -8.978123776614665985e-03
2.841322422027587891e-01 8.108890056610107422e-02 -8.352149277925491333e-02
2.613133788108825684e-01 -1.493657827377319336e-01 -3.439885079860687256e-01
3.038154840469360352e-01 -1.515264511108398438e-01 -3.032254874706268311e-01
-7.272205501794815063e-02 -5.919701978564262390e-02 7.845025509595870972e-02
9.299134463071823120e-02 -5.970584694296121597e-03 -4.052516222000122070e-01
-2.610939554870128632e-02 -8.725947886705398560e-02 2.735814265906810760e-02
7.996119260787963867e-01 -5.421693250536918640e-02 6.240327283740043640e-02
2.365973442792892456e-01 -9.152814000844955444e-02 6.673610769212245941e-03
3.823640048503875732e-01 -1.182203963398933411e-01 -3.754236996173858643e-01
-9.446058422327041626e-02 -5.707092583179473877e-03 5.590164661407470703e-01
-7.593167424201965332e-01 9.484344720840454102e-02 -3.350971639156341553e-02
-2.540871798992156982e-01 1.205080822110176086e-01 1.692365482449531555e-02
-9.012890458106994629e-01 9.133893251419067383e-02 -3.998026251792907715e-03
2.903507947921752930e-01 -8.212127536535263062e-02 4.519690573215484619e-02
1.782853901386260986e-01 -1.240173354744911194e-01 -3.397725224494934082e-01
-7.608713507652282715e-01 9.115448594093322754e-02 -2.755582630634307861e-01
-4.383508265018463135e-01 -4.984286800026893616e-02 -5.008368939161300659e-02
-1.962736435234546661e-02 -2.957993932068347931e-02 3.451621532440185547e-01
-4.040171504020690918e-01 6.729982793331146240e-03 9.557756781578063965e-02
-1.715598553419113159e-01 2.101152949035167694e-02 8.444367051124572754e-01
-3.390891477465629578e-02 -3.045768942683935165e-03 6.071310639381408691e-01
9.876193106174468994e-02 -6.928896903991699219e-02 -3.151618838310241699e-01
1.402890980243682861e-01 8.024570345878601074e-02 8.559102565050125122e-02
6.380353569984436035e-01 -5.395343154668807983e-02 8.182302117347717285e-02
-8.554932475090026855e-01 4.581797719001770020e-01 3.327196463942527771e-03
-7.472222447395324707e-01 1.373900566250085831e-02 6.304715294390916824e-03
7.792962193489074707e-01 -8.507245033979415894e-02 5.092627834528684616e-03
-1.055538132786750793e-01 -6.217454001307487488e-02 7.528828829526901245e-02
-9.087476879358291626e-03 2.066079294309020042e-03 6.575644612312316895e-01
-1.301358453929424286e-02 -3.250476345419883728e-02 -2.920268476009368896e-01
1.900373846292495728e-01 -3.624642267823219299e-02 2.795249819755554199e-01
5.523723959922790527e-01 -5.677285417914390564e-02 -7.851503789424896240e-02
-8.270635269582271576e-03 -2.085818350315093994e-02 -4.297568500041961670e-01
7.042258381843566895e-01 2.889009751379489899e-02 -9.793478995561599731e-02
8.236165046691894531e-01 4.463901277631521225e-03 7.133582979440689087e-02
1.274831295013427734e-01 -2.520588412880897522e-02 -1.778271347284317017e-01
-3.704452887177467346e-02 -4.257853142917156219e-03 -5.935466885566711426e-01
9.668030589818954468e-02 6.989026069641113281e-02 -9.058322012424468994e-02
3.171747922897338867e-01 -1.046502962708473206e-01 -3.839083313941955566e-01
6.916570663452148438e-01 -8.075109124183654785e-02 -4.212607443332672119e-02
-6.814270019531250000e-01 7.908631861209869385e-02 -5.951689183712005615e-02
1.328343711793422699e-02 4.022047296166419983e-02 1.042729765176773071e-01
-8.276679515838623047e-01 2.975518703460693359e-01 3.432595171034336090e-03
-5.926020741462707520e-01 9.708317369222640991e-02 1.225975342094898224e-02
4.360646903514862061e-01 1.242760866880416870e-01 5.983096707495860755e-05
4.366466403007507324e-02 -1.571652889251708984e-01 1.436921507120132446e-01
-8.754926919937133789e-01 4.157303571701049805e-01 1.772562973201274872e-03
-6.439553946256637573e-02 -6.528380513191223145e-02 1.081727445125579834e-01
-7.981299161911010742e-01 1.521013975143432617e-01 -1.099556800909340382e-03
1.160473525524139404e-01 -1.532473694533109665e-02 2.872717976570129395e-01
-1.227338314056396484e-01 1.192087959498167038e-02 7.545840740203857422e-01
-8.507783524692058563e-03 -1.197832264006137848e-02 5.195446014404296875e-01
-4.708663523197174072e-01 9.942830353975296021e-02 -6.007023528218269348e-02
5.781446769833564758e-02 -4.811202641576528549e-03 -4.193223416805267334e-01
3.793337941169738770e-01 -1.013829335570335388e-01 -3.268875181674957275e-01
2.380202412605285645e-01 -4.317638650536537170e-02 2.112791985273361206e-01
1.042953804135322571e-01 -1.716922037303447723e-02 -4.661458134651184082e-01
-7.962326407432556152e-01 1.025112271308898926e-01 -1.796337775886058807e-02
-1.100859642028808594e-01 -8.491434901952743530e-02 -3.791011869907379150e-02
-3.279981613159179688e-01 2.275060862302780151e-02 1.032189875841140747e-01
-7.258526086807250977e-01 9.020590037107467651e-02 -2.145586758852005005e-01
7.911800146102905273e-01 4.401483386754989624e-02 -6.589352339506149292e-02
-8.222135305404663086e-01 7.597704976797103882e-02 -6.905549019575119019e-02
-7.981299161911010742e-01 1.521013975143432617e-01 -1.099556800909340382e-03
2.207084596157073975e-01 -2.338775806128978729e-02 -2.284449636936187744e-01
-2.206230312585830688e-01 1.164238750934600830e-01 3.882027044892311096e-02
3.135648965835571289e-01 -1.425411999225616455e-01 -2.883115410804748535e-01
1.110145524144172668e-01 -6.919176783412694931e-03 3.951475620269775391e-01
4.671573936939239502e-01 -4.955302178859710693e-02 8.511672914028167725e-02
2.446866929531097412e-01 -9.200242906808853149e-02 -3.620380461215972900e-01
-1.973035335540771484e-01 2.153852395713329315e-02 8.495485186576843262e-01
-3.185122609138488770e-01 3.550387918949127197e-02 -9.927862882614135742e-02
3.267683461308479309e-02 -4.367704316973686218e-02 -3.276253044605255127e-01
2.245291769504547119e-01 -4.183255136013031006e-02 -3.276516497135162354e-01
-2.425987124443054199e-01 7.674119621515274048e-02 8.722471445798873901e-02
-7.713059186935424805e-01 9.623998403549194336e-02 -2.957158088684082031e-01
7.994010448455810547e-01 7.866472005844116211e-02 2.132405526936054230e-02
2.624991238117218018e-01 -1.006187945604324341e-01 -2.877055108547210693e-01
1.274831295013427734e-01 -2.520588412880897522e-02 -1.778271347284317017e-01
-6.415862441062927246e-01 1.172407194972038269e-01 1.855733618140220642e-02
-2.421244233846664429e-01 2.406809665262699127e-02 1.068288981914520264e-01
1.318308264017105103e-01 -1.045976057648658752e-01 6.901705265045166016e-02
6.791146397590637207e-01 9.674063324928283691e-02 -5.927973985671997070e-02
-1.615996658802032471e-01 2.788880281150341034e-02 8.610897064208984375e-01
-8.270635269582271576e-03 -2.085818350315093994e-02 -4.297568500041961670e-01
-2.578815519809722900e-01 1.184528023004531860e-01 2.693654969334602356e-02
2.414720505475997925e-01 -1.282332986593246460e-01 -3.470714092254638672e-01
-1.535366624593734741e-01 -8.043490350246429443e-02 4.833252355456352234e-02
-7.780250310897827148e-01 2.913333177566528320e-01 6.146616768091917038e-03
-8.008702397346496582e-01 8.077269792556762695e-02 1.855882257223129272e-01
3.313509225845336914e-01 -5.324198678135871887e-02 -3.169800341129302979e-01
-1.126945838332176208e-01 1.082554608583450317e-01 5.347071960568428040e-02
4.314008355140686035e-01 9.589743614196777344e-02 -7.097902148962020874e-02
3.402066975831985474e-02 -1.867115125060081482e-02 3.339371681213378906e-01
1.035575866699218750e-01 -1.300596352666616440e-02 -3.176914751529693604e-01
6.617501378059387207e-01 9.097003936767578125e-02 7.291681319475173950e-02
5.364044308662414551e-01 -8.905126154422760010e-02 -1.746273413300514221e-02
5.469970703125000000e-01 -1.851305551826953888e-02 -1.007542163133621216e-01
-3.899441286921501160e-02 1.624223217368125916e-02 6.743755936622619629e-01
2.082713842391967773e-01 8.382926881313323975e-02 8.348304778337478638e-02
9.797144681215286255e-02 -1.793335936963558197e-02 2.772062122821807861e-01
2.387316673994064331e-01 -1.034645587205886841e-01 -2.767176628112792969e-01
4.273166060447692871e-01 -9.113288670778274536e-02 -6.580299232155084610e-03
2.910358607769012451e-01 -9.461104124784469604e-02 -9.587951004505157471e-02
-4.226727187633514404e-01 1.016680300235748291e-01 -5.743526294827461243e-02
5.644428730010986328e-02 -2.776181325316429138e-02 -2.184057086706161499e-01
-8.158368468284606934e-01 3.877469599246978760e-01 4.881829954683780670e-03
2.700088024139404297e-01 -4.043602198362350464e-02 -1.030729860067367554e-01
1.840032935142517090e-01 -1.010667383670806885e-01 -8.512882888317108154e-02
5.679977536201477051e-01 -8.623183518648147583e-02 -3.119093924760818481e-02
-5.524187684059143066e-01 -8.790004998445510864e-03 6.422140449285507202e-02
1.798136830329895020e-01 -3.542957082390785217e-02 2.874562442302703857e-01
1.169695854187011719e-01 -2.789356373250484467e-02 1.617944240570068359e-01
3.038154840469360352e-01 -1.515264511108398438e-01 -3.032254874706268311e-01
-1.625219136476516724e-01 2.873199991881847382e-02 8.429347872734069824e-01
3.618134558200836182e-02 -1.265732795000076294e-01 -1.799614876508712769e-01
-6.625078320503234863e-01 4.683425277471542358e-02 6.485379487276077271e-02
7.910504192113876343e-02 -2.802529372274875641e-02 -1.943484395742416382e-01
5.619636774063110352e-01 9.041669964790344238e-02 -7.732930034399032593e-02
-1.795438230037689209e-01 -8.567848801612854004e-02 5.795016884803771973e-02
8.023808151483535767e-02 -2.315060235559940338e-02 4.088230729103088379e-01
-5.063594579696655273e-01 -3.382223471999168396e-02 5.191608518362045288e-02
2.214725911617279053e-01 -4.043602198362350464e-02 -2.366660684347152710e-01
-3.303433060646057129e-01 -5.812487564980983734e-03 9.847603738307952881e-02
2.214725911617279053e-01 -4.043602198362350464e-02 -2.366660684347152710e-01
1.792339980602264404e-01 -2.897389605641365051e-02 3.513807058334350586e-01
1.899583339691162109e-01 -1.885560527443885803e-02 -2.668101489543914795e-01
2.716974169015884399e-02 -4.863895010203123093e-03 -1.033101305365562439e-01
2.676373124122619629e-01 1.214830204844474792e-01 -1.395822130143642426e-02
1.049804687500000000e-01 -1.585173048079013824e-02 -4.792679846286773682e-01
-1.728773415088653564e-01 -5.969768017530441284e-02 9.225749969482421875e-02
7.575862854719161987e-02 -6.051450967788696289e-02 -3.249376416206359863e-01
-3.506062328815460205e-01 7.070710510015487671e-02 -8.613011240959167480e-02
5.871036276221275330e-02 1.181892976164817810e-01 -2.818707004189491272e-02
-8.892713487148284912e-02 -8.657437562942504883e-02 -2.934645861387252808e-02
7.846716046333312988e-01 8.290702849626541138e-02 -3.158618509769439697e-02
3.758819401264190674e-01 -5.914432927966117859e-02 -2.929754257202148438e-01
-3.962439298629760742e-01 8.116794377565383911e-02 -7.775089889764785767e-02
3.613632619380950928e-01 -6.955246627330780029e-02 2.755988538265228271e-01
2.964639067649841309e-01 -9.247672557830810547e-02 9.989891946315765381e-02
1.883246451616287231e-01 -1.039915606379508972e-01 7.839755713939666748e-02
-5.899160634726285934e-03 3.383568255230784416e-03 5.306114554405212402e-01
-7.157606482505798340e-01 6.533176451921463013e-02 5.041415244340896606e-02
-6.863784790039062500e-02 -9.843993000686168671e-03 -5.385285019874572754e-01
1.599459797143936157e-01 -2.599637955427169800e-02 3.805498182773590088e-01
-4.344751313328742981e-02 -1.495584100484848022e-02 4.895849525928497314e-01
-7.715429663658142090e-01 1.081764101982116699e-01 -6.185053382068872452e-03
-6.827181577682495117e-01 -5.206445232033729553e-03 -3.813578281551599503e-03
-7.294361591339111328e-01 3.742558956146240234e-01 4.671032540500164032e-03
2.408132851123809814e-01 -9.508535265922546387e-02 2.849793732166290283e-01
-7.071706652641296387e-01 6.896802037954330444e-02 9.581471234560012817e-02
-6.384506225585937500e-01 -1.677397638559341431e-02 1.094226632267236710e-02
2.624991238117218018e-01 -1.006187945604324341e-01 -2.877055108547210693e-01
8.253050595521926880e-02 -4.855174571275711060e-02 1.582108587026596069e-01
2.161235958337783813e-01 -2.620716765522956848e-02 1.364196389913558960e-01
2.841322422027587891e-01 8.108890056610107422e-02 -8.352149277925491333e-02
1.507521886378526688e-02 -4.283384606242179871e-02 -1.293963640928268433e-01
3.670547902584075928e-01 9.189227223396301270e-02 -7.632800936698913574e-02
3.408104777336120605e-01 -4.620661586523056030e-02 -3.110249936580657959e-01
6.824895739555358887e-02 -1.687937229871749878e-02 -4.691760241985321045e-01
2.599168419837951660e-01 -1.291555464267730713e-01 2.974955141544342041e-01
7.521296739578247070e-01 -9.738598018884658813e-03 -9.050416946411132812e-02
-1.910059601068496704e-01 -4.995645955204963684e-03 1.050371155142784119e-01
2.169667929410934448e-01 -9.442660212516784668e-02 -3.456221818923950195e-01
1.578907072544097900e-01 -3.340065479278564453e-02 3.075610697269439697e-01
-8.160477280616760254e-01 2.627438902854919434e-01 -1.626551267690956593e-03
-7.998163104057312012e-01 9.792637079954147339e-02 -2.740299999713897705e-01
7.051503658294677734e-02 -3.142441064119338989e-02 -3.255963921546936035e-01
1.683515608310699463e-01 7.054901123046875000e-02 -9.045147150754928589e-02
3.430765569210052490e-01 -1.460457146167755127e-01 3.108547925949096680e-01
2.722748517990112305e-01 -1.090507060289382935e-01 -2.876527905464172363e-01
2.022109627723693848e-01 -1.397481262683868408e-01 3.120932579040527344e-01
7.194033265113830566e-01 -4.890251439064741135e-03 -9.632745385169982910e-02
-6.932843327522277832e-01 8.259083330631256104e-02 1.073031947016716003e-01
-1.189921721816062927e-01 1.139387581497430801e-02 -6.789461970329284668e-01
3.120124898850917816e-02 -4.939492419362068176e-02 3.123830854892730713e-01
-8.665880188345909119e-03 -4.120016098022460938e-02 -2.606706917285919189e-01
4.473687708377838135e-01 -8.802361786365509033e-02 2.459142357110977173e-02
