-2.688518762588500977e-01 7.043454051017761230e-02 -7.263427227735519409e-02
-7.407582402229309082e-01 1.382855921983718872e-01 -5.593222100287675858e-03
9.096720218658447266e-01 4.810552299022674561e-02 -3.947824984788894653e-02
1.131984069943428040e-01 -3.084253333508968353e-02 3.331490457057952881e-01
6.654568314552307129e-01 1.262750104069709778e-02 9.244384616613388062e-02
-5.733371526002883911e-02 2.331950515508651733e-02 -5.867146849632263184e-01
3.236095607280731201e-01 -1.102452073246240616e-02 9.125585108995437622e-02
-5.366171523928642273e-02 -8.824457228183746338e-02 3.181784646585583687e-03
-1.470277756452560425e-01 1.692049950361251831e-02 6.718642711639404297e-01
-6.747702360153198242e-01 -2.317452430725097656e-02 1.066079083830118179e-02
8.295838534832000732e-02 -5.306355282664299011e-02 -1.284973174333572388e-01
-7.324692606925964355e-01 2.967216968536376953e-01 2.278195097460411489e-05
-3.889270126819610596e-02 -4.480154067277908325e-02 1.421778798103332520e-01
-2.555469423532485962e-02 -5.398155376315116882e-02 -9.283029288053512573e-02
5.720907449722290039e-01 -8.168356865644454956e-02 -3.507724404335021973e-02
6.017367839813232422e-01 8.112654834985733032e-02 5.693882703781127930e-02
-8.670642971992492676e-01 3.577417731285095215e-01 -1.597219263203442097e-03
-1.698697954416275024e-01 4.181452095508575439e-02 8.418294191360473633e-01
-6.548772752285003662e-02 -8.162514306604862213e-03 -4.739895761013031006e-01
8.525339514017105103e-02 -4.180454090237617493e-02 2.194249480962753296e-01
2.002194821834564209e-01 -1.044985875487327576e-01 -2.594744265079498291e-01
3.850346207618713379e-01 -5.014755204319953918e-02 -8.257027715444564819e-02
-6.656772643327713013e-02 2.807150967419147491e-02 -6.224086880683898926e-01
-2.450108528137207031e-01 -8.675958216190338135e-02 -1.687923073768615723e-02
3.038185536861419678e-01 -9.107521735131740570e-03 -9.553029388189315796e-02
-1.977668888866901398e-02 -1.229352504014968872e-02 -3.584025204181671143e-01
-2.039769105613231659e-02 1.007015630602836609e-01 -1.388222724199295044e-02
6.475017666816711426e-01 -7.325956225395202637e-02 4.894682019948959351e-02
-1.164968404918909073e-02 1.732549816370010376e-02 5.067591667175292969e-01
-6.341351866722106934e-01 1.788126230239868164e-01 2.884784014895558357e-03
7.086839079856872559e-01 9.735355526208877563e-02 2.483580075204372406e-02
-7.668132185935974121e-01 1.150925755500793457e-01 -5.982185248285531998e-04
3.552535772323608398e-01 5.917553231120109558e-02 7.735083997249603271e-02
3.682136237621307373e-01 -6.561855971813201904e-02 -2.538314163684844971e-01
2.410165220499038696e-01 -5.732955411076545715e-02 -3.125834465026855469e-01
2.449045032262802124e-01 -5.697854980826377869e-02 -1.445353329181671143e-01
1.406844407320022583e-01 -2.411515684798359871e-03 -3.154994547367095947e-01
-8.050993084907531738e-01 4.807852581143379211e-02 2.003089189529418945e-01
2.274084985256195068e-01 -1.272055953741073608e-01 -2.877704203128814697e-01
7.086839079856872559e-01 9.735355526208877563e-02 2.483580075204372406e-02
2.987425625324249268e-01 -5.792354792356491089e-02 -9.520629793405532837e-02
1.989234685897827148e-01 -1.158115863800048828e-01 -2.713544368743896484e-01
-5.962872505187988281e-02 5.542252957820892334e-02 -8.329927921295166016e-02
-4.591270536184310913e-02 -1.898952201008796692e-02 9.114784747362136841e-02
1.848564743995666504e-01 -3.683654218912124634e-02 2.700229883193969727e-01
-7.806643247604370117e-01 1.046435683965682983e-01 -2.380219753831624985e-03
-3.828459680080413818e-01 1.009175628423690796e-01 -1.126322709023952484e-02
7.703243172727525234e-04 -1.372451893985271454e-02 4.446861147880554199e-01
1.855584532022476196e-01 6.306353956460952759e-02 -7.854727655649185181e-02
8.006329648196697235e-03 -2.198652923107147217e-02 -2.710304260253906250e-01
2.126124799251556396e-01 -8.824457228183746338e-02 5.305082350969314575e-02
-6.570581793785095215e-01 3.044750913977622986e-02 7.473183423280715942e-02
-5.223071202635765076e-02 -1.707252115011215210e-02 -3.951494991779327393e-01
2.859985530376434326e-01 -8.824457228183746338e-02 5.580482259392738342e-02
1.318824291229248047e-01 -4.782554507255554199e-02 1.811119019985198975e-01
-1.970048099756240845e-01 2.480451017618179321e-02 7.205723524093627930e-01
3.095155656337738037e-01 -2.938453480601310730e-02 1.053228527307510376e-01
-5.755451321601867676e-01 -3.751154243946075439e-02 3.298980370163917542e-02
-4.013470932841300964e-02 2.493950352072715759e-02 6.002332568168640137e-01
-7.175652980804443359e-01 3.879052028059959412e-02 9.560285508632659912e-02
2.925325632095336914e-01 -8.411356806755065918e-02 2.286859601736068726e-01
-4.870390594005584717e-01 4.370452463626861572e-02 -8.140927553176879883e-02
-2.112669125199317932e-02 1.233488554134964943e-03 4.267581105232238770e-01
-7.785313129425048828e-01 5.134552717208862305e-02 -2.258053869009017944e-01
-6.606738315895199776e-04 -8.522058278322219849e-02 -8.173327893018722534e-02
-6.914832592010498047e-01 1.358555853366851807e-01 4.666785243898630142e-03
3.417266011238098145e-01 -8.824457228183746338e-02 6.042183190584182739e-02
5.143646597862243652e-01 -8.751558512449264526e-02 5.449785850942134857e-03
-2.089118212461471558e-01 -8.246657997369766235e-02 2.864280343055725098e-02
-6.551682353019714355e-01 6.120053306221961975e-02 4.246681556105613708e-02
-4.143679048866033554e-03 -1.034951955080032349e-02 3.497540354728698730e-01
-3.773379623889923096e-01 -6.904755532741546631e-02 -5.432825535535812378e-02
-3.389769792556762695e-02 -4.307354614138603210e-02 -1.573873311281204224e-01
3.606805801391601562e-01 -1.171615943312644958e-01 3.315560221672058105e-01
-6.436391472816467285e-01 5.277653038501739502e-02 -4.879325628280639648e-02
-1.597447991371154785e-01 3.471351787447929382e-02 7.328574061393737793e-01
1.984914690256118774e-01 -8.824457228183746338e-02 4.778582230210304260e-02
-6.067571640014648438e-01 3.158150985836982727e-02 -6.286026537418365479e-02
-7.759932279586791992e-01 2.109426558017730713e-01 9.137825691141188145e-04
1.954134702682495117e-01 -9.758658707141876221e-02 2.577649950981140137e-01
-1.915238052606582642e-01 3.371451422572135925e-02 7.526754140853881836e-01
-4.254789948463439941e-01 1.014575660228729248e-01 1.723783207125961781e-03
-7.668132185935974121e-01 1.150925755500793457e-01 -5.982185248285531998e-04
1.978164762258529663e-01 -1.161852385848760605e-02 -2.636054158210754395e-01
6.972088813781738281e-01 -7.226057350635528564e-02 -5.497625842690467834e-02
1.325844377279281616e-01 -2.465508412569761276e-03 -2.708954215049743652e-01
8.513237116858363152e-04 -3.054553270339965820e-02 -2.143843770027160645e-01
2.558935284614562988e-01 -6.299956887960433960e-02 -9.496329724788665771e-02
2.366964966058731079e-01 -2.249953337013721466e-02 -2.337163835763931274e-01
5.231397151947021484e-01 6.044453382492065430e-02 -8.065328001976013184e-02
-7.421622276306152344e-01 3.008527159690856934e-01 -5.080221686512231827e-03
-3.749619722366333008e-01 3.444351255893707275e-02 -9.096729010343551636e-02
4.283635690808296204e-02 1.260049454867839813e-02 4.680951535701751709e-01
3.983935341238975525e-02 -2.843509195372462273e-03 9.206584841012954712e-02
1.292033586651086807e-02 8.955500088632106781e-03 -4.418055415153503418e-01
5.982807874679565430e-01 7.472754269838333130e-02 -6.898926943540573120e-02
-7.416762709617614746e-01 3.719751909375190735e-02 1.554349064826965332e-01
-2.530568540096282959e-01 1.005665585398674011e-01 1.125479023903608322e-02
2.966034784913063049e-02 -1.289065927267074585e-01 -1.250953078269958496e-01
1.046394035220146179e-01 -8.746156841516494751e-02 6.973683834075927734e-02
6.109437346458435059e-01 -7.128856331110000610e-02 -5.632626265287399292e-02
8.298539370298385620e-02 -2.276513259857892990e-03 -3.184154629707336426e-01
8.513237116858363152e-04 -3.054553270339965820e-02 -2.143843770027160645e-01
8.223269581794738770e-01 -1.010965928435325623e-01 4.747785162180662155e-03
-3.742869794368743896e-01 8.479855954647064209e-02 -5.594826117157936096e-02
-7.856052517890930176e-01 4.049151763319969177e-02 1.711379550397396088e-02
-5.773872137069702148e-02 9.654356539249420166e-02 -3.132424131035804749e-02
7.895218729972839355e-01 9.103555232286453247e-02 -1.822923123836517334e-02
3.088675439357757568e-01 -5.425155907869338989e-02 3.275600373744964600e-01
2.697175443172454834e-01 -2.552352845668792725e-02 1.788979172706604004e-01
-2.909169718623161316e-02 2.272550202906131744e-02 -5.676256418228149414e-01
-1.808588057756423950e-01 9.449156373739242554e-02 -3.739924728870391846e-02
1.136304065585136414e-01 6.838253885507583618e-02 7.019583880901336670e-02
2.215225100517272949e-01 -4.731254279613494873e-02 9.114784747362136841e-02
3.277675807476043701e-01 -8.824457228183746338e-02 2.297279797494411469e-02
2.656945288181304932e-01 -5.441355705261230469e-02 -1.425913274288177490e-01
-8.316133618354797363e-01 5.647553130984306335e-02 -3.187934756278991699e-01
6.924237310886383057e-02 4.774872213602066040e-04 -4.896225929260253906e-01
4.745936691761016846e-01 8.477155119180679321e-02 -5.643425509333610535e-02
9.628890156745910645e-01 1.862149871885776520e-02 -2.751724049448966980e-02
-7.842681370675563812e-03 6.093494128435850143e-03 -9.704229235649108887e-02
-2.271908372640609741e-01 3.301251307129859924e-02 -7.807908058166503906e-01
5.688777565956115723e-01 7.532154768705368042e-02 -6.823326647281646729e-02
1.276164203882217407e-01 -1.664052717387676239e-02 -1.933513581752777100e-01
-2.166338264942169189e-01 8.606754988431930542e-02 -5.457125976681709290e-02
-1.024507582187652588e-01 -8.554457873106002808e-02 1.940879784524440765e-02
8.362319469451904297e-01 -2.317452430725097656e-02 7.027683407068252563e-02
3.716635331511497498e-02 1.351849455386400223e-02 4.851591587066650391e-01
-1.002097502350807190e-01 3.384951502084732056e-02 7.207883596420288086e-01
1.479204297065734863e-01 -7.752557098865509033e-02 8.842083811759948730e-02
2.793565392494201660e-01 -1.413266211748123169e-01 -2.991914451122283936e-01
4.890656769275665283e-01 4.504907701630145311e-04 9.238985180854797363e-02
-7.999422550201416016e-01 4.167951643466949463e-02 -1.886803656816482544e-01
-7.995974272489547729e-02 -1.016052346676588058e-02 -4.481505453586578369e-01
-1.562348008155822754e-01 6.865254044532775879e-02 -7.406526803970336914e-02
1.396584361791610718e-01 8.466355502605438232e-02 -5.656925961375236511e-02
3.416328923776745796e-03 -4.779855161905288696e-02 1.433658897876739502e-01
3.553616106510162354e-01 -9.070158749818801880e-02 2.785549759864807129e-01
-1.227007582783699036e-01 -7.536557316780090332e-02 5.226781964302062988e-02
3.782846033573150635e-01 -7.028957456350326538e-02 -2.499164193868637085e-01
-2.898848950862884521e-01 -6.996555626392364502e-02 5.388782545924186707e-02
3.342205882072448730e-01 6.951654702425003052e-02 6.930483877658843994e-02
-2.531169541180133820e-02 9.092755615711212158e-02 4.073880985379219055e-02
3.558475971221923828e-01 -3.945554047822952271e-02 -9.266829490661621094e-02
-3.492369875311851501e-02 8.261155337095260620e-02 5.507582426071166992e-02
7.626029253005981445e-01 8.504155278205871582e-02 4.146781191229820251e-02
2.968255579471588135e-01 -3.662053868174552917e-02 2.871139943599700928e-01
8.251079320907592773e-01 5.023852363228797913e-02 -6.793627142906188965e-02
1.002383977174758911e-01 -2.760253660380840302e-02 3.582860231399536133e-01
-6.787661910057067871e-01 5.793353170156478882e-02 -4.196225106716156006e-02
-6.430991291999816895e-01 1.600250042974948883e-02 -5.519225820899009705e-02
4.889576733112335205e-01 5.987753346562385559e-02 -8.105827867984771729e-02
8.195938169956207275e-02 3.549651429057121277e-02 -9.199329465627670288e-02
-2.539269439876079559e-02 -2.768353559076786041e-02 2.603299617767333984e-01
-8.356633186340332031e-01 4.173352196812629700e-02 -1.732363402843475342e-01
-8.031073212623596191e-02 1.862149871885776520e-02 -6.961187124252319336e-01
6.017367839813232422e-01 8.112654834985733032e-02 5.693882703781127930e-02
8.348009586334228516e-01 -1.465916335582733154e-01 -1.099322549998760223e-02
2.428525239229202271e-01 -4.979654774069786072e-02 -9.520629793405532837e-02
3.536605834960937500e-01 -8.824457228183746338e-02 -1.936323195695877075e-02
-1.295317560434341431e-01 5.574653297662734985e-02 7.905184477567672729e-02
2.126664817333221436e-01 1.008365675806999207e-01 8.689788170158863068e-03
1.048824116587638855e-01 -5.948513746261596680e-03 -2.755664288997650146e-01
3.553616106510162354e-01 -5.714055150747299194e-02 -2.789684534072875977e-01
2.849327865988016129e-03 -3.062653169035911560e-02 2.054389268159866333e-01
1.271844208240509033e-01 -2.047452703118324280e-02 1.618608981370925903e-01
3.260665833950042725e-01 -1.452686190605163574e-01 2.868709862232208252e-01
-1.658467948436737061e-01 8.690455555915832520e-02 -5.284325405955314636e-02
2.399034239351749420e-02 -2.382252924144268036e-02 3.590960502624511719e-01
-1.515097916126251221e-01 1.181749626994132996e-02 5.972092151641845703e-01
6.734488606452941895e-01 7.983054965734481812e-02 5.853182822465896606e-02
-8.089063167572021484e-01 3.012351132929325104e-02 4.711081832647323608e-02
6.274137496948242188e-01 8.798455446958541870e-02 4.665181785821914673e-02
-1.145737543702125549e-01 -4.852754622697830200e-02 -8.294828236103057861e-02
1.996794790029525757e-01 -5.516955628991127014e-02 9.114784747362136841e-02
-9.688874334096908569e-02 -3.556753695011138916e-02 -8.934728801250457764e-02
-1.302337646484375000e-01 8.612155169248580933e-02 -5.443625897169113159e-02
5.468330811709165573e-03 -4.358654096722602844e-02 -1.122433096170425415e-01
-8.188422918319702148e-01 7.578490301966667175e-03 5.627822829410433769e-04
2.404765039682388306e-01 -1.183765977621078491e-01 2.534989714622497559e-01
7.749418616294860840e-01 -8.225057274103164673e-02 2.146079763770103455e-02
2.375605106353759766e-01 -6.200055405497550964e-02 -9.817630052566528320e-02
5.929077267646789551e-01 3.077151253819465637e-02 -9.355928748846054077e-02
3.783926069736480713e-01 -6.640156358480453491e-02 3.178670108318328857e-01
-7.596582770347595215e-01 1.428755968809127808e-01 4.547823336906731129e-04
4.061216115951538086e-01 -8.222357183694839478e-02 -3.340324386954307556e-02
-9.991274774074554443e-02 7.794491946697235107e-03 6.055252552032470703e-01
6.447747945785522461e-01 -3.721453994512557983e-02 -8.556728065013885498e-02
-2.357228547334671021e-01 3.884451836347579956e-02 8.390214443206787109e-01
-8.395243287086486816e-01 4.068051651120185852e-02 -1.496653407812118530e-01
-2.973909080028533936e-01 8.963155746459960938e-02 4.330381751060485840e-02
3.169945776462554932e-01 -1.421096175909042358e-01 -3.033494651317596436e-01
-7.487772703170776367e-01 6.795053929090499878e-02 1.835579611361026764e-02
-5.205460786819458008e-01 -5.028254538774490356e-02 3.366480767726898193e-02
-2.826488912105560303e-01 -1.277513685636222363e-03 9.222784638404846191e-02
-3.288729190826416016e-01 -2.309352532029151917e-02 -9.158828854560852051e-02
3.057834692299365997e-02 1.000535637140274048e-01 -2.044323273003101349e-02
2.631234377622604370e-02 -1.438646316528320312e-01 1.694209128618240356e-01
-5.030770897865295410e-01 9.192655980587005615e-02 3.728280961513519287e-02
1.946844607591629028e-01 -1.058215945959091187e-01 2.661889791488647461e-01
-6.092411279678344727e-01 -1.045751478523015976e-02 -5.411225557327270508e-02
3.895976245403289795e-01 -8.054957538843154907e-02 4.149481654167175293e-02
8.531069159507751465e-01 2.232488011941313744e-03 7.043883949518203735e-02
-2.085669152438640594e-02 -2.730553597211837769e-02 3.064460158348083496e-01
8.467350006103515625e-01 -8.376257121562957764e-02 3.109980374574661255e-02
7.082788944244384766e-01 -5.719455331563949585e-02 6.827883422374725342e-02
-3.132399320602416992e-01 -6.356655061244964600e-02 6.187983229756355286e-02
-8.733073621988296509e-02 2.361650578677654266e-02 6.092512011528015137e-01
2.368045002222061157e-01 1.478749886155128479e-02 9.222784638404846191e-02
3.868976235389709473e-01 -7.739056646823883057e-02 -5.311325564980506897e-02
8.298539370298385620e-02 -2.276513259857892990e-03 -3.184154629707336426e-01
2.088594734668731689e-01 -7.604056596755981445e-02 3.135200142860412598e-01
3.236095607280731201e-01 -1.102452073246240616e-02 9.125585108995437622e-02
3.153205811977386475e-01 9.678656607866287231e-02 2.653679996728897095e-02
-1.422217935323715210e-01 1.368050370365381241e-02 6.407872438430786133e-01
-7.947043180465698242e-01 4.502752050757408142e-02 -1.751263588666915894e-01
-3.111069202423095703e-01 9.119756519794464111e-02 4.019881039857864380e-02
2.501695156097412109e-01 2.750450931489467621e-02 -9.463928639888763428e-02
3.882476091384887695e-01 -1.270436048507690430e-01 -2.637404203414916992e-01
3.713726103305816650e-01 -5.030955374240875244e-02 -2.781314253807067871e-01
7.030678987503051758e-01 -7.892520166933536530e-03 -9.563829749822616577e-02
4.650835692882537842e-02 -2.787253074347972870e-02 3.308000266551971436e-01
1.223244145512580872e-01 -4.839255288243293762e-02 -1.789063662290573120e-01
-7.653680630028247833e-03 9.662456065416336060e-02 2.696880139410495758e-02
3.698065876960754395e-01 1.616449840366840363e-02 9.209284931421279907e-02
-2.308628559112548828e-01 5.045452713966369629e-02 8.872704505920410156e-01
7.910879254341125488e-01 -5.857156217098236084e-02 6.015183031558990479e-02
-7.731853127479553223e-01 3.838551789522171021e-02 -1.626793444156646729e-01
-7.752912640571594238e-01 4.319151863455772400e-02 -2.115493863821029663e-01
-4.823950529098510742e-01 7.742755115032196045e-02 -6.164526194334030151e-02
2.426365017890930176e-01 1.008635610342025757e-01 8.392787538468837738e-03
-8.356633186340332031e-01 4.173352196812629700e-02 -1.732363402843475342e-01
2.874234691262245178e-02 -1.099752448499202728e-02 4.882101416587829590e-01
-8.004553318023681641e-01 2.567616999149322510e-01 4.547823336906731129e-04
3.553616106510162354e-01 -1.106005907058715820e-01 2.769350111484527588e-01
9.105839580297470093e-02 9.894656389951705933e-02 2.013779617846012115e-02
3.115405738353729248e-01 -3.213853389024734497e-02 2.957809865474700928e-01
3.644875884056091309e-01 1.011605635285377502e-01 5.368785932660102844e-03
6.791330873966217041e-03 -6.731511559337377548e-03 5.193411707878112793e-01
-8.092033267021179199e-01 5.644853040575981140e-02 2.775560021400451660e-01
-4.038789868354797363e-01 1.007015630602836609e-01 8.959787897765636444e-03
7.421038299798965454e-02 8.649955689907073975e-02 4.964882135391235352e-02
-5.946671590209007263e-02 1.052149571478366852e-02 -9.674529731273651123e-02
5.821887254714965820e-01 4.130152240395545959e-02 8.599084615707397461e-02
2.683135271072387695e-01 -1.344686150550842285e-01 3.117110133171081543e-01
-1.550197899341583252e-01 7.902497425675392151e-03 -5.843386650085449219e-01
-8.395243287086486816e-01 4.068051651120185852e-02 -1.496653407812118530e-01
-8.711474388837814331e-02 -4.299254715442657471e-02 8.712483942508697510e-02
1.038233190774917603e-02 -1.707252115011215210e-02 4.172810912132263184e-01
-7.566882371902465820e-01 3.310117423534393311e-01 -1.570219174027442932e-03
-3.773379623889923096e-01 -6.904755532741546631e-02 -5.432825535535812378e-02
-5.671210885047912598e-01 -8.108521811664104462e-03 6.177182868123054504e-02
-1.470277756452560425e-01 1.692049950361251831e-02 6.718642711639404297e-01
3.161305785179138184e-01 -1.426496207714080811e-01 2.704549729824066162e-01
-8.035873174667358398e-01 3.220251575112342834e-02 8.094184845685958862e-02
5.396367311477661133e-01 3.752151504158973694e-02 8.723284304141998291e-02
3.553616106510162354e-01 -6.148756295442581177e-02 3.003709912300109863e-01
4.051435366272926331e-02 -1.094125881791114807e-01 -1.450213342905044556e-01
-4.777571186423301697e-02 -4.823054373264312744e-02 1.271928846836090088e-01
6.835137307643890381e-02 -2.957352995872497559e-02 1.506288945674896240e-01
-4.630360603332519531e-01 4.510852694511413574e-02 -8.213827759027481079e-02
8.293138444423675537e-02 -1.334696114063262939e-01 1.197948679327964783e-01
3.908335417509078979e-02 -6.011056154966354370e-02 -8.284027874469757080e-02
6.447747945785522461e-01 -3.721453994512557983e-02 -8.556728065013885498e-02
-3.834669589996337891e-01 -5.479155853390693665e-02 -6.874626874923706055e-02
-7.345212101936340332e-01 1.023755669593811035e-01 -5.215222015976905823e-03
-7.597122192382812500e-01 4.211151972413063049e-02 1.361568719148635864e-01
5.091266632080078125e-01 1.008635610342025757e-01 8.257787674665451050e-03
2.913175523281097412e-01 -1.313636153936386108e-01 -3.210614621639251709e-01
2.706834673881530762e-02 -5.338754877448081970e-02 -1.098943054676055908e-01
-4.176755901426076889e-04 -4.088654369115829468e-02 -2.063383907079696655e-01
-6.853002309799194336e-01 1.281649619340896606e-02 4.130581393837928772e-02
-3.981680143624544144e-03 1.945849880576133728e-02 5.235801935195922852e-01
8.776229619979858398e-01 3.339051455259323120e-02 5.753282830119132996e-02
-1.927388161420822144e-01 -8.754257857799530029e-02 -9.184225462377071381e-03
-1.066627502441406250e-01 1.192550268024206161e-02 -6.519467234611511230e-01
-8.549953103065490723e-01 4.980652779340744019e-02 -2.519144117832183838e-01
9.666150212287902832e-01 -5.084516480565071106e-03 -3.372724354267120361e-02
-4.082260131835937500e-01 9.894656389951705933e-02 1.967879757285118103e-02
7.743209004402160645e-01 8.865955471992492676e-02 -3.496924415230751038e-02
2.401795089244842529e-01 -4.893255233764648438e-02 -3.008114397525787354e-01
-8.065033555030822754e-01 3.287977278232574463e-01 2.047783462330698967e-03
3.783656060695648193e-01 -1.253965944051742554e-01 3.019640147686004639e-01
1.676574498414993286e-01 -6.245514843612909317e-03 2.221789509057998657e-01
-6.240101456642150879e-01 -1.653252169489860535e-02 4.127881303429603577e-02
1.344204396009445190e-01 9.613855928182601929e-02 2.842680364847183228e-02
-7.404673099517822266e-02 2.610051259398460388e-02 6.121672391891479492e-01
3.895976245403289795e-01 -8.054957538843154907e-02 4.149481654167175293e-02
2.295685112476348877e-01 9.403256326913833618e-02 -3.856024891138076782e-02
-1.245637685060501099e-01 2.971850894391536713e-02 6.759413480758666992e-01
8.989529609680175781e-01 8.253492414951324463e-03 5.629082396626472473e-02
2.442025244235992432e-01 -4.517954215407371521e-02 -1.958623677492141724e-01
-1.927388161420822144e-01 -8.754257857799530029e-02 -9.184225462377071381e-03
4.641716480255126953e-01 -4.917554929852485657e-02 -7.876327633857727051e-02
2.824615538120269775e-01 8.825455605983734131e-02 -5.014325305819511414e-02
1.400094181299209595e-01 -3.967154026031494141e-02 -2.667374312877655029e-01
6.216837465763092041e-02 -1.826052553951740265e-02 -2.412494122982025146e-01
8.467350006103515625e-01 -8.376257121562957764e-02 3.109980374574661255e-02
8.170349597930908203e-01 8.728255331516265869e-02 -4.594221245497465134e-03
8.015038818120956421e-02 -5.130854994058609009e-02 1.358598768711090088e-01
-7.029852271080017090e-01 9.532856196165084839e-02 -7.051223888993263245e-03
-6.778272986412048340e-02 -1.504752598702907562e-02 -4.069215357303619385e-01
-1.188127622008323669e-01 1.675850152969360352e-02 -6.029416918754577637e-01
-7.498573064804077148e-01 3.692751750349998474e-02 -2.813824079930782318e-02
-7.583352327346801758e-01 3.430851548910140991e-02 1.207128763198852539e-01
1.984914690256118774e-01 3.401151299476623535e-02 -9.247928857803344727e-02
2.448235154151916504e-01 -1.391666233539581299e-01 -2.839904129505157471e-01
3.445345759391784668e-01 1.638050004839897156e-02 -9.615129232406616211e-02
1.164114028215408325e-01 -3.851054236292839050e-02 -2.679794132709503174e-01
-6.567881703376770020e-01 1.029695644974708557e-01 6.043786648660898209e-03
2.638585269451141357e-01 -7.263856381177902222e-02 -9.520629793405532837e-02
-7.775863409042358398e-01 2.801167070865631104e-01 -6.754223257303237915e-03
-1.992728114128112793e-01 4.270551726222038269e-02 8.110224008560180664e-01
3.606805801391601562e-01 -1.171615943312644958e-01 3.315560221672058105e-01
3.603234887123107910e-02 -8.567958325147628784e-02 1.388568878173828125e-01
9.101039767265319824e-01 1.997150294482707977e-02 5.264582112431526184e-02
1.971684843301773071e-01 -4.866254702210426331e-02 -2.060683816671371460e-01
-8.050993084907531738e-01 4.807852581143379211e-02 2.003089189529418945e-01
2.687934599816799164e-02 9.364872821606695652e-04 -5.398426055908203125e-01
6.274137496948242188e-01 8.798455446958541870e-02 4.665181785821914673e-02
-9.499875456094741821e-02 8.182854950428009033e-02 5.602082610130310059e-02
-5.263780951499938965e-01 -5.136255547404289246e-02 -3.253924474120140076e-02
1.131984069943428040e-01 -3.084253333508968353e-02 3.331490457057952881e-01
5.143646597862243652e-01 -8.751558512449264526e-02 5.449785850942134857e-03
1.984914690256118774e-01 3.401151299476623535e-02 -9.247928857803344727e-02
3.098125457763671875e-01 -6.375556439161300659e-02 3.344720304012298584e-01
3.097585737705230713e-01 -1.023925840854644775e-01 2.299279570579528809e-01
3.092934750020503998e-02 -5.063354969024658203e-02 1.408278942108154297e-01
-8.577493429183959961e-01 4.991452768445014954e-02 2.299819439649581909e-01
-7.662462592124938965e-01 4.718752205371856689e-02 -2.306383997201919556e-01
4.251235350966453552e-02 -4.577354341745376587e-02 -1.777993440628051758e-01
-2.427428662776947021e-01 3.798051550984382629e-02 -8.322528004646301270e-01
-1.194607615470886230e-01 7.389494683593511581e-03 5.907292366027832031e-01
-6.698831915855407715e-01 2.096466571092605591e-01 -7.969224825501441956e-03
6.581337004899978638e-02 -2.600953541696071625e-02 -3.645315170288085938e-01
-1.257517635822296143e-01 1.611049659550189972e-02 -6.836177110671997070e-01
-1.066627502441406250e-01 1.192550268024206161e-02 -6.519467234611511230e-01
-1.698697954416275024e-01 4.181452095508575439e-02 8.418294191360473633e-01
-6.358361840248107910e-01 -3.194953873753547668e-02 1.106579042971134186e-02
3.273895680904388428e-01 -3.462253883481025696e-02 -9.409929066896438599e-02
-2.365868389606475830e-01 4.162551835179328918e-02 -8.777748346328735352e-01
-2.308628559112548828e-01 5.045452713966369629e-02 8.872704505920410156e-01
3.592495918273925781e-01 -1.178636029362678528e-01 -2.384413927793502808e-01
6.910258531570434570e-01 -2.414652705192565918e-02 8.717884123325347900e-02
6.434788107872009277e-01 -8.724557608366012573e-02 -1.220822706818580627e-02
-1.178407669067382812e-01 -8.117057383060455322e-02 3.269280493259429932e-02
2.420634217560291290e-02 -1.431852113455533981e-02 -3.069134652614593506e-01
4.667096734046936035e-01 6.300953775644302368e-02 -7.860127836465835571e-02
3.782846033573150635e-01 -7.028957456350326538e-02 -2.499164193868637085e-01
-5.725271627306938171e-02 -7.105076219886541367e-04 5.427231788635253906e-01
6.061107516288757324e-01 -5.859855934977531433e-02 6.714483350515365601e-02
2.554615437984466553e-01 -3.983353823423385620e-02 1.965559273958206177e-01
-4.707371443510055542e-02 -4.507154598832130432e-02 -1.543903350830078125e-01
1.013183966279029846e-01 -2.136553078889846802e-02 -1.855753511190414429e-01
6.413187980651855469e-01 -7.922656834125518799e-02 -4.099025204777717590e-02
-7.846602797508239746e-01 1.786550693213939667e-02 1.970579661428928375e-02
7.703243172727525234e-04 -1.372451893985271454e-02 4.446861147880554199e-01
3.351115882396697998e-01 -1.140566021203994751e-01 3.341480195522308350e-01
-1.862588226795196533e-01 4.286752268671989441e-02 8.029494881629943848e-01
-7.958112955093383789e-01 3.895251825451850891e-02 1.193358674645423889e-01
5.520236864686012268e-02 -1.463756263256072998e-01 1.424748897552490234e-01
-8.004282712936401367e-01 5.482853204011917114e-02 2.589259743690490723e-01
2.139834128320217133e-02 -1.497776210308074951e-01 1.544358879327774048e-01
-1.529407799243927002e-01 3.879493102431297302e-03 -9.679929912090301514e-02
-8.211913108825683594e-01 3.306651115417480469e-02 -7.970827817916870117e-02
2.994175553321838379e-01 -5.484554916620254517e-02 1.105878651142120361e-01
1.411164402961730957e-01 -8.243514224886894226e-03 -2.299903929233551025e-01
7.078137993812561035e-02 -1.363586038351058960e-01 1.204428672790527344e-01
-7.964593172073364258e-01 3.314751014113426208e-02 -9.895929694175720215e-02
-1.391707807779312134e-01 1.314049400389194489e-02 -6.446027159690856934e-01
-1.667378097772598267e-01 -8.713757246732711792e-02 -1.309922710061073303e-02
-5.582110881805419922e-01 -3.537854179739952087e-02 -4.620125144720077515e-02
-4.047699868679046631e-01 -7.409657537937164307e-02 2.899380214512348175e-02
3.721556067466735840e-01 -3.950514830648899078e-03 -9.604329615831375122e-02
1.494594365358352661e-01 -8.824457228183746338e-02 2.534880116581916809e-02
-3.759069442749023438e-01 -7.941555976867675781e-02 2.872380241751670837e-02
-3.834669589996337891e-01 -5.479155853390693665e-02 -6.874626874923706055e-02
5.453877449035644531e-01 9.886556118726730347e-02 -2.443923614919185638e-02
6.526857614517211914e-01 -4.345154762268066406e-02 -8.246228098869323730e-02
9.268710017204284668e-01 -1.205051690340042114e-02 4.619281738996505737e-02
-1.086337491869926453e-01 -6.578056514263153076e-02 -7.897927612066268921e-02
-3.762370720505714417e-02 2.421050891280174255e-02 -6.176026463508605957e-01
-3.964540064334869385e-01 -7.984756678342819214e-02 -1.831023208796977997e-02
6.269007921218872070e-01 5.347852781414985657e-02 -8.424428105354309082e-02
-7.518822550773620605e-01 2.002776414155960083e-01 2.425783779472112656e-03
5.186306834220886230e-01 8.166654407978057861e-02 -6.029526144266128540e-02
2.412865161895751953e-01 -8.127857744693756104e-02 -2.384684085845947266e-01
-2.271908372640609741e-01 3.301251307129859924e-02 -7.807908058166503906e-01
-4.589590430259704590e-01 2.045750804245471954e-02 -8.759228885173797607e-02
-1.470277756452560425e-01 1.692049950361251831e-02 6.718642711639404297e-01
3.632935136556625366e-02 -8.824457228183746338e-02 -4.099025204777717590e-02
3.949435949325561523e-01 1.003775671124458313e-01 1.309079211205244064e-02
9.410940110683441162e-02 -5.508855730295181274e-02 1.084278598427772522e-01
7.296088337898254395e-01 5.658353120088577271e-02 -8.119327574968338013e-02
1.369314342737197876e-01 -5.498055368661880493e-02 2.810119986534118652e-01
5.234036594629287720e-02 -6.086656451225280762e-02 -1.462633311748504639e-01
-6.865692138671875000e-01 3.519951552152633667e-02 -4.409524798393249512e-02
2.449045032262802124e-01 -5.697854980826377869e-02 -1.445353329181671143e-01
8.681730031967163086e-01 -2.333653345704078674e-02 -6.642426550388336182e-02
5.547236651182174683e-02 2.853486919775605202e-03 3.657380640506744385e-01
3.858445882797241211e-01 -2.722453512251377106e-02 8.615284413099288940e-02
2.410165220499038696e-01 -5.732955411076545715e-02 -3.125834465026855469e-01
-6.622692346572875977e-01 1.665816158056259155e-01 -1.126322709023952484e-02
2.757385373115539551e-01 -1.420826166868209839e-01 2.902190089225769043e-01
1.437833532691001892e-02 5.731253325939178467e-02 7.826884090900421143e-02
3.007405698299407959e-01 -2.376852743327617645e-02 -2.848814427852630615e-01
5.186306834220886230e-01 8.166654407978057861e-02 -6.029526144266128540e-02
3.155905604362487793e-01 -1.234526112675666809e-01 -3.304844796657562256e-01
-7.540692090988159180e-01 3.492951393127441406e-02 -1.324393302202224731e-01
1.325844377279281616e-01 -2.465508412569761276e-03 -2.708954215049743652e-01
-7.553653120994567871e-01 2.619726955890655518e-01 -7.726224604994058609e-03
-1.934948116540908813e-01 2.164550311863422394e-02 6.911963820457458496e-01
7.944898605346679688e-01 2.585750445723533630e-02 8.015884459018707275e-02
9.308338910341262817e-02 8.747155219316482544e-02 4.767781868577003479e-02
6.332187652587890625e-01 -6.105555966496467590e-02 6.501182913780212402e-02
-9.138074517250061035e-02 -9.674517437815666199e-03 4.402580857276916504e-01
-8.592613339424133301e-01 5.580052733421325684e-02 2.818759977817535400e-01
1.002383977174758911e-01 -2.760253660380840302e-02 3.582860231399536133e-01
-6.641591787338256836e-01 2.928651124238967896e-02 4.624681547284126282e-02
1.863954663276672363e-01 -1.021495908498764038e-01 2.988590002059936523e-01
-7.518683560192584991e-03 5.148497410118579865e-03 4.352091252803802490e-01
1.403334289789199829e-01 -2.657653018832206726e-02 1.076448634266853333e-01
-8.049373030662536621e-01 2.853007018566131592e-01 1.102782785892486572e-03
3.635966181755065918e-01 -1.079275980591773987e-01 2.479369640350341797e-01
8.546729683876037598e-01 6.317153573036193848e-02 4.468081519007682800e-02
-6.438281536102294922e-01 9.640856087207794189e-02 6.691786926239728928e-03
7.000168561935424805e-01 6.584453582763671875e-02 7.224784046411514282e-02
2.900215387344360352e-01 -1.242851745337247849e-02 9.114784747362136841e-02
6.160137057304382324e-02 -1.631652005016803741e-02 2.478559762239456177e-01
2.258425056934356689e-01 -1.448052003979682922e-02 1.931809335947036743e-01
2.820565402507781982e-01 -1.447286158800125122e-01 -2.872034609317779541e-01
-1.971668154001235962e-01 -6.440356373786926270e-02 6.082682684063911438e-02
5.647467374801635742e-01 9.557156264781951904e-02 3.010080568492412567e-02
4.745335876941680908e-02 -4.107553884387016296e-02 -2.184883803129196167e-01
7.897919416427612305e-01 7.353954017162322998e-02 -5.616425722837448120e-02
8.105279207229614258e-01 -3.680953383445739746e-02 -7.468627393245697021e-02
2.230885028839111328e-01 -1.488552708178758621e-02 -1.458313316106796265e-01
-1.995698213577270508e-01 4.694452509284019470e-02 8.842194676399230957e-01
-1.106587648391723633e-01 -8.819057792425155640e-02 -2.569220028817653656e-03
-3.459970280528068542e-02 -2.123052813112735748e-02 3.194600343704223633e-01
-4.278070479631423950e-02 -3.788515925407409668e-03 4.190900921821594238e-01
1.041264086961746216e-01 2.799494192004203796e-03 -3.363704681396484375e-01
3.553616106510162354e-01 -1.130305901169776917e-01 3.022610247135162354e-01
2.561034448444843292e-02 5.677253380417823792e-02 7.853884249925613403e-02
8.284559249877929688e-01 -8.276356756687164307e-02 -3.559024631977081299e-02
2.237905114889144897e-01 -2.627952955663204193e-02 2.559559643268585205e-01
-7.883862853050231934e-01 4.937452822923660278e-02 -2.106313854455947876e-01
-2.194418460130691528e-01 3.409251198172569275e-02 8.009514212608337402e-01
3.819235414266586304e-02 -5.330654978752136230e-02 -1.137553006410598755e-01
-6.107261180877685547e-01 2.250950038433074951e-02 -6.304926425218582153e-02
9.018959999084472656e-01 6.176753342151641846e-02 1.857179589569568634e-02
7.944898605346679688e-01 2.585750445723533630e-02 8.015884459018707275e-02
7.897919416427612305e-01 7.353954017162322998e-02 -5.616425722837448120e-02
7.755838334560394287e-02 -2.973553724586963654e-02 1.408278942108154297e-01
3.168325722217559814e-01 -9.723557531833648682e-02 -3.414734899997711182e-01
-1.101187542080879211e-01 3.379551321268081665e-02 7.439274191856384277e-01
5.234036594629287720e-02 -3.230053186416625977e-02 -1.518523395061492920e-01
-4.831780791282653809e-01 1.357249729335308075e-02 8.123884350061416626e-02
1.651194393634796143e-01 -5.608755722641944885e-02 1.202538758516311646e-01
-7.689192891120910645e-01 4.189551994204521179e-02 1.370208859443664551e-01
-1.378268562257289886e-02 -1.454306244850158691e-01 -1.594123393297195435e-01
9.449610114097595215e-01 -1.223952230066061020e-02 -4.263724759221076965e-02
-7.595502734184265137e-01 1.778406351804733276e-01 1.210782909765839577e-03
-9.124574065208435059e-02 -8.783958107233047485e-02 -6.214222870767116547e-03
-4.870390594005584717e-01 4.370452463626861572e-02 -8.140927553176879883e-02
2.222244888544082642e-01 -2.328252978622913361e-02 2.769079804420471191e-01
8.336339145898818970e-02 -1.628996431827545166e-01 1.609698981046676636e-01
1.651194393634796143e-01 -5.608755722641944885e-02 1.202538758516311646e-01
1.879344731569290161e-01 -2.584753558039665222e-02 9.114784747362136841e-02
-5.946881771087646484e-01 1.398515850305557251e-01 -6.700223311781883240e-03
2.375335097312927246e-01 -7.847056537866592407e-02 -2.481074184179306030e-01
-3.233169764280319214e-02 2.326550148427486420e-02 -5.808826684951782227e-01
4.061216115951538086e-01 -8.222357183694839478e-02 -3.340324386954307556e-02
2.464165091514587402e-01 -1.828752271831035614e-02 -1.187503114342689514e-01
4.083895981311798096e-01 1.716349832713603973e-02 9.201185405254364014e-02
8.971169590950012207e-01 -6.021854653954505920e-02 2.521380037069320679e-02
2.308105081319808960e-01 -8.144057542085647583e-02 8.504584431648254395e-02
-4.278070479631423950e-02 -6.245955452322959900e-02 -9.520629793405532837e-02
6.624537706375122070e-02 -3.807853907346725464e-02 2.471269667148590088e-01
8.906039595603942871e-02 -1.473476290702819824e-01 1.658029109239578247e-01
-1.189268194139003754e-02 -8.824457228183746338e-02 -1.204622723162174225e-02
-7.560672760009765625e-01 3.268851339817047119e-02 1.047018542885780334e-01
-1.379287689924240112e-01 2.539850398898124695e-02 -6.675797700881958008e-01
-4.393300414085388184e-01 6.444053351879119873e-02 -7.366026937961578369e-02
2.154475003480911255e-01 8.795755356550216675e-02 -5.076425895094871521e-02
-7.019052505493164062e-01 3.360651060938835144e-02 -5.087225139141082764e-02
2.176885008811950684e-01 -3.470353782176971436e-02 -2.518334090709686279e-01
-1.674397885799407959e-01 1.243849564343690872e-02 -6.224896907806396484e-01
1.291554272174835205e-01 -5.060655251145362854e-02 1.556508988142013550e-01
2.276245057582855225e-01 8.865955471992492676e-02 -4.936025664210319519e-02
-2.079668194055557251e-01 8.091054856777191162e-02 -6.126726046204566956e-02
2.129094898700714111e-01 -2.376852743327617645e-02 -2.973554432392120361e-01
-2.999019026756286621e-01 -6.175756826996803284e-02 -6.823326647281646729e-02
1.863684654235839844e-01 8.355654776096343994e-02 5.388782545924186707e-02
6.240117549896240234e-01 3.185151144862174988e-02 -9.320829808712005615e-02
-4.368730485439300537e-01 -6.170355528593063354e-02 -4.660625010728836060e-02
7.501559257507324219e-01 -5.584454908967018127e-02 -7.106827199459075928e-02
-1.491607874631881714e-01 1.689350418746471405e-02 9.203884750604629517e-02
-9.246682748198509216e-03 -7.649521809071302414e-03 -3.737924993038177490e-01
-1.406017839908599854e-01 7.699554413557052612e-02 -6.612726300954818726e-02
-1.072837486863136292e-01 1.003549899905920029e-02 5.503911972045898438e-01
3.098334930837154388e-02 8.830855786800384521e-02 -5.003525316715240479e-02
1.479204297065734863e-01 -2.681952901184558868e-02 -3.426884710788726807e-01
1.237014159560203552e-01 3.964877978432923555e-04 3.073100149631500244e-01
6.406707763671875000e-01 9.343855828046798706e-02 -3.977524861693382263e-02
-5.105290412902832031e-01 9.252055734395980835e-02 -3.945124894380569458e-02
-7.844442725181579590e-01 4.845652356743812561e-02 -2.511044144630432129e-01
6.274137496948242188e-01 8.798455446958541870e-02 4.665181785821914673e-02
6.169107556343078613e-01 -2.295853383839130402e-02 -9.164229035377502441e-02
6.216837465763092041e-02 -1.826052553951740265e-02 -2.412494122982025146e-01
7.272537797689437866e-02 -7.031656801700592041e-02 9.114784747362136841e-02
-8.484073281288146973e-01 5.210152640938758850e-02 2.470999807119369507e-01
3.098125457763671875e-01 -6.375556439161300659e-02 3.344720304012298584e-01
-1.065277457237243652e-01 1.535450480878353119e-02 -5.844196677207946777e-01
-6.466361880302429199e-01 3.646851703524589539e-02 5.550782755017280579e-02
6.061107516288757324e-01 -5.859855934977531433e-02 6.714483350515365601e-02
-8.838373422622680664e-02 1.052149571478366852e-02 -5.423536300659179688e-01
-1.450567692518234253e-01 9.773156046867370605e-02 2.370179817080497742e-02
-6.278711557388305664e-01 7.132554054260253906e-02 -4.425725340843200684e-02
-4.176755901426076889e-04 -4.088654369115829468e-02 -2.063383907079696655e-01
-5.691730976104736328e-01 2.026850357651710510e-02 6.811683624982833862e-02
1.448694318532943726e-01 -4.212854057550430298e-02 9.114784747362136841e-02
3.260395824909210205e-01 -8.824457228183746338e-02 4.153785295784473419e-03
8.535659313201904297e-01 1.997150294482707977e-02 6.830583512783050537e-02
-5.946671590209007263e-02 1.052149571478366852e-02 -9.674529731273651123e-02
9.445289969444274902e-01 -2.290453016757965088e-02 3.679680824279785156e-02
6.735838055610656738e-01 3.298551216721534729e-02 -9.283029288053512573e-02
-5.105290412902832031e-01 9.252055734395980835e-02 -3.945124894380569458e-02
-1.348568405956029892e-02 -3.068053536117076874e-02 -2.873114347457885742e-01
1.930374652147293091e-01 6.668154150247573853e-02 7.157283276319503784e-02
1.357974410057067871e-01 -1.358513021841645241e-03 2.947279810905456543e-01
8.776229619979858398e-01 3.339051455259323120e-02 5.753282830119132996e-02
2.593434415757656097e-02 8.415490388870239258e-03 4.221411049365997314e-01
1.292033586651086807e-02 8.955500088632106781e-03 -4.418055415153503418e-01
-7.560672760009765625e-01 3.268851339817047119e-02 1.047018542885780334e-01
7.312558889389038086e-01 9.904901962727308273e-04 -9.512529522180557251e-02
-1.178407669067382812e-01 -8.117057383060455322e-02 3.269280493259429932e-02
-3.381339311599731445e-01 -6.129856780171394348e-02 -6.877326965332031250e-02
5.143646597862243652e-01 -8.751558512449264526e-02 5.449785850942134857e-03
7.519379258155822754e-01 8.442054688930511475e-02 4.527482017874717712e-02
1.105254143476486206e-01 1.665492076426744461e-03 3.090650141239166260e-01
-8.621233701705932617e-01 3.374377489089965820e-01 -1.732219476252794266e-03
9.347010254859924316e-01 -1.088951900601387024e-02 -4.703825339674949646e-02
-3.629469573497772217e-01 9.314155578613281250e-02 3.625680878758430481e-02
3.122965693473815918e-01 7.353954017162322998e-02 -7.012327015399932861e-02
1.592064350843429565e-01 -5.943555012345314026e-02 -2.829644381999969482e-01
2.083464860916137695e-01 -3.875353932380676270e-02 -2.928194403648376465e-01
7.591138035058975220e-02 5.958491470664739609e-03 -4.568445682525634766e-01
-5.142678506672382355e-03 9.411355853080749512e-02 -3.839824721217155457e-02
5.790236964821815491e-02 9.144495241343975067e-03 4.817841649055480957e-01
2.577025294303894043e-01 -3.959054127335548401e-02 -2.765924334526062012e-01
-7.555272579193115234e-01 1.910436302423477173e-01 -5.998222623020410538e-03
-8.129832744598388672e-01 3.478597402572631836e-01 2.290783682838082314e-03
1.094724088907241821e-01 -5.489955097436904907e-02 -1.208293065428733826e-01
4.051435366272926331e-02 -1.094125881791114807e-01 -1.450213342905044556e-01
-6.848681569099426270e-01 1.479786038398742676e-01 -9.427225217223167419e-03
2.194704860448837280e-01 4.535152390599250793e-02 8.423585444688796997e-02
-8.957174420356750488e-02 -9.836516343057155609e-03 -4.465035796165466309e-01
-7.878462672233581543e-01 3.085251152515411377e-02 -7.819627225399017334e-02
2.412055134773254395e-01 -1.071446016430854797e-01 2.470729500055313110e-01
-4.862560629844665527e-01 9.746156632900238037e-02 -2.749024145305156708e-02
7.312558889389038086e-01 9.904901962727308273e-04 -9.512529522180557251e-02
3.857035562396049500e-02 -1.166216060519218445e-01 1.395048797130584717e-01
6.194757819175720215e-01 -6.191512104123830795e-03 9.174184501171112061e-02
5.536227226257324219e-01 -5.687055364251136780e-02 -7.260727137327194214e-02
1.863684654235839844e-01 8.355654776096343994e-02 5.388782545924186707e-02
-2.260568439960479736e-01 -7.698558270931243896e-02 4.144081100821495056e-02
4.405196607112884521e-01 9.549055993556976318e-02 -3.442924469709396362e-02
2.727685272693634033e-01 -3.913154080510139465e-02 -2.957354485988616943e-01
-7.835262417793273926e-01 4.794352501630783081e-02 2.443189620971679688e-01
-4.823950529098510742e-01 7.742755115032196045e-02 -6.164526194334030151e-02
5.982807874679565430e-01 7.472754269838333130e-02 -6.898926943540573120e-02
-4.537750184535980225e-01 -3.975253924727439880e-02 -6.839527189731597900e-02
-8.022973686456680298e-02 -8.743457496166229248e-02 -1.012922544032335281e-02
1.446264386177062988e-01 -4.674554616212844849e-02 1.964749246835708618e-01
1.426014304161071777e-01 -8.824457228183746338e-02 1.673579588532447815e-02
-7.059012055397033691e-01 6.511554121971130371e-02 -3.353824466466903687e-02
4.537435993552207947e-02 7.416491396725177765e-03 3.993530869483947754e-01
-8.592613339424133301e-01 5.580052733421325684e-02 2.818759977817535400e-01
-7.883862853050231934e-01 4.937452822923660278e-02 -2.106313854455947876e-01
9.824039787054061890e-02 5.094052851200103760e-02 8.145484328269958496e-02
2.412055134773254395e-01 -1.071446016430854797e-01 2.470729500055313110e-01
-3.848770633339881897e-02 9.605755656957626343e-02 -3.272824361920356750e-02
5.522936582565307617e-02 -1.434551738202571869e-02 -2.747564315795898438e-01
-7.891692519187927246e-01 4.780852422118186951e-02 -1.973473727703094482e-01
5.289716720581054688e-01 3.579351678490638733e-02 -9.188529103994369507e-02
8.467350006103515625e-01 -8.376257121562957764e-02 3.109980374574661255e-02
3.986155986785888672e-01 -8.270957320928573608e-02 2.794080227613449097e-02
-1.730557978153228760e-01 1.489550527185201645e-02 -6.370967030525207520e-01
2.824615538120269775e-01 8.825455605983734131e-02 -5.014325305819511414e-02
4.688696563243865967e-01 4.343452304601669312e-02 -8.926629275083541870e-02
1.453014314174652100e-01 -3.383518662303686142e-03 -2.607164382934570312e-01
1.479204297065734863e-01 -2.681952901184558868e-02 -3.426884710788726807e-01
-6.865692138671875000e-01 3.519951552152633667e-02 -4.409524798393249512e-02
5.225456953048706055e-01 -7.784956693649291992e-02 -4.379825294017791748e-02
2.401795089244842529e-01 -4.893255233764648438e-02 -3.008114397525787354e-01
7.601937651634216309e-02 -1.441616266965866089e-01 -1.258783191442489624e-01
3.857035562396049500e-02 -1.230745986104011536e-01 -1.422403305768966675e-01
3.047034703195095062e-02 9.927493520081043243e-03 -5.433256626129150391e-01
-1.870148181915283203e-01 8.177455514669418335e-02 -6.016026064753532410e-02
8.433599472045898438e-01 -4.507154598832130432e-02 6.007082760334014893e-02
8.179738372564315796e-02 6.741489283740520477e-03 3.950870633125305176e-01
-7.920312881469726562e-01 3.655717372894287109e-01 -1.273219007998704910e-03
-1.370168663561344147e-02 -1.545252278447151184e-02 4.214931130409240723e-01
5.839707851409912109e-01 -5.338754877448081970e-02 -7.538827508687973022e-02
-6.466361880302429199e-01 3.646851703524589539e-02 5.550782755017280579e-02
-1.445977687835693359e-01 1.206049509346485138e-02 -5.981086492538452148e-01
2.448235154151916504e-01 -1.391666233539581299e-01 -2.839904129505157471e-01
-1.540268957614898682e-02 -8.891519159078598022e-03 -4.902435839176177979e-01
-1.221668533980846405e-02 8.604495786130428314e-03 9.284885227680206299e-02
-5.725271627306938171e-02 -7.105076219886541367e-04 5.427231788635253906e-01
-2.260568439960479736e-01 -7.698558270931243896e-02 4.144081100821495056e-02
1.956294625997543335e-01 -1.072752010077238083e-02 -2.022613734006881714e-01
1.292904317378997803e-01 8.293554931879043579e-02 -5.872926115989685059e-02
6.406707763671875000e-01 9.343855828046798706e-02 -3.977524861693382263e-02
1.715325983241200447e-03 -1.405976116657257080e-01 -1.228543147444725037e-01
-7.931922674179077148e-01 3.360651060938835144e-02 7.243683934211730957e-02
-6.880002617835998535e-01 2.610276937484741211e-01 -2.380219753831624985e-03
3.417266011238098145e-01 -8.824457228183746338e-02 6.042183190584182739e-02
-5.463371798396110535e-02 -1.618152856826782227e-02 3.637940287590026855e-01
6.416158080101013184e-01 8.739498443901538849e-03 9.284885227680206299e-02
-6.294641494750976562e-01 -2.741353213787078857e-02 -3.056824207305908203e-02
7.380537688732147217e-02 -3.591854125261306763e-02 1.003548502922058105e-01
-8.448432683944702148e-01 2.964787185192108154e-01 -2.542220056056976318e-03
-6.017081737518310547e-01 1.612356156110763550e-01 -4.270221106708049774e-03
-1.224577650427818298e-01 3.684651851654052734e-02 -7.561397552490234375e-01
7.350837439298629761e-02 -3.775453940033912659e-02 2.529049813747406006e-01
