8.691544532775878906e-01 -5.999272689223289490e-02 -1.402138732373714447e-04
1.136789470911026001e-01 8.429314941167831421e-03 -6.587203592061996460e-02
1.040370091795921326e-01 -2.080599591135978699e-02 3.294235467910766602e-01
-8.012337684631347656e-01 5.266318842768669128e-02 1.326328366994857788e-01
1.198450177907943726e-01 2.429881365969777107e-03 -3.330132365226745605e-01
-5.617566108703613281e-01 3.802172839641571045e-02 4.823612421751022339e-02
2.269300222396850586e-01 -3.961372375488281250e-02 2.576447129249572754e-01
1.716019809246063232e-01 5.123475193977355957e-02 4.326040670275688171e-02
-2.037969604134559631e-02 1.654758490622043610e-02 4.892416894435882568e-01
-1.561824418604373932e-02 -3.728061169385910034e-02 -1.971452385187149048e-01
6.713575869798660278e-02 -1.142593659460544586e-02 2.695245444774627686e-01
3.068747818470001221e-01 -3.144783526659011841e-02 2.456934601068496704e-01
-7.934726476669311523e-01 6.244796514511108398e-02 -2.129056304693222046e-01
-6.435107588768005371e-01 4.080717638134956360e-02 -4.299326986074447632e-02
-8.012337684631347656e-01 5.266318842768669128e-02 1.326328366994857788e-01
2.734494209289550781e-01 6.254319846630096436e-02 2.838087268173694611e-02
-1.138055417686700821e-02 5.411542952060699463e-02 -4.954026266932487488e-02
6.687926054000854492e-01 -6.137355417013168335e-02 -1.285328716039657593e-02
-7.904076576232910156e-02 -5.408852919936180115e-02 -4.080300033092498779e-02
1.934332400560379028e-01 7.194706052541732788e-02 -1.466263737529516220e-02
-2.550715804100036621e-01 -2.918615192174911499e-02 4.611727595329284668e-02
-2.779265344142913818e-01 6.090049445629119873e-02 -4.006497561931610107e-02
1.468900591135025024e-01 4.059290885925292969e-02 -5.949169397354125977e-02
1.773571409285068512e-02 -4.082789272069931030e-02 1.229909062385559082e-01
8.189626038074493408e-02 -2.968609891831874847e-02 4.136774241924285889e-01
4.968805015087127686e-01 6.042435020208358765e-02 3.166627511382102966e-02
-7.579522132873535156e-01 1.479874253273010254e-01 7.644616998732089996e-04
1.985518038272857666e-01 -6.382570415735244751e-02 -4.386221766471862793e-01
1.468900591135025024e-01 4.059290885925292969e-02 -5.949169397354125977e-02
-1.274647265672683716e-01 -4.011367261409759521e-02 -5.346846207976341248e-02
4.769300222396850586e-01 5.166328325867652893e-02 -5.199241265654563904e-02
2.691403031349182129e-01 -3.582837432622909546e-02 -2.400220930576324463e-01
6.913556903600692749e-02 -3.713776916265487671e-02 -1.098440289497375488e-01
1.718638688325881958e-01 3.548825392499566078e-03 -6.525304913520812988e-02
1.700069010257720947e-01 -4.375619068741798401e-02 1.462505906820297241e-01
1.367719769477844238e-01 3.983107954263687134e-02 -5.984880402684211731e-02
4.887384176254272461e-01 -5.130308493971824646e-02 -3.697003424167633057e-02
4.145787954330444336e-01 -5.730250850319862366e-02 1.742953993380069733e-02
-7.993768453598022461e-01 1.244182437658309937e-01 -6.687208078801631927e-03
8.682497739791870117e-01 6.154329329729080200e-02 2.978536300361156464e-03
-1.314228866249322891e-02 2.164233662188053131e-02 -5.227808356285095215e-01
2.667119801044464111e-01 -1.778247579932212830e-02 -1.221999898552894592e-01
1.242731660604476929e-01 -2.970990352332592010e-02 -2.662814855575561523e-01
5.049449205398559570e-02 -1.034409701824188232e-01 9.518402814865112305e-02
9.748110771179199219e-01 -2.659115754067897797e-02 -2.739951945841312408e-02
6.682626903057098389e-02 -3.335241973400115967e-02 2.254096865653991699e-01
1.331294625997543335e-01 -3.332860767841339111e-02 -2.545445263385772705e-01
4.644725844264030457e-02 -5.227918550372123718e-02 5.304518714547157288e-02
2.675866149365901947e-02 -2.544840984046459198e-02 2.165295779705047607e-01
-1.507067866623401642e-02 -4.935089126229286194e-02 -9.644054621458053589e-02
8.187245577573776245e-02 3.211752697825431824e-02 5.423554778099060059e-02
-7.896634936332702637e-01 5.566290020942687988e-02 -1.354844421148300171e-01
9.000324606895446777e-01 2.792745083570480347e-02 3.885606303811073303e-02
-7.449357956647872925e-02 -1.879229675978422165e-03 -4.387888610363006592e-01
2.090031951665878296e-01 -3.473323583602905273e-02 4.037498235702514648e-01
8.661009371280670166e-02 -3.749487549066543579e-02 -2.011210471391677856e-01
-7.499529719352722168e-01 1.429879069328308105e-01 -9.996416047215461731e-03
-7.117661833763122559e-01 3.511724248528480530e-02 -4.325515031814575195e-02
-4.837702587246894836e-02 -5.936393281444907188e-04 4.846230447292327881e-01
-5.964199900627136230e-01 6.899496167898178101e-02 -2.209050022065639496e-02
8.963185548782348633e-01 -5.515985563397407532e-02 3.526102984324097633e-03
-4.423156082630157471e-01 -4.506558552384376526e-02 -2.618534862995147705e-02
-7.201938629150390625e-01 2.852263301610946655e-02 3.321374580264091492e-02
-1.174894794821739197e-01 2.873689681291580200e-02 6.328946352005004883e-01
1.565558016300201416e-01 -5.223156884312629700e-02 -6.680051982402801514e-02
1.386051326990127563e-01 6.720941513776779175e-02 -2.880414575338363647e-02
1.752682924270629883e-01 -2.804340235888957977e-02 7.416221499443054199e-02
-4.778184369206428528e-02 8.824105025269091129e-04 -5.048063993453979492e-01
6.696020364761352539e-01 -1.428281050175428391e-02 -5.977738276124000549e-02
4.068590328097343445e-02 -9.592780843377113342e-03 -4.248377978801727295e-01
-5.032921954989433289e-02 -1.994893327355384827e-02 3.060924708843231201e-01
6.821960806846618652e-01 -5.280293896794319153e-02 -3.461311385035514832e-02
2.231684774160385132e-01 -5.125546827912330627e-02 2.417176663875579834e-01
-3.737807273864746094e-02 1.477592973969876766e-03 -5.103534460067749023e-01
-1.458677351474761963e-01 9.048301726579666138e-03 -6.594345718622207642e-02
6.869099140167236328e-01 -4.266104847192764282e-02 -4.739760980010032654e-02
6.451758146286010742e-01 6.978060305118560791e-02 1.273951027542352676e-02
-4.772884547710418701e-01 -6.987800588831305504e-05 -6.477690488100051880e-02
-7.458105087280273438e-01 4.096390679478645325e-03 4.478393122553825378e-03
1.344626694917678833e-01 -2.716252766549587250e-02 2.476694732904434204e-01
5.742302536964416504e-01 7.385164499282836914e-02 -3.187542082741856575e-03
5.147059261798858643e-02 -4.273246973752975464e-02 -7.958500832319259644e-02
-2.405221574008464813e-03 -2.642450295388698578e-02 2.776190042495727539e-01
3.644821420311927795e-02 -5.016033723950386047e-02 8.432792127132415771e-02
1.976709216833114624e-01 -2.451992593705654144e-02 -4.379794001579284668e-01
-8.225175142288208008e-01 4.863975942134857178e-02 1.029928103089332581e-01
-3.763995319604873657e-02 -3.282865881919860840e-02 2.204577922821044922e-01
1.762206107378005981e-01 6.956633180379867554e-02 1.342992018908262253e-02
8.301519602537155151e-02 -2.709110639989376068e-02 -2.851606309413909912e-01
-7.468342185020446777e-01 5.701991170644760132e-02 -1.245331093668937683e-01
-2.978294193744659424e-01 7.047101110219955444e-02 -1.973358355462551117e-02
-4.191987812519073486e-01 3.118904493749141693e-02 5.454504117369651794e-02
1.726495027542114258e-01 -1.809196360409259796e-02 -6.249140948057174683e-02
1.085603833198547363e-01 -2.349621616303920746e-02 1.700340211391448975e-01
-3.676560819149017334e-01 -5.358858034014701843e-02 -9.401234798133373260e-03
7.144487649202346802e-02 -4.851763322949409485e-02 1.001597493886947632e-01
6.687926054000854492e-01 -6.137355417013168335e-02 -1.285328716039657593e-02
1.050368994474411011e-01 -9.118022769689559937e-02 1.038022562861442566e-01
2.873466536402702332e-02 4.810611717402935028e-03 -4.796897172927856445e-01
-3.362542986869812012e-01 3.161757439374923706e-02 -6.351511925458908081e-02
-1.106806173920631409e-01 7.738898042589426041e-03 5.140488147735595703e-01
4.020975902676582336e-02 -1.180685497820377350e-02 5.180720984935760498e-02
8.093778043985366821e-03 -1.111643854528665543e-02 4.027499258518218994e-01
8.939616084098815918e-01 5.563909560441970825e-02 -8.068028837442398071e-03
-7.631421685218811035e-01 2.097672373056411743e-01 -8.544174022972583771e-03
-3.585855066776275635e-01 7.170898467302322388e-02 -1.573396474123001099e-02
-2.509352937340736389e-02 6.394782662391662598e-02 2.573826909065246582e-02
5.893002152442932129e-01 -6.039744988083839417e-02 -1.749569922685623169e-02
8.485850095748901367e-01 -2.459134534001350403e-02 -5.273043736815452576e-02
5.913952589035034180e-01 -2.885284833610057831e-02 4.664103686809539795e-02
1.183451637625694275e-01 -4.406567662954330444e-02 1.405606567859649658e-01
2.134075164794921875e-01 -3.130499273538589478e-02 4.283903241157531738e-01
3.395621478557586670e-01 5.491086049005389214e-04 -6.487213820219039917e-02
1.226780861616134644e-01 -3.340002894401550293e-02 -2.362129390239715576e-01
-7.838782668113708496e-01 3.675994277000427246e-02 -2.147151157259941101e-02
-2.778375707566738129e-02 3.858322976157069206e-03 -5.302562713623046875e-01
8.405143022537231445e-01 6.175755709409713745e-02 1.554876659065485001e-02
3.393240869045257568e-01 -4.830336943268775940e-02 -2.371414154767990112e-01
-5.964675545692443848e-01 -2.899569086730480194e-02 -1.137723680585622787e-02
-6.163766980171203613e-02 -2.278199419379234314e-02 -3.119676411151885986e-01
4.818519204854965210e-02 6.540006399154663086e-02 2.304805070161819458e-02
-1.122518777847290039e-01 1.138141471892595291e-02 5.354515314102172852e-01
-1.088060624897480011e-02 -2.932899259030818939e-02 2.536212801933288574e-01
-7.754981517791748047e-01 5.344882607460021973e-02 -1.482927501201629639e-01
9.255776405334472656e-01 3.099858388304710388e-02 -3.001831658184528351e-02
6.584364771842956543e-01 -3.332860767841339111e-02 4.459361359477043152e-02
-2.366447597742080688e-01 2.759414911270141602e-02 5.573540553450584412e-02
-7.370018362998962402e-01 3.821218386292457581e-02 -3.927933797240257263e-02
6.825470179319381714e-02 -4.720823839306831360e-02 -4.356700778007507324e-01
-7.597854137420654297e-01 8.042244613170623779e-02 1.764366752468049526e-03
1.290584206581115723e-01 7.406590878963470459e-02 -4.187446553260087967e-03
-4.423156082630157471e-01 -4.506558552384376526e-02 -2.618534862995147705e-02
-1.326132658869028091e-02 -4.916043207049369812e-02 8.356608450412750244e-02
-6.163766980171203613e-02 -2.278199419379234314e-02 -3.119676411151885986e-01
9.015737473964691162e-02 -2.990036271512508392e-02 -1.484117805957794189e-01
1.336056143045425415e-01 -5.196968838572502136e-02 -8.244188129901885986e-02
1.835470087826251984e-02 -2.052031084895133972e-02 2.511929273605346680e-01
9.982311725616455078e-02 -1.759201660752296448e-02 -2.185241430997848511e-01
-9.849129617214202881e-02 -6.113547831773757935e-02 -1.421029958873987198e-02
-1.554682292044162750e-02 -4.306577146053314209e-02 1.373942792415618896e-01
2.701402008533477783e-01 6.932826340198516846e-02 -2.330467104911804199e-02
1.928618699312210083e-01 -4.158972203731536865e-02 2.447887957096099854e-01
1.493898332118988037e-01 -5.618357285857200623e-02 -4.063634946942329407e-02
4.989993274211883545e-01 -9.592780843377113342e-03 -6.194384023547172546e-02
-7.318594455718994141e-01 5.775793641805648804e-02 1.135632246732711792e-01
2.423333376646041870e-01 6.780459731817245483e-02 1.859609410166740417e-02
-3.759234398603439331e-02 -5.950273014605045319e-03 4.415795505046844482e-01
-2.405221574008464813e-03 -2.642450295388698578e-02 2.776190042495727539e-01
9.546639025211334229e-02 -1.666353270411491394e-02 -3.666052520275115967e-01
-5.008576512336730957e-01 6.299553066492080688e-02 2.752381190657615662e-02
-8.370875120162963867e-01 5.654376745223999023e-02 8.930349722504615784e-03
6.598172783851623535e-01 -6.204015761613845825e-02 -8.544174022972583771e-03
1.059653908014297485e-01 7.278031110763549805e-02 1.764366752468049526e-03
-1.583427190780639648e-01 -4.856524989008903503e-02 -4.073157906532287598e-02
-8.407776355743408203e-01 5.418685078620910645e-02 1.424652338027954102e-01
1.061320453882217407e-01 -6.854944396764039993e-03 5.385463312268257141e-02
2.310248911380767822e-01 -2.468658052384853363e-02 -1.896221339702606201e-01
-7.525479793548583984e-01 3.490297868847846985e-02 5.787792615592479706e-03
4.401240050792694092e-01 -4.285150766372680664e-02 -4.725476726889610291e-02
4.824532866477966309e-01 2.852263301610946655e-02 5.542591586709022522e-02
2.252873331308364868e-01 -3.539983928203582764e-02 -4.516923725605010986e-01
-5.084283351898193359e-01 4.340216517448425293e-02 -5.813468247652053833e-02
1.262729763984680176e-01 -1.223538257181644440e-02 -2.299754470586776733e-01
7.902572154998779297e-01 -3.242393583059310913e-02 4.323660209774971008e-02
-8.405395746231079102e-01 6.111475825309753418e-02 1.924128383398056030e-01
2.094555199146270752e-01 -5.349335446953773499e-02 -5.811087414622306824e-02
-4.002068191766738892e-02 6.762805394828319550e-03 4.512690901756286621e-01
4.751858487725257874e-02 6.904257833957672119e-02 1.504881400614976883e-02
1.346531361341476440e-01 -2.522020367905497551e-03 3.143535852432250977e-01
-6.437549740076065063e-02 4.477309528738260269e-03 -4.633341133594512939e-01
4.118409752845764160e-01 -1.066410727798938751e-02 -6.146769598126411438e-02
7.358752936124801636e-02 -3.630451858043670654e-02 4.428175389766693115e-01
2.973456867039203644e-02 -2.204396948218345642e-02 -3.231094181537628174e-01
1.307725459337234497e-01 -1.528271660208702087e-02 -2.094773948192596436e-01
-8.153991103172302246e-01 1.944115608930587769e-01 -6.925280205905437469e-03
8.876764774322509766e-01 -5.544554814696311951e-02 5.859213881194591522e-03
4.885179549455642700e-02 8.586063631810247898e-04 3.510167598724365234e-01
4.770728349685668945e-01 -3.632832318544387817e-02 4.285568371415138245e-02
8.792248964309692383e-01 -1.268772222101688385e-02 4.392701014876365662e-02
5.565652847290039062e-01 2.096579642966389656e-03 -6.506258994340896606e-02
4.473137855529785156e-01 6.825693696737289429e-02 -2.663768641650676727e-02
-7.754091173410415649e-02 5.524823442101478577e-03 5.323327779769897461e-01
4.601872712373733521e-02 -3.101930767297744751e-02 -1.785755753517150879e-01
-8.612756729125976562e-01 6.813789904117584229e-02 -2.418790608644485474e-01
2.890431582927703857e-01 -5.125546827912330627e-02 -2.521637976169586182e-01
-8.298024535179138184e-01 6.463823467493057251e-02 2.184341698884963989e-01
-8.007576465606689453e-01 6.982821226119995117e-02 2.123633176088333130e-01
-3.314928412437438965e-01 -3.242393583059310913e-02 4.359370842576026917e-02
2.513562738895416260e-01 -1.680637337267398834e-02 -9.998782724142074585e-02
-8.132088184356689453e-01 3.614095598459243774e-02 1.671531982719898224e-02
8.120585232973098755e-02 -6.184969842433929443e-02 9.427935630083084106e-02
1.771190576255321503e-02 5.358176771551370621e-03 3.989883363246917725e-01
5.380194187164306641e-01 2.590383589267730713e-02 5.625916272401809692e-02
1.375100016593933105e-01 -4.908901080489158630e-02 2.449078410863876343e-01
3.010182082653045654e-01 -6.684921681880950928e-02 2.668819129467010498e-01
-3.592583537101745605e-02 -1.987751200795173645e-02 -3.040874004364013672e-01
-8.501639217138290405e-02 3.572629531845450401e-03 -6.525304913520812988e-02
-6.496767997741699219e-01 -1.521128602325916290e-02 -2.904221974313259125e-02
-5.902538895606994629e-01 7.139949500560760498e-02 6.430587731301784515e-03
4.172213971614837646e-01 -2.347240224480628967e-02 4.856942221522331238e-02
2.105744481086730957e-01 -1.471133809536695480e-02 -2.140007764101028442e-01
-5.591616630554199219e-01 4.120194818824529648e-03 5.287853628396987915e-02
7.151629775762557983e-02 -2.642450295388698578e-02 -4.296706616878509521e-01
7.599206268787384033e-02 -2.456754259765148163e-02 2.972123920917510986e-01
5.582731589674949646e-02 -1.052027046680450439e-01 -1.030827686190605164e-01
6.461219489574432373e-02 -5.699302256107330322e-02 4.155582189559936523e-01
-8.046620488166809082e-01 4.273556172847747803e-02 6.083016097545623779e-02
-4.241030812263488770e-01 -4.494654759764671326e-02 -2.942313440144062042e-02
-5.902538895606994629e-01 7.139949500560760498e-02 6.430587731301784515e-03
1.342484056949615479e-01 -2.825766615569591522e-02 5.421174317598342896e-02
2.315724641084671021e-01 -4.727965965867042542e-02 1.197293028235435486e-01
-2.978294193744659424e-01 7.047101110219955444e-02 -1.973358355462551117e-02
4.580270349979400635e-01 6.789982318878173828e-02 -2.751855552196502686e-02
1.665310412645339966e-01 -2.918615192174911499e-02 -6.468167901039123535e-02
2.554449066519737244e-02 -4.577980563044548035e-02 -7.868033647537231445e-02
1.036322861909866333e-01 6.919510196894407272e-04 -3.198954164981842041e-01
1.246302723884582520e-01 -5.785007402300834656e-02 2.211956679821014404e-02
1.061320453882217407e-01 -6.854944396764039993e-03 5.385463312268257141e-02
-8.132088184356689453e-01 3.614095598459243774e-02 1.671531982719898224e-02
-7.976865172386169434e-01 5.402019992470741272e-02 -1.292469352483749390e-01
-8.185002952814102173e-02 -1.475895475596189499e-02 -3.685336410999298096e-01
-1.271314173936843872e-01 3.037959709763526917e-02 -6.573632359504699707e-01
9.255776405334472656e-01 3.099858388304710388e-02 -3.001831658184528351e-02
8.289616554975509644e-02 -3.049554489552974701e-02 4.241764247417449951e-01
-7.266694307327270508e-01 4.985392838716506958e-02 6.582968682050704956e-02
-7.516432404518127441e-01 8.953067474067211151e-03 1.957218907773494720e-02
-7.801643610000610352e-01 9.442110359668731689e-02 -8.663210086524486542e-03
4.989993274211883545e-01 -9.592780843377113342e-03 -6.194384023547172546e-02
-1.954644545912742615e-02 -2.297245338559150696e-02 3.046164214611053467e-01
-8.063585311174392700e-02 -1.716348901391029358e-02 3.480170369148254395e-01
1.017753109335899353e-01 -5.023175850510597229e-02 8.728002011775970459e-02
5.230684280395507812e-01 1.292888075113296509e-02 -6.644341349601745605e-02
7.839659601449966431e-02 -4.168495908379554749e-02 1.013501062989234924e-01
8.792248964309692383e-01 -1.268772222101688385e-02 4.392701014876365662e-02
1.265586614608764648e-01 4.062662483192980289e-04 -6.484832614660263062e-02
-7.475484609603881836e-01 5.213942751288414001e-02 8.806565403938293457e-02
-1.831260621547698975e-01 7.011389732360839844e-02 1.169199123978614807e-02
3.913667500019073486e-01 -5.911185964941978455e-02 -2.297136932611465454e-02
5.446140170097351074e-01 -4.842240735888481140e-02 3.178530931472778320e-02
-2.388826608657836914e-01 -4.782722517848014832e-02 -3.885080665349960327e-02
-8.089774101972579956e-02 -1.355468295514583588e-03 4.384369850158691406e-01
1.632456332445144653e-01 -1.454469095915555954e-02 1.828899383544921875e-01
-1.685622707009315491e-02 2.026151679456233978e-02 -5.414457321166992188e-01
1.476995050907135010e-01 1.116714160889387131e-02 -6.620533764362335205e-02
3.006787039339542389e-02 3.309362381696701050e-02 5.378321185708045959e-02
-1.771328970789909363e-02 -1.623500511050224304e-02 -3.117057383060455322e-01
9.015737473964691162e-02 -2.990036271512508392e-02 -1.484117805957794189e-01
-4.582964628934860229e-02 8.905459195375442505e-03 5.620918869972229004e-01
7.760918736457824707e-01 -3.504273295402526855e-02 -5.163529887795448303e-02
3.268666565418243408e-02 -3.849478065967559814e-02 -1.900030523538589478e-01
8.330088853836059570e-02 -2.137736603617668152e-02 2.001740038394927979e-01
-1.905268756672739983e-03 -4.435136169195175171e-02 1.313948631286621094e-01
7.086697816848754883e-01 -5.920709669589996338e-02 1.350134238600730896e-02
-4.622898995876312256e-01 7.178040593862533569e-02 6.335359532386064529e-03
-6.326784491539001465e-01 -1.980609074234962463e-02 1.547734532505273819e-02
-2.462152838706970215e-01 4.302125051617622375e-02 -5.834894627332687378e-02
4.256667569279670715e-02 -9.283282794058322906e-03 -3.075394630432128906e-01
-7.269551753997802734e-01 2.141239792108535767e-01 -4.425519146025180817e-03
2.519514858722686768e-01 -1.740155741572380066e-02 1.390607953071594238e-01
-6.509862542152404785e-01 -1.694921590387821198e-02 3.740368178114295006e-03
5.625646710395812988e-01 7.044719904661178589e-02 -1.975739002227783203e-02
-5.399015545845031738e-01 -7.950074970722198486e-03 5.187863111495971680e-02
7.796806097030639648e-02 -5.954039841890335083e-02 7.644771784543991089e-02
2.312629669904708862e-01 -5.565981194376945496e-02 -4.515972733497619629e-02
-8.537349849939346313e-02 1.054815575480461121e-02 5.729003548622131348e-01
4.004310816526412964e-02 -5.146973207592964172e-02 5.933030322194099426e-02
1.092984080314636230e-01 -9.382283687591552734e-02 9.077968448400497437e-02
7.518323659896850586e-01 5.571051687002182007e-02 3.826088085770606995e-02
1.657454073429107666e-01 -1.807808526791632175e-03 5.528306588530540466e-02
-6.794596910476684570e-01 -3.902844851836562157e-03 -4.127914831042289734e-02
6.593919824808835983e-03 -2.349621616303920746e-02 -3.098487854003906250e-01
7.896796613931655884e-02 -4.513700678944587708e-02 4.968836531043052673e-02
6.196958571672439575e-02 -1.125829592347145081e-01 1.152059286832809448e-01
5.475599318742752075e-02 5.199658498167991638e-02 -5.170672014355659485e-02
4.004310816526412964e-02 7.351834326982498169e-02 -1.687685144133865833e-03
2.788060605525970459e-01 -3.744726628065109253e-02 -2.679956257343292236e-01
9.777569025754928589e-02 7.218512892723083496e-02 4.406971391290426254e-03
4.109062626957893372e-02 -9.644164144992828369e-02 -1.118438392877578735e-01
7.840673923492431641e-01 -2.368667535483837128e-02 -5.592060834169387817e-02
-2.462152838706970215e-01 4.302125051617622375e-02 -5.834894627332687378e-02
-5.154338851571083069e-02 5.358176771551370621e-03 5.329279899597167969e-01
-2.206225097179412842e-01 -1.071171555668115616e-02 5.233096703886985779e-02
4.053892195224761963e-01 -6.106405705213546753e-02 -1.451979391276836395e-02
-7.645230293273925781e-01 6.361452490091323853e-02 1.612491458654403687e-01
2.753539979457855225e-01 1.035769563168287277e-02 -6.611011177301406860e-02
-6.397077441215515137e-02 2.057101018726825714e-02 5.456886887550354004e-01
1.882432550191879272e-01 -3.623309731483459473e-02 2.088398486375808716e-01
-8.231126070022583008e-01 2.742749825119972229e-02 -2.225715108215808868e-02
-8.267076015472412109e-01 6.754271686077117920e-02 2.371466755867004395e-01
2.906382679939270020e-01 -5.187445506453514099e-02 6.194910034537315369e-02
3.010182082653045654e-01 -6.684921681880950928e-02 2.668819129467010498e-01
6.584364771842956543e-01 -3.332860767841339111e-02 4.459361359477043152e-02
-6.927979737520217896e-02 1.014343276619911194e-02 5.707814693450927734e-01
-4.832941666245460510e-02 6.358082406222820282e-03 -5.493973493576049805e-01
-1.614200510084629059e-02 -8.545258082449436188e-03 3.453268408775329590e-01
-1.090140938758850098e-01 8.715000003576278687e-03 5.563305020332336426e-01
5.937459692358970642e-02 -3.223347663879394531e-02 1.520119309425354004e-01
6.825470179319381714e-02 -4.720823839306831360e-02 -4.356700778007507324e-01
8.744334429502487183e-02 -2.366286143660545349e-02 -3.132770061492919922e-01
5.568747520446777344e-01 6.590002030134201050e-02 2.214337512850761414e-02
-5.198082327842712402e-01 1.942826248705387115e-02 5.749714374542236328e-02
1.357958763837814331e-01 -2.528175339102745056e-02 4.092254936695098877e-01
1.825947128236293793e-02 -1.668733544647693634e-02 -2.815657556056976318e-01
1.148931160569190979e-01 -2.130594477057456970e-02 -3.339178860187530518e-01
-7.715461254119873047e-01 3.783126920461654663e-02 -3.554159775376319885e-02
-3.055667579174041748e-01 -3.344764560461044312e-02 4.306995123624801636e-02
-3.409267216920852661e-02 -2.585313282907009125e-02 -2.673290073871612549e-01
6.552462577819824219e-01 5.749605596065521240e-02 -4.539779946208000183e-02
5.586364865303039551e-01 5.287745222449302673e-02 -5.082585290074348450e-02
8.784630894660949707e-01 -5.670732632279396057e-02 5.906828679144382477e-03
-7.708319425582885742e-01 2.516581118106842041e-02 2.397653274238109589e-02
3.642740845680236816e-01 5.740083009004592896e-02 -4.556445032358169556e-02
-2.473642304539680481e-02 -7.283471524715423584e-03 -3.668433427810668945e-01
-6.843402385711669922e-01 4.387830942869186401e-02 -2.201907895505428314e-02
-6.151863187551498413e-02 5.015003844164311886e-04 4.317709803581237793e-01
4.278094321489334106e-02 -1.897283270955085754e-02 -2.509496212005615234e-01
-2.732127010822296143e-01 6.480488181114196777e-02 -3.327991068363189697e-02
8.485850095748901367e-01 -2.459134534001350403e-02 -5.273043736815452576e-02
7.983279228210449219e-01 4.790173470973968506e-02 4.261761158704757690e-02
-2.673085033893585205e-01 5.582955107092857361e-02 -4.775471985340118408e-02
7.983279228210449219e-01 4.790173470973968506e-02 4.261761158704757690e-02
-3.306896239519119263e-02 2.285650745034217834e-02 5.561638474464416504e-01
8.585364222526550293e-01 -4.301816597580909729e-02 -4.149341210722923279e-02
4.825661331415176392e-02 -4.111357778310775757e-02 -1.696954816579818726e-01
-1.509862989187240601e-01 5.944825336337089539e-02 -4.232666641473770142e-02
1.538893878459930420e-01 -3.494749963283538818e-02 -2.508781850337982178e-01
-7.494292259216308594e-01 5.454396083950996399e-02 1.477980613708496094e-01
-1.116090789437294006e-01 -3.916138410568237305e-02 4.921222105622291565e-02
5.380194187164306641e-01 2.590383589267730713e-02 5.625916272401809692e-02
-7.044335007667541504e-01 9.663517773151397705e-02 -1.116297114640474319e-02
-6.700558662414550781e-01 4.095001891255378723e-02 -6.084870919585227966e-02
2.370005100965499878e-01 -1.642546430230140686e-02 1.079209074378013611e-01
9.887082874774932861e-02 -2.890045754611492157e-02 -2.714000642299652100e-01
-5.785645246505737305e-01 3.978346288204193115e-02 -5.518258363008499146e-02
-1.825785040855407715e-01 -1.412991987308487296e-04 5.566398799419403076e-02
-7.783312797546386719e-01 6.713799387216567993e-02 1.922938078641891479e-01
2.314296066761016846e-01 -6.234964728355407715e-02 -2.544746268540620804e-03
-9.134912490844726562e-02 1.354787219315767288e-02 5.969456434249877930e-01
-8.346353769302368164e-01 5.506771802902221680e-02 -1.525304466485977173e-01
1.865291297435760498e-01 -2.647211961448192596e-02 -2.483784407377243042e-01
-3.238476114347577095e-03 2.023770846426486969e-02 -5.128532052040100098e-01
3.910096585750579834e-01 -5.325527861714363098e-02 2.478597871959209442e-02
1.928618699312210083e-01 -4.158972203731536865e-02 2.447887957096099854e-01
-8.220889568328857422e-01 5.444873124361038208e-02 -1.434122622013092041e-01
-1.556048989295959473e-01 1.969014294445514679e-02 6.176103949546813965e-01
2.698307037353515625e-01 -6.206396222114562988e-02 -8.425137959420681000e-03
1.840231753885746002e-02 -4.401805996894836426e-02 -1.433408409357070923e-01
2.361434549093246460e-01 -2.797198109328746796e-02 -2.494735717773437500e-01
2.258110940456390381e-01 -1.533032394945621490e-02 -1.346749961376190186e-01
-2.860924303531646729e-01 -5.461229011416435242e-02 -2.256664633750915527e-02
-3.538717031478881836e-01 -5.016033723950386047e-02 1.831040717661380768e-02
6.445568203926086426e-01 -5.601691827178001404e-02 2.002452686429023743e-02
-4.073489457368850708e-02 -1.525890361517667770e-02 3.269238173961639404e-01
2.519514858722686768e-01 -1.740155741572380066e-02 1.390607953071594238e-01
-5.280455350875854492e-01 7.120903581380844116e-02 8.120903745293617249e-03
1.810296475887298584e-01 1.416685897856950760e-02 5.747333914041519165e-02
2.778061330318450928e-01 -5.570742860436439514e-02 -5.104012414813041687e-02
-7.895920276641845703e-01 1.873646229505538940e-01 -6.879212014609947801e-05
-9.634864330291748047e-02 1.278603821992874146e-02 -5.984402298927307129e-01
-8.501639217138290405e-02 3.572629531845450401e-03 -6.525304913520812988e-02
-8.372303247451782227e-01 5.659138411283493042e-02 1.600111573934555054e-01
6.434617042541503906e-01 7.308980822563171387e-02 3.121240588370710611e-04
-8.096377253532409668e-01 1.492015868425369263e-01 -5.996797699481248856e-03
-4.837702587246894836e-02 -5.936393281444907188e-04 4.846230447292327881e-01
7.151629775762557983e-02 -2.642450295388698578e-02 -4.296706616878509521e-01
7.682117223739624023e-01 -5.944516137242317200e-02 1.214432902634143829e-02
-8.058285713195800781e-01 1.328936368227005005e-01 -3.163734683766961098e-03
-7.460962533950805664e-01 4.437826201319694519e-02 7.442410290241241455e-02
-4.909124597907066345e-02 -1.093587721697986126e-03 5.547352507710456848e-02
2.272157371044158936e-01 -1.923471316695213318e-02 -1.030351594090461731e-01
-3.597344458103179932e-02 -7.378705777227878571e-03 4.300330281257629395e-01
-8.263565599918365479e-02 -9.235666133463382721e-03 -4.202668070793151855e-01
-3.676560819149017334e-01 -5.358858034014701843e-02 -9.401234798133373260e-03
-7.144325971603393555e-01 3.966442868113517761e-02 -5.030209571123123169e-02
1.809820532798767090e-01 -4.827956482768058777e-02 -1.164624467492103577e-01
-6.908395290374755859e-01 1.033726409077644348e-01 1.264413935132324696e-03
1.262729763984680176e-01 -1.223538257181644440e-02 -2.299754470586776733e-01
-8.123279809951782227e-01 5.616285279393196106e-02 1.576542556285858154e-01
1.498183310031890869e-01 -6.594455242156982422e-02 -4.395506978034973145e-01
8.330088853836059570e-02 -2.137736603617668152e-02 2.001740038394927979e-01
-4.241030812263488770e-01 -4.494654759764671326e-02 -2.942313440144062042e-02
9.110966324806213379e-02 -2.456754259765148163e-02 4.377941787242889404e-01
-6.447725296020507812e-01 1.167761161923408508e-01 -4.520748276263475418e-03
-2.447454258799552917e-02 -2.544840984046459198e-02 2.547878324985504150e-01
1.908620446920394897e-01 -5.025556311011314392e-02 -1.001782864332199097e-01
7.056400179862976074e-02 -4.618452861905097961e-02 -4.167195260524749756e-01
-7.988054752349853516e-01 6.101953238248825073e-02 -2.144770510494709015e-02
-8.029240965843200684e-01 9.313551336526870728e-02 -4.354097414761781693e-03
-3.055429756641387939e-01 7.213751971721649170e-02 -1.373415440320968628e-02
-8.129469752311706543e-01 6.837597489356994629e-02 -2.192145437002182007e-01
-2.221461832523345947e-01 6.381886545568704605e-03 -6.561015546321868896e-02
6.598172783851623535e-01 -6.204015761613845825e-02 -8.544174022972583771e-03
2.775856666266918182e-02 -2.840050868690013885e-02 2.633822560310363770e-01
7.353991270065307617e-02 -3.311434388160705566e-02 -6.303897500038146973e-02
1.623171567916870117e-01 -2.673400007188320160e-02 -4.318609237670898438e-01
6.751667708158493042e-02 -1.290198601782321930e-02 -3.994830548763275146e-01
3.082793951034545898e-01 -1.087837107479572296e-02 -6.330085545778274536e-02
2.315724641084671021e-01 -4.727965965867042542e-02 1.197293028235435486e-01
3.130884766578674316e-01 -4.344669356942176819e-02 2.235765308141708374e-01
9.346657991409301758e-02 -3.430470824241638184e-02 2.193150371313095093e-01
-5.596615672111511230e-01 3.209371864795684814e-02 -6.006306782364845276e-02
7.539688050746917725e-02 -3.589979559183120728e-02 -2.132151275873184204e-01
5.742240324616432190e-02 -1.064406782388687134e-01 1.038022562861442566e-01
4.842864573001861572e-01 -2.711491845548152924e-02 4.745048284530639648e-02
1.328437775373458862e-01 -2.606739662587642670e-02 -2.962786257266998291e-01
5.523990392684936523e-01 7.139949500560760498e-02 -1.680528931319713593e-02
-4.578204080462455750e-02 1.269080862402915955e-02 -4.978546500205993652e-01
3.187721967697143555e-02 -4.547030851244926453e-02 1.238955780863761902e-01
1.388432085514068604e-01 -3.497131168842315674e-02 -2.244045287370681763e-01
9.132693409919738770e-01 2.802268043160438538e-02 -4.292184859514236450e-02
2.932984568178653717e-02 3.752177581191062927e-02 -6.089632213115692139e-02
-7.749505639076232910e-01 4.478298500180244446e-02 7.649533450603485107e-02
4.717876315116882324e-01 1.952349208295345306e-02 5.756856128573417664e-02
5.757300853729248047e-01 2.147568576037883759e-02 -6.651483476161956787e-02
-8.704001456499099731e-02 4.572534933686256409e-03 -5.320418477058410645e-01
1.119172051548957825e-01 -1.292579062283039093e-02 2.441698014736175537e-01
-6.953153610229492188e-01 4.337835684418678284e-02 -7.784708589315414429e-02
-1.747459173202514648e-01 2.276127599179744720e-02 -6.628865003585815430e-01
-9.337273985147476196e-02 2.278508618474006653e-02 -6.531016826629638672e-01
-7.212414145469665527e-01 4.542578011751174927e-02 -4.658816382288932800e-02
-9.065870195627212524e-02 1.600001938641071320e-02 -5.489926338195800781e-01
-7.831164598464965820e-01 1.160618960857391357e-01 -9.044126607477664948e-03
-6.437549740076065063e-02 4.477309528738260269e-03 -4.633341133594512939e-01
4.278398118913173676e-04 -2.325813844799995422e-02 3.034498691558837891e-01
-7.195511460304260254e-01 1.367027908563613892e-01 1.002534409053623676e-03
2.864005565643310547e-01 -4.392283782362937927e-02 -2.564491033554077148e-01
2.841388583183288574e-01 -4.137545824050903320e-02 1.006120815873146057e-01
9.108585864305496216e-02 1.644248375669121742e-03 -3.887936174869537354e-01
-7.201938629150390625e-01 2.852263301610946655e-02 3.321374580264091492e-02
-8.011209219694137573e-02 1.263329409994184971e-03 4.527927637100219727e-01
-8.220889568328857422e-01 5.444873124361038208e-02 -1.434122622013092041e-01
-7.351686954498291016e-01 1.641525626182556152e-01 4.073529562447220087e-04
4.863100349903106689e-01 1.788079179823398590e-02 5.756856128573417664e-02
1.894574314355850220e-01 -7.715775817632675171e-02 -2.481879740953445435e-01
1.157739758491516113e-01 -1.413996797055006027e-02 -2.264519482851028442e-01
1.027275994420051575e-01 -2.363905869424343109e-02 -1.813610345125198364e-01
-7.853305935859680176e-01 1.604763232171535492e-02 -2.489975839853286743e-02
1.726495027542114258e-01 -1.809196360409259796e-02 -6.249140948057174683e-02
-1.090440992265939713e-02 -9.545163251459598541e-03 3.358277082443237305e-01
-4.046763479709625244e-01 3.102239407598972321e-02 5.459265783429145813e-02
2.726161777973175049e-01 -4.192302376031875610e-02 -1.221285685896873474e-01
2.591174244880676270e-01 -4.366095364093780518e-02 2.648344933986663818e-01
3.138979375362396240e-01 -7.927661389112472534e-02 2.510500848293304443e-01
8.935806751251220703e-01 3.048868151381611824e-03 4.590301215648651123e-02
3.143502771854400635e-01 -5.956420302391052246e-02 -2.104298211634159088e-02
-7.981150746345520020e-01 6.230512261390686035e-02 1.690817326307296753e-01
-7.045763134956359863e-01 7.942254096269607544e-02 -1.225810591131448746e-02
3.911286592483520508e-01 1.509534288197755814e-02 -6.668148189783096313e-02
7.546830177307128906e-02 -6.161162257194519043e-02 -4.263614416122436523e-01
-3.924156129360198975e-01 1.878546737134456635e-02 5.756856128573417664e-02
6.875465065240859985e-02 -2.980513684451580048e-02 2.543593049049377441e-01
7.356433272361755371e-01 -5.330289527773857117e-02 -3.377986326813697815e-02
9.000324606895446777e-01 2.792745083570480347e-02 3.885606303811073303e-02
1.599364280700683594e-01 -1.023557130247354507e-02 -2.180718034505844116e-01
6.918318569660186768e-02 -5.668352171778678894e-02 2.869036793708801270e-02
-5.506686493754386902e-02 -1.721109636127948761e-02 -3.573203980922698975e-01
-7.618327736854553223e-01 1.280984748154878616e-02 -3.044684603810310364e-02
4.118409752845764160e-01 -1.066410727798938751e-02 -6.146769598126411438e-02
7.760918736457824707e-01 -3.504273295402526855e-02 -5.163529887795448303e-02
-2.473642304539680481e-02 -7.283471524715423584e-03 -3.668433427810668945e-01
1.342960149049758911e-01 -2.306767925620079041e-02 -1.604582518339157104e-01
-2.280803397297859192e-02 -9.497546590864658356e-03 -4.216714203357696533e-01
-4.487735778093338013e-02 -2.337717637419700623e-02 -3.080394268035888672e-01
1.460091918706893921e-01 -6.603977084159851074e-02 -4.306944012641906738e-01
-5.008576512336730957e-01 6.299553066492080688e-02 2.752381190657615662e-02
1.852673292160034180e-01 -5.963562428951263428e-02 2.279808819293975830e-01
7.452614903450012207e-01 6.361452490091323853e-02 2.614299207925796509e-02
4.989993274211883545e-01 -9.592780843377113342e-03 -6.194384023547172546e-02
7.896796613931655884e-02 -4.513700678944587708e-02 4.968836531043052673e-02
-1.395826190710067749e-01 4.494963586330413818e-02 -5.715858563780784607e-02
-9.958642721176147461e-02 6.737606972455978394e-02 -2.847084589302539825e-02
2.816152870655059814e-01 -1.709205843508243561e-02 7.244809716939926147e-02
-7.140040397644042969e-01 4.599715396761894226e-02 3.790377452969551086e-02
2.185260802507400513e-01 -7.142020761966705322e-02 -2.717095315456390381e-01
2.726161777973175049e-01 -4.192302376031875610e-02 -1.221285685896873474e-01
-5.478117987513542175e-02 8.215042762458324432e-03 4.701958596706390381e-01
-5.154338851571083069e-02 5.358176771551370621e-03 5.329279899597167969e-01
2.687355577945709229e-01 -6.084979325532913208e-02 -2.282375097274780273e-01
9.240778088569641113e-01 -3.942326456308364868e-02 -3.566063567996025085e-02
-4.043906629085540771e-01 -5.054125562310218811e-02 -1.342466007918119431e-02
-4.492497816681861877e-02 7.929357700049877167e-03 -5.622770786285400391e-01
-7.597854137420654297e-01 8.042244613170623779e-02 1.764366752468049526e-03
5.288774371147155762e-01 -1.904426142573356628e-02 -5.853940546512603760e-02
-1.556048989295959473e-01 1.969014294445514679e-02 6.176103949546813965e-01
9.376479387283325195e-01 2.614190801978111267e-02 -1.401998102664947510e-03
-1.277265846729278564e-01 7.337550073862075806e-02 -8.068028837442398071e-03
3.280156254768371582e-01 -4.935089126229286194e-02 3.069017827510833740e-02
2.928523123264312744e-01 6.440015882253646851e-02 2.492882311344146729e-02
-7.489054799079895020e-01 1.663190126419067383e-01 3.835457901004701853e-04
1.727447360754013062e-01 -7.427708804607391357e-02 2.455982416868209839e-01
2.903795102611184120e-03 -2.575790695846080780e-02 2.330756336450576782e-01
-8.007576465606689453e-01 6.982821226119995117e-02 2.123633176088333130e-01
3.269205093383789062e-01 1.611905358731746674e-02 -6.668148189783096313e-02
-3.763995319604873657e-02 2.116619236767292023e-02 -5.357081890106201172e-01
1.715543568134307861e-01 -7.075360417366027832e-02 -2.434265315532684326e-01
5.742302536964416504e-01 7.385164499282836914e-02 -3.187542082741856575e-03
-7.935025542974472046e-02 1.057196874171495438e-02 5.013118982315063477e-01
-7.890206575393676758e-01 5.282983928918838501e-02 1.093017309904098511e-01
-5.198082327842712402e-01 -4.139926284551620483e-02 1.264428161084651947e-02
3.143502771854400635e-01 -5.956420302391052246e-02 -2.104298211634159088e-02
-1.509148478507995605e-01 7.135188579559326172e-02 7.811408955603837967e-03
2.227399647235870361e-01 -4.266104847192764282e-02 -2.565919458866119385e-01
1.522228717803955078e-01 -2.613881789147853851e-02 -1.190574318170547485e-01
2.978218346834182739e-02 -1.240203808993101120e-02 -6.065825000405311584e-02
1.663881987333297729e-01 -2.823385410010814667e-02 8.109013736248016357e-02
1.275999937206506729e-02 -5.189826712012290955e-02 -6.427695602178573608e-02
2.979708909988403320e-01 -3.673304617404937744e-02 -2.561396062374114990e-01
1.504373550415039062e-01 -6.184969842433929443e-02 -9.734536521136760712e-03
8.405143022537231445e-01 6.175755709409713745e-02 1.554876659065485001e-02
2.772585749626159668e-01 -3.335241973400115967e-02 2.416224330663681030e-01
1.367719769477844238e-01 3.983107954263687134e-02 -5.984880402684211731e-02
-8.704001456499099731e-02 4.572534933686256409e-03 -5.320418477058410645e-01
-1.094902455806732178e-01 -2.855322323739528656e-03 -6.408649682998657227e-02
4.413795471191406250e-02 -4.268486425280570984e-02 8.109013736248016357e-02
-3.980817496776580811e-01 -3.949468582868576050e-02 -4.292184859514236450e-02
6.250825524330139160e-01 6.451919674873352051e-02 -3.377986326813697815e-02
1.342960149049758911e-01 -2.306767925620079041e-02 -1.604582518339157104e-01
2.752049267292022705e-02 -5.663590505719184875e-02 -3.804136067628860474e-02
1.670786142349243164e-01 -3.561410307884216309e-02 2.127442359924316406e-01
2.935365401208400726e-02 1.450016070157289505e-02 5.752095207571983337e-02
-1.510815173387527466e-01 2.421351894736289978e-02 -6.462928652763366699e-01
6.844516098499298096e-02 8.929262869060039520e-03 -4.136007726192474365e-01
-1.449930947273969650e-02 3.191719297319650650e-03 -5.254948735237121582e-01
-7.235745787620544434e-01 6.078145653009414673e-02 -2.942313440144062042e-02
7.987326383590698242e-01 6.340025365352630615e-02 2.207195013761520386e-02
2.434998750686645508e-01 -6.230203807353973389e-02 -6.806244142353534698e-03
9.815660864114761353e-02 -2.368667535483837128e-02 4.309376776218414307e-01
-4.750267863273620605e-01 -1.394950877875089645e-02 5.083111301064491272e-02
9.665675461292266846e-02 -2.511510811746120453e-02 2.939269542694091797e-01
-7.071713805198669434e-01 5.661518871784210205e-02 1.075638011097908020e-01
-7.878540754318237305e-01 5.228227376937866211e-02 -1.147483214735984802e-01
-6.337559968233108521e-02 2.764176204800605774e-02 -5.908457636833190918e-01
-5.071904063224792480e-01 -3.523319214582443237e-02 -4.094584658741950989e-02
1.108696907758712769e-01 -2.137736603617668152e-02 -4.434550702571868896e-01
7.372384667396545410e-01 -3.356668353080749512e-02 -5.344465374946594238e-02
2.763953059911727905e-02 -7.616773713380098343e-03 -4.400744438171386719e-01
8.830816745758056641e-01 4.045006632804870605e-02 3.564208373427391052e-02
1.723161935806274414e-01 1.273842621594667435e-02 5.730668827891349792e-02
-6.695082187652587891e-01 3.771223127841949463e-02 2.840468101203441620e-02
-7.489830255508422852e-02 3.802172839641571045e-02 -6.065825000405311584e-02
2.244954928755760193e-02 -1.775866188108921051e-02 4.256525039672851562e-01
9.577588737010955811e-02 -4.680351540446281433e-02 -1.242236047983169556e-01
1.541274636983871460e-01 -5.331277847290039062e-03 -2.501401901245117188e-01
7.764965891838073730e-01 5.806743353605270386e-02 3.390415757894515991e-02
7.353991270065307617e-02 -3.311434388160705566e-02 -6.303897500038146973e-02
6.908795237541198730e-02 -9.184683114290237427e-02 9.746952354907989502e-02
-7.257885932922363281e-01 4.787792637944221497e-02 1.003502011299133301e-01
3.447997272014617920e-01 -3.254297375679016113e-02 4.495072364807128906e-02
-1.013957709074020386e-01 2.061862312257289886e-02 5.754476785659790039e-01
1.354863792657852173e-01 5.729215918108820915e-04 -3.048016428947448730e-01
4.675261676311492920e-01 -1.040222682058811188e-02 -6.158673390746116638e-02
1.462710648775100708e-01 -1.712574274279177189e-03 2.892845571041107178e-01
-2.642849981784820557e-01 -3.670924156904220581e-02 -4.994498565793037415e-02
-6.953153610229492188e-01 4.337835684418678284e-02 -7.784708589315414429e-02
3.706720098853111267e-02 -1.052027046680450439e-01 1.145155131816864014e-01
-1.953868120908737183e-01 5.275841802358627319e-02 4.183197394013404846e-02
1.350578516721725464e-01 -4.844621196389198303e-02 1.043498218059539795e-01
-6.507958173751831055e-01 4.804457724094390869e-02 -3.275614976882934570e-02
-7.836164236068725586e-01 2.674045860767364502e-01 -3.068505786359310150e-03
-7.831164598464965820e-01 1.160618960857391357e-01 -9.044126607477664948e-03
3.273428231477737427e-02 -2.882903628051280975e-02 1.926985234022140503e-01
5.417333841323852539e-01 -9.783240035176277161e-03 -6.184861063957214355e-02
1.633170694112777710e-01 -4.558934643864631653e-02 2.435508221387863159e-01
4.769300222396850586e-01 5.166328325867652893e-02 -5.199241265654563904e-02
5.235145986080169678e-02 -5.585027113556861877e-02 -4.244570434093475342e-02
-5.534240603446960449e-01 6.151948124170303345e-02 2.840468101203441620e-02
-5.071904063224792480e-01 -3.523319214582443237e-02 -4.094584658741950989e-02
1.965757906436920166e-01 -3.785198926925659180e-02 -2.565919458866119385e-01
3.735827207565307617e-01 4.963966086506843567e-02 -5.377795547246932983e-02
1.228447332978248596e-01 1.406171824783086777e-03 3.250430226325988770e-01
-2.742125988006591797e-01 -5.699302256107330322e-02 3.740368178114295006e-03
1.296774148941040039e-01 -6.539697200059890747e-02 4.345088005065917969e-01
4.556639119982719421e-02 1.288126874715089798e-02 -4.307896196842193604e-01
-6.543192267417907715e-01 3.623618185520172119e-02 1.811994984745979309e-02
-8.289692401885986328e-01 4.330693557858467102e-02 -2.318563498556613922e-02
1.178690195083618164e-01 -2.723395638167858124e-02 -2.860414981842041016e-01
1.195593327283859253e-01 -3.432851284742355347e-02 -8.451311290264129639e-02
-4.211571812629699707e-02 1.443855726392939687e-04 4.911700487136840820e-01
1.826723664999008179e-01 -4.278008639812469482e-02 -4.105296432971954346e-01
7.918223738670349121e-02 -5.332669988274574280e-02 1.015643700957298279e-01
-8.263565599918365479e-02 -9.235666133463382721e-03 -4.202668070793151855e-01
6.304091215133666992e-02 -1.656830683350563049e-02 3.614205420017242432e-01
2.538560628890991211e-01 -1.721109636127948761e-02 -1.431741863489151001e-01
-6.826260089874267578e-01 5.292506515979766846e-02 -8.786993473768234253e-02
3.010182082653045654e-01 -6.684921681880950928e-02 2.668819129467010498e-01
6.576032042503356934e-01 6.030531227588653564e-02 3.185673058032989502e-02
-1.271314173936843872e-01 3.037959709763526917e-02 -6.573632359504699707e-01
1.328437775373458862e-01 -2.606739662587642670e-02 -2.962786257266998291e-01
3.323247432708740234e-01 -4.070885479450225830e-02 2.444792985916137695e-01
4.299520701169967651e-02 -1.498310710303485394e-03 3.428746759891510010e-01
6.109886765480041504e-01 6.932826340198516846e-02 1.416794490069150925e-02
6.108871847391128540e-02 -4.651783034205436707e-02 -4.201477468013763428e-01
9.376479387283325195e-01 2.614190801978111267e-02 -1.401998102664947510e-03
3.242779076099395752e-01 -3.263819962739944458e-02 -2.600201666355133057e-01
-8.030908107757568359e-01 6.485249847173690796e-02 1.858420372009277344e-01
1.114886701107025146e-01 -3.442374616861343384e-02 2.192674279212951660e-01
2.232637256383895874e-01 -5.965942516922950745e-02 1.190625689923763275e-02
-2.018923498690128326e-02 4.739190451800823212e-03 5.289998054504394531e-01
3.006787039339542389e-02 3.309362381696701050e-02 5.378321185708045959e-02
1.358672976493835449e-01 -4.466086253523826599e-02 1.365610361099243164e-01
1.768395751714706421e-01 -5.013653263449668884e-02 -1.002973243594169617e-01
4.117964301258325577e-03 -4.606549069285392761e-02 -7.260949164628982544e-02
2.069081366062164307e-01 -1.585408486425876617e-02 4.247239828109741211e-01
1.822438240051269531e-01 -3.380475193262100220e-02 -4.111962318420410156e-01
7.165293674916028976e-03 -2.956706099212169647e-02 -2.154529988765716553e-01
-2.070999890565872192e-01 -4.147069528698921204e-02 -4.746903106570243835e-02
-7.566013932228088379e-02 4.263046197593212128e-03 5.621154978871345520e-02
-2.899730205535888672e-01 3.286944702267646790e-03 5.609251931309700012e-02
8.072970807552337646e-02 -1.740155741572380066e-02 3.557305634021759033e-01
6.228208541870117188e-01 -1.404473371803760529e-02 -5.989641696214675903e-02
8.284233510494232178e-03 -1.433041878044605255e-02 3.765857517719268799e-01
6.593919824808835983e-03 -2.349621616303920746e-02 -3.098487854003906250e-01
7.744430750608444214e-02 -4.461324214935302734e-02 -1.416743248701095581e-01
5.066414475440979004e-01 2.035674639046192169e-02 5.756856128573417664e-02
1.431047022342681885e-01 -2.985275536775588989e-02 5.454504117369651794e-02
1.393907666206359863e-01 -6.503987312316894531e-02 4.353182315826416016e-01
4.020799994468688965e-01 -4.058981686830520630e-02 3.978454694151878357e-02
2.536417841911315918e-01 -2.152020856738090515e-02 -2.506401240825653076e-01
1.794583946466445923e-01 7.244700938463211060e-02 -1.237714197486639023e-02
9.408557415008544922e-02 -5.180303379893302917e-02 -8.158481866121292114e-02
3.267776370048522949e-01 -7.170589268207550049e-02 2.619300186634063721e-01
-2.899730205535888672e-01 3.286944702267646790e-03 5.609251931309700012e-02
1.104411557316780090e-01 7.258985191583633423e-02 -1.163911633193492889e-02
3.148264288902282715e-01 4.656852781772613525e-02 -5.615868046879768372e-02
1.999088078737258911e-01 6.170994043350219727e-02 -3.877938538789749146e-02
-1.169181093573570251e-01 1.028627436608076096e-02 -5.416600108146667480e-01
1.999088078737258911e-01 6.170994043350219727e-02 -3.877938538789749146e-02
