-5.400128960609436035e-01 -4.762038961052894592e-02 -2.829704992473125458e-02
-5.721310377120971680e-01 -4.221301525831222534e-02 2.172801643610000610e-02
-3.111366331577301025e-01 2.703565871343016624e-03 -9.571269154548645020e-02
-6.844632625579833984e-01 2.188753522932529449e-02 -3.655757009983062744e-02
4.793463349342346191e-01 -8.990121632814407349e-02 -4.680170118808746338e-02
1.080628950148820877e-02 -4.213044594507664442e-04 -4.423828423023223877e-01
5.192359685897827148e-01 -7.857017219066619873e-02 -6.182824075222015381e-02
-6.450084447860717773e-01 4.107151553034782410e-02 -1.238636747002601624e-01
-8.620049059391021729e-02 -1.042087748646736145e-02 5.316521525382995605e-01
6.224924325942993164e-01 -5.569070950150489807e-02 -7.970792055130004883e-02
-1.391873657703399658e-01 -7.676436565816402435e-03 -6.197395324707031250e-01
1.917225867509841919e-01 -7.003793865442276001e-02 -1.673129200935363770e-01
7.761272788047790527e-01 -2.715930715203285217e-02 -8.639242500066757202e-02
2.276449650526046753e-01 9.958698414266109467e-03 1.019963622093200684e-01
-7.388631701469421387e-01 6.672260165214538574e-02 -8.134855888783931732e-03
-2.099724262952804565e-01 -1.022376641631126404e-01 2.167367003858089447e-02
-4.884932935237884521e-01 -5.908730253577232361e-02 -2.403092570602893829e-02
8.112940937280654907e-02 5.416878685355186462e-02 9.389888495206832886e-02
4.560592472553253174e-01 3.327292948961257935e-02 1.000399291515350342e-01
3.290809094905853271e-01 -6.389689445495605469e-02 -2.671456634998321533e-01
9.458755254745483398e-01 -2.839674940332770348e-03 -4.000850766897201538e-02
-6.372369527816772461e-01 4.262036085128784180e-02 -1.834807246923446655e-01
7.544977664947509766e-01 -8.881431072950363159e-02 5.118329450488090515e-02
9.557663798332214355e-01 -4.539223387837409973e-02 1.458157785236835480e-02
6.209436058998107910e-01 9.498228132724761963e-02 -5.283405259251594543e-02
5.163284540176391602e-01 -6.047311425209045410e-02 -7.669174671173095703e-02
-2.776598036289215088e-01 -7.191285490989685059e-02 7.161721587181091309e-02
-6.839742064476013184e-01 3.444135561585426331e-02 -4.892117530107498169e-02
2.430791109800338745e-01 -5.446793511509895325e-02 3.292965590953826904e-01
4.078547358512878418e-01 9.468337893486022949e-02 -5.337750911712646484e-02
3.650032877922058105e-01 -6.819019466638565063e-02 2.873418033123016357e-01
4.903836920857429504e-02 -5.438642576336860657e-02 -9.726153314113616943e-02
7.542312890291213989e-02 -9.000991284847259521e-02 -1.289721578359603882e-01
-2.611930966377258301e-01 1.007429063320159912e-01 -4.229102283716201782e-02
-7.750301361083984375e-01 2.506550550460815430e-01 6.321056280285120010e-03
3.280211687088012695e-01 1.013407111167907715e-01 4.626502469182014465e-02
-1.799736917018890381e-01 -6.778259575366973877e-02 -7.144740223884582520e-02
-2.630952000617980957e-01 2.786554396152496338e-02 1.014257371425628662e-01
-4.992537200450897217e-01 -8.138373494148254395e-03 8.392647653818130493e-02
-4.949604272842407227e-01 1.191513147205114365e-02 9.004034101963043213e-02
-7.402708381414413452e-02 5.973920226097106934e-02 9.158919006586074829e-02
-5.318557471036911011e-02 8.817440830171108246e-03 5.643953084945678711e-01
8.171038031578063965e-01 -1.558767110109329224e-01 -1.226511690765619278e-02
2.540569007396697998e-01 -8.199395239353179932e-02 -9.253346920013427734e-02
-6.937019824981689453e-01 2.479502186179161072e-02 -4.799730330705642700e-02
3.988115116953849792e-02 -1.020746305584907532e-01 -3.965526446700096130e-02
6.530889868736267090e-01 4.813643172383308411e-02 -9.022378921508789062e-02
4.558743163943290710e-02 7.743012974970042706e-04 -4.170578122138977051e-01
3.368794918060302734e-01 -8.405907452106475830e-02 2.706848978996276855e-01
-7.532919049263000488e-01 1.601969152688980103e-01 3.973930433858186007e-04
2.698714733123779297e-01 -1.446815282106399536e-01 -3.349688947200775146e-01
1.345238834619522095e-01 -5.774341057986021042e-03 -3.127415776252746582e-01
2.296014130115509033e-01 -3.183302283287048340e-02 3.013086020946502686e-01
8.572161197662353516e-02 -1.403882354497909546e-01 -1.959530115127563477e-01
2.497364282608032227e-01 -6.427730619907379150e-02 -2.749986052513122559e-01
-1.562246978282928467e-01 -1.038408502936363220e-01 1.036979816854000092e-02
-4.731678664684295654e-01 9.856908768415451050e-02 -2.949265018105506897e-02
2.520461082458496094e-01 -1.087862849235534668e-01 -2.995356023311614990e-01
7.267868518829345703e-02 -1.542067434638738632e-02 -2.867644131183624268e-01
3.949748575687408447e-01 -8.737415820360183716e-02 8.020380884408950806e-02
3.782908022403717041e-01 -9.577055275440216064e-02 4.265104234218597412e-02
2.549535930156707764e-01 -9.794437140226364136e-02 -2.569015324115753174e-01
-3.561347424983978271e-01 2.676396863535046577e-03 -9.283237159252166748e-02
1.126822642982006073e-02 -8.274229243397712708e-03 -4.036616683006286621e-01
-7.633458375930786133e-01 2.612649463117122650e-02 -3.365008533000946045e-02
-7.267984151840209961e-01 3.435983881354331970e-02 -5.786101520061492920e-02
1.740874350070953369e-01 -1.123731061816215515e-01 3.378559648990631104e-01
3.394880890846252441e-01 9.590615332126617432e-02 5.672654137015342712e-02
-1.519313901662826538e-01 1.091121137142181396e-01 2.096717804670333862e-02
2.824796140193939209e-01 -1.178076490759849548e-01 -3.540170192718505859e-01
7.322432398796081543e-01 -4.633083473891019821e-03 -9.408231824636459351e-02
3.375859856605529785e-01 -5.585374683141708374e-02 -3.380666077136993408e-01
2.755777239799499512e-01 -1.193836852908134460e-01 2.733206450939178467e-01
6.938752532005310059e-01 -7.770065963268280029e-02 -6.283362954854965210e-02
1.012372523546218872e-01 -2.824621647596359253e-02 -4.068136811256408691e-01
5.992597341537475586e-01 3.588151559233665466e-02 -9.381059557199478149e-02
-6.993811130523681641e-01 3.944114223122596741e-02 2.006606757640838623e-01
-2.142928987741470337e-01 9.653112292289733887e-02 5.561245605349540710e-02
2.991908788681030273e-01 -6.006553396582603455e-02 -9.650069475173950195e-02
2.855010889470577240e-02 -1.606862843036651611e-01 1.442500203847885132e-01
1.407464593648910522e-01 -1.819229498505592346e-02 4.304064214229583740e-01
-6.868544816970825195e-01 5.109826475381851196e-02 -2.200280874967575073e-01
1.224048361182212830e-01 1.047644689679145813e-01 3.756973519921302795e-02
-6.141673326492309570e-01 -3.484919667243957520e-02 7.788385264575481415e-03
1.690333038568496704e-01 -1.017632428556680679e-02 -4.043953120708465576e-01
-2.042661607265472412e-01 2.794706262648105621e-02 -8.175572156906127930e-01
1.450669318437576294e-01 -7.449427247047424316e-02 1.461249291896820068e-01
8.835736662149429321e-02 5.393669009208679199e-03 -4.525726139545440674e-01
-7.867959141731262207e-01 1.673705279827117920e-01 2.734250854700803757e-03
-2.711926698684692383e-01 -1.574674434959888458e-02 -9.359320998191833496e-02
8.632975220680236816e-01 4.726689681410789490e-02 -6.030656397342681885e-02
-4.785971716046333313e-02 -1.653475314378738403e-02 9.957799315452575684e-02
-4.151811599731445312e-01 -2.221385948359966278e-02 -8.161001652479171753e-02
-1.116885393857955933e-01 2.952308766543865204e-02 7.479473948478698730e-01
-9.962382912635803223e-02 6.643612869083881378e-03 -6.853888630867004395e-01
-1.872016489505767822e-01 3.870748355984687805e-02 8.719638586044311523e-01
2.716104984283447266e-01 -1.098460257053375244e-01 3.172046840190887451e-01
3.490256965160369873e-01 -9.995514899492263794e-02 -3.180233761668205261e-02
-5.405509844422340393e-02 1.050215214490890503e-02 -9.658221155405044556e-02
3.251732885837554932e-02 -1.432685256004333496e-01 2.011226117610931396e-01
1.640388183295726776e-02 1.604539342224597931e-02 -5.775673389434814453e-01
4.098655581474304199e-01 -8.476557582616806030e-02 8.177983015775680542e-02
-6.231886744499206543e-01 9.737347811460494995e-02 -7.319672964513301849e-03
-5.829186439514160156e-01 9.250955283641815186e-02 -2.428574953228235245e-03
3.395152390003204346e-01 -7.740175724029541016e-02 3.458447456359863281e-01
2.509916760027408600e-02 -4.321841895580291748e-02 2.868798673152923584e-01
8.887364715337753296e-02 -1.332417875528335571e-01 -1.394065022468566895e-01
9.221589565277099609e-02 -5.324516072869300842e-02 -9.650069475173950195e-02
-7.236735820770263672e-01 5.946747213602066040e-02 -3.048343062400817871e-01
2.442747205495834351e-01 -1.038680151104927063e-01 -2.621458768844604492e-01
2.654694616794586182e-01 -1.020202711224555969e-01 4.471617564558982849e-02
9.512338042259216309e-02 -2.703818958252668381e-03 3.603278696537017822e-01
-8.648632764816284180e-01 4.144524931907653809e-01 5.179799627512693405e-03
8.364779949188232422e-01 -8.120594918727874756e-02 -3.185668215155601501e-02
-4.279251992702484131e-01 -5.759279429912567139e-02 -5.269819125533103943e-02
9.199851751327514648e-02 -7.348886877298355103e-02 -1.683998405933380127e-01
-1.924679055809974670e-02 -9.737373143434524536e-02 -6.753452122211456299e-02
8.105823397636413574e-01 -1.530507206916809082e-01 1.238058321177959442e-02
1.298230141401290894e-01 -2.944182232022285461e-02 -3.860536813735961914e-01
7.542312890291213989e-02 -9.000991284847259521e-02 -1.289721578359603882e-01
3.534005582332611084e-01 -9.202069789171218872e-02 -3.600765466690063477e-01
-7.338090538978576660e-01 5.503831431269645691e-02 3.117157816886901855e-01
-6.873164772987365723e-01 4.590826854109764099e-02 -2.444835901260375977e-01
7.917243838310241699e-01 9.797128289937973022e-02 3.822188451886177063e-02
-7.388631701469421387e-01 6.672260165214538574e-02 -8.134855888783931732e-03
-4.574348032474517822e-01 -6.544574350118637085e-02 -2.351464144885540009e-02
1.123780980706214905e-01 1.012320071458816528e-01 -4.106824845075607300e-02
8.805846422910690308e-02 -8.813499659299850464e-02 1.744117885828018188e-01
-2.630952000617980957e-01 2.786554396152496338e-02 1.014257371425628662e-01
8.300433307886123657e-02 -9.704766422510147095e-02 7.634527981281280518e-02
-6.890010833740234375e-01 4.895161092281341553e-02 -2.577710747718811035e-01
-8.863026499748229980e-01 4.442066550254821777e-01 4.065716639161109924e-03
2.572089433670043945e-01 -1.216390058398246765e-01 -3.546419739723205566e-01
6.005097031593322754e-01 1.105251014232635498e-01 6.755820009857416153e-03
5.018490832298994064e-03 -5.781018733978271484e-02 1.944109499454498291e-01
-1.229108870029449463e-01 2.813727594912052155e-02 -9.590289741754531860e-02
-5.747887119650840759e-02 1.726816780865192413e-02 7.384640574455261230e-01
-2.218741178512573242e-01 3.207732364535331726e-02 8.642196059226989746e-01
4.132130742073059082e-02 -2.881683968007564545e-02 -4.126286506652832031e-01
-5.151497721672058105e-01 -5.734825134277343750e-02 1.348439836874604225e-03
1.811523735523223877e-01 -3.539266064763069153e-02 -9.625614434480667114e-02
-1.730718165636062622e-01 4.177800565958023071e-02 -8.856249451637268066e-01
1.741689592599868774e-01 -8.736166171729564667e-03 -9.506053477525711060e-02
2.494646906852722168e-01 -7.954840362071990967e-02 9.906170517206192017e-02
-7.303037643432617188e-01 5.278297513723373413e-02 4.441727697849273682e-02
-5.348500609397888184e-01 1.701149791479110718e-01 -7.781609427183866501e-03
2.355559496209025383e-03 -5.764715373516082764e-02 -1.431563347578048706e-01
-8.033116161823272705e-02 8.192458190023899078e-03 7.033025622367858887e-01
-7.879100441932678223e-01 3.162501156330108643e-01 8.032940328121185303e-03
-7.157119512557983398e-01 3.802816197276115417e-02 1.742487549781799316e-01
2.573448121547698975e-01 -8.389604091644287109e-02 -7.881122082471847534e-02
-7.487269043922424316e-01 5.539156123995780945e-02 2.434305995702743530e-01
6.917829513549804688e-01 1.068296134471893311e-01 -2.533521689474582672e-02
-9.842821955680847168e-02 9.449316561222076416e-02 5.917209014296531677e-02
7.211295962333679199e-01 1.324659399688243866e-02 -9.631048142910003662e-02
-7.227496504783630371e-01 9.797128289937973022e-02 5.478700157254934311e-03
4.451629519462585449e-01 1.104979366064071655e-01 7.027548272162675858e-03
-4.151811599731445312e-01 -2.221385948359966278e-02 -8.161001652479171753e-02
5.839071273803710938e-01 1.351832598447799683e-02 -9.655504673719406128e-02
3.212279975414276123e-01 8.623264729976654053e-02 7.107375562191009521e-02
4.132130742073059082e-02 -2.881683968007564545e-02 -4.126286506652832031e-01
-4.969711899757385254e-01 1.547623723745346069e-01 1.015241630375385284e-02
1.709625720977783203e-01 -1.168837770819664001e-01 3.219870924949645996e-01
7.342268824577331543e-01 -6.588050723075866699e-02 -7.220824062824249268e-02
-7.398685216903686523e-01 5.196778848767280579e-02 2.903036177158355713e-01
-3.416463732719421387e-02 -6.482076644897460938e-02 2.343005686998367310e-01
1.307740509510040283e-01 -3.137108683586120605e-02 -3.254312574863433838e-01
1.259916573762893677e-01 -3.810992464423179626e-02 -9.006074815988540649e-02
-8.153001070022583008e-01 6.196736544370651245e-02 -3.072526752948760986e-01
-1.277476549148559570e-01 5.601653084158897400e-02 9.335541725158691406e-02
2.534590959548950195e-01 -2.781144902110099792e-02 3.129657208919525146e-01
-1.599473804235458374e-01 2.389831840991973877e-02 7.548492550849914551e-01
1.211548969149589539e-01 1.209058798849582672e-03 -4.066778421401977539e-01
2.897347509860992432e-01 -1.023191735148429871e-01 -2.927527017891407013e-02
-6.324817538261413574e-01 -2.979506179690361023e-02 1.401094906032085419e-02
-6.938053667545318604e-02 -1.041125804185867310e-01 -1.260145800188183784e-03
7.547747343778610229e-02 -3.872245550155639648e-03 1.004475131630897522e-01
2.198735475540161133e-01 -5.531030148267745972e-02 3.182644248008728027e-01
-7.453574538230895996e-01 3.979439288377761841e-02 1.125665679574012756e-01
8.955296874046325684e-02 -1.478335559368133545e-01 -1.473137736320495605e-01
1.194973513484001160e-01 -6.294583529233932495e-02 -3.114372789859771729e-01
-6.937019824981689453e-01 2.479502186179161072e-02 -4.799730330705642700e-02
-7.129131555557250977e-01 2.952308766543865204e-02 -8.258823305368423462e-02
3.868554905056953430e-02 -2.715930715203285217e-02 -2.569558620452880859e-01
-6.655781865119934082e-01 3.555544465780258179e-02 6.832931190729141235e-02
2.542199194431304932e-01 -3.332751989364624023e-02 -2.944814562797546387e-01
8.920462727546691895e-01 2.737643942236900330e-02 6.164480745792388916e-02
2.580241262912750244e-01 -1.016126945614814758e-01 -4.432897642254829407e-02
1.438441574573516846e-01 -2.571914903819561005e-02 1.481085568666458130e-01
8.767805248498916626e-02 -1.517611090093851089e-02 4.909473657608032227e-01
6.998857855796813965e-02 -1.696952059864997864e-02 2.831843793392181396e-01
2.563666105270385742e-01 -3.786538168787956238e-02 -2.530701756477355957e-01
2.558231353759765625e-01 -1.767600886523723602e-02 1.677544564008712769e-01
3.227277845144271851e-02 -1.536632608622312546e-02 -3.374416232109069824e-01
-7.786169052124023438e-01 6.416836380958557129e-02 3.219327330589294434e-01
7.732521742582321167e-02 5.801257211714982986e-03 4.552423357963562012e-01
3.359827995300292969e-01 -1.262187492102384567e-02 -9.511488676071166992e-02
-6.218844056129455566e-01 -1.675213687121868134e-02 -4.832337424159049988e-02
-7.350860834121704102e-01 3.153387084603309631e-02 7.781260460615158081e-02
1.474581360816955566e-01 -6.562348455190658569e-03 3.070420622825622559e-01
2.475626021623611450e-01 -1.288941502571105957e-01 -3.479031324386596680e-01
3.787036612629890442e-02 -5.285224877297878265e-03 -3.882818818092346191e-01
5.430988967418670654e-02 -9.884107112884521484e-02 6.895428150892257690e-02
-1.909514963626861572e-01 3.357183188199996948e-02 -8.381541967391967773e-01
-1.335626095533370972e-01 2.028434164822101593e-02 8.019124865531921387e-01
2.035155445337295532e-01 -1.908898912370204926e-02 -9.609311074018478394e-02
6.176828742027282715e-01 6.517375260591506958e-02 -8.321320265531539917e-02
-7.219073176383972168e-01 2.441879361867904663e-01 -4.792605061084032059e-03
3.604979068040847778e-02 -5.840799212455749512e-02 -9.095745533704757690e-02
-1.973642706871032715e-01 2.085497602820396423e-02 -7.729667425155639648e-01
-2.971698343753814697e-01 -7.797236740589141846e-02 6.373711675405502319e-02
-1.744304448366165161e-01 3.278381377458572388e-02 8.225094676017761230e-01
6.651265025138854980e-01 -8.598835021257400513e-02 5.862863361835479736e-02
-7.381838560104370117e-01 5.343512073159217834e-02 2.266106754541397095e-01
9.618312120437622070e-02 -3.455029428005218506e-02 3.766858577728271484e-01
1.776198893785476685e-01 -7.789086550474166870e-02 1.306908130645751953e-01
-7.345698475837707520e-01 9.454751014709472656e-02 1.049539307132363319e-03
3.693509697914123535e-01 9.481924772262573242e-02 -5.313295498490333557e-02
-5.970703437924385071e-02 8.518539369106292725e-03 6.967538595199584961e-01
1.209918558597564697e-01 -5.550050362944602966e-02 2.437566816806793213e-01
-1.339702010154724121e-01 4.225242417305707932e-03 -6.457982063293457031e-01
3.532374799251556396e-01 -6.503814458847045898e-02 -9.978860616683959961e-02
1.071337535977363586e-01 -2.933312579989433289e-02 -1.598947644233703613e-01
-7.691879868507385254e-01 6.653238832950592041e-02 -3.413816988468170166e-01
-4.709939956665039062e-01 -6.175024434924125671e-02 3.569481521844863892e-02
-6.117218136787414551e-01 -2.270297519862651825e-02 4.792256280779838562e-02
2.060697823762893677e-01 -6.060897931456565857e-02 2.100896388292312622e-01
-3.932255804538726807e-01 1.106609702110290527e-01 -2.645956818014383316e-03
2.509916760027408600e-02 -4.321841895580291748e-02 2.868798673152923584e-01
-5.095521807670593262e-01 1.653597354888916016e-01 1.020676176995038986e-02
7.311344146728515625e-02 -8.560720598325133324e-04 3.910330832004547119e-01
-7.657914161682128906e-01 4.074147343635559082e-01 6.837338674813508987e-03
3.418249487876892090e-01 -6.346212327480316162e-02 1.111807599663734436e-01
-5.247145891189575195e-01 6.490202993154525757e-02 -7.500703632831573486e-02
-6.418291926383972168e-01 2.597851157188415527e-01 -7.537054829299449921e-03
-2.524162828922271729e-01 -9.492818266153335571e-02 3.827622905373573303e-02
4.897806644439697266e-01 -6.530987471342086792e-02 -7.340384274721145630e-02
1.841466501355171204e-02 -6.805432587862014771e-02 1.442771852016448975e-01
3.507919311523437500e-01 -5.601678043603897095e-02 -1.154944598674774170e-01
-1.210631430149078369e-01 -2.404917497187852859e-03 5.802370309829711914e-01
7.907190322875976562e-01 3.593586385250091553e-02 -8.655545860528945923e-02
-6.789472103118896484e-01 1.087045297026634216e-01 -3.678522072732448578e-03
2.090316116809844971e-01 -1.099151093512773514e-02 -3.093449771404266357e-01
2.038688063621520996e-01 -1.140306442975997925e-01 3.538063764572143555e-01
1.577294468879699707e-01 -8.658615499734878540e-02 -2.982313334941864014e-01
-7.645685672760009766e-01 5.876098200678825378e-02 -2.674717307090759277e-01
2.713116109371185303e-01 -7.454860955476760864e-02 -3.571690320968627930e-01
-7.193530797958374023e-01 5.753820762038230896e-02 -2.736943066120147705e-01
-5.340620279312133789e-01 -4.446836188435554504e-02 -3.786186501383781433e-02
-7.376947402954101562e-01 3.683255612850189209e-02 -1.305481642484664917e-01
3.101958334445953369e-01 7.797212898731231689e-02 7.982338964939117432e-02
-7.468248009681701660e-01 2.101948112249374390e-01 7.190585136413574219e-03
-1.612192019820213318e-02 -3.748495131731033325e-02 2.757933735847473145e-01
9.366133250296115875e-03 -2.120846882462501526e-02 4.361942112445831299e-01
2.382967025041580200e-01 -8.310803025960922241e-02 1.012083515524864197e-01
7.554759383201599121e-01 2.593627944588661194e-02 9.903453290462493896e-02
2.551166415214538574e-01 -8.873280137777328491e-02 2.914992272853851318e-01
5.941836908459663391e-02 -3.150695189833641052e-02 3.253293335437774658e-01
1.812882125377655029e-01 -7.419537007808685303e-02 -1.454388499259948730e-01
2.043850719928741455e-01 -3.014831244945526123e-02 -9.612027555704116821e-02
-7.356839179992675781e-01 4.001177474856376648e-02 -1.713345050811767578e-01
-1.708436608314514160e-01 1.389874517917633057e-02 -7.228329181671142578e-01
8.235437870025634766e-01 9.544421732425689697e-02 1.770644634962081909e-02
-7.663567364215850830e-02 1.507960259914398193e-03 -9.557682275772094727e-02
-6.091675162315368652e-01 3.658800572156906128e-02 1.095775663852691650e-01
2.553340196609497070e-01 -1.391382664442062378e-01 -3.444522023200988770e-01
1.504743099212646484e-01 5.484810471534729004e-02 -8.824017643928527832e-02
-3.921114802360534668e-01 9.628657251596450806e-02 5.218869075179100037e-02
8.933506011962890625e-01 -4.490312933921813965e-02 -4.845923930406570435e-02
-7.786169052124023438e-01 6.416836380958557129e-02 3.219327330589294434e-01
-2.988002300262451172e-01 -2.762124501168727875e-02 9.607270359992980957e-02
2.559590041637420654e-01 -8.721112459897994995e-02 2.676959037780761719e-01
-7.002778053283691406e-01 3.389790281653404236e-02 -1.408738195896148682e-01
3.534005582332611084e-01 -9.202069789171218872e-02 -3.600765466690063477e-01
-4.207516014575958252e-01 -1.099151093512773514e-02 9.009469300508499146e-02
-7.038102746009826660e-01 4.878857359290122986e-02 -2.638577520847320557e-01
3.341350555419921875e-01 -9.772697091102600098e-02 -6.085002049803733826e-02
-1.013863831758499146e-03 -4.645197466015815735e-02 -2.510865628719329834e-01
1.131117641925811768e-01 -3.580024093389511108e-02 -3.227955102920532227e-01
7.547747343778610229e-02 -3.872245550155639648e-03 1.004475131630897522e-01
3.216355741024017334e-01 -4.868013039231300354e-02 2.985641658306121826e-01
-5.018351078033447266e-01 1.119109168648719788e-01 1.819555461406707764e-02
-6.334446952678263187e-04 1.063800882548093796e-02 6.615651249885559082e-01
-2.711926698684692383e-01 -1.574674434959888458e-02 -9.359320998191833496e-02
-1.223674416542053223e-01 1.590952649712562561e-02 -9.647351503372192383e-02
-3.338802456855773926e-01 4.729407653212547302e-02 -8.949011564254760742e-02
5.163284540176391602e-01 -6.047311425209045410e-02 -7.669174671173095703e-02
-7.656826376914978027e-01 2.840503752231597900e-01 -2.972029848024249077e-03
-6.361991167068481445e-02 2.724057249724864960e-02 -7.404409050941467285e-01
-2.791490219533443451e-02 -1.671248581260442734e-03 6.207244992256164551e-01
1.126822642982006073e-02 -8.274229243397712708e-03 -4.036616683006286621e-01
-2.169233560562133789e-02 -1.873574964702129364e-02 -4.253727197647094727e-01
5.710868537425994873e-02 -2.044763043522834778e-02 2.757390439510345459e-01
9.455222487449645996e-01 2.107235975563526154e-02 -2.775359340012073517e-02
5.876622349023818970e-02 -3.821862116456031799e-02 -1.728289872407913208e-01
3.040004372596740723e-01 -5.897860601544380188e-02 1.019691899418830872e-01
-3.459413768723607063e-03 -6.642395257949829102e-02 1.018876731395721436e-01
3.387597203254699707e-02 -1.537843942642211914e-01 1.943294256925582886e-01
-2.902951240539550781e-01 -9.446624666452407837e-02 -3.112301602959632874e-02
2.363674342632293701e-01 -6.590767949819564819e-02 -3.437456786632537842e-01
4.671729207038879395e-01 -3.099066764116287231e-02 9.588249027729034424e-02
-4.530546814203262329e-02 2.359942719340324402e-02 -6.650636196136474609e-01
1.298230141401290894e-01 -2.944182232022285461e-02 -3.860536813735961914e-01
8.433527350425720215e-01 6.976595520973205566e-02 -5.280688032507896423e-02
1.459092944860458374e-01 -9.270001202821731567e-02 8.490469306707382202e-02
-7.466617226600646973e-01 1.035145223140716553e-01 1.674512983299791813e-03
3.682096898555755615e-01 -5.677761882543563843e-02 2.862277328968048096e-01
5.664893984794616699e-01 8.655872195959091187e-02 -6.519766151905059814e-02
8.767805248498916626e-02 -1.517611090093851089e-02 4.909473657608032227e-01
1.586533188819885254e-01 1.311073731631040573e-02 1.020507067441940308e-01
-7.219073176383972168e-01 2.441879361867904663e-01 -4.792605061084032059e-03
-6.350088715553283691e-01 3.694125264883041382e-02 8.634485304355621338e-02
-7.779104113578796387e-01 3.940457701683044434e-01 9.962206706404685974e-03
-4.883792623877525330e-02 -1.031071767210960388e-01 -1.511825807392597198e-02
2.583283185958862305e-02 8.083771914243698120e-03 -6.207992434501647949e-01
4.558743163943290710e-02 7.743012974970042706e-04 -4.170578122138977051e-01
-8.478259444236755371e-01 4.384188950061798096e-01 8.005768060684204102e-03
1.022698283195495605e-01 -6.794562935829162598e-02 3.215523064136505127e-01
2.706322968006134033e-01 9.582463651895523071e-02 5.683523043990135193e-02
1.540377968922257423e-03 -5.810908973217010498e-02 2.298714071512222290e-01
-4.574348032474517822e-01 -6.544574350118637085e-02 -2.351464144885540009e-02
2.855010889470577240e-02 -1.606862843036651611e-01 1.442500203847885132e-01
5.117362141609191895e-01 -1.031615361571311951e-01 1.795099861919879913e-02
-1.241608336567878723e-01 1.512151956558227539e-02 6.678963899612426758e-01
-2.523347735404968262e-01 -1.680648513138294220e-02 9.881715476512908936e-02
-4.478428363800048828e-01 1.039492934942245483e-01 1.727168075740337372e-02
1.253395080566406250e-01 -1.023067347705364227e-02 -2.777158915996551514e-01
2.469376325607299805e-01 -6.623374670743942261e-02 3.510619401931762695e-01
2.913107573986053467e-01 8.824343234300613403e-02 6.841082870960235596e-02
9.292238950729370117e-02 -9.128703176975250244e-02 -1.685900539159774780e-01
-7.292168140411376953e-01 4.533763229846954346e-02 1.533528864383697510e-01
-7.169023156166076660e-02 -1.849119551479816437e-02 4.324987232685089111e-01
-7.129131555557250977e-01 2.952308766543865204e-02 -8.258823305368423462e-02
5.183935761451721191e-01 1.044927462935447693e-01 -3.275338187813758850e-02
-2.404331117868423462e-01 -1.370878331363201141e-02 -9.405514597892761230e-02
2.619369924068450928e-01 -1.463934034109115601e-01 3.320953547954559326e-01
-6.780505180358886719e-01 3.558261319994926453e-02 -1.733181178569793701e-01
-2.246457338333129883e-01 1.089490801095962524e-01 -1.617799513041973114e-02
-8.076593279838562012e-02 -8.817683905363082886e-03 -6.209350824356079102e-01
-5.400128960609436035e-01 -4.762038961052894592e-02 -2.829704992473125458e-02
3.220160007476806641e-01 -3.740344569087028503e-02 -9.631048142910003662e-02
4.568744301795959473e-01 1.092208102345466614e-01 -1.495521981269121170e-02
2.338947057723999023e-01 9.822831489145755768e-03 -9.650069475173950195e-02
4.998941719532012939e-02 -1.802925951778888702e-02 -2.944543063640594482e-01
-2.745296619832515717e-02 2.259402535855770111e-02 -6.651180386543273926e-01
9.661788493394851685e-02 -8.288927492685616016e-04 -3.747498095035552979e-01
-2.201841212809085846e-02 -3.213192522525787354e-02 -3.067092299461364746e-01
-6.692736744880676270e-01 4.225242417305707932e-03 -5.199169740080833435e-02
1.565881818532943726e-01 -4.877636674791574478e-03 -3.202684223651885986e-01
2.362587302923202515e-01 8.395013958215713501e-02 -6.859425455331802368e-02
-5.744950771331787109e-01 3.183276951313018799e-02 -7.707216590642929077e-02
3.782908022403717041e-01 -9.577055275440216064e-02 4.265104234218597412e-02
3.257929980754852295e-01 -3.158847242593765259e-02 1.577005386352539062e-01
3.729973733425140381e-02 7.261908799409866333e-02 8.408951759338378906e-02
2.824796140193939209e-01 -1.178076490759849548e-01 -3.540170192718505859e-01
-5.018351078033447266e-01 1.119109168648719788e-01 1.819555461406707764e-02
-3.100497126579284668e-01 5.055480822920799255e-02 9.495861083269119263e-02
-8.540213704109191895e-01 4.360548555850982666e-01 -1.803601160645484924e-03
3.556015193462371826e-01 -5.071810260415077209e-02 3.026672601699829102e-01
-1.708436608314514160e-01 1.389874517917633057e-02 -7.228329181671142578e-01
1.935703307390213013e-01 -1.240302175283432007e-01 2.900590896606445312e-01
5.610329285264015198e-02 9.143511764705181122e-03 -4.912938475608825684e-01
-5.045252442359924316e-01 -5.479400604963302612e-02 3.659151867032051086e-02
2.613120377063751221e-01 -1.450075954198837280e-01 -2.846449315547943115e-01
9.369900226593017578e-01 4.101716727018356323e-02 4.120061639696359634e-03
3.018047101795673370e-02 -8.297216892242431641e-02 9.756720066070556641e-02
-1.857886612415313721e-01 1.707795448601245880e-02 7.505015730857849121e-01
5.572287365794181824e-02 -1.764884032309055328e-02 -4.876526892185211182e-01
2.894630134105682373e-01 -2.248559147119522095e-02 -1.785352826118469238e-01
-8.033116161823272705e-02 -1.465983595699071884e-02 -4.803975522518157959e-01
4.785039424896240234e-01 1.064763590693473816e-01 -2.696558274328708649e-02
3.369066715240478516e-01 -2.819186821579933167e-02 7.865495979785919189e-02
-9.228717535734176636e-02 2.096366323530673981e-02 7.826198339462280273e-01
-9.674353152513504028e-02 1.813769340515136719e-02 7.721039652824401855e-01
-1.612192019820213318e-02 -3.748495131731033325e-02 2.757933735847473145e-01
3.163640499114990234e-01 -1.441652327775955200e-01 -3.385828435420989990e-01
-8.793953806161880493e-02 1.998544111847877502e-02 -6.558520793914794922e-01
-6.868544816970825195e-01 5.109826475381851196e-02 -2.200280874967575073e-01
2.784361317753791809e-02 1.686058007180690765e-02 -9.641917794942855835e-02
1.450669318437576294e-01 -7.449427247047424316e-02 1.461249291896820068e-01
-1.940220147371292114e-01 1.042210236191749573e-01 -3.348704800009727478e-02
-6.584045886993408203e-01 3.070113658905029297e-01 8.060113526880741119e-03
1.453929990530014038e-01 -9.824326634407043457e-02 7.294867932796478271e-02
2.871805131435394287e-01 2.474067360162734985e-02 1.015616059303283691e-01
-6.002005338668823242e-01 -2.104543335735797882e-02 -5.019829422235488892e-02
2.130260020494461060e-01 -1.305516660213470459e-01 2.907112240791320801e-01
-2.617057878524065018e-03 -3.281124681234359741e-02 4.365202784538269043e-01
4.098655581474304199e-01 -8.476557582616806030e-02 8.177983015775680542e-02
-4.611846506595611572e-01 1.175209693610668182e-02 -8.680001646280288696e-02
-7.157119512557983398e-01 3.802816197276115417e-02 1.742487549781799316e-01
-4.605053365230560303e-01 7.976552844047546387e-02 7.216066867113113403e-02
-9.046661853790283203e-02 -7.051454391330480576e-03 5.123594403266906738e-01
-5.470196250826120377e-03 -2.099108509719371796e-02 3.504097759723663330e-01
2.575621902942657471e-01 -1.110959947109222412e-01 -3.590167760848999023e-01
1.887063980102539062e-01 -8.962948620319366455e-02 2.816898822784423828e-01
3.879370987415313721e-01 1.103077232837677002e-01 -4.058940801769495010e-03
-5.162094831466674805e-01 1.445997506380081177e-01 -9.330457076430320740e-03
-2.680081874132156372e-02 -1.101868040859699249e-02 5.531730055809020996e-01
2.150639742612838745e-01 -1.373177021741867065e-01 3.009553551673889160e-01
-5.348500609397888184e-01 1.701149791479110718e-01 -7.781609427183866501e-03
-3.414614498615264893e-01 -5.278322473168373108e-02 -7.459943741559982300e-02
1.558869797736406326e-02 -1.406203303486108780e-02 -3.669784069061279297e-01
2.201724499464035034e-01 -6.498380005359649658e-02 2.907655835151672363e-01
-7.453574538230895996e-01 4.335401952266693115e-02 -1.362001150846481323e-01
-6.498995423316955566e-01 4.166930913925170898e-02 2.096548676490783691e-01
3.429661691188812256e-01 -1.099547222256660461e-01 3.091071844100952148e-01
1.994668096303939819e-01 -7.897777110338211060e-02 -1.222876459360122681e-01
-6.655781865119934082e-01 3.555544465780258179e-02 6.832931190729141235e-02
2.687030136585235596e-01 -9.514556080102920532e-02 3.018248677253723145e-01
5.930967628955841064e-02 -6.938577443361282349e-02 1.604178100824356079e-01
-5.734625458717346191e-01 9.435731172561645508e-02 3.114669583737850189e-03
7.140155881643295288e-02 -2.843642048537731171e-02 3.161177635192871094e-01
-6.361772418022155762e-01 1.469094306230545044e-01 -7.781609427183866501e-03
1.536806970834732056e-01 -8.437264710664749146e-03 2.858744561672210693e-01
-4.000731110572814941e-01 5.973920226097106934e-02 8.832846581935882568e-02
2.910390496253967285e-01 -4.789212346076965332e-02 -1.905184686183929443e-01
1.685170233249664307e-01 -2.177910134196281433e-02 1.476737856864929199e-01
-6.385684609413146973e-01 -1.052957493811845779e-02 5.525921285152435303e-02
3.381294310092926025e-01 -9.403148293495178223e-02 3.055203855037689209e-01
1.910160779953002930e-01 -8.111193776130676270e-03 -2.960574924945831299e-01
7.739262580871582031e-01 9.938426315784454346e-02 4.096633195877075195e-02
-1.260357499122619629e-01 3.071868233382701874e-02 8.546004295349121094e-01
-1.647297739982604980e-01 1.957785151898860931e-02 7.337359786033630371e-01
3.782908022403717041e-01 -9.577055275440216064e-02 4.265104234218597412e-02
8.119409680366516113e-01 -4.618024080991744995e-02 -7.329514622688293457e-02
9.832976758480072021e-02 2.607214637100696564e-02 -9.603875875473022461e-02
1.864782273769378662e-01 -9.524183347821235657e-03 -2.612763345241546631e-01
-3.092617392539978027e-01 1.525738649070262909e-02 1.019691899418830872e-01
2.277808338403701782e-01 -1.186771839857101440e-01 2.732119858264923096e-01
2.757951021194458008e-01 -2.156171761453151703e-02 2.104700356721878052e-01
-6.003635525703430176e-01 8.900427073240280151e-02 1.724450848996639252e-02
8.989753723144531250e-01 5.001134797930717468e-02 4.330318793654441833e-02
-1.825279444456100464e-01 5.060915276408195496e-02 -8.949011564254760742e-02
9.186265617609024048e-02 -1.650758273899555206e-02 -2.597275078296661377e-01
-4.574891328811645508e-01 8.949338644742965698e-02 -5.462745577096939087e-02
1.126822642982006073e-02 -8.274229243397712708e-03 -4.036616683006286621e-01
-4.521633088588714600e-01 6.072989199310541153e-03 9.224133938550949097e-02
-3.159734010696411133e-01 1.098457872867584229e-01 -8.515274152159690857e-03
-3.774653375148773193e-01 1.056611761450767517e-01 2.015199325978755951e-02
-9.962382912635803223e-02 3.237622603774070740e-02 -7.899768352508544922e-01
7.702632248401641846e-02 1.057426929473876953e-01 -2.960134297609329224e-02
1.926192641258239746e-01 1.047916486859321594e-01 3.746104612946510315e-02
3.501722589135169983e-02 -3.599046543240547180e-02 -3.536637723445892334e-01
4.960899800062179565e-02 -5.715804919600486755e-02 2.206326723098754883e-01
2.163139283657073975e-01 -1.061109267175197601e-02 2.784834802150726318e-01
2.572089433670043945e-01 -1.216390058398246765e-01 -3.546419739723205566e-01
2.801971137523651123e-01 -1.396817266941070557e-01 -3.298604190349578857e-01
-7.701609283685684204e-02 -5.299912882037460804e-04 6.326804757118225098e-01
-3.261578828096389771e-02 -2.335511706769466400e-02 4.426069855690002441e-01
2.342207878828048706e-01 5.468506366014480591e-02 -8.829452097415924072e-02
9.002796411514282227e-01 -1.577391475439071655e-02 -5.981745198369026184e-02
-6.585133075714111328e-01 2.516332566738128662e-01 1.403812132775783539e-02
-9.057003073394298553e-03 -3.547416999936103821e-02 -3.375503122806549072e-01
8.400972187519073486e-02 -4.497217480093240738e-03 -5.246347784996032715e-01
2.660672664642333984e-01 -1.040582433342933655e-01 7.489485200494527817e-03
-9.481425583362579346e-02 1.616657129488885403e-03 6.480330824851989746e-01
2.662084065377712250e-02 9.560725092887878418e-02 -5.174714326858520508e-02
-6.361991167068481445e-02 2.724057249724864960e-02 -7.404409050941467285e-01
-4.763706121593713760e-03 5.577198043465614319e-02 9.343694895505905151e-02
-1.362798810005187988e-01 3.278381377458572388e-02 -7.847325205802917480e-01
3.387597203254699707e-02 -1.537843942642211914e-01 1.943294256925582886e-01
9.383758306503295898e-01 -2.465941011905670166e-02 4.547701403498649597e-02
-2.276347279548645020e-01 3.009371086955070496e-02 -8.638867735862731934e-01
2.706051170825958252e-01 1.096284016966819763e-01 -1.324333623051643372e-02
1.315348893404006958e-01 -4.487593844532966614e-02 3.036454617977142334e-01
5.868961215019226074e-01 -6.834080442786216736e-03 1.001757830381393433e-01
-6.279167532920837402e-01 2.416608780622482300e-01 1.379356533288955688e-02
-1.741043776273727417e-01 1.547477021813392639e-02 -7.403322458267211914e-01
7.542312890291213989e-02 -5.074527114629745483e-02 -2.351361513137817383e-01
-7.081579566001892090e-01 2.743078768253326416e-02 5.145502090454101562e-02
6.234706640243530273e-01 1.535139512270689011e-03 1.010453179478645325e-01
9.474825114011764526e-03 -5.327232927083969116e-02 -2.186694443225860596e-01
3.557373881340026855e-01 -1.091667190194129944e-01 -2.548635900020599365e-01
1.018350571393966675e-01 -5.598961189389228821e-02 2.379960566759109497e-01
2.530243396759033203e-01 -1.146556213498115540e-01 -3.340178430080413818e-01
-7.488899230957031250e-01 -2.622301457449793816e-03 -7.075117900967597961e-03
1.199592873454093933e-01 -6.242955476045608521e-02 -9.650069475173950195e-02
-3.487709462642669678e-01 -8.908604085445404053e-02 -1.134124118834733963e-02
5.992597341537475586e-01 3.588151559233665466e-02 -9.381059557199478149e-02
4.894817769527435303e-01 -5.370709672570228577e-02 -8.095786720514297485e-02
-7.209562659263610840e-01 1.180644519627094269e-02 -4.231819882988929749e-02
-6.419054418802261353e-02 -2.215952053666114807e-02 4.146190583705902100e-01
-2.090432867407798767e-02 -5.416903272271156311e-02 -1.999745965003967285e-01
3.575036227703094482e-01 8.278170973062515259e-02 7.561161369085311890e-02
-1.391873657703399658e-01 -7.676436565816402435e-03 -6.197395324707031250e-01
4.845091104507446289e-01 3.560978174209594727e-02 9.936060756444931030e-02
-5.512623786926269531e-01 6.511940807104110718e-02 -7.065938413143157959e-02
2.105042338371276855e-02 -1.794774271547794342e-02 5.032837986946105957e-01
-8.935251832008361816e-02 -1.042212769389152527e-01 5.587391089648008347e-03
-2.652146518230438232e-01 -5.457663163542747498e-02 8.495903760194778442e-02
1.131117641925811768e-01 -3.580024093389511108e-02 -3.227955102920532227e-01
2.727517485618591309e-01 -5.310929194092750549e-02 1.979434043169021606e-01
-7.904642820358276367e-01 6.808124482631683350e-02 3.708980679512023926e-01
8.992470502853393555e-01 2.221360616385936737e-02 -5.536112189292907715e-02
8.751501142978668213e-02 -1.202407199889421463e-02 5.017620921134948730e-01
2.437040805816650391e-01 -7.846149802207946777e-02 3.486435413360595703e-01
-3.459413768723607063e-03 -6.642395257949829102e-02 1.018876731395721436e-01
-6.873164772987365723e-01 4.590826854109764099e-02 -2.444835901260375977e-01
4.086427688598632812e-01 6.395097821950912476e-02 8.933385461568832397e-02
2.090316116809844971e-01 -1.099151093512773514e-02 -3.093449771404266357e-01
-5.095521807670593262e-01 1.653597354888916016e-01 1.020676176995038986e-02
-3.669170662760734558e-02 -1.006763800978660583e-02 5.598574876785278320e-01
1.310457885265350342e-01 1.107153072953224182e-01 4.310271237045526505e-03
2.043850719928741455e-01 -3.014831244945526123e-02 -9.612027555704116821e-02
1.942005753517150879e-02 -2.213234268128871918e-02 -4.637406468391418457e-01
-2.170916944742202759e-01 1.003081351518630981e-01 -4.337792843580245972e-02
-7.206845879554748535e-01 4.240297898650169373e-02 2.127253860235214233e-01
-8.812974393367767334e-02 1.552910823374986649e-02 6.371096372604370117e-01
-7.829321175813674927e-02 -3.346338868141174316e-02 9.609986841678619385e-02
1.824566572904586792e-01 -5.883027799427509308e-03 3.222044706344604492e-01
2.727517485618591309e-01 -6.563594192266464233e-02 -1.531830877065658569e-01
3.653889894485473633e-02 -1.575342267751693726e-01 -1.889424622058868408e-01
1.595500260591506958e-01 -7.802672684192657471e-02 3.140797913074493408e-01
3.172932192683219910e-02 -1.703054308891296387e-01 1.835961788892745972e-01
-2.058150023221969604e-01 -1.036506444215774536e-01 -7.102290634065866470e-03
1.919942945241928101e-01 -1.512177288532257080e-02 1.918023675680160522e-01
-6.902510523796081543e-01 4.582674801349639893e-02 2.492727488279342651e-01
6.227151304483413696e-02 -1.541376411914825439e-01 1.532985568046569824e-01
-7.466889023780822754e-01 3.604454919695854187e-02 4.425423592329025269e-02
6.862669587135314941e-01 -7.846149802207946777e-02 6.740543991327285767e-02
4.998941719532012939e-02 -1.802925951778888702e-02 -2.944543063640594482e-01
4.889383018016815186e-01 -3.539266064763069153e-02 -8.946295082569122314e-02
2.009341418743133545e-01 -7.066290825605392456e-02 3.452469706535339355e-01
-1.616592556238174438e-01 4.077261313796043396e-02 -8.731255531311035156e-01
-3.447765409946441650e-01 -7.316280156373977661e-02 -5.370358377695083618e-02
2.648497745394706726e-02 -3.134390711784362793e-02 2.566909193992614746e-01
-6.853871345520019531e-01 4.278339818120002747e-02 1.338971853256225586e-01
-6.946530938148498535e-01 1.043840572237968445e-01 -2.319883555173873901e-03
-7.633458375930786133e-01 2.612649463117122650e-02 -3.365008533000946045e-02
9.407398700714111328e-01 -3.995767235755920410e-02 3.526005148887634277e-02
8.822149783372879028e-02 4.931732080876827240e-03 4.495360553264617920e-01
-7.882089614868164062e-01 3.951054811477661133e-01 1.007089763879776001e-02
2.289492785930633545e-01 -5.071810260415077209e-02 -9.650069475173950195e-02
7.269445657730102539e-01 3.862596675753593445e-02 9.792044758796691895e-02
9.221589565277099609e-02 -5.324516072869300842e-02 -9.650069475173950195e-02
8.063162565231323242e-01 -9.294456988573074341e-02 2.327686175704002380e-02
-9.484142065048217773e-02 6.399060133844614029e-03 6.890911459922790527e-01
-7.790245413780212402e-01 4.609847068786621094e-02 -1.677476912736892700e-01
4.528256952762603760e-01 -1.043843105435371399e-01 3.712470410391688347e-03
-2.231731265783309937e-02 -2.267579548060894012e-02 -4.468391835689544678e-01
-4.196322336792945862e-02 -9.714388288557529449e-03 -4.429263174533843994e-01
3.251732885837554932e-02 -1.432685256004333496e-01 2.011226117610931396e-01
-6.532417535781860352e-01 2.897963300347328186e-02 -1.282928287982940674e-01
-7.302765250205993652e-01 6.808124482631683350e-02 1.488047651946544647e-02
-2.813228033483028412e-02 -2.187533769756555557e-03 4.815455675125122070e-01
2.645455896854400635e-01 -4.916923493146896362e-02 -2.103545814752578735e-01
-6.002005338668823242e-01 -2.104543335735797882e-02 -5.019829422235488892e-02
2.542199194431304932e-01 -3.332751989364624023e-02 -2.944814562797546387e-01
-2.420906573534011841e-01 1.106337904930114746e-01 5.315663758665323257e-03
8.054738640785217285e-01 -1.697891503572463989e-01 1.770644634962081909e-02
-4.454462975263595581e-02 -2.778428047895431519e-02 -4.360787272453308105e-01
4.724497348070144653e-02 -8.247059769928455353e-03 3.678818643093109131e-01
1.856358796358108521e-01 -1.254035718739032745e-02 -2.197563797235488892e-01
2.493288516998291016e-01 -1.150360256433486938e-01 3.432905375957489014e-01
2.641379833221435547e-01 -8.289063721895217896e-02 9.145333617925643921e-02
-7.063049077987670898e-02 -1.126323360949754715e-02 5.383094549179077148e-01
3.372599184513092041e-01 -8.941211551427841187e-02 2.809562087059020996e-01
6.938752532005310059e-01 -7.770065963268280029e-02 -6.283362954854965210e-02
2.535949647426605225e-01 2.642538584768772125e-02 1.015072539448738098e-01
-2.021738439798355103e-01 5.237537994980812073e-02 -8.897384256124496460e-02
2.857728116214275360e-02 -1.624253243207931519e-01 2.011226117610931396e-01
2.520732879638671875e-01 9.601484239101409912e-02 -5.101348087191581726e-02
1.393334865570068359e-01 -1.389899849891662598e-02 -2.334786057472229004e-01
-3.490970134735107422e-01 -1.528480835258960724e-02 9.512165933847427368e-02
2.838382720947265625e-01 -3.224061056971549988e-02 -2.963563799858093262e-01
1.566425412893295288e-01 -6.115089636296033859e-04 1.008279323577880859e-01
3.372599184513092041e-01 -8.941211551427841187e-02 2.809562087059020996e-01
-2.038804255425930023e-02 -6.938577443361282349e-02 1.090884581208229065e-01
6.224924325942993164e-01 -5.569070950150489807e-02 -7.970792055130004883e-02
-4.953951537609100342e-01 -3.539266064763069153e-02 -6.182824075222015381e-02
5.564135685563087463e-02 -2.623543515801429749e-02 -4.354809224605560303e-01
-4.151811599731445312e-01 -2.221385948359966278e-02 -8.161001652479171753e-02
-8.104362487792968750e-01 3.485313355922698975e-01 -1.830773893743753433e-03
1.887063980102539062e-01 -8.962948620319366455e-02 2.816898822784423828e-01
2.574263215065002441e-01 -2.025742642581462860e-02 -2.456520199775695801e-01
1.016448512673377991e-01 9.794411808252334595e-02 5.313973128795623779e-02
-1.825279444456100464e-01 5.060915276408195496e-02 -8.949011564254760742e-02
2.203083187341690063e-01 -9.259133040904998779e-02 3.628277778625488281e-01
5.811407417058944702e-02 7.908621430397033691e-02 7.892668992280960083e-02
2.009341418743133545e-01 -7.066290825605392456e-02 3.452469706535339355e-01
-3.011914193630218506e-01 1.063133254647254944e-01 3.305905684828758240e-02
-1.019878685474395752e-01 2.642538584768772125e-02 -7.116106152534484863e-01
-6.003635525703430176e-01 8.900427073240280151e-02 1.724450848996639252e-02
4.126696288585662842e-02 2.513351384550333023e-03 -4.326821565628051758e-01
1.030034944415092468e-01 -1.490438915789127350e-02 2.648155689239501953e-01
2.448725104331970215e-01 -4.316405951976776123e-02 -2.448911815881729126e-01
2.687301933765411377e-01 8.859668672084808350e-02 6.794889271259307861e-02
2.542199194431304932e-01 -3.332751989364624023e-02 -2.944814562797546387e-01
-6.502527594566345215e-01 -1.330119557678699493e-02 4.879209399223327637e-02
8.374561667442321777e-01 -5.335385724902153015e-02 -6.220865994691848755e-02
-7.636718750000000000e-01 4.952224344015121460e-02 1.962315142154693604e-01
1.106118559837341309e-01 -6.259258836507797241e-02 2.031333893537521362e-01
-1.584528684616088867e-01 2.588193118572235107e-02 -7.613095641136169434e-01
-5.989234447479248047e-01 7.609720528125762939e-02 -4.987222328782081604e-02
5.876622349023818970e-02 -3.821862116456031799e-02 -1.728289872407913208e-01
2.800665237009525299e-02 -1.732672750949859619e-01 1.424837857484817505e-01
5.839071273803710938e-01 1.351832598447799683e-02 -9.655504673719406128e-02
1.131661012768745422e-01 9.199327230453491211e-02 -5.799688026309013367e-02
9.557663798332214355e-01 -4.539223387837409973e-02 1.458157785236835480e-02
-7.127501368522644043e-01 3.438700735569000244e-02 6.001444533467292786e-02
-1.352201402187347412e-01 1.294770184904336929e-02 -6.605801582336425781e-01
8.112940937280654907e-02 5.416878685355186462e-02 9.389888495206832886e-02
1.186550036072731018e-01 -1.421544551849365234e-01 1.934870779514312744e-01
8.751501142978668213e-02 -1.202407199889421463e-02 5.017620921134948730e-01
-1.960871368646621704e-01 3.055564686655998230e-02 8.281614184379577637e-01
5.898579359054565430e-01 9.593332558870315552e-02 5.667219683527946472e-02
-4.391966015100479126e-02 -2.596370130777359009e-02 -3.914882540702819824e-01
1.938963979482650757e-01 -4.490312933921813965e-02 3.050584495067596436e-01
-1.713870912790298462e-01 3.737601265311241150e-02 9.182119369506835938e-01
-7.473953962326049805e-01 3.153387084603309631e-02 -5.345902591943740845e-02
-9.842821955680847168e-02 9.449316561222076416e-02 5.917209014296531677e-02
2.922942675650119781e-02 7.866388186812400818e-03 6.215668320655822754e-01
-1.335626095533370972e-01 2.028434164822101593e-02 8.019124865531921387e-01
1.418062001466751099e-01 -4.531070590019226074e-02 2.973957061767578125e-01
5.819506645202636719e-01 -3.457747399806976318e-02 -8.962598443031311035e-02
3.534005582332611084e-01 -9.202069789171218872e-02 -3.600765466690063477e-01
-8.394514769315719604e-02 8.409841917455196381e-03 5.921115875244140625e-01
-6.450084447860717773e-01 4.107151553034782410e-02 -1.238636747002601624e-01
-7.739431858062744141e-01 4.919617250561714172e-02 2.258498370647430420e-01
-8.211966156959533691e-01 3.175272345542907715e-01 5.876022623851895332e-04
-1.229056064039468765e-02 -7.126071304082870483e-02 1.036267280578613281e-01
4.451629519462585449e-01 1.104979366064071655e-01 7.027548272162675858e-03
1.998472362756729126e-01 6.161412224173545837e-02 9.058380126953125000e-02
2.105532884597778320e-01 -9.306799620389938354e-03 1.005833819508552551e-01
-3.011914193630218506e-01 1.063133254647254944e-01 3.305905684828758240e-02
4.102240502834320068e-02 -1.523046009242534637e-02 5.132018327713012695e-01
-5.926192998886108398e-01 9.884081035852432251e-02 1.490765158087015152e-02
