9.121995568275451660e-01 6.280177831649780273e-02 5.278442520648241043e-03
-6.701046135276556015e-03 -4.584736377000808716e-02 -8.095911145210266113e-02
3.333394825458526611e-01 7.005183398723602295e-02 5.279813334345817566e-02
7.999440282583236694e-02 -2.755686081945896149e-02 2.802719473838806152e-01
-6.802801974117755890e-03 4.394276533275842667e-03 4.822306334972381592e-01
-7.070059180259704590e-01 1.009854227304458618e-01 -3.435336984694004059e-04
8.239014148712158203e-01 8.464488200843334198e-03 -8.126437664031982422e-02
1.292693763971328735e-01 -8.681267499923706055e-03 -1.864538341760635376e-01
-8.169464766979217529e-02 7.966770231723785400e-02 3.860327973961830139e-02
-5.442424491047859192e-02 -1.855152845382690430e-02 3.501777946949005127e-01
7.781370282173156738e-01 -5.088425427675247192e-02 5.819116160273551941e-02
-4.340924695134162903e-02 -1.323481928557157516e-02 -3.563850522041320801e-01
2.235201448202133179e-01 8.841865509748458862e-02 -2.598585002124309540e-02
-9.596581757068634033e-02 -7.886694371700286865e-02 3.074268810451030731e-02
7.677071094512939453e-01 -7.688271254301071167e-02 2.631633542478084564e-02
-2.938542962074279785e-01 -5.108775943517684937e-02 -6.712040305137634277e-02
-7.840601205825805664e-01 2.371084690093994141e-01 -1.920739887282252312e-03
6.676307916641235352e-01 4.041562601923942566e-02 -8.011963963508605957e-02
1.173131316900253296e-01 -4.053065553307533264e-02 2.013098895549774170e-01
-4.338380321860313416e-02 -1.084356475621461868e-02 -4.290891587734222412e-01
-7.901145219802856445e-01 5.036220327019691467e-02 2.300811856985092163e-01
7.869388461112976074e-01 3.224977105855941772e-02 -8.195122331380844116e-02
-6.666854023933410645e-01 2.123476937413215637e-02 -8.693724125623703003e-02
2.965698251500725746e-03 -1.921293511986732483e-02 3.586234450340270996e-01
3.567940294742584229e-01 1.156802009791135788e-02 7.630358636379241943e-02
3.325254321098327637e-01 6.149559281766414642e-03 7.589656859636306763e-02
8.230933547019958496e-02 -5.569218099117279053e-02 1.315312385559082031e-01
1.886944323778152466e-01 6.295441091060638428e-02 -6.857041269540786743e-02
-6.334623098373413086e-01 1.467155199497938156e-02 3.626291081309318542e-02
5.122311413288116455e-02 -3.595166653394699097e-02 2.330829650163650513e-01
3.282008469104766846e-01 5.313502997159957886e-02 6.600087881088256836e-02
1.238254681229591370e-01 -5.094395950436592102e-03 -2.603026926517486572e-01
-1.206414625048637390e-01 2.558480948209762573e-02 6.026070713996887207e-01
-5.149280186742544174e-03 -7.765468209981918335e-03 -8.426616340875625610e-02
-3.180914744734764099e-02 1.423909235745668411e-02 -4.715719521045684814e-01
8.384163491427898407e-03 9.014849364757537842e-02 -1.855771988630294800e-02
3.830723464488983154e-01 3.011291474103927612e-02 7.411585748195648193e-02
8.664351105690002441e-01 -5.037546902894973755e-02 -5.356151610612869263e-02
2.904751002788543701e-01 -4.582192748785018921e-02 2.231363803148269653e-01
-1.201326921582221985e-01 2.461812831461429596e-02 5.922534465789794922e-01
8.686483502388000488e-01 6.509126722812652588e-02 -4.905885085463523865e-02
-7.673408091068267822e-02 1.853825151920318604e-02 -5.252224206924438477e-01
-8.263587951660156250e-02 9.101340919733047485e-02 -8.914578211260959506e-05
9.305971325375139713e-04 9.889062494039535522e-03 4.133932292461395264e-01
-6.036735177040100098e-01 1.604525558650493622e-02 -5.574925243854522705e-02
1.594906747341156006e-01 -1.024232730269432068e-01 -2.314042001962661743e-01
1.626959592103958130e-01 -7.988449186086654663e-02 -5.356151610612869263e-02
2.540975809097290039e-01 -8.225028961896896362e-02 -1.868491247296333313e-02
2.802741229534149170e-01 -1.210699230432510376e-01 -2.516280710697174072e-01
-6.144535914063453674e-02 -2.819283306598663330e-02 2.447339296340942383e-01
-7.552887797355651855e-01 3.436119481921195984e-02 1.290891021490097046e-01
-1.740884035825729370e-01 1.579086296260356903e-02 -6.338461041450500488e-01
9.388399869203567505e-02 -5.630270764231681824e-02 -1.381201148033142090e-01
6.099161878228187561e-02 -6.482471525669097900e-02 -8.642846345901489258e-02
5.274884700775146484e-01 2.881553769111633301e-02 -8.352843672037124634e-02
6.280989050865173340e-01 1.912334375083446503e-02 7.599832117557525635e-02
-7.049199342727661133e-01 2.630560696125030518e-01 -1.138397585600614548e-02
6.808081269264221191e-01 -5.170711781829595566e-03 7.467550784349441528e-02
1.043139025568962097e-01 -6.724140793085098267e-02 -8.190034329891204834e-02
5.536964163184165955e-02 -2.254541404545307159e-02 1.212285235524177551e-01
1.165754050016403198e-01 -6.655455380678176880e-02 -8.642846345901489258e-02
1.146166250109672546e-01 -4.849300161004066467e-02 -1.759476214647293091e-01
-5.039533972740173340e-01 3.212257474660873413e-02 -7.780469954013824463e-02
2.568255551159381866e-02 -1.320594698190689087e-01 1.092977151274681091e-01
9.111819863319396973e-01 -1.685600611381232738e-03 -6.167649477720260620e-02
-1.794500090181827545e-02 3.096898319199681282e-03 3.597682118415832520e-01
2.095796763896942139e-01 -4.994301125407218933e-02 -2.198549956083297729e-01
4.613984823226928711e-01 -3.992011770606040955e-02 -7.419238984584808350e-02
2.438711971044540405e-01 -2.089189365506172180e-02 7.495532929897308350e-02
-2.400512099266052246e-01 4.855604469776153564e-02 6.846843659877777100e-02
2.384527176618576050e-01 -1.012276411056518555e-01 2.256802618503570557e-01
-6.333097219467163086e-01 2.996028400957584381e-02 9.871517866849899292e-02
-7.360511273145675659e-02 1.589261554181575775e-02 4.905999898910522461e-01
-5.998322963714599609e-01 1.970844343304634094e-02 6.172715499997138977e-02
1.109788715839385986e-01 -1.023215129971504211e-01 2.536883950233459473e-01
-6.062173843383789062e-01 6.063947826623916626e-02 4.801563546061515808e-02
6.801213026046752930e-01 -3.836835548281669617e-02 6.584823876619338989e-02
-1.430724933743476868e-02 -9.444435127079486847e-03 -2.991986274719238281e-01
-1.269248425960540771e-01 -7.161687314510345459e-02 4.771037399768829346e-02
-6.364641189575195312e-01 2.276109531521797180e-02 9.039668738842010498e-02
-3.085833489894866943e-01 6.198773905634880066e-02 -6.933357566595077515e-02
4.949327558279037476e-02 -3.450165688991546631e-02 6.427103281021118164e-02
-3.274589776992797852e-01 6.091930717229843140e-02 -7.019849866628646851e-02
8.208233118057250977e-01 7.450362294912338257e-02 4.287699982523918152e-02
-5.406810343265533447e-02 -2.547088079154491425e-02 -2.901932895183563232e-01
-1.831446141004562378e-01 2.019177377223968506e-02 -6.278171539306640625e-01
8.912694454193115234e-02 -7.698013214394450188e-04 -3.076188564300537109e-01
-6.928619146347045898e-01 2.722648978233337402e-01 -7.440960966050624847e-03
7.428788542747497559e-01 -2.422438189387321472e-02 7.121583074331283569e-02
-8.190384507179260254e-01 3.436119481921195984e-02 2.785439370200037956e-03
-1.152738779783248901e-01 -5.917247617617249489e-04 4.349144399166107178e-01
1.738950051367282867e-02 -1.231901999562978745e-02 -2.361866980791091919e-01
1.714469194412231445e-01 -1.710150949656963348e-02 6.284646689891815186e-02
1.397501677274703979e-01 -4.907809197902679443e-02 -1.655685752630233765e-01
-1.071334555745124817e-01 -5.662892945110797882e-04 4.268503487110137939e-01
-2.302827090024948120e-01 -1.298042666167020798e-02 -8.251088112592697144e-02
9.944941401481628418e-01 1.036352245137095451e-03 -1.390241738408803940e-02
4.613984823226928711e-01 -3.992011770606040955e-02 -7.419238984584808350e-02
-1.015114858746528625e-01 1.691017486155033112e-02 -5.293435454368591309e-01
-2.778024077415466309e-01 -7.217653095722198486e-02 -4.435266554355621338e-02
-4.404521733522415161e-02 1.675754226744174957e-02 5.334389209747314453e-01
-6.948462128639221191e-01 4.158581420779228210e-02 1.741666793823242188e-01
-3.559953346848487854e-02 -1.399797759950160980e-02 -2.878020405769348145e-01
-7.709081768989562988e-01 5.501750484108924866e-02 -2.825362086296081543e-01
1.657231897115707397e-01 -2.109540440142154694e-02 2.438181489706039429e-01
2.119455039501190186e-01 -2.165506035089492798e-02 -1.472780853509902954e-01
1.500020027160644531e-01 -1.310762297362089157e-02 1.144617944955825806e-01
-8.042076230049133301e-01 5.397450923919677734e-02 -2.957643866539001465e-01
2.308974117040634155e-01 -5.057899281382560730e-02 -2.233146727085113525e-01
-2.451389878988265991e-01 3.578576445579528809e-02 -7.728946805000305176e-01
-4.898094534873962402e-01 8.989410847425460815e-02 -1.354627404361963272e-02
-7.615212798118591309e-01 3.863491117954254150e-02 1.705289334058761597e-01
-4.601732492446899414e-01 2.011545747518539429e-02 7.279303669929504395e-02
-6.813576072454452515e-02 -2.025592140853404999e-02 -3.288857042789459229e-01
-7.937522530555725098e-01 7.192545570433139801e-03 -1.405505090951919556e-02
1.264202296733856201e-01 5.590786039829254150e-02 -7.353097945451736450e-02
7.297329604625701904e-02 -1.499009225517511368e-02 -8.495301008224487305e-02
2.470001727342605591e-01 -6.892035901546478271e-02 -2.267489135265350342e-01
3.284806609153747559e-01 -8.268275111913681030e-02 -1.695507392287254333e-02
-7.287052273750305176e-01 1.411278694868087769e-01 -8.305880241096019745e-03
-6.251379102468490601e-02 -1.491377688944339752e-02 3.797376751899719238e-01
-2.055307626724243164e-01 3.186818957328796387e-02 -7.202363014221191406e-01
-4.106289241462945938e-03 -3.872450068593025208e-02 -2.143347710371017456e-01
-7.279165983200073242e-01 3.690507635474205017e-02 -1.159374788403511047e-01
2.262989431619644165e-02 -8.555733412504196167e-02 -1.225006803870201111e-01
9.357873350381851196e-02 -4.752632230520248413e-02 -1.848511993885040283e-01
-5.505827069282531738e-01 -2.587790414690971375e-02 4.918582364916801453e-02
9.218917489051818848e-01 4.301038756966590881e-02 -3.931578621268272400e-02
2.847259342670440674e-01 -3.717273101210594177e-02 -2.626430690288543701e-01
-1.326231509447097778e-01 5.081128329038619995e-03 5.012079477310180664e-01
-6.760155409574508667e-02 8.874936401844024658e-02 -2.453583851456642151e-02
3.633573055267333984e-01 2.281197533011436462e-02 7.584568858146667480e-02
6.759238839149475098e-01 4.792007803916931152e-02 -7.783014327287673950e-02
3.271324038505554199e-01 1.642683520913124084e-02 -8.513108640909194946e-02
2.171410061419010162e-02 4.512180760502815247e-02 6.971494108438491821e-02
6.279971599578857422e-01 8.816426992416381836e-02 -2.707972005009651184e-02
-3.056265041232109070e-02 -2.302875556051731110e-02 -3.302085399627685547e-01
-7.515089586377143860e-03 -9.113727137446403503e-03 -4.329304397106170654e-01
-7.162656784057617188e-01 3.380153700709342957e-02 -1.704528182744979858e-01
2.320167273283004761e-01 7.572469115257263184e-02 -5.432467907667160034e-02
-1.456164196133613586e-02 1.265309168957173824e-03 -3.546297848224639893e-01
9.429296255111694336e-01 4.283231496810913086e-02 3.828430548310279846e-03
1.384273320436477661e-01 -5.314829573035240173e-02 1.390102356672286987e-01
7.994353026151657104e-02 -2.216383628547191620e-02 2.632533907890319824e-01
-3.192930817604064941e-01 7.765803486108779907e-02 4.211383685469627380e-02
-5.946112796664237976e-02 1.044871844351291656e-02 5.520855784416198730e-01
1.387071609497070312e-01 -5.108775943517684937e-02 -2.699185609817504883e-01
2.112331986427307129e-01 -1.118356212973594666e-01 2.142836898565292358e-01
-2.791506648063659668e-01 4.292525351047515869e-03 -8.472406119108200073e-02
-4.450116753578186035e-01 8.796075731515884399e-02 -7.186572533100843430e-03
1.554459035396575928e-01 -3.088935092091560364e-02 2.100862860679626465e-01
6.331866979598999023e-01 9.111516922712326050e-02 -7.568155415356159210e-03
-7.399237155914306641e-01 7.002639770507812500e-02 -5.176906939595937729e-03
4.276411235332489014e-01 9.124236553907394409e-02 -3.065485972911119461e-03
-5.909541249275207520e-01 1.968299783766269684e-02 -6.645899266004562378e-02
8.957151770591735840e-01 -6.278961896896362305e-02 1.255394145846366882e-02
-9.036927670240402222e-02 -7.657744735479354858e-02 -6.109140440821647644e-02
4.401315450668334961e-01 7.007727771997451782e-02 5.277269333600997925e-02
-7.172068953514099121e-01 2.968045510351657867e-02 -7.409062981605529785e-02
9.062781929969787598e-02 8.582852315157651901e-04 -8.434247970581054688e-02
4.415712784975767136e-03 -4.940878972411155701e-02 1.799667328596115112e-01
-7.150446176528930664e-01 2.187074162065982819e-02 -5.310361459851264954e-02
-2.725560590624809265e-02 -3.406919911503791809e-02 -2.309463173151016235e-01
-5.597407221794128418e-01 -4.381226375699043274e-02 1.698029227554798126e-02
-8.894470334053039551e-02 -8.181783556938171387e-02 1.631888560950756073e-02
-7.310202121734619141e-01 4.916657507419586182e-02 -3.883244842290878296e-02
8.838861584663391113e-01 -8.311521261930465698e-02 -2.183932624757289886e-02
4.181075841188430786e-02 -1.923837140202522278e-02 1.564612686634063721e-01
5.274884700775146484e-01 2.881553769111633301e-02 -8.352843672037124634e-02
-2.514418028295040131e-02 -1.272603403776884079e-02 -4.163952171802520752e-01
-7.939303517341613770e-01 3.561621010303497314e-01 -3.826807369478046894e-05
-3.192930817604064941e-01 7.765803486108779907e-02 4.211383685469627380e-02
7.636877894401550293e-01 9.045376628637313843e-02 7.542496081441640854e-03
3.607879579067230225e-01 -7.098091393709182739e-02 -4.628601670265197754e-02
-5.386459082365036011e-02 -3.200865164399147034e-02 2.223223447799682617e-01
-4.058553278446197510e-02 9.346010047011077404e-04 4.958403706550598145e-01
6.638464331626892090e-02 -3.640957176685333252e-02 -8.520740270614624023e-02
7.205435633659362793e-01 -8.018975704908370972e-02 -2.695252560079097748e-02
-2.579601407051086426e-01 3.934720158576965332e-02 -8.104423880577087402e-01
-6.676775217056274414e-01 2.166722901165485382e-02 5.137355998158454895e-02
-3.221617266535758972e-02 -8.247924596071243286e-02 -2.290775626897811890e-02
-2.433014102280139923e-02 6.038928404450416565e-04 3.509409725666046143e-01
-7.365403771400451660e-01 3.649805113673210144e-02 1.715464890003204346e-01
2.211289107799530029e-01 -2.162962593138217926e-02 -1.251717656850814819e-01
2.311772406101226807e-01 -1.076891124248504639e-01 2.362628132104873657e-01
-9.064910560846328735e-02 -8.151257038116455078e-02 -2.618936076760292053e-02
-4.455399513244628906e-02 1.762246154248714447e-02 -5.186846852302551270e-01
-9.764478355646133423e-02 2.319355495274066925e-02 5.716989040374755859e-01
3.651948645710945129e-02 -7.749323546886444092e-02 1.290636658668518066e-01
7.984177023172378540e-02 -4.259119927883148193e-02 -2.679597735404968262e-01
-5.851989239454269409e-02 -3.948765993118286133e-02 7.383602857589721680e-02
8.302161842584609985e-02 -3.048232570290565491e-02 -2.723606824874877930e-01
-7.234902977943420410e-01 1.833817213773727417e-01 -1.018835231661796570e-02
2.951303720474243164e-01 -7.828184962272644043e-02 2.160135209560394287e-01
-2.483188360929489136e-01 -1.992522366344928741e-02 -8.121350407600402832e-02
2.181271314620971680e-01 6.697374582290649414e-02 5.635956674814224243e-02
3.070611953735351562e-01 -1.130146905779838562e-02 7.409041374921798706e-02
-3.118904232978820801e-01 -3.132180869579315186e-02 -7.800821214914321899e-02
-1.372215803712606430e-02 -5.673516541719436646e-02 9.960553050041198730e-02
6.434639692306518555e-01 8.513704687356948853e-02 2.705406025052070618e-02
6.274629831314086914e-01 8.515368215739727020e-03 7.615095376968383789e-02
-3.369476497173309326e-01 4.903938621282577515e-02 6.818861514329910278e-02
3.447360396385192871e-01 8.933445066213607788e-02 1.298640016466379166e-02
-3.142756968736648560e-02 -3.312796354293823242e-02 -8.434247970581054688e-02
-2.371511906385421753e-01 6.221668422222137451e-02 6.014994904398918152e-02
-1.833226829767227173e-01 -4.808597639203071594e-02 -6.905374675989151001e-02
5.528255105018615723e-01 -3.439990431070327759e-02 6.760351359844207764e-02
1.892795264720916748e-01 -1.641466654837131500e-02 1.583182960748672485e-01
1.990988999605178833e-01 -6.434136629104614258e-02 -7.162307202816009521e-02
1.594906747341156006e-01 -8.166520297527313232e-02 -4.081667587161064148e-02
7.442525625228881836e-01 6.074123457074165344e-02 -7.035113126039505005e-02
9.199329018592834473e-01 -5.350444838404655457e-02 1.512326113879680634e-02
-3.160878419876098633e-01 8.897831290960311890e-02 -2.359460294246673584e-02
2.097637206315994263e-02 -2.666650712490081787e-02 1.415541321039199829e-01
-1.730199605226516724e-01 -2.643756009638309479e-02 7.073249667882919312e-02
-6.105673909187316895e-01 -1.685600611381232738e-03 -6.305019557476043701e-02
9.388399869203567505e-02 -5.630270764231681824e-02 -1.381201148033142090e-01
-6.145358681678771973e-01 1.814483702182769775e-01 -1.212170068174600601e-02
-8.327185362577438354e-02 -2.499639056622982025e-03 4.826121926307678223e-01
-3.303021192550659180e-02 -5.145276430994272232e-03 -4.665605425834655762e-01
4.392217844724655151e-02 -5.564130842685699463e-02 1.258583813905715942e-01
-7.406615018844604492e-01 3.224977105855941772e-02 7.075793296098709106e-02
1.397501677274703979e-01 -5.035003647208213806e-02 2.421391755342483521e-01
4.229095280170440674e-01 8.193176239728927612e-02 3.463482484221458435e-02
6.274629831314086914e-01 8.515368215739727020e-03 7.615095376968383789e-02
-5.444969236850738525e-02 6.659215688705444336e-02 -6.567039340734481812e-02
-5.758689045906066895e-01 1.121530607342720032e-01 -1.619191095232963562e-02
1.292439252138137817e-01 -2.101908996701240540e-02 2.688499093055725098e-01
-3.542715013027191162e-01 6.760085932910442352e-03 7.594744116067886353e-02
2.557256817817687988e-01 -1.140742450952529907e-01 -2.295217365026473999e-01
2.250464856624603271e-01 -4.022539034485816956e-02 7.617639750242233276e-02
9.710395336151123047e-01 2.347338199615478516e-02 2.327540889382362366e-03
-6.780311465263366699e-01 2.455287277698516846e-01 -1.072256639599800110e-02
-1.007991954684257507e-01 -7.205812726169824600e-03 -5.049477219581604004e-01
-1.868332326412200928e-01 4.176388308405876160e-02 -7.973805069923400879e-02
5.004215836524963379e-01 5.026044696569442749e-02 -7.658363878726959229e-02
-7.056831717491149902e-01 3.723577782511711121e-02 1.875729411840438843e-01
-4.098044037818908691e-01 5.122712254524230957e-02 6.671316176652908325e-02
9.643999934196472168e-01 9.965378791093826294e-03 -3.600874170660972595e-02
8.559543490409851074e-01 -1.253945082426071167e-01 1.084954105317592621e-02
-1.022492051124572754e-01 -7.078626193106174469e-03 -4.444033503532409668e-01
-8.042076230049133301e-01 5.397450923919677734e-02 -2.957643866539001465e-01
5.291928648948669434e-01 -8.336960524320602417e-02 -1.654621883062645793e-04
6.099161878228187561e-02 -1.205611377954483032e-01 1.129863485693931580e-01
-5.514222383499145508e-01 1.188993453979492188e-03 6.388945132493972778e-02
-2.152992635965347290e-01 7.999841123819351196e-02 -4.704918339848518372e-02
-1.194967105984687805e-01 2.706025354564189911e-02 6.240010857582092285e-01
1.405642032623291016e-01 -3.648588806390762329e-02 2.615489959716796875e-01
-1.523382216691970825e-01 8.837206405587494373e-04 -8.434247970581054688e-02
3.071943856775760651e-02 -5.543778836727142334e-02 7.589656859636306763e-02
-7.937522530555725098e-01 7.192545570433139801e-03 -1.405505090951919556e-02
-2.630839124321937561e-03 -5.119831301271915436e-03 -4.529253244400024414e-01
4.987486079335212708e-02 -3.389112278819084167e-02 2.489567697048187256e-01
2.583518810570240021e-02 -8.425995707511901855e-02 1.307171881198883057e-01
-6.276877522468566895e-01 2.924799546599388123e-02 7.653254270553588867e-02
3.915688693523406982e-01 -5.755802616477012634e-03 7.465007156133651733e-02
-7.963469624519348145e-01 3.428487852215766907e-02 1.451272983103990555e-02
8.740921616554260254e-01 -7.540726661682128906e-02 1.545396447181701660e-02
5.299814343452453613e-01 -8.245381712913513184e-02 8.814436383545398712e-03
-7.440193891525268555e-01 2.964826524257659912e-01 1.793325995095074177e-03
6.638464331626892090e-02 -3.640957176685333252e-02 -8.520740270614624023e-02
4.459316730499267578e-01 4.702971875667572021e-02 -7.818628102540969849e-02
-4.174868762493133545e-01 -3.933502733707427979e-02 -7.045288383960723877e-02
9.072644114494323730e-01 -1.669449545443058014e-02 5.160250887274742126e-02
2.370281517505645752e-01 -6.642735749483108521e-02 2.028107792139053345e-01
7.064250707626342773e-01 1.350137032568454742e-02 7.622727006673812866e-02
-1.619286537170410156e-01 2.110757306218147278e-02 -6.824088692665100098e-01
2.075445801019668579e-01 6.331055611371994019e-02 5.925958976149559021e-02
2.878549098968505859e-01 -5.373338609933853149e-02 -2.747773528099060059e-01
-6.148156523704528809e-01 7.651329040527343750e-02 7.110036443918943405e-03
6.021259427070617676e-01 8.282211422920227051e-02 3.298130258917808533e-02
-5.169525742530822754e-01 2.405847422778606415e-02 6.948599219322204590e-02
3.809669241309165955e-02 -9.240923449397087097e-03 2.293434590101242065e-01
6.022021770477294922e-01 7.231589406728744507e-02 -5.882734805345535278e-02
-6.695854663848876953e-01 2.901903912425041199e-02 4.129979386925697327e-02
6.264513731002807617e-02 -3.717273101210594177e-02 2.272320389747619629e-01
1.714469194412231445e-01 -1.710150949656963348e-02 6.284646689891815186e-02
6.363665461540222168e-01 5.433065444231033325e-02 6.536490470170974731e-02
-3.366618230938911438e-02 -3.110165707767009735e-03 4.698165059089660645e-01
6.883273366838693619e-03 -2.183312736451625824e-02 3.379162847995758057e-01
4.107303544878959656e-02 -4.159908369183540344e-02 -1.928644180297851562e-01
-4.296720921993255615e-01 -5.803254619240760803e-02 4.122347757220268250e-02
3.626509755849838257e-02 7.755628973245620728e-02 4.229190573096275330e-02
-2.949481606483459473e-01 9.007217735052108765e-02 9.857428260147571564e-03
1.043139025568962097e-01 -6.724140793085098267e-02 -8.190034329891204834e-02
5.951616913080215454e-02 2.359175588935613632e-03 -3.391884267330169678e-01
-7.718240022659301758e-01 4.916657507419586182e-02 2.163442224264144897e-01
2.241306751966476440e-01 -5.309742316603660583e-02 8.650454878807067871e-02
-1.619286537170410156e-01 2.110757306218147278e-02 -6.824088692665100098e-01
-2.715953588485717773e-01 3.194450587034225464e-02 7.358163595199584961e-02
1.193736791610717773e-01 -4.523683711886405945e-02 -1.889722645282745361e-01
4.289130568504333496e-01 7.653873413801193237e-02 4.404718428850173950e-02
6.813169121742248535e-01 7.770892232656478882e-02 4.203752055764198303e-02
-1.595119535923004150e-01 1.083029713481664658e-02 -5.910835266113281250e-01
-3.549329042434692383e-01 -7.568707317113876343e-02 -2.791920118033885956e-02
-1.000614762306213379e-01 -7.647568732500076294e-02 -5.534223467111587524e-02
4.730494320392608643e-01 -3.806309401988983154e-02 -7.500643283128738403e-02
3.045936226844787598e-01 8.635811507701873779e-02 2.400140464305877686e-02
-7.609871029853820801e-01 3.733753412961959839e-02 1.556472182273864746e-01
3.651948645710945129e-02 -7.749323546886444092e-02 1.290636658668518066e-01
-7.005190253257751465e-01 -3.695266321301460266e-03 -3.969736769795417786e-02
1.010068580508232117e-01 -9.967588633298873901e-02 -2.651106119155883789e-01
1.849549263715744019e-01 -3.862274065613746643e-02 2.267741411924362183e-01
-6.929998286068439484e-03 3.860065946355462074e-03 3.558252155780792236e-01
-3.213790953159332275e-01 4.636830836534500122e-02 6.933335959911346436e-02
3.182288110256195068e-01 8.640898764133453369e-02 -3.290520608425140381e-02
-8.061918020248413086e-01 3.810069710016250610e-02 8.916192688047885895e-03
-6.802697777748107910e-01 2.551445960998535156e-01 3.178752667736262083e-04
1.090455204248428345e-01 5.997807160019874573e-02 6.190522760152816772e-02
1.313807964324951172e-01 -2.366472594439983368e-02 -2.669676542282104492e-01
-1.073115244507789612e-01 -1.609275350347161293e-03 4.930675625801086426e-01
9.115126729011535645e-01 5.689997598528862000e-02 -2.845341525971889496e-02
2.074936926364898682e-01 -7.777306437492370605e-02 -6.429669260978698730e-02
1.809101700782775879e-01 -1.178646162152290344e-01 -2.778300344944000244e-01
-6.777766942977905273e-01 1.169101148843765259e-01 -1.133309770375490189e-02
-9.596581757068634033e-02 -7.886694371700286865e-02 3.074268810451030731e-02
5.180820822715759277e-02 -3.440873930230736732e-03 -2.685448527336120605e-01
1.010577380657196045e-01 -6.162826903164386749e-03 -2.240523993968963623e-01
1.572266221046447754e-01 -7.835815846920013428e-02 5.412095412611961365e-02
-6.204376816749572754e-01 6.524390727281570435e-02 -4.702374339103698730e-02
-2.163362503051757812e-02 -6.047466769814491272e-02 7.498077303171157837e-02
-5.881558656692504883e-01 2.996028400957584381e-02 6.368593871593475342e-02
5.434894561767578125e-01 8.447563648223876953e-02 -3.778945654630661011e-02
-2.224984467029571533e-01 2.672954648733139038e-02 -7.216863036155700684e-01
-5.221106857061386108e-02 -3.211041167378425598e-02 -2.315313965082168579e-01
-6.072094440460205078e-01 -1.618571951985359192e-02 4.544632136821746826e-02
1.481703966856002808e-01 9.075902402400970459e-02 3.192460397258400917e-03
1.173131316900253296e-01 -4.053065553307533264e-02 2.013098895549774170e-01
-3.610127568244934082e-01 2.955325879156589508e-02 7.429392635822296143e-02
2.966312766075134277e-01 -9.934516996145248413e-02 2.705034613609313965e-01
2.374351769685745239e-01 -3.847010806202888489e-02 -2.338463366031646729e-01
-7.239990234375000000e-01 6.076667457818984985e-02 -6.347092334181070328e-03
2.111823260784149170e-01 -3.462885320186614990e-02 -2.712159454822540283e-01
3.288173675537109375e-02 8.582852315157651901e-04 3.081274330615997314e-01
-2.243046015501022339e-01 9.108973294496536255e-02 -8.102369494736194611e-03
7.364937067031860352e-01 8.974147588014602661e-02 1.125656254589557648e-02
2.313298732042312622e-01 -5.569218099117279053e-02 7.841501384973526001e-02
6.748808622360229492e-01 -5.393690615892410278e-02 5.582535266876220703e-02
-2.163362503051757812e-02 -6.047466769814491272e-02 7.498077303171157837e-02
-7.384737133979797363e-01 1.621403247117996216e-01 -8.014321792870759964e-04
-6.283745765686035156e-01 7.078956067562103271e-02 -1.344451960176229477e-02
2.474131621420383453e-02 -8.308977633714675903e-02 3.497726051136851311e-03
1.214342266321182251e-01 7.513959705829620361e-02 -5.511328205466270447e-02
4.165812581777572632e-02 -2.999898605048656464e-02 9.828271716833114624e-02
6.526982784271240234e-01 8.943620324134826660e-02 -2.155949734151363373e-02
-6.438668370246887207e-01 1.277216076850891113e-01 4.947737790644168854e-03
-3.163676559925079346e-01 8.371248096227645874e-02 3.069180995225906372e-02
-5.833224058151245117e-01 2.232863567769527435e-02 4.509017616510391235e-02
1.034489870071411133e-01 -5.247027613222599030e-03 -3.212795257568359375e-01
-6.977971196174621582e-01 3.446295112371444702e-02 1.686210334300994873e-01
-5.251036025583744049e-03 -8.362399786710739136e-02 -5.940071307122707367e-03
-2.152992635965347290e-01 7.999841123819351196e-02 -4.704918339848518372e-02
1.811645328998565674e-01 -3.516306355595588684e-02 -2.667132616043090820e-01
2.733802199363708496e-01 -1.010241359472274780e-01 2.691043019294738770e-01
-1.641867496073246002e-02 -2.104452438652515411e-02 -3.506358861923217773e-01
1.417852789163589478e-01 -7.790913339704275131e-03 -2.276138365268707275e-01
-1.239739358425140381e-01 4.470592364668846130e-03 -5.448611974716186523e-01
8.045230805873870850e-02 -5.935537815093994141e-02 2.435891926288604736e-01
-1.619286537170410156e-01 2.110757306218147278e-02 -6.824088692665100098e-01
1.131157353520393372e-01 -1.679624617099761963e-02 -3.070591986179351807e-01
1.680635511875152588e-01 -4.302366077899932861e-02 2.225512862205505371e-01
-7.034894078969955444e-02 -1.176815829239785671e-03 -3.980283737182617188e-01
2.374351769685745239e-01 -3.847010806202888489e-02 -2.338463366031646729e-01
1.124797612428665161e-01 -9.967588633298873901e-02 2.343294471502304077e-01
-1.089904904365539551e-01 -3.491754177957773209e-03 4.665857851505279541e-01
2.281754612922668457e-01 -5.653166398406028748e-02 -2.341515868902206421e-01
-1.891227215528488159e-01 1.698649115860462189e-02 -6.194477677345275879e-01
-6.096007823944091797e-01 2.550848387181758881e-02 3.839976713061332703e-02
2.878549098968505859e-01 -5.373338609933853149e-02 -2.747773528099060059e-01
7.926268503069877625e-03 -1.192637607455253601e-01 -1.523149758577346802e-01
-4.562242329120635986e-02 -1.794099248945713043e-02 -2.815186381340026855e-01
1.594906747341156006e-01 -1.539711654186248779e-02 -9.398378431797027588e-02
7.738633155822753906e-01 9.055551886558532715e-02 6.117923650890588760e-03
-1.047676354646682739e-01 1.983563043177127838e-02 -5.519586205482482910e-01
1.480686515569686890e-01 -8.209766447544097900e-02 1.881188899278640747e-02
1.811899840831756592e-01 -1.422692462801933289e-02 -1.303104013204574585e-01
7.370533347129821777e-01 -6.960720568895339966e-02 -4.855006933212280273e-02
8.712176680564880371e-01 -7.385549694299697876e-02 -2.339109405875205994e-02
-7.226253747940063477e-01 2.873921208083629608e-02 -4.643865302205085754e-02
6.434639692306518555e-01 8.513704687356948853e-02 2.705406025052070618e-02
8.525454998016357422e-01 -6.070362776517868042e-02 3.987521678209304810e-02
-5.667872428894042969e-01 6.387020647525787354e-02 -6.126947328448295593e-02
3.551405370235443115e-01 -3.516306355595588684e-02 6.727281212806701660e-02
-9.036927670240402222e-02 -7.657744735479354858e-02 -6.109140440821647644e-02
4.586255848407745361e-01 -8.288627117872238159e-02 -1.504716370254755020e-02
-1.362863183021545410e-01 1.820755377411842346e-02 -5.727421045303344727e-01
-7.588248252868652344e-01 4.718235135078430176e-02 -2.086364626884460449e-01
5.177962183952331543e-01 5.651839077472686768e-02 6.416928023099899292e-02
-5.998322963714599609e-01 1.970844343304634094e-02 6.172715499997138977e-02
9.166513681411743164e-01 5.425433814525604248e-02 1.886276528239250183e-02
-6.316562294960021973e-01 5.588242411613464355e-02 -5.615627765655517578e-02
9.254786372184753418e-01 -4.963774606585502625e-02 -2.677445299923419952e-02
2.568195462226867676e-01 -1.090627983212471008e-01 -2.493894398212432861e-01
-7.392369508743286133e-01 3.504804149270057678e-02 -1.646782159805297852e-01
7.326524853706359863e-01 5.567891150712966919e-02 6.462717801332473755e-02
6.656720042228698730e-01 -9.953210130333900452e-03 -8.332492411136627197e-02
-4.265431165695190430e-01 8.266948163509368896e-02 -3.951929509639739990e-02
1.888979375362396240e-01 -1.471026428043842316e-02 -1.501781046390533447e-01
-7.440702915191650391e-01 2.639884687960147858e-02 -6.198176369071006775e-02
8.302161842584609985e-02 -3.048232570290565491e-02 -2.723606824874877930e-01
-3.142756968736648560e-02 -3.312796354293823242e-02 -8.434247970581054688e-02
1.579897850751876831e-01 -7.472041249275207520e-02 -7.027481496334075928e-02
4.495948255062103271e-01 -4.203154519200325012e-02 6.383857131004333496e-02
-6.354210972785949707e-01 1.382023990154266357e-01 5.583708174526691437e-03
-6.072094440460205078e-01 -1.618571951985359192e-02 4.544632136821746826e-02
3.325254321098327637e-01 6.149559281766414642e-03 7.589656859636306763e-02
2.448378801345825195e-01 -7.337214797735214233e-02 5.971749126911163330e-02
-9.866233170032501221e-02 -2.864614943973720074e-04 4.988676011562347412e-01
7.526279240846633911e-02 -6.680405931547284126e-04 2.840114533901214600e-01
-7.024718821048736572e-02 2.082774601876735687e-02 5.649321675300598145e-01
6.919248700141906738e-01 6.730444729328155518e-02 5.607973784208297729e-02
9.729278832674026489e-02 -5.597200617194175720e-02 -2.665860652923583984e-01
-5.505827069282531738e-01 -2.587790414690971375e-02 4.918582364916801453e-02
-5.185806751251220703e-01 8.361072093248367310e-02 -2.417969703674316406e-02
-6.928619146347045898e-01 2.722648978233337402e-01 -7.440960966050624847e-03
3.297780454158782959e-01 -4.096311330795288086e-02 -7.487923651933670044e-02
2.966312766075134277e-01 -9.934516996145248413e-02 2.705034613609313965e-01
-4.562810659408569336e-01 -5.408538854680955410e-04 -8.024682104587554932e-02
9.338225126266479492e-01 -1.051286607980728149e-02 -5.274747312068939209e-02
7.490664720535278320e-02 1.642683520913124084e-02 7.610008120536804199e-02
4.482720494270324707e-01 2.077687345445156097e-02 7.592200487852096558e-02
-1.207432225346565247e-01 -6.951429881155490875e-03 -4.175908267498016357e-01
2.262989431619644165e-02 -8.555733412504196167e-02 -1.225006803870201111e-01
-7.011999189853668213e-02 -1.000408176332712173e-02 -3.481428921222686768e-01
-7.777707278728485107e-02 -1.252253167331218719e-02 3.336425423622131348e-01
-7.034894078969955444e-02 -1.176815829239785671e-03 -3.980283737182617188e-01
5.031435489654541016e-01 -1.069093309342861176e-02 -8.324860781431198120e-02
-4.535336494445800781e-01 -6.591857224702835083e-02 -2.204283513128757477e-02
-7.059883475303649902e-01 2.090406045317649841e-02 -5.343432351946830750e-02
1.572266221046447754e-01 -7.835815846920013428e-02 5.412095412611961365e-02
1.179491057991981506e-01 -8.223372511565685272e-03 -1.934495121240615845e-01
1.945707798004150391e-01 -6.268785893917083740e-02 7.584568858146667480e-02
4.416579008102416992e-01 8.539143949747085571e-02 2.641809172928333282e-02
-1.076676771044731140e-01 8.871512487530708313e-03 -4.901423156261444092e-01
-7.489649113267660141e-03 -1.266410201787948608e-01 -1.530781388282775879e-01
-6.777766942977905273e-01 1.169101148843765259e-01 -1.133309770375490189e-02
-1.767085939645767212e-01 2.174354530870914459e-02 -6.887940168380737305e-01
9.401719085872173309e-03 -1.322121024131774902e-01 -1.650598049163818359e-01
2.075339201837778091e-03 -2.397878328338265419e-03 7.492990046739578247e-02
8.055600523948669434e-01 -1.097076106816530228e-02 -8.151876926422119141e-02
4.188138544559478760e-01 -5.261409282684326172e-02 5.686834082007408142e-02
9.304451197385787964e-02 -8.156344294548034668e-02 -4.196142032742500305e-02
-1.687462329864501953e-01 3.428487852215766907e-02 7.059648633003234863e-01
4.359147325158119202e-02 -2.257085964083671570e-02 -1.441999971866607666e-01
8.245882987976074219e-01 -1.211550738662481308e-02 6.989300996065139771e-02
3.672299534082412720e-02 -1.570237986743450165e-02 1.843676418066024780e-01
1.041927002370357513e-02 -6.993790715932846069e-02 6.849387288093566895e-02
8.038302659988403320e-01 -5.823606625199317932e-02 -6.035368144512176514e-02
5.467710494995117188e-01 1.731718890368938446e-02 -8.508020639419555664e-02
8.538938164710998535e-01 -7.238002866506576538e-02 -2.435776591300964355e-02
2.274886071681976318e-01 -4.836580529808998108e-02 2.106459289789199829e-01
1.558783650398254395e-01 -5.271583423018455505e-02 2.297759205102920532e-01
4.165812581777572632e-02 -2.999898605048656464e-02 9.828271716833114624e-02
-5.357010364532470703e-01 -3.930959105491638184e-02 3.832345083355903625e-02
1.941383332014083862e-01 -2.506385557353496552e-02 -2.618035972118377686e-01
-7.678496092557907104e-02 1.421365700662136078e-02 -4.898115992546081543e-01
-5.834242701530456543e-01 5.895167123526334763e-03 -7.070726901292800903e-02
8.419375419616699219e-01 -4.953598603606224060e-02 -6.058262661099433899e-02
3.218156993389129639e-01 7.753084599971771240e-02 -5.134833976626396179e-02
-6.802801974117755890e-03 4.394276533275842667e-03 4.822306334972381592e-01
-7.345561385154724121e-01 3.810069710016250610e-02 1.888194233179092407e-01
2.321184575557708740e-01 -6.024572998285293579e-02 -7.164850831031799316e-02
6.999695301055908203e-02 8.338177204132080078e-02 3.153129294514656067e-02
4.305666089057922363e-01 4.588497057557106018e-02 6.948599219322204590e-02
-3.503987565636634827e-02 1.322154235094785690e-02 -4.595394432544708252e-01
7.926268503069877625e-03 -1.192637607455253601e-01 -1.523149758577346802e-01
6.476613879203796387e-01 -6.652911752462387085e-02 4.358928650617599487e-02
8.002942204475402832e-01 4.290863126516342163e-02 -7.810996472835540771e-02
-1.593338847160339355e-01 2.609358355402946472e-02 -6.408672928810119629e-01
-5.585705041885375977e-01 1.469279080629348755e-01 -8.076930418610572815e-03
-7.392369508743286133e-01 3.504804149270057678e-02 -1.646782159805297852e-01
-6.269754171371459961e-01 2.711113356053829193e-02 4.262261092662811279e-02
-6.931926608085632324e-01 3.321644663810729980e-02 -1.692063361406326294e-01
-3.406108021736145020e-01 9.058094769716262817e-02 5.583708174526691437e-03
9.429296255111694336e-01 4.283231496810913086e-02 3.828430548310279846e-03
-6.525160074234008789e-01 1.006712950766086578e-02 -6.063350290060043335e-02
-7.162656784057617188e-01 3.380153700709342957e-02 -1.704528182744979858e-01
-7.814908027648925781e-01 1.577902734279632568e-01 -4.235670901834964752e-03
-3.221617266535758972e-02 -8.247924596071243286e-02 -2.290775626897811890e-02
1.116911619901657104e-01 -1.649098284542560577e-02 1.014116853475570679e-01
-3.453110158443450928e-02 8.922383189201354980e-03 -4.211522638797760010e-01
-6.096007823944091797e-01 2.550848387181758881e-02 3.839976713061332703e-02
2.262420952320098877e-01 -5.475095659494400024e-02 2.873693704605102539e-01
-3.166729211807250977e-01 -7.734061032533645630e-02 -3.430433943867683411e-02
8.665114641189575195e-01 -1.215278133749961853e-01 3.319654148072004318e-03
-9.064910560846328735e-02 -8.151257038116455078e-02 -2.618936076760292053e-02
-1.922771334648132324e-01 2.533041685819625854e-02 -6.665350198745727539e-01
6.697931885719299316e-01 7.783611118793487549e-02 4.180856794118881226e-02
-1.133090816438198090e-02 -1.125733628869056702e-01 -1.158611625432968140e-01
6.595218181610107422e-02 -8.344592899084091187e-02 -2.394428700208663940e-01
8.984625935554504395e-01 -3.564640507102012634e-02 4.643842950463294983e-02
-6.802801974117755890e-03 4.394276533275842667e-03 4.822306334972381592e-01
2.273105382919311523e-01 -7.873974740505218506e-02 4.946565255522727966e-02
-1.189624965190887451e-01 8.760461211204528809e-02 2.051628939807415009e-02
9.283277392387390137e-01 -3.419639542698860168e-02 -4.414916038513183594e-02
-1.721550375223159790e-01 1.179696805775165558e-02 -5.732254385948181152e-01
4.290462285280227661e-02 -1.093934997916221619e-01 -1.308954954147338867e-01
9.306426644325256348e-01 4.158581420779228210e-02 2.392508834600448608e-02
4.894574284553527832e-01 9.065727889537811279e-02 -1.380066294223070145e-02
-3.221617266535758972e-02 -8.247924596071243286e-02 -2.290775626897811890e-02
-1.418065577745437622e-01 1.530752331018447876e-02 -5.599209666252136230e-01
-6.604020595550537109e-01 2.085407078266143799e-01 4.159134812653064728e-03
-7.588248252868652344e-01 4.718235135078430176e-02 -2.086364626884460449e-01
-6.177920699119567871e-01 2.685674279928207397e-02 -8.861619234085083008e-02
2.820802628993988037e-01 -4.493156448006629944e-02 7.281847298145294189e-02
-1.156300157308578491e-01 -2.582702413201332092e-02 7.116495072841644287e-02
-9.036927670240402222e-02 -7.657744735479354858e-02 -6.109140440821647644e-02
8.358067870140075684e-01 -4.452455043792724609e-02 5.661395564675331116e-02
1.995568126440048218e-01 -2.615773119032382965e-02 2.478120177984237671e-01
-2.302827090024948120e-01 -1.298042666167020798e-02 -8.251088112592697144e-02
1.651380956172943115e-01 -1.221725903451442719e-02 -1.988425254821777344e-01
1.008856575936079025e-02 8.305107057094573975e-02 3.239621222019195557e-02
2.486028075218200684e-01 -3.747799247503280640e-02 -2.383490055799484253e-01
-1.925315260887145996e-01 9.108973294496536255e-02 -7.949736900627613068e-03
-7.256211340427398682e-02 -2.157874405384063721e-02 -3.496437966823577881e-01
2.635099589824676514e-01 2.596638724207878113e-02 -8.426616340875625610e-02
2.128867208957672119e-01 8.811338990926742554e-02 -2.735954709351062775e-02
2.443036586046218872e-01 -7.515287399291992188e-02 2.020985037088394165e-01
8.635351061820983887e-01 -7.187126576900482178e-02 1.303727831691503525e-02
-5.881558656692504883e-01 2.996028400957584381e-02 6.368593871593475342e-02
6.064251065254211426e-01 1.935230009257793427e-02 7.597288489341735840e-02
1.889039203524589539e-02 -4.027626290917396545e-02 1.815948188304901123e-01
7.583965659141540527e-01 8.226246386766433716e-02 3.407517075538635254e-02
-2.107396908104419708e-02 -2.628491818904876709e-02 -2.064232975244522095e-01
-4.872595891356468201e-02 2.664438914507627487e-03 -5.190916657447814941e-01
7.408437132835388184e-01 3.919456526637077332e-02 -8.047576993703842163e-02
-6.525923609733581543e-01 1.648877114057540894e-01 -1.415680535137653351e-02
5.984117984771728516e-01 -8.342047780752182007e-02 -6.487993523478507996e-04
5.229751579463481903e-03 6.454822607338428497e-03 3.719534277915954590e-01
8.694623112678527832e-01 -6.403610855340957642e-02 -3.651751577854156494e-02
1.582187414169311523e-01 -2.470771223306655884e-02 -2.396972626447677612e-01
-1.421372592449188232e-01 3.067256696522235870e-02 6.715207099914550781e-01
-6.405597925186157227e-01 2.817956544458866119e-02 4.066381976008415222e-02
7.086890935897827148e-01 7.417292892932891846e-02 4.735422879457473755e-02
2.229350507259368896e-01 -1.967083103954792023e-02 -6.958796828985214233e-02
1.550134420394897461e-01 5.305871739983558655e-02 6.602630764245986938e-02
5.164225697517395020e-01 -8.163976669311523438e-02 1.209604274481534958e-02
-2.567839995026588440e-02 -1.308217830955982208e-02 2.749552428722381592e-01
2.665117383003234863e-01 -1.161093413829803467e-01 -2.791782915592193604e-01
3.999891877174377441e-01 -8.044414967298507690e-02 1.685309968888759613e-02
-5.047523882240056992e-03 -1.119970809668302536e-02 2.639911174774169922e-01
-1.868332326412200928e-01 4.176388308405876160e-02 -7.973805069923400879e-02
-9.866233170032501221e-02 -2.864614943973720074e-04 4.988676011562347412e-01
-1.183519661426544189e-01 2.053912263363599777e-03 5.146396756172180176e-01
-3.179194033145904541e-01 6.865270435810089111e-02 5.465516448020935059e-02
2.511212527751922607e-01 -5.930448696017265320e-02 -2.320401817560195923e-01
-6.736047863960266113e-01 2.759447507560253143e-02 2.651984617114067078e-02
-5.723837614059448242e-01 7.628434151411056519e-02 3.547430783510208130e-02
8.365190625190734863e-01 7.241764664649963379e-02 4.211383685469627380e-02
1.924848109483718872e-01 -6.075449660420417786e-02 -9.337324649095535278e-02
-2.501698397099971771e-02 -3.735080733895301819e-02 -2.140549421310424805e-01
1.712179630994796753e-01 -2.636123448610305786e-02 2.146398276090621948e-01
5.814246833324432373e-02 -4.534740000963211060e-03 -3.981555998325347900e-01
-4.487868398427963257e-03 -1.956907846033573151e-02 2.561559677124023438e-01
4.804326593875885010e-02 -5.042634159326553345e-02 -2.646273076534271240e-01
5.211347341537475586e-02 -1.481202524155378342e-02 1.758202165365219116e-01
-1.636330485343933105e-01 9.787302464246749878e-03 -5.758965015411376953e-01
1.904302276670932770e-02 -1.112339273095130920e-02 4.000378549098968506e-01
-2.089904397726058960e-01 8.383966982364654541e-02 -3.939209878444671631e-02
-3.983060419559478760e-01 -1.603308692574501038e-02 7.241144776344299316e-02
8.957151770591735840e-01 -6.278961896896362305e-02 1.255394145846366882e-02
2.734056413173675537e-01 -5.286846682429313660e-02 -2.389340996742248535e-01
-7.378886938095092773e-01 4.949728399515151978e-02 2.564866542816162109e-01
-1.359556317329406738e-01 1.306891068816184998e-02 6.086869239807128906e-01
3.169060051441192627e-01 -2.875248901546001434e-02 -7.973805069923400879e-02
-2.184282392263412476e-01 5.529733002185821533e-02 -7.386168092489242554e-02
7.636877894401550293e-01 9.045376628637313843e-02 7.542496081441640854e-03
6.866081357002258301e-01 9.065727889537811279e-02 -1.380066294223070145e-02
-7.272298336029052734e-01 4.573234170675277710e-02 1.925080567598342896e-01
3.182288110256195068e-01 8.640898764133453369e-02 -3.290520608425140381e-02
-6.364641189575195312e-01 2.276109531521797180e-02 9.039668738842010498e-02
-6.875706911087036133e-01 2.263389900326728821e-02 7.513340562582015991e-02
-6.745460033416748047e-01 3.446295112371444702e-02 -1.014119237661361694e-01
1.738950051367282867e-02 -1.231901999562978745e-02 -2.361866980791091919e-01
-7.098490744829177856e-02 2.460926771163940430e-03 -8.452054858207702637e-02
-7.947698235511779785e-01 3.249741196632385254e-01 -9.806769900023937225e-03
-8.244060277938842773e-01 1.897071115672588348e-02 -4.159354604780673981e-03
-4.284959286451339722e-02 -8.067308366298675537e-02 3.590676560997962952e-02
6.599991917610168457e-01 -7.029405981302261353e-02 3.837433084845542908e-02
8.078300952911376953e-02 -2.264717593789100647e-02 -3.146145343780517578e-01
-6.065074820071458817e-03 -9.749698452651500702e-03 -2.855379879474639893e-01
-1.431039422750473022e-01 -7.344847172498703003e-02 3.389710187911987305e-02
5.012609958648681641e-01 -7.176950573921203613e-02 3.600852191448211670e-02
-3.567644655704498291e-01 -2.491122484207153320e-02 -7.981436699628829956e-02
1.059734169393777847e-02 -1.265901327133178711e-01 1.316838711500167847e-01
-2.184282392263412476e-01 5.529733002185821533e-02 -7.386168092489242554e-02
-3.498959839344024658e-01 8.322913944721221924e-02 3.193831071257591248e-02
-7.023506164550781250e-01 1.569508016109466553e-01 -1.084976177662611008e-02
1.420965325087308884e-02 -4.030170664191246033e-02 -8.541091531515121460e-02
-9.764478355646133423e-02 2.319355495274066925e-02 5.716989040374755859e-01
6.291419267654418945e-01 -5.149478092789649963e-02 5.775870010256767273e-02
5.909073948860168457e-01 3.433575481176376343e-02 7.286935299634933472e-02
-2.710296586155891418e-02 2.791634993627667427e-03 -8.454598486423492432e-02
-4.699612036347389221e-02 -1.175936404615640640e-02 4.124519824981689453e-01
9.166513681411743164e-01 5.425433814525604248e-02 1.886276528239250183e-02
4.463446512818336487e-02 -2.865072712302207947e-02 -2.968582510948181152e-01
2.281754612922668457e-01 -5.653166398406028748e-02 -2.341515868902206421e-01
9.594139456748962402e-01 1.538383960723876953e-02 2.616370283067226410e-02
1.678600311279296875e-01 -3.732535988092422485e-02 2.339478880167007446e-01
8.525710105895996094e-01 -1.253945082426071167e-01 -7.237450685352087021e-03
4.193735122680664062e-01 3.249529981985688210e-03 -8.459686487913131714e-02
3.271324038505554199e-01 1.642683520913124084e-02 -8.513108640909194946e-02
5.093505978584289551e-01 7.885366678237915039e-02 -4.903341084718704224e-02
-3.142756968736648560e-02 -3.312796354293823242e-02 -8.434247970581054688e-02
-2.461565434932708740e-01 8.956339955329895020e-02 1.199428830295801163e-02
5.244103670120239258e-01 -1.496465690433979034e-02 -8.230736851692199707e-02
-6.957365870475769043e-01 2.268477901816368103e-02 6.946054846048355103e-02
-7.056831717491149902e-01 3.723577782511711121e-02 1.875729411840438843e-01
1.621108651161193848e-01 -2.058663032948970795e-02 2.535866498947143555e-01
-4.996796846389770508e-01 8.099053055047988892e-02 -3.631400689482688904e-02
1.438712477684020996e-01 -9.967588633298873901e-02 -2.771686315536499023e-01
8.574043512344360352e-01 -1.110979020595550537e-01 -4.719008691608905792e-03
-3.813892304897308350e-01 8.284755796194076538e-02 -4.193598031997680664e-02
6.653727591037750244e-02 4.313758015632629395e-02 -7.933103293180465698e-02
1.481449604034423828e-01 -5.449656397104263306e-02 -1.390613466501235962e-01
2.879566550254821777e-01 -6.950544565916061401e-02 2.876746356487274170e-01
-1.102564577013254166e-02 -1.203321963548660278e-01 1.513989418745040894e-01
4.392217844724655151e-02 -1.334586143493652344e-01 1.102643981575965881e-01
-7.399237155914306641e-01 7.002639770507812500e-02 -5.176906939595937729e-03
-3.834692016243934631e-02 -1.270059868693351746e-02 -4.148688912391662598e-01
9.999380111694335938e-01 -7.587401196360588074e-03 -8.153247646987438202e-03
-1.138178911060094833e-02 4.578321799635887146e-02 -7.854242622852325439e-02
-6.062173843383789062e-01 6.063947826623916626e-02 4.801563546061515808e-02
8.686483502388000488e-01 6.509126722812652588e-02 -4.905885085463523865e-02
-5.578073859214782715e-01 3.252959996461868286e-02 -7.533713430166244507e-02
-5.252710580825805664e-01 -5.060442909598350525e-02 -2.748674154281616211e-02
3.188962116837501526e-02 -2.000153809785842896e-02 -1.726151108741760254e-01
