6.922839283943176270e-01 5.955401435494422913e-02 -5.736470595002174377e-02
-7.434898018836975098e-01 1.011048778891563416e-01 -1.324424613267183304e-02
-1.799835264682769775e-01 7.573698461055755615e-02 -3.136808052659034729e-02
6.800954043865203857e-02 -6.403248012065887451e-02 -2.169801592826843262e-01
7.560043931007385254e-01 -9.013844281435012817e-02 -2.393266186118125916e-02
-5.669806599617004395e-01 7.595567405223846436e-02 1.772754825651645660e-02
2.841560542583465576e-01 7.155456393957138062e-02 -3.940489143133163452e-02
-6.757509112358093262e-01 1.670395433902740479e-01 3.348762169480323792e-03
-2.996303327381610870e-02 -6.708679255098104477e-03 3.573511838912963867e-01
-3.912368714809417725e-01 -6.753149628639221191e-02 -5.979761853814125061e-02
3.268823623657226562e-01 -3.502888232469558716e-02 -8.215854316949844360e-02
-9.078583866357803345e-02 1.439477968961000443e-02 -8.565757423639297485e-02
6.800954043865203857e-02 -6.403248012065887451e-02 -2.169801592826843262e-01
-7.687176764011383057e-02 8.216823451220989227e-03 -7.412045598030090332e-01
2.438112907111644745e-02 -1.059041172266006470e-02 2.319605350494384766e-01
-5.655044913291931152e-01 -3.565761074423789978e-02 -5.968827381730079651e-02
7.374979257583618164e-01 -3.877392038702964783e-02 6.731522828340530396e-02
7.025109976530075073e-02 3.050301223993301392e-03 -4.413002133369445801e-01
8.345443010330200195e-02 -4.678339883685112000e-02 3.407035171985626221e-01
-8.283103257417678833e-02 -7.491225004196166992e-02 -4.847646057605743408e-01
-6.137527227401733398e-01 -7.337417919188737869e-03 5.187033116817474365e-02
-6.757509112358093262e-01 1.670395433902740479e-01 3.348762169480323792e-03
5.207499861717224121e-01 7.264800369739532471e-02 -3.620656579732894897e-02
-2.197028696537017822e-01 -8.262103050947189331e-02 3.024748153984546661e-02
7.036010622978210449e-01 -5.296135321259498596e-02 -7.423108071088790894e-02
1.522353757172822952e-02 -7.802131120115518570e-03 3.501618206501007080e-01
-7.066407203674316406e-01 2.781680785119533539e-02 -1.167387142777442932e-01
1.485416889190673828e-01 -6.954712327569723129e-03 -2.123330235481262207e-01
-1.205455278977751732e-03 -1.009835582226514816e-02 -2.982230484485626221e-01
6.266773343086242676e-01 1.371137611567974091e-02 7.259109616279602051e-02
-2.047227025032043457e-01 3.918862342834472656e-02 -7.379370182752609253e-02
9.269096851348876953e-01 -7.526761293411254883e-02 2.346812933683395386e-02
6.958103179931640625e-01 -2.108747139573097229e-02 -8.552089333534240723e-02
1.005941703915596008e-01 -4.240962117910385132e-02 -2.202605009078979492e-01
-1.226870715618133545e-01 7.806784939020872116e-03 7.771242856979370117e-01
1.589840650558471680e-01 -5.889328941702842712e-02 -2.446716278791427612e-01
4.352426528930664062e-01 -3.046375513076782227e-02 -8.396273106336593628e-02
7.309405505657196045e-02 -8.314208243973553181e-04 3.237551450729370117e-01
-2.714741043746471405e-02 -9.770324453711509705e-03 -3.376690447330474854e-01
1.081115901470184326e-01 -8.920902013778686523e-02 -2.893516607582569122e-02
5.173329710960388184e-01 6.860225647687911987e-02 3.194231912493705750e-02
7.309405505657196045e-02 -8.314208243973553181e-04 3.237551450729370117e-01
3.347551524639129639e-01 7.827924191951751709e-02 3.102737478911876678e-03
1.631698198616504669e-02 -5.875661596655845642e-02 5.214771032333374023e-01
-1.481916457414627075e-01 -9.227066487073898315e-02 -7.175634615123271942e-03
-3.513535261154174805e-01 3.965333476662635803e-02 -7.475046068429946899e-02
-4.381456077098846436e-01 -2.740211039781570435e-02 -8.240456879138946533e-02
-5.090827941894531250e-01 5.848790332674980164e-02 4.919139668345451355e-02
4.001737758517265320e-02 -9.653510153293609619e-02 5.756025910377502441e-01
7.994961142539978027e-01 -1.050840411335229874e-02 7.234507054090499878e-02
1.287230104207992554e-01 -3.311535343527793884e-02 -2.991251349449157715e-01
-4.656183719635009766e-01 5.944466963410377502e-02 4.768791049718856812e-02
2.902826480567455292e-02 -1.059041172266006470e-02 -1.913935691118240356e-01
2.929036021232604980e-01 5.083379894495010376e-02 -6.608492136001586914e-02
-4.626387655735015869e-01 3.705640509724617004e-02 6.452694535255432129e-02
-8.024537563323974609e-01 3.169852867722511292e-02 8.546639233827590942e-02
1.176792234182357788e-01 -2.580934204161167145e-03 -3.862452805042266846e-01
-2.255494706332683563e-02 5.045837722718715668e-03 -5.903092622756958008e-01
8.551251292228698730e-01 6.737213581800460815e-02 -1.053797453641891479e-02
1.042845323681831360e-01 -2.826957032084465027e-03 -2.241422235965728760e-01
-3.846455737948417664e-02 -8.786222897469997406e-03 3.665634691715240479e-01
1.234198063611984253e-01 -3.455685684457421303e-03 -8.191251754760742188e-02
4.898361861705780029e-02 -2.034213161095976830e-03 -4.580298960208892822e-01
-3.901127725839614868e-02 5.182520486414432526e-03 -6.107566356658935547e-01
8.061479777097702026e-03 1.267260871827602386e-02 7.286445796489715576e-02
-4.488853737711906433e-02 -1.726041361689567566e-02 -8.595826476812362671e-02
-2.080211881548166275e-03 -1.059041172266006470e-02 1.655338108539581299e-01
2.030771970748901367e-01 -7.953203469514846802e-02 -2.319603562355041504e-01
7.034370899200439453e-01 3.629099950194358826e-02 6.141063198447227478e-02
2.073142975568771362e-01 -5.041183438152074814e-03 1.722585111856460571e-01
-6.304003596305847168e-01 -1.408942788839340210e-02 -5.823946371674537659e-02
2.922294894233345985e-03 -5.872927233576774597e-02 5.214771032333374023e-01
9.564965032041072845e-03 5.353867891244590282e-04 4.279330074787139893e-01
-9.867647895589470863e-04 -7.665448356419801712e-03 3.705818653106689453e-01
-7.226049900054931641e-01 2.465329021215438843e-01 9.705221746116876602e-04
-3.108687698841094971e-01 1.234457828104496002e-02 7.177101075649261475e-02
-6.458725929260253906e-01 9.202929586172103882e-02 5.426305346190929413e-03
-7.973418831825256348e-01 4.599530994892120361e-02 -2.579296529293060303e-01
-2.095338553190231323e-01 2.133815176784992218e-02 6.939277052879333496e-02
1.418990045785903931e-01 -7.767558563500642776e-04 2.592966258525848389e-01
-6.476494669914245605e-01 -3.196723759174346924e-02 -3.555050119757652283e-02
2.071809209883213043e-02 -3.455685684457421303e-03 1.909017264842987061e-01
9.535077214241027832e-01 1.021235994994640350e-02 -5.863502155989408493e-03
-7.979159951210021973e-01 2.986701391637325287e-02 1.019500568509101868e-01
-1.118313148617744446e-02 -4.767817910760641098e-03 1.166568845510482788e-01
9.006976336240768433e-02 -6.107293069362640381e-03 3.475375771522521973e-01
1.733081787824630737e-01 -2.088888315483927727e-03 1.881681084632873535e-01
-5.133985728025436401e-02 -4.795160610228776932e-03 -5.275455713272094727e-01
5.512023568153381348e-01 2.945696935057640076e-02 6.477297097444534302e-02
-2.681938000023365021e-02 -1.026238128542900085e-02 1.439656317234039307e-01
-2.934556603431701660e-01 7.890796661376953125e-02 4.770239349454641342e-03
-4.024993479251861572e-01 6.821955740451812744e-02 3.511330857872962952e-02
8.978787660598754883e-01 -8.650275319814682007e-02 7.695201318711042404e-03
1.788300722837448120e-01 1.984191825613379478e-03 -8.688770234584808350e-02
-8.312838152050971985e-03 2.558255568146705627e-03 -4.997174143791198730e-01
-3.624246418476104736e-01 2.177552878856658936e-02 -8.248657733201980591e-02
-7.996655106544494629e-01 2.601262368261814117e-02 -5.039399862289428711e-02
1.181712746620178223e-01 -1.059041172266006470e-02 1.024967804551124573e-01
-3.193122521042823792e-02 -7.780986279249191284e-02 5.901727080345153809e-01
1.959731243550777435e-02 5.329404771327972412e-02 -6.471811980009078979e-02
2.292105108499526978e-01 2.229491248726844788e-02 -8.281461894512176514e-02
-8.526395261287689209e-02 -2.975300885736942291e-02 7.067756354808807373e-02
-2.045313268899917603e-01 -9.238000959157943726e-02 -4.660713952034711838e-03
-2.700833082199096680e-01 -1.026037037372589111e-01 -2.521745860576629639e-02
-6.381911039352416992e-01 7.376878708600997925e-02 -3.298090770840644836e-02
9.464277029037475586e-01 -7.641572505235671997e-02 1.212364900857210159e-02
-2.769719958305358887e-01 -4.957167804241180420e-02 6.296878308057785034e-02
-7.387606501579284668e-01 3.727509453892707825e-02 1.297235339879989624e-01
-8.534596115350723267e-02 5.975264124572277069e-03 -6.798076033592224121e-01
-8.025630712509155273e-01 4.208624735474586487e-02 1.728872358798980713e-01
5.120570659637451172e-01 4.167620465159416199e-02 -7.127878069877624512e-02
-6.879702210426330566e-01 2.093011289834976196e-01 -1.556781586259603500e-02
1.840512603521347046e-01 -9.442294016480445862e-03 -1.595743745565414429e-01
2.043073177337646484e-01 -9.123188257217407227e-02 -2.336825281381607056e-01
-7.973418831825256348e-01 4.599530994892120361e-02 -2.579296529293060303e-01
7.455620169639587402e-01 -3.117449209094047546e-02 -8.374404162168502808e-02
2.798949368298053741e-02 -2.595329470932483673e-02 5.527769327163696289e-01
9.575567394495010376e-02 3.817718476057052612e-02 5.993448197841644287e-02
3.645514845848083496e-01 -7.179592549800872803e-02 4.506364464759826660e-02
1.259620636701583862e-01 -9.005644917488098145e-02 -2.598286792635917664e-02
3.056969046592712402e-01 7.781452685594558716e-02 -2.026962488889694214e-02
1.274108737707138062e-01 -2.034213161095976830e-03 -2.263291031122207642e-01
-3.051828444004058838e-01 -8.825225383043289185e-02 -3.106738254427909851e-02
4.699140787124633789e-03 -5.028242617845535278e-02 -4.730374217033386230e-01
4.625000804662704468e-02 -6.714878976345062256e-02 5.614697933197021484e-01
8.039279282093048096e-02 -2.846998104359954596e-04 -3.258871734142303467e-01
7.979471236467361450e-03 5.127845332026481628e-03 5.845961570739746094e-01
1.918694078922271729e-01 -4.620934650301933289e-02 -2.315503060817718506e-01
-1.501325219869613647e-01 2.806282974779605865e-02 -8.032702654600143433e-02
1.662828028202056885e-01 -6.952703744173049927e-02 4.776991903781890869e-02
6.763743758201599121e-01 -8.229298144578933716e-02 -4.468075558543205261e-02
-1.146229133009910583e-01 2.677803486585617065e-02 6.739723682403564453e-02
1.248412877321243286e-01 -3.455685684457421303e-03 1.437469422817230225e-01
7.356937527656555176e-01 -9.019313007593154907e-02 8.460612036287784576e-03
6.164022907614707947e-02 -6.020542234182357788e-02 -6.887320429086685181e-02
-1.023216769099235535e-01 8.517521433532238007e-03 -7.747185826301574707e-01
-1.211015656590461731e-01 6.958635896444320679e-02 -4.503612592816352844e-02
1.051866263151168823e-01 -3.455685684457421303e-03 1.490774899721145630e-01
2.601003050804138184e-01 -7.884139195084571838e-03 7.365720719099044800e-02
9.519221782684326172e-01 -5.285201594233512878e-02 -4.927321895956993103e-02
7.414616346359252930e-01 5.548093467950820923e-02 -6.247655674815177917e-02
1.551296710968017578e-01 -3.455685684457421303e-03 -1.439654678106307983e-01
3.561866879463195801e-01 -5.495689064264297485e-02 5.925108119845390320e-02
-2.996303327381610870e-02 -6.708679255098104477e-03 3.573511838912963867e-01
-9.699113667011260986e-02 -2.580934204161167145e-03 6.653196811676025391e-01
-6.534993648529052734e-01 1.678596287965774536e-01 -1.679794117808341980e-02
-2.076476663351058960e-01 7.879862189292907715e-02 -1.808273606002330780e-02
1.790247485041618347e-02 1.492145936936140060e-03 -4.411635100841522217e-01
-1.264047771692276001e-01 3.350999439135193825e-03 7.412046194076538086e-01
-8.616090416908264160e-01 5.919864401221275330e-02 -7.886373437941074371e-03
-1.241905465722084045e-01 9.747645817697048187e-03 -8.345299363136291504e-01
-6.917152404785156250e-01 1.927081346511840820e-01 2.583351451903581619e-03
2.314793914556503296e-01 -4.394044354557991028e-02 6.523768603801727295e-02
-2.222177982330322266e-01 -7.349076122045516968e-02 4.287675768136978149e-02
-1.023216769099235535e-01 8.517521433532238007e-03 -7.747185826301574707e-01
2.435379475355148315e-02 -1.023503858596086502e-02 2.824229598045349121e-01
-8.061441779136657715e-01 3.891526162624359131e-02 -3.844812512397766113e-02
-6.118118166923522949e-01 8.604269474744796753e-02 5.781674757599830627e-03
8.300579190254211426e-01 -5.334405973553657532e-02 -7.368435710668563843e-02
1.747569888830184937e-01 -4.344839602708816528e-02 6.540169566869735718e-02
1.972819268703460693e-01 -5.341881886124610901e-03 -2.083419561386108398e-01
1.775452643632888794e-01 7.365944236516952515e-02 -3.497644141316413879e-02
-6.651139259338378906e-02 3.287398442625999451e-02 -7.712870836257934570e-02
-7.967404723167419434e-01 2.875643968582153320e-01 -1.209613215178251266e-02
8.096925020217895508e-01 1.535154879093170166e-02 -8.226789534091949463e-02
-3.532090410590171814e-02 3.350999439135193825e-03 -5.500431656837463379e-01
-1.228510886430740356e-01 3.651697421446442604e-03 -7.440201640129089355e-01
2.148350328207015991e-02 4.074677824974060059e-02 5.845833197236061096e-02
5.536899566650390625e-01 -8.270303159952163696e-02 3.024748153984546661e-02
1.219709888100624084e-01 -4.467119928449392319e-03 3.444759249687194824e-01
-7.979159951210021973e-01 2.986701391637325287e-02 1.019500568509101868e-01
1.173238605260848999e-01 -6.462656427174806595e-03 -6.581155955791473389e-02
5.623008608818054199e-01 2.869155816733837128e-02 -7.868686318397521973e-02
-2.004036009311676025e-01 -2.964366972446441650e-02 7.070490717887878418e-02
9.878998994827270508e-02 -8.786222897469997406e-03 2.559069395065307617e-01
-1.750630289316177368e-01 -5.806595087051391602e-03 -8.727039396762847900e-02
-8.068549036979675293e-01 8.790886960923671722e-03 -2.294856123626232147e-02
9.197202920913696289e-01 5.756573751568794250e-03 -6.020766124129295349e-02
-8.312838152050971985e-03 2.558255568146705627e-03 -4.997174143791198730e-01
-3.559426963329315186e-02 -6.725814193487167358e-02 5.036684498190879822e-02
-7.007361650466918945e-01 1.630211323499679565e-01 3.458106890320777893e-03
-6.712131500244140625e-01 2.497385255992412567e-02 5.752890557050704956e-02
-6.189739108085632324e-01 9.418884664773941040e-02 5.535650067031383514e-03
-3.072843514382839203e-02 -9.059588424861431122e-03 -3.646771013736724854e-01
5.021374300122261047e-02 -4.193764645606279373e-03 4.109572768211364746e-01
2.891892381012439728e-02 -9.549632668495178223e-02 -4.776025116443634033e-01
6.685289144515991211e-01 -8.404250442981719971e-02 2.726784534752368927e-02
-2.036565840244293213e-01 2.942963689565658569e-02 -7.972563803195953369e-02
-1.435718387365341187e-01 -5.919398739933967590e-02 -6.958393752574920654e-02
9.348678588867187500e-02 -1.059041172266006470e-02 -1.845868825912475586e-01
8.583267033100128174e-02 -7.688043266534805298e-02 3.416602909564971924e-01
5.746567249298095703e-01 -8.390582352876663208e-02 2.751387096941471100e-02
8.102152496576309204e-02 -5.484754964709281921e-02 3.457333743572235107e-01
1.100251153111457825e-01 -1.706182491034269333e-03 -2.532551586627960205e-01
-3.275437951087951660e-01 7.929067313671112061e-02 2.309990813955664635e-03
3.913955688476562500e-01 3.309267386794090271e-02 6.275010108947753906e-02
-1.893597990274429321e-01 1.450412999838590622e-02 9.226070046424865723e-01
1.435391753911972046e-01 -2.553601516410708427e-03 -1.948926001787185669e-01
-8.024537563323974609e-01 3.169852867722511292e-02 8.546639233827590942e-02
-1.750630289316177368e-01 -5.806595087051391602e-03 -8.727039396762847900e-02
-2.849814891815185547e-01 5.610966682434082031e-02 -6.250388920307159424e-02
-7.918747067451477051e-01 3.314734622836112976e-02 9.336652606725692749e-02
-3.461016714572906494e-02 -9.820260852575302124e-02 -5.241285562515258789e-01
1.929081678390502930e-01 2.476247726008296013e-03 -8.688770234584808350e-02
5.874260142445564270e-02 -8.929103612899780273e-02 -2.879848517477512360e-02
5.767649412155151367e-02 2.366897417232394218e-03 -5.029977560043334961e-01
-7.929680943489074707e-01 1.762517988681793213e-01 -3.567270701751112938e-03
-4.034287929534912109e-01 2.166618406772613525e-02 -8.316998183727264404e-02
-6.457052379846572876e-02 8.189490996301174164e-03 -7.283291816711425781e-01
2.802196443080902100e-01 -3.776248544454574585e-02 6.761592626571655273e-02
1.129227355122566223e-01 -6.954712327569723129e-03 2.632330358028411865e-01
1.587380468845367432e-01 -1.408942788839340210e-02 2.545401453971862793e-01
3.284678459167480469e-01 7.508091628551483154e-02 1.783689297735691071e-02
5.898862704634666443e-02 -2.835886925458908081e-02 -8.461879193782806396e-02
5.595432221889495850e-02 -8.365979045629501343e-02 2.800592221319675446e-02
-5.797918885946273804e-03 1.027432619594037533e-03 4.575653076171875000e-01
1.498538106679916382e-01 -1.059041172266006470e-02 7.245441526174545288e-02
2.558391913771629333e-02 -1.051459759473800659e-01 -4.981046020984649658e-01
-5.399178862571716309e-01 6.023741886019706726e-02 -5.944224819540977478e-02
6.913032382726669312e-02 -8.888098597526550293e-02 2.313591390848159790e-01
1.611436158418655396e-01 -4.948966950178146362e-02 2.811381816864013672e-01
-6.196026206016540527e-01 4.462850466370582581e-02 4.932807385921478271e-02
5.688374862074851990e-02 -1.059041172266006470e-02 -9.131614118814468384e-02
7.425550222396850586e-01 -7.983273267745971680e-02 -4.875383898615837097e-02
-7.952097058296203613e-01 3.776714578270912170e-02 -2.056903541088104248e-01
-1.396354585886001587e-01 7.765050977468490601e-02 1.220565754920244217e-02
-7.201721072196960449e-01 2.155683748424053192e-02 7.658216357231140137e-02
9.034006595611572266e-01 -5.287206731736660004e-03 5.624410882592201233e-02
3.429833352565765381e-01 6.923098862171173096e-02 3.098555468022823334e-02
-8.328788280487060547e-01 4.771748557686805725e-02 -2.383023202419281006e-01
-7.815416455268859863e-01 4.085612297058105469e-02 -1.699894368648529053e-01
1.915993541479110718e-02 2.175549743697047234e-03 4.687730967998504639e-01
6.628429889678955078e-01 -1.936529949307441711e-02 7.226306200027465820e-02
-1.872549206018447876e-01 1.745642535388469696e-02 9.347715973854064941e-01
-1.648119986057281494e-01 7.806784939020872116e-03 8.973757624626159668e-01
-1.040985211730003357e-01 -6.556329876184463501e-02 5.156963691115379333e-02
1.188820153474807739e-01 -1.042165458202362061e-01 -2.374548912048339844e-01
-1.789174079895019531e-01 7.994674146175384521e-02 -9.717891924083232880e-03
9.425218403339385986e-02 -1.059041172266006470e-02 -8.152981847524642944e-02
8.973866701126098633e-01 -8.475323021411895752e-02 -2.707631140947341919e-02
2.175686508417129517e-02 -1.649500243365764618e-02 -8.604028075933456421e-02
-2.004036009311676025e-01 -2.964366972446441650e-02 7.070490717887878418e-02
5.100648477673530579e-02 -3.455685684457421303e-03 -1.904914975166320801e-01
2.872757054865360260e-02 -3.455685684457421303e-03 -1.211944893002510071e-01
-7.529754042625427246e-01 9.525495767593383789e-02 -1.708415220491588116e-03
-1.347936037927865982e-02 2.347036637365818024e-02 6.881871074438095093e-02
2.017137221992015839e-02 -4.877893626689910889e-02 -5.310719609260559082e-01
-3.556692600250244141e-02 5.401210859417915344e-03 6.221013069152832031e-01
9.750518947839736938e-02 -3.455685684457421303e-03 1.626088619232177734e-01
-1.734775304794311523e-01 -9.098587185144424438e-02 5.809010937809944153e-03
4.587243497371673584e-01 7.825190573930740356e-02 -1.548580825328826904e-02
-4.623927474021911621e-01 4.145751893520355225e-02 -7.600792497396469116e-02
2.891892381012439728e-02 -9.549632668495178223e-02 -4.776025116443634033e-01
1.224630400538444519e-01 -5.307227256707847118e-04 2.856486141681671143e-01
1.405322104692459106e-01 -1.059041172266006470e-02 -1.109981313347816467e-01
-4.626387655735015869e-01 3.705640509724617004e-02 6.452694535255432129e-02
6.549461930990219116e-02 -2.529723383486270905e-02 7.149764895439147949e-02
8.321627378463745117e-01 5.397744849324226379e-02 4.150995239615440369e-02
6.585331633687019348e-03 -3.455685684457421303e-03 -2.350219786167144775e-01
-7.361910939216613770e-01 2.749897837638854980e-01 -1.653743325732648373e-03
-7.805028557777404785e-01 1.227550730109214783e-01 -9.909245185554027557e-03
-7.252839803695678711e-01 1.636298373341560364e-02 -4.850780963897705078e-02
3.064623177051544189e-01 -8.130162023007869720e-03 7.362986356019973755e-02
4.625000804662704468e-02 -6.714878976345062256e-02 5.614697933197021484e-01
-2.803616523742675781e-01 -1.654967665672302246e-02 7.256375998258590698e-02
-2.047227025032043457e-01 3.918862342834472656e-02 -7.379370182752609253e-02
1.882336884737014771e-01 -1.001981422305107117e-01 -1.869378089904785156e-01
-8.411343097686767578e-01 4.760813713073730469e-02 -2.695474624633789062e-01
-1.583026535809040070e-02 -5.391812324523925781e-02 5.990714579820632935e-02
4.377575814723968506e-01 1.537888124585151672e-02 7.198970019817352295e-02
-4.461517930030822754e-02 -8.294177241623401642e-03 -4.080868363380432129e-01
-2.694545686244964600e-01 -2.553601516410708427e-03 -8.721572905778884888e-02
1.405322104692459106e-01 -1.059041172266006470e-02 -1.109981313347816467e-01
-4.749673604965209961e-01 9.747645817697048187e-03 -8.623162657022476196e-02
9.810992516577243805e-03 6.201426312327384949e-02 4.145528376102447510e-02
3.246954977512359619e-01 6.548594683408737183e-02 -5.022998526692390442e-02
-1.361637562513351440e-01 1.253383816219866276e-04 8.047336935997009277e-01
-1.074575539678335190e-02 -9.052115678787231445e-02 -2.264786325395107269e-02
1.871128976345062256e-01 -2.721075154840946198e-02 -2.167614847421646118e-01
-5.004172325134277344e-01 -5.777251347899436951e-02 -5.255355313420295715e-02
-5.465059280395507812e-01 2.773479931056499481e-02 -7.923357933759689331e-02
1.336981803178787231e-01 7.915399223566055298e-02 -1.226015016436576843e-02
-3.982895910739898682e-01 4.905695468187332153e-02 5.520533770322799683e-02
-9.349212050437927246e-02 -7.343609631061553955e-02 5.644767880439758301e-01
1.412702798843383789e-01 -9.907007217407226562e-03 -1.837394833564758301e-01
1.733081787824630737e-01 -2.088888315483927727e-03 1.881681084632873535e-01
5.635856389999389648e-01 -8.685811609029769897e-02 -3.434771299362182617e-02
-7.274708151817321777e-01 1.391020566225051880e-01 -1.529445499181747437e-02
-2.044493407011032104e-01 -8.232033252716064453e-02 3.098555468022823334e-02
-8.024811148643493652e-01 3.921595588326454163e-02 -1.591643393039703369e-01
1.248412877321243286e-01 -3.455685684457421303e-03 1.437469422817230225e-01
-1.361637562513351440e-01 1.253383816219866276e-04 8.047336935997009277e-01
-6.196026206016540527e-01 4.462850466370582581e-02 4.932807385921478271e-02
-7.983260154724121094e-01 4.883826524019241333e-02 2.342021018266677856e-01
-1.203088238835334778e-01 1.048572547733783722e-02 -8.575196266174316406e-01
1.746476590633392334e-01 -1.117886453866958618e-01 -2.045149207115173340e-01
1.213149279356002808e-01 -6.323973089456558228e-02 2.917445898056030273e-01
-6.829403042793273926e-01 1.190373525023460388e-01 -1.770002953708171844e-02
-1.079255789518356323e-01 7.998133078217506409e-03 -7.646315097808837891e-01
-8.309653401374816895e-01 1.420343201607465744e-02 -1.718064583837985992e-02
1.890537738800048828e-01 7.166390120983123779e-02 2.598305046558380127e-02
-7.357264161109924316e-01 3.183521330356597900e-02 -4.867183044552803040e-02
6.081434488296508789e-01 3.060508705675601959e-02 -7.756608724594116211e-02
1.311832666397094727e-01 -2.223558723926544189e-02 -8.535686880350112915e-02
6.505724042654037476e-02 -5.669912323355674744e-03 8.461897820234298706e-02
-4.745812714099884033e-02 7.014041300863027573e-03 6.834434866905212402e-01
1.127313897013664246e-01 -1.094377264380455017e-01 2.438517361879348755e-01
-5.024674534797668457e-01 7.868927717208862305e-02 8.651965297758579254e-03
-8.616090416908264160e-01 5.919864401221275330e-02 -7.886373437941074371e-03
-5.549254417419433594e-01 7.808788865804672241e-02 1.272504404187202454e-02
-3.737144172191619873e-01 6.764549762010574341e-02 -4.880850762128829956e-02
-2.692872099578380585e-02 -5.071979388594627380e-02 5.859355926513671875e-01
1.452066749334335327e-01 6.595066189765930176e-02 -4.995662346482276917e-02
-8.301178812980651855e-01 3.160212635993957520e-01 -4.031984135508537292e-03
1.740462630987167358e-01 -1.059041172266006470e-02 9.820500761270523071e-02
8.167178630828857422e-01 5.701175704598426819e-02 4.082655161619186401e-02
-2.821351960301399231e-02 -6.693010777235031128e-02 5.200282931327819824e-01
8.156244158744812012e-01 -3.806318342685699463e-02 6.652248650789260864e-02
1.172418519854545593e-01 -2.717616967856884003e-03 -2.148206084966659546e-01
2.986988425254821777e-01 -7.914933562278747559e-02 3.609740734100341797e-02
9.810898303985595703e-01 -5.687041953206062317e-02 1.729017123579978943e-02
6.687476038932800293e-01 5.690241232514381409e-02 -6.078172102570533752e-02
-5.007999539375305176e-01 6.701677292585372925e-02 3.779224678874015808e-02
-2.487851493060588837e-02 -2.701940387487411499e-02 -8.475547283887863159e-02
7.641505599021911621e-01 3.145250678062438965e-02 -7.855017483234405518e-02
-6.917152404785156250e-01 1.927081346511840820e-01 2.583351451903581619e-03
1.013902295380830765e-02 7.784186303615570068e-02 9.335367940366268158e-03
-8.356124758720397949e-01 4.328903555870056152e-02 -3.052066080272197723e-02
-5.902129411697387695e-02 7.152722030878067017e-02 -4.044366255402565002e-02
-5.549254417419433594e-01 7.808788865804672241e-02 1.272504404187202454e-02
4.813039600849151611e-01 -8.710414916276931763e-02 2.026980556547641754e-02
2.070135921239852905e-01 -6.539928168058395386e-02 -6.521017104387283325e-02
1.522867232561111450e-01 -3.455685684457421303e-03 -1.560753583908081055e-01
2.175686508417129517e-02 -1.649500243365764618e-02 -8.604028075933456421e-02
8.319168090820312500e-01 -9.011111408472061157e-02 -2.595553174614906311e-02
1.532708257436752319e-01 4.717806819826364517e-03 -8.705171197652816772e-02
3.783049061894416809e-02 -8.819758892059326172e-02 -3.128606826066970825e-02
9.679445624351501465e-02 -3.264337778091430664e-03 -3.866006433963775635e-01
8.646140992641448975e-02 -4.111757036298513412e-03 -3.738620579242706299e-01
1.055419966578483582e-01 -5.099315941333770752e-02 -2.380289584398269653e-01
1.145449117757380009e-03 -1.059041172266006470e-02 1.077726408839225769e-01
2.292105108499526978e-01 2.229491248726844788e-02 -8.281461894512176514e-02
3.719322383403778076e-01 3.333869576454162598e-02 6.261342018842697144e-02
-2.694272398948669434e-01 -1.190254371613264084e-02 -8.658700436353683472e-02
7.979471236467361450e-03 5.127845332026481628e-03 5.845961570739746094e-01
1.778459697961807251e-01 -1.122806891798973083e-01 -2.209712266921997070e-01
6.687476038932800293e-01 5.690241232514381409e-02 -6.078172102570533752e-02
-7.443098425865173340e-01 2.472782880067825317e-02 9.462398290634155273e-02
2.840467095375061035e-01 7.847058773040771484e-02 2.282654633745551109e-03
-2.187154255807399750e-02 -8.376184850931167603e-03 2.787325978279113770e-01
-3.306986473035067320e-04 -1.059041172266006470e-02 -9.809549897909164429e-02
-1.475355774164199829e-01 2.038866980001330376e-03 8.018634319305419922e-01
-4.263090789318084717e-01 -5.361742526292800903e-02 5.523267388343811035e-02
6.984618902206420898e-01 -9.027512371540069580e-02 8.323932066559791565e-03
1.522867232561111450e-01 -3.455685684457421303e-03 -1.560753583908081055e-01
-5.315530300140380859e-01 -6.507124751806259155e-02 -2.637842670083045959e-03
2.491931766271591187e-01 -8.532729744911193848e-02 2.431554719805717468e-02
-2.879610955715179443e-01 8.030211180448532104e-02 -5.125427152961492538e-03
-1.004354879260063171e-01 4.676071926951408386e-02 5.504132062196731567e-02
3.449788689613342285e-01 3.254594653844833374e-02 6.307813525199890137e-02
2.043073177337646484e-01 -5.271533131599426270e-02 -2.081506103277206421e-01
-8.133608102798461914e-01 5.504355579614639282e-02 1.811025477945804596e-02
-7.568845152854919434e-01 6.021007895469665527e-02 2.303075045347213745e-02
1.490883976221084595e-01 -6.769550591707229614e-02 2.936034500598907471e-01
-4.506382346153259277e-01 -7.901265472173690796e-02 3.266753861680626869e-03
1.972819268703460693e-01 -5.341881886124610901e-03 -2.083419561386108398e-01
-7.059026956558227539e-01 1.513285841792821884e-02 3.760089352726936340e-02
-2.799483016133308411e-02 7.267345208674669266e-04 5.602670311927795410e-01
7.004574537277221680e-01 -2.261829376220703125e-02 7.185301929712295532e-02
-6.964170932769775391e-01 8.505859225988388062e-02 2.501343144103884697e-03
3.577174544334411621e-01 -7.945003360509872437e-02 3.568736463785171509e-02
8.097745180130004883e-01 -7.955938577651977539e-02 3.505863621830940247e-02
1.112279072403907776e-01 -1.045372895896434784e-02 -5.577921122312545776e-02
6.415514647960662842e-02 -1.842855126596987247e-03 3.015855848789215088e-01
1.137154921889305115e-01 -2.625399269163608551e-02 -2.911156415939331055e-01
9.008310437202453613e-01 -8.196494728326797485e-02 1.882099173963069916e-02
-5.825895667076110840e-01 -4.883360862731933594e-02 1.966841146349906921e-02
4.331924319267272949e-01 -1.753377914428710938e-02 7.248175144195556641e-02
5.150093436241149902e-01 -3.871925547719001770e-02 -8.076440542936325073e-02
-7.967952489852905273e-01 3.519755229353904724e-02 1.114903613924980164e-01
3.146117925643920898e-02 3.440288128331303596e-04 -5.306891798973083496e-01
1.120513305068016052e-02 -1.059041172266006470e-02 -1.126383021473884583e-01
9.164125919342041016e-01 -2.220824547111988068e-02 -6.764307618141174316e-02
1.725701093673706055e-01 -1.059041172266006470e-02 -8.377137780189514160e-02
-4.622013866901397705e-01 7.352275401353836060e-02 -3.861214593052864075e-02
-4.822660684585571289e-01 5.403212457895278931e-02 5.307312309741973877e-02
-7.973692417144775391e-01 3.806784376502037048e-02 1.349173784255981445e-01
-1.954797655344009399e-02 1.136772683821618557e-03 -4.668594300746917725e-01
1.005121618509292603e-01 -6.134625524282455444e-03 -3.115083873271942139e-01
1.418170034885406494e-01 4.367174208164215088e-02 -7.021266967058181763e-02
7.789120674133300781e-01 -8.748684823513031006e-02 1.947705820202827454e-02
5.757775306701660156e-01 3.563493117690086365e-02 6.124661490321159363e-02
7.385366559028625488e-01 -1.829919032752513885e-02 7.237240672111511230e-02
-2.080211881548166275e-03 -1.059041172266006470e-02 1.655338108539581299e-01
6.962236762046813965e-02 -3.100322559475898743e-03 4.224931001663208008e-01
-4.613539576530456543e-01 -2.420378103852272034e-02 6.933809816837310791e-02
-1.287796907126903534e-02 -1.016469448804855347e-01 -5.188253521919250488e-01
8.639546036720275879e-01 3.153451532125473022e-02 5.370185151696205139e-02
-6.432210206985473633e-01 -3.757113963365554810e-02 1.201430521905422211e-02
-7.759104371070861816e-01 2.110779881477355957e-01 -6.423076847568154335e-04
-3.108380734920501709e-02 4.499116446822881699e-03 -5.815070271492004395e-01
-2.216164022684097290e-01 -6.810555607080459595e-02 -6.285926699638366699e-02
7.656267285346984863e-01 -4.492454603314399719e-02 -7.841350138187408447e-02
4.001737758517265320e-02 -9.653510153293609619e-02 5.756025910377502441e-01
6.667339242994785309e-03 -5.751919932663440704e-03 -4.157956242561340332e-01
2.180573642253875732e-01 -8.540200069546699524e-03 -1.539158076047897339e-01
-7.687483429908752441e-01 2.724274806678295135e-02 -1.179141625761985779e-01
8.971133828163146973e-01 -7.526761293411254883e-02 3.095822036266326904e-02
5.297708511352539062e-01 2.598528563976287842e-02 6.706920266151428223e-02
9.374067187309265137e-01 -8.210163563489913940e-02 -9.772563353180885315e-03
8.271636068820953369e-02 5.430548265576362610e-02 5.066754296422004700e-02
-8.382914066314697266e-01 5.004104971885681152e-02 -2.583670318126678467e-01
-7.184193283319473267e-02 -7.288936525583267212e-02 -5.711868405342102051e-02
-3.107867240905761719e-01 -5.331672728061676025e-02 6.028985232114791870e-02
-5.835463404655456543e-01 -5.408214032649993896e-02 -5.426124203950166702e-03
9.233286976814270020e-01 -4.727545380592346191e-02 4.664913937449455261e-02
1.963251680135726929e-01 -3.346345620229840279e-03 -1.192536279559135437e-01
-1.396354585886001587e-01 7.765050977468490601e-02 1.220565754920244217e-02
-7.195127010345458984e-02 6.994020659476518631e-04 7.098774909973144531e-01
-1.083356142044067383e-01 1.300788018852472305e-03 -7.798851132392883301e-01
-2.941630221903324127e-02 5.865924060344696045e-03 -6.225111484527587891e-01
8.482637405395507812e-01 -7.450220733880996704e-02 -5.392035841941833496e-02
-3.925729915499687195e-02 -1.043532118201255798e-01 -5.123193860054016113e-01
-1.621330380439758301e-01 -7.772786915302276611e-02 3.776490688323974609e-02
7.150855660438537598e-02 -6.079950369894504547e-03 -3.375596702098846436e-01
-2.209876626729965210e-01 -5.810054391622543335e-02 -7.034935057163238525e-02
9.868063777685165405e-02 -8.075486868619918823e-03 -2.652283608913421631e-01
9.471689909696578979e-02 -1.031704619526863098e-02 -2.124970406293869019e-01
-1.246552616357803345e-01 2.062741108238697052e-02 6.977547705173492432e-02
-1.823344230651855469e-01 2.355237491428852081e-02 -9.321197867393493652e-01
1.029450744390487671e-01 -1.059041172266006470e-02 -1.564033925533294678e-01
-3.085178434848785400e-01 -9.188796579837799072e-02 -1.283420622348785400e-02
2.781421244144439697e-01 3.175320476293563843e-02 6.357018649578094482e-02
-8.854427933692932129e-02 -8.396048843860626221e-02 -4.077169671654701233e-02
-5.503876209259033203e-01 -5.123191513121128082e-03 -7.923357933759689331e-02
-4.705935418605804443e-01 4.328903555870056152e-02 6.130128726363182068e-02
2.432645671069622040e-02 1.710836426354944706e-03 4.494738578796386719e-01
4.816319942474365234e-01 2.366171963512897491e-02 6.873670220375061035e-02
-1.621330380439758301e-01 -7.772786915302276611e-02 3.776490688323974609e-02
2.781421244144439697e-01 3.175320476293563843e-02 6.357018649578094482e-02
4.872632622718811035e-01 -4.139089491218328476e-03 -8.702437579631805420e-02
1.788300722837448120e-01 -8.420652151107788086e-02 2.919359207153320312e-01
4.925697669386863708e-02 -3.455685684457421303e-03 -7.950694859027862549e-02
-7.968772053718566895e-01 2.141122967004776001e-01 -1.042862981557846069e-02
1.194560751318931580e-01 -1.480170176364481449e-04 -2.922637760639190674e-01
-5.549254417419433594e-01 7.808788865804672241e-02 1.272504404187202454e-02
3.484505712985992432e-01 4.506587982177734375e-02 5.588874220848083496e-02
-3.914796188473701477e-02 -1.594828069210052490e-02 3.018316030502319336e-01
1.100797951221466064e-01 -6.736021954566240311e-03 2.978132069110870361e-01
5.207259580492973328e-02 3.166963288094848394e-04 3.800674974918365479e-01
8.363451957702636719e-01 6.433782726526260376e-02 2.335878275334835052e-02
1.999882161617279053e-01 -1.063214167952537537e-01 -2.223107069730758667e-01
-7.291929721832275391e-01 4.331637173891067505e-02 -4.744170606136322021e-02
6.081434488296508789e-01 3.060508705675601959e-02 -7.756608724594116211e-02
8.538402915000915527e-01 3.866923600435256958e-02 -6.485479325056076050e-02
1.587380468845367432e-01 -1.408942788839340210e-02 2.545401453971862793e-01
8.156244158744812012e-01 -3.806318342685699463e-02 6.652248650789260864e-02
1.768072098493576050e-01 -8.540200069546699524e-03 -1.878672391176223755e-01
-9.059449285268783569e-02 5.539892613887786865e-02 4.982012510299682617e-02
-1.532214879989624023e-01 1.690970361232757568e-02 7.116961479187011719e-02
-4.275665581226348877e-01 5.944466963410377502e-02 4.664913937449455261e-02
9.649375826120376587e-02 -4.068744927644729614e-02 6.646780669689178467e-02
9.281124472618103027e-01 -2.389576053246855736e-03 -5.916889011859893799e-02
2.230358496308326721e-02 -3.505621477961540222e-02 -5.090937018394470215e-01
1.227090731263160706e-01 -1.760847517289221287e-03 3.641578853130340576e-01
2.935629896819591522e-02 -1.045372895896434784e-02 2.728280127048492432e-01
5.565875768661499023e-01 -9.060315787792205811e-02 -2.869382733479142189e-04
-6.958976387977600098e-01 -2.628132514655590057e-02 -1.887548156082630157e-02
-3.778115287423133850e-02 2.284889807924628258e-03 5.274910330772399902e-01
8.062481284141540527e-01 4.181288927793502808e-02 5.632611736655235291e-02
2.027764916419982910e-01 -7.780986279249191284e-02 3.768289834260940552e-02
1.618817001581192017e-01 -5.307227256707847118e-04 -2.399151474237442017e-01
3.785202503204345703e-01 -8.147290349006652832e-02 3.295375779271125793e-02
-7.282089591026306152e-01 1.704292148351669312e-01 1.927285222336649895e-03
-8.382914066314697266e-01 5.004104971885681152e-02 -2.583670318126678467e-01
-2.833959460258483887e-01 -1.125266999006271362e-01 -3.785958513617515564e-03
8.662542700767517090e-02 -5.423889495432376862e-03 -3.410313427448272705e-01
-1.347936037927865982e-02 2.347036637365818024e-02 6.881871074438095093e-02
5.595432221889495850e-02 -8.365979045629501343e-02 2.800592221319675446e-02
-1.228510886430740356e-01 3.651697421446442604e-03 -7.440201640129089355e-01
-4.740105867385864258e-01 -7.417417317628860474e-02 -2.762303315103054047e-02
1.795714721083641052e-02 -3.455685684457421303e-03 -2.818760573863983154e-01
-3.842388093471527100e-01 7.488956302404403687e-02 -3.401967883110046387e-02
-2.292431741952896118e-01 1.584359444677829742e-02 7.147031277418136597e-02
2.047173380851745605e-01 -1.026238128542900085e-02 -1.217958852648735046e-01
1.617176830768585205e-01 9.829653427004814148e-03 -8.696971088647842407e-02
3.899194002151489258e-01 2.175549743697047234e-03 7.313781231641769409e-02
8.062481284141540527e-01 4.181288927793502808e-02 5.632611736655235291e-02
4.573062062263488770e-02 -8.273036032915115356e-02 5.786095857620239258e-01
-2.687165141105651855e-01 5.293867737054824829e-02 -6.501881778240203857e-02
3.766614198684692383e-01 3.246394172310829163e-02 -7.658198475837707520e-02
9.052321314811706543e-01 2.265028469264507294e-02 -5.747405067086219788e-02
9.110820889472961426e-01 1.980732940137386322e-02 4.317745566368103027e-02
6.913032382726669312e-02 -8.888098597526550293e-02 2.313591390848159790e-01
-7.835098505020141602e-01 2.863342761993408203e-01 -1.302555855363607407e-02
5.791125297546386719e-01 3.437747061252593994e-02 -7.543386518955230713e-02
8.826798200607299805e-01 -8.338642120361328125e-02 2.087119966745376587e-02
2.839953638613224030e-02 -1.059041172266006470e-02 8.415426313877105713e-02
8.925755023956298828e-01 2.316966839134693146e-02 -6.277725845575332642e-02
-8.624805510044097900e-02 5.291860550642013550e-03 -6.574193239212036133e-01
-5.364735722541809082e-01 -4.388577863574028015e-02 4.651245474815368652e-02
-2.490618377923965454e-01 2.232224866747856140e-02 6.895539909601211548e-02
-4.696607962250709534e-02 1.496884319931268692e-02 7.204437255859375000e-02
-5.943134427070617676e-02 6.084604188799858093e-03 -6.583214402198791504e-01
-3.709774836897850037e-02 4.389776382595300674e-03 5.921956300735473633e-01
9.704047441482543945e-02 -1.116792932152748108e-01 2.492642849683761597e-01
1.188820153474807739e-01 -1.042165458202362061e-01 -2.374548912048339844e-01
2.848121225833892822e-01 -5.613233894109725952e-02 5.837632343173027039e-02
1.825784519314765930e-02 -3.455685684457421303e-03 -1.759213507175445557e-01
1.414069533348083496e-01 -5.560572259128093719e-03 -2.918263971805572510e-01
9.164125919342041016e-01 -2.220824547111988068e-02 -6.764307618141174316e-02
9.747478961944580078e-01 7.540670339949429035e-04 -1.097535248845815659e-02
-4.888814091682434082e-01 7.508091628551483154e-02 -3.489443287253379822e-02
8.482637405395507812e-01 -7.450220733880996704e-02 -5.392035841941833496e-02
-8.071556091308593750e-01 1.658167317509651184e-02 -3.112205490469932556e-02
-8.624805510044097900e-02 5.291860550642013550e-03 -6.574193239212036133e-01
-7.554903626441955566e-01 3.519755229353904724e-02 1.712197363376617432e-01
1.701645255088806152e-01 -6.463387608528137207e-02 -1.810605227947235107e-01
-8.046679496765136719e-01 4.372641071677207947e-02 2.421295642852783203e-01
2.154604345560073853e-01 -6.846091896295547485e-02 -6.253122538328170776e-02
-4.904942512512207031e-01 7.018775492906570435e-02 -4.708633571863174438e-02
5.056910961866378784e-02 -9.180594980716705322e-02 -1.216365606524050236e-03
6.239163875579833984e-01 -8.811557292938232422e-02 -3.147742152214050293e-02
-1.438145432621240616e-02 -8.868230506777763367e-03 -1.304614394903182983e-01
7.754983752965927124e-02 -3.455685684457421303e-03 -1.046288236975669861e-01
2.175686508417129517e-02 -1.649500243365764618e-02 -8.604028075933456421e-02
7.601901143789291382e-02 -1.405484508723020554e-03 3.030070662498474121e-01
5.916324853897094727e-01 7.669374346733093262e-02 1.185028813779354095e-02
-1.214022636413574219e-01 -5.419147759675979614e-02 -7.316496968269348145e-02
-3.023125529289245605e-01 -4.199958220124244690e-02 6.592109054327011108e-02
1.127313897013664246e-01 -1.094377264380455017e-01 2.438517361879348755e-01
-1.435718387365341187e-01 -5.919398739933967590e-02 -6.958393752574920654e-02
5.139159560203552246e-01 2.142016030848026276e-02 6.963879615068435669e-02
-9.466756880283355713e-02 5.783916451036930084e-03 -8.124970197677612305e-01
8.894591927528381348e-01 5.594564601778984070e-02 -1.887548156082630157e-02
-1.340042054653167725e-01 5.408679321408271790e-02 -6.430807709693908691e-02
-7.640739083290100098e-01 3.243660926818847656e-02 -1.713562309741973877e-01
-1.317353099584579468e-01 7.752109784632921219e-03 -8.920450806617736816e-01
6.068859696388244629e-01 -5.594099313020706177e-02 -7.204419374465942383e-02
7.034370899200439453e-01 3.629099950194358826e-02 6.141063198447227478e-02
4.377575814723968506e-01 1.537888124585151672e-02 7.198970019817352295e-02
6.700050234794616699e-01 -4.148019477725028992e-02 -7.972563803195953369e-02
-1.925581395626068115e-01 -2.319234795868396759e-02 -8.522018790245056152e-02
-1.164817661046981812e-01 -1.190254371613264084e-02 6.865871548652648926e-01
-7.971506118774414062e-01 4.785416647791862488e-02 2.203700393438339233e-01
6.278834491968154907e-02 -3.639568015933036804e-02 -8.158449083566665649e-02
-7.325553297996520996e-01 3.722042590379714966e-02 1.422708034515380859e-01
9.426279067993164062e-01 -6.725814193487167358e-02 -4.167378693819046021e-02
1.452066749334335327e-01 6.595066189765930176e-02 -4.995662346482276917e-02
-9.466756880283355713e-02 5.783916451036930084e-03 -8.124970197677612305e-01
-7.369838356971740723e-01 1.988933794200420380e-02 -6.007097661495208740e-02
3.824839890003204346e-01 5.501621961593627930e-02 -6.335131078958511353e-02
-4.034287929534912109e-01 2.166618406772613525e-02 -8.316998183727264404e-02
6.852312088012695312e-01 6.955903023481369019e-02 2.926338277757167816e-02
9.034006595611572266e-01 -5.287206731736660004e-03 5.624410882592201233e-02
1.496624499559402466e-01 -8.341377973556518555e-02 2.242244333028793335e-01
6.164022907614707947e-02 -6.020542234182357788e-02 -6.887320429086685181e-02
-2.843527495861053467e-01 -8.491724729537963867e-02 2.510829456150531769e-02
-6.973373703658580780e-03 -3.426346927881240845e-02 5.610871315002441406e-01
6.604920625686645508e-01 7.702177762985229492e-02 -2.234716899693012238e-02
1.393874268978834152e-02 -9.068517386913299561e-02 8.023235015571117401e-03
-6.574904918670654297e-01 -3.122915700078010559e-02 1.852029561996459961e-02
1.490883976221084595e-01 -1.059041172266006470e-02 1.051210463047027588e-01
2.230358496308326721e-02 -3.505621477961540222e-02 -5.090937018394470215e-01
1.426917612552642822e-01 -2.573673264123499393e-04 2.739761173725128174e-01
5.173329710960388184e-01 6.860225647687911987e-02 3.194231912493705750e-02
2.987568452954292297e-02 -1.059041172266006470e-02 -9.440512210130691528e-02
-1.017476245760917664e-01 -3.674376057460904121e-03 -6.334729790687561035e-01
-8.062261343002319336e-01 2.326188385486602783e-01 -3.649278311058878899e-03
3.463729918003082275e-01 -8.584666997194290161e-02 -3.661660850048065186e-02
-4.388016760349273682e-01 7.814096752554178238e-04 -8.710638433694839478e-02
3.347551524639129639e-01 7.827924191951751709e-02 3.102737478911876678e-03
-7.260734587907791138e-02 3.296324284747242928e-03 -7.508541941642761230e-01
7.708512246608734131e-02 -7.791921496391296387e-02 -5.099539458751678467e-02
-2.736369967460632324e-01 -7.198729366064071655e-02 4.468094184994697571e-02
-7.153337001800537109e-01 1.601235121488571167e-01 2.638024045154452324e-03
2.698866128921508789e-01 2.084610238671302795e-02 6.991215795278549194e-02
-7.512225955724716187e-02 -4.111757036298513412e-03 5.859903097152709961e-01
1.733081787824630737e-01 -2.088888315483927727e-03 1.881681084632873535e-01
6.831354461610317230e-03 2.749603241682052612e-03 -4.909698963165283203e-01
-7.270607948303222656e-01 -1.873656176030635834e-02 -1.817759824916720390e-03
-2.187154255807399750e-02 -8.376184850931167603e-03 2.787325978279113770e-01
-4.479046165943145752e-01 -5.468353629112243652e-02 -6.567487865686416626e-02
5.631482601165771484e-01 -9.057582169771194458e-02 -1.286154333502054214e-02
7.979471236467361450e-03 5.127845332026481628e-03 5.845961570739746094e-01
4.116789102554321289e-01 2.120146900415420532e-02 -8.322465419769287109e-02
4.649602994322776794e-02 -9.216131269931793213e-02 -5.121826529502868652e-01
1.400674879550933838e-01 -9.464891254901885986e-02 2.904597818851470947e-01
4.003070890903472900e-01 6.761816143989562988e-02 -4.752371087670326233e-02
3.511021435260772705e-01 -1.086376700550317764e-02 -8.675101399421691895e-02
-6.672675255686044693e-03 5.805052816867828369e-02 4.632110521197319031e-02
-1.115339472889900208e-01 -6.400730344466865063e-04 -6.789602041244506836e-01
-8.073469400405883789e-01 4.889293387532234192e-02 2.283248305320739746e-01
-8.312113285064697266e-01 6.108483672142028809e-02 8.351267315447330475e-03
6.266773343086242676e-01 1.371137611567974091e-02 7.259109616279602051e-02
2.260428294539451599e-02 -3.455685684457421303e-03 2.762996852397918701e-01
-2.687165141105651855e-01 5.293867737054824829e-02 -6.501881778240203857e-02
6.882962584495544434e-02 -1.059041172266006470e-02 1.040549352765083313e-01
-2.185547500848770142e-01 4.451915994286537170e-02 5.665415152907371521e-02
-4.765801727771759033e-01 -7.641572505235671997e-02 -6.109526380896568298e-03
4.529324173927307129e-02 -5.889328941702842712e-02 -5.056493282318115234e-01
1.091777011752128601e-01 -3.455685684457421303e-03 2.023555487394332886e-01
-4.822660684585571289e-01 5.403212457895278931e-02 5.307312309741973877e-02
1.071274951100349426e-01 5.080440896563231945e-04 3.736161887645721436e-01
8.219391107559204102e-01 -1.236725691705942154e-02 7.179834693670272827e-02
-4.388016760349273682e-01 7.814096752554178238e-04 -8.710638433694839478e-02
-7.332113981246948242e-01 6.548594683408737183e-02 2.026980556547641754e-02
-2.996303327381610870e-02 -6.708679255098104477e-03 3.573511838912963867e-01
6.445584446191787720e-02 -3.455685684457421303e-03 1.833842992782592773e-01
-1.692371256649494171e-02 -1.059041172266006470e-02 8.628647774457931519e-02
1.522867232561111450e-01 -3.455685684457421303e-03 -1.560753583908081055e-01
2.767479717731475830e-01 -9.125924110412597656e-02 -6.628912407904863358e-03
-7.952917218208312988e-01 3.194455802440643311e-02 -1.453596055507659912e-01
-1.006235182285308838e-02 -4.178089275956153870e-02 -7.950694859027862549e-02
-8.046953678131103516e-01 6.226028501987457275e-02 -2.732233703136444092e-02
-1.780973374843597412e-01 1.387540157884359360e-02 -9.096495509147644043e-01
-4.813821986317634583e-03 -2.143553225323557854e-03 -5.451226830482482910e-01
5.055510997772216797e-01 2.558255568146705627e-03 7.300113886594772339e-02
1.719173602759838104e-02 -3.455685684457421303e-03 -2.204245179891586304e-01
-7.184193283319473267e-02 -7.288936525583267212e-02 -5.711868405342102051e-02
-3.461596667766571045e-01 -6.898030638694763184e-02 -6.176581606268882751e-02
7.713399529457092285e-01 2.166618406772613525e-02 6.884604692459106445e-02
-2.353904396295547485e-02 -7.045646756887435913e-02 -4.669141173362731934e-01
-4.366147816181182861e-01 -1.559291779994964600e-02 -8.543888479471206665e-02
-7.755517214536666870e-02 -7.592367380857467651e-02 3.995179757475852966e-02
-3.832820653915405273e-01 1.341068837791681290e-02 -8.502883464097976685e-02
1.703558862209320068e-01 -1.009835582226514816e-02 -1.547358930110931396e-01
