4.913236200809478760e-02 -3.502104058861732483e-02 -2.731065154075622559e-01
2.310004234313964844e-01 -4.424191266298294067e-02 3.051775395870208740e-01
3.253480046987533569e-02 -1.671491004526615143e-02 4.738380312919616699e-01
9.713511914014816284e-02 -7.927963510155677795e-03 2.474114894866943359e-01
-5.255717635154724121e-01 -4.855402186512947083e-02 3.546713665127754211e-02
2.799523770809173584e-01 -6.181579455733299255e-02 -1.374783813953399658e-01
-5.660929530858993530e-02 -8.934280276298522949e-02 8.170707523822784424e-02
3.747645914554595947e-01 -1.050454005599021912e-01 6.030923873186111450e-02
7.012340426445007324e-02 4.954127129167318344e-03 -3.342896699905395508e-01
-8.145499974489212036e-03 2.545699849724769592e-02 -5.614213347434997559e-01
-7.025074958801269531e-02 3.277945518493652344e-02 -6.312829852104187012e-01
1.549825072288513184e-01 -1.525599807500839233e-01 -3.048100173473358154e-01
7.166925072669982910e-02 -1.655505597591400146e-01 1.821060478687286377e-01
-7.467641830444335938e-01 5.217039585113525391e-02 -4.526970162987709045e-02
1.839739829301834106e-01 -4.375221673399209976e-03 2.338242679834365845e-01
1.482838243246078491e-01 -9.905184060335159302e-02 -3.168784976005554199e-01
3.117879107594490051e-02 -4.266735166311264038e-03 -5.320230722427368164e-01
-1.777316816151142120e-02 1.634461246430873871e-02 -4.682092070579528809e-01
1.349406689405441284e-01 -8.416122756898403168e-03 2.086838483810424805e-01
-9.756079316139221191e-02 1.357835344970226288e-02 -6.592981219291687012e-01
-3.841941654682159424e-01 1.017732396721839905e-01 2.228671684861183167e-02
8.400893956422805786e-02 -1.179003790020942688e-01 2.845390439033508301e-01
4.671088755130767822e-01 -8.595278114080429077e-02 5.092564970254898071e-02
3.287416398525238037e-01 -5.302885919809341431e-02 -2.933924198150634766e-01
1.834587156772613525e-01 -5.020834878087043762e-02 -2.882938086986541748e-01
1.263978183269500732e-01 -9.010216593742370605e-02 -2.988164722919464111e-01
-2.681197524070739746e-01 5.103135108947753906e-02 8.927638530731201172e-01
-7.792933378368616104e-03 1.211386360228061676e-02 -9.685232490301132202e-02
1.242010816931724548e-01 -1.058047711849212646e-01 1.718811877071857452e-02
5.442080274224281311e-02 -2.948852442204952240e-02 -3.434291779994964600e-01
3.409999608993530273e-01 -3.244462981820106506e-02 1.058169305324554443e-01
4.274862706661224365e-01 -6.005299463868141174e-02 8.509709686040878296e-02
-5.894941091537475586e-01 5.208903551101684570e-02 7.267604768276214600e-02
-2.677942812442779541e-01 1.383855193853378296e-01 8.948521018028259277e-01
5.845393538475036621e-01 -9.403459727764129639e-02 1.835428737103939056e-02
8.969098329544067383e-01 4.934990033507347107e-02 3.657906502485275269e-02
1.498296707868576050e-01 -7.548280525952577591e-03 -1.817385405302047729e-01
-4.087922275066375732e-01 9.548135846853256226e-02 4.604401066899299622e-02
6.701036095619201660e-01 1.030750125646591187e-01 -1.033888291567564011e-02
2.670974135398864746e-01 -9.202616289258003235e-03 -1.691818982362747192e-01
6.977083534002304077e-02 5.284840241074562073e-02 9.312468022108078003e-02
-1.560355536639690399e-02 1.111041754484176636e-02 -4.321122467517852783e-01
1.115359440445899963e-01 8.778075687587261200e-03 4.142007231712341309e-01
1.185871958732604980e-01 -2.162366360425949097e-02 -9.888633340597152710e-02
-1.257658004760742188e-01 -2.392887882888317108e-02 9.838599711656570435e-02
2.823660969734191895e-01 4.856341332197189331e-02 -8.730601519346237183e-02
3.690115362405776978e-02 -3.241750225424766541e-02 1.058169305324554443e-01
7.120820879936218262e-02 -2.604425884783267975e-02 -3.911607265472412109e-01
7.489148974418640137e-01 1.645309850573539734e-02 -9.175372123718261719e-02
7.671667933464050293e-01 -9.273282438516616821e-02 1.878821104764938354e-02
2.908546924591064453e-01 -1.166257336735725403e-01 -2.380400747060775757e-01
1.473888456821441650e-01 -1.321927160024642944e-01 -2.873717248439788818e-01
7.896458357572555542e-02 -6.325317919254302979e-02 3.045537769794464111e-01
-4.706805050373077393e-01 7.422072812914848328e-03 8.946345001459121704e-02
7.865306138992309570e-01 8.954203128814697266e-02 3.812491521239280701e-02
4.542267918586730957e-01 6.998836994171142578e-02 7.801872491836547852e-02
8.913465589284896851e-02 -9.913319349288940430e-02 2.787353396415710449e-01
7.032986879348754883e-01 7.256478816270828247e-02 7.346253097057342529e-02
-5.216516554355621338e-03 -2.249150723218917847e-02 3.840430676937103271e-01
1.658034622669219971e-01 -1.058047711849212646e-01 -7.157629728317260742e-02
-6.525486111640930176e-01 5.773004144430160522e-02 -5.796195566654205322e-02
1.780075430870056152e-01 9.529151022434234619e-02 4.712881892919540405e-02
-8.797344565391540527e-01 7.975164055824279785e-02 2.766741812229156494e-01
-8.418475389480590820e-01 6.874084472656250000e-02 -9.316398203372955322e-02
8.119422793388366699e-01 -2.118973806500434875e-02 -8.589576929807662964e-02
7.667870521545410156e-01 -6.387694180011749268e-02 -6.558272987604141235e-02
-5.368031561374664307e-02 -6.897400598973035812e-03 -4.004901051521301270e-01
-1.004391070455312729e-02 -2.154230326414108276e-02 3.705100715160369873e-01
-9.194691479206085205e-02 7.584792561829090118e-03 6.292368173599243164e-01
-8.789480328559875488e-01 8.493159711360931396e-02 -2.569157481193542480e-01
1.817501336336135864e-01 -6.414815038442611694e-02 3.104930818080902100e-01
-7.444860339164733887e-01 2.267973721027374268e-01 9.567344561219215393e-03
1.178007125854492188e-01 6.513385474681854248e-02 -7.594265043735504150e-02
-2.412164956331253052e-01 9.458638727664947510e-02 8.943367600440979004e-01
2.954109013080596924e-01 -1.568721085786819458e-01 2.577443122863769531e-01
-6.393174827098846436e-02 7.790746539831161499e-02 7.007250934839248657e-02
-6.635593771934509277e-01 4.023750871419906616e-02 6.809273362159729004e-02
-1.032289117574691772e-01 3.755261003971099854e-02 7.196826934814453125e-01
-3.861739635467529297e-01 6.941884756088256836e-02 -7.203733921051025391e-02
-2.533663511276245117e-01 2.475187554955482483e-02 -9.359789639711380005e-02
-7.431300878524780273e-01 6.112006306648254395e-02 9.819615632295608521e-02
-1.515842378139495850e-01 8.026692271232604980e-02 6.771305203437805176e-02
-8.323283791542053223e-01 8.560960739850997925e-02 -3.012844026088714600e-01
-5.953827127814292908e-02 -9.943151473999023438e-02 1.515410467982292175e-02
-4.380548894405364990e-01 -1.987070136237889528e-04 9.198562800884246826e-02
1.807614578865468502e-03 -1.451817061752080917e-02 -4.547847211360931396e-01
1.003624200820922852e-01 -5.994450673460960388e-02 1.429444849491119385e-01
3.046046495437622070e-01 9.718992561101913452e-02 3.994197025895118713e-02
2.949733845889568329e-02 9.523727744817733765e-02 4.734577983617782593e-02
-6.005355715751647949e-02 4.521827213466167450e-04 -9.782865643501281738e-02
5.916683748364448547e-02 -1.692931503057479858e-01 2.320614755153656006e-01
-6.819197535514831543e-01 6.095734238624572754e-02 -5.877556279301643372e-02
9.149411320686340332e-02 -1.481394022703170776e-01 -2.160998433828353882e-01
2.929429709911346436e-01 1.021258085966110229e-01 2.112054824829101562e-02
8.539206534624099731e-02 -9.580733603797852993e-04 -4.791929125785827637e-01
2.193080261349678040e-02 6.573049724102020264e-02 8.227659761905670166e-02
2.343633323907852173e-01 -2.783418819308280945e-02 -9.888633340597152710e-02
-9.170283377170562744e-02 5.062454938888549805e-02 9.372132271528244019e-02
1.155226081609725952e-01 -7.439803797751665115e-03 -2.139302343130111694e-01
2.079175412654876709e-02 1.463604252785444260e-02 4.501349925994873047e-01
3.438204526901245117e-01 -4.532672092318534851e-02 -1.242437288165092468e-01
-1.419330388307571411e-02 7.297158986330032349e-02 7.503550499677658081e-02
-4.240189213305711746e-03 2.404831815510988235e-03 -5.783714652061462402e-01
-7.297869324684143066e-01 6.074038147926330566e-02 -8.532623946666717529e-02
-8.202869892120361328e-01 3.763110339641571045e-01 -2.230478130513802171e-04
-1.985835433006286621e-01 3.459651023149490356e-02 7.338122725486755371e-01
-8.279891610145568848e-01 8.376543223857879639e-02 -2.668688595294952393e-01
4.140617847442626953e-01 -5.281188711524009705e-02 9.410101175308227539e-02
5.759386718273162842e-02 -1.058047711849212646e-01 -5.069374293088912964e-02
-7.444860339164733887e-01 2.267973721027374268e-01 9.567344561219215393e-03
-7.062736749649047852e-01 8.886561729013919830e-03 -4.103894904255867004e-02
3.161307275295257568e-01 2.434507571160793304e-02 1.005827262997627258e-01
5.670468211174011230e-01 -6.417526304721832275e-02 7.492702454328536987e-02
-7.262612581253051758e-01 7.546665519475936890e-02 -3.886932879686355591e-02
1.049728542566299438e-01 -5.213389173150062561e-02 -1.737380921840667725e-01
1.695731580257415771e-01 -1.453188955783843994e-01 3.158357441425323486e-01
5.361840128898620605e-01 -5.614767596125602722e-02 8.295460045337677002e-02
5.678025633096694946e-02 7.232226431369781494e-03 -3.582367897033691406e-01
-8.353387117385864258e-01 8.390103280544281006e-02 -2.591667175292968750e-01
5.618361756205558777e-02 -8.657654374837875366e-02 1.042710840702056885e-01
-5.882737040519714355e-01 8.683001995086669922e-02 -4.272040352225303650e-02
2.363937534391880035e-02 -4.638440907001495361e-02 2.125891447067260742e-01
-5.429829359054565430e-01 -1.861332543194293976e-02 6.830969452857971191e-02
6.833346188068389893e-02 -1.330605596303939819e-01 -2.045737653970718384e-01
-8.222667574882507324e-01 2.966861128807067871e-01 -6.027309573255479336e-04
3.029232025146484375e-01 7.169694453477859497e-02 -6.935244053602218628e-02
-8.022249937057495117e-01 1.154689416289329529e-01 5.662035662680864334e-03
-7.185862660408020020e-01 -2.937849145382642746e-03 3.107366338372230530e-02
1.789025068283081055e-01 -6.856872141361236572e-02 -2.703131139278411865e-01
4.560673609375953674e-02 -3.616008907556533813e-02 2.841593623161315918e-01
8.045113086700439453e-01 -1.595569998025894165e-01 -7.762463297694921494e-03
-7.827255129814147949e-01 9.908834099769592285e-02 6.855323910713195801e-03
2.094398587942123413e-01 -3.751448588445782661e-03 -2.469897568225860596e-01
4.465394187718629837e-03 -4.039083793759346008e-02 -2.060382515192031860e-01
5.638195276260375977e-01 1.032106131315231323e-01 1.699827983975410461e-02
-2.376673370599746704e-02 -1.129086874425411224e-02 -3.326624631881713867e-01
-9.541829675436019897e-02 -9.039896540343761444e-03 -5.593602061271667480e-01
-8.279891610145568848e-01 8.376543223857879639e-02 -2.668688595294952393e-01
-8.629741668701171875e-01 6.163534894585609436e-02 8.167995512485504150e-02
-8.087337613105773926e-01 7.223934680223464966e-02 -2.967558428645133972e-02
-8.335341699421405792e-03 -1.923708803951740265e-02 -3.203770220279693604e-01
4.690850526094436646e-02 -3.813986480236053467e-02 -2.970807552337646484e-01
7.429990917444229126e-02 -2.433568984270095825e-02 -4.014121890068054199e-01
-2.353856563568115234e-01 -4.331982880830764771e-02 9.328740090131759644e-02
2.644125223159790039e-01 -9.400748461484909058e-02 -3.510228395462036133e-01
8.057588338851928711e-01 -1.851584911346435547e-01 -5.077563226222991943e-03
5.186101794242858887e-01 1.536829210817813873e-02 -9.601160138845443726e-02
-1.482213288545608521e-01 1.591069623827934265e-02 6.210736036300659180e-01
2.165182381868362427e-01 -1.049097999930381775e-01 2.510998249053955078e-01
2.908546924591064453e-01 -1.166257336735725403e-01 -2.380400747060775757e-01
8.360791802406311035e-01 -1.758562326431274414e-01 -1.513915788382291794e-02
1.536536216735839844e-01 8.099917322397232056e-02 6.698080152273178101e-02
3.217988610267639160e-01 -7.621661573648452759e-02 -2.498373538255691528e-01
2.911258935928344727e-01 -4.454023763537406921e-02 1.942830234766006470e-01
2.892275154590606689e-01 9.846457839012145996e-02 3.506033122539520264e-02
4.298999905586242676e-01 -5.793761461973190308e-02 -7.992932200431823730e-02
-1.771585792303085327e-01 4.069855436682701111e-02 9.629773348569869995e-02
-2.043601423501968384e-01 3.635932132601737976e-02 -8.046352267265319824e-01
6.896572113037109375e-01 7.988724112510681152e-02 6.717064231634140015e-02
3.370096907019615173e-02 5.767737049609422684e-03 -3.640405237674713135e-01
-3.630404174327850342e-01 -1.912860199809074402e-02 9.776223450899124146e-02
-5.984980463981628418e-01 1.001460328698158264e-01 -1.543747819960117340e-02
2.129112631082534790e-01 8.083645254373550415e-02 6.714352965354919434e-02
7.332358509302139282e-02 -5.552391335368156433e-02 2.096872925758361816e-01
9.260604530572891235e-02 1.064379140734672546e-01 4.685708321630954742e-03
7.945310473442077637e-01 4.126807674765586853e-02 -8.190909028053283691e-02
-9.881190955638885498e-03 -1.030656248331069946e-01 1.648299582302570343e-02
2.068905532360076904e-01 -5.270341783761978149e-02 2.280205488204956055e-01
-2.023532539606094360e-01 3.123360499739646912e-02 -7.483066320419311523e-01
-3.713699430227279663e-02 -7.683883421123027802e-03 3.775070905685424805e-01
1.478227823972702026e-01 -3.027500584721565247e-02 -3.550094962120056152e-01
-8.592315912246704102e-01 6.686954945325851440e-02 -2.433290518820285797e-02
2.908546924591064453e-01 -1.166257336735725403e-01 -2.380400747060775757e-01
-1.482213288545608521e-01 1.591069623827934265e-02 6.210736036300659180e-01
-7.731520533561706543e-01 6.426601111888885498e-02 1.310115903615951538e-01
1.223026663064956665e-01 -3.355655074119567871e-02 -3.376525640487670898e-01
2.176808193325996399e-02 -3.328535705804824829e-02 -1.811418980360031128e-01
-3.325844407081604004e-01 -4.296725988388061523e-02 -8.505503833293914795e-02
-1.232436224818229675e-01 9.212002158164978027e-03 5.481473803520202637e-01
-1.703785359859466553e-01 4.275968670845031738e-02 -7.469776868820190430e-01
7.786115407943725586e-01 5.979117751121520996e-02 7.940185815095901489e-02
-8.467870205640792847e-02 -1.310629770159721375e-03 5.051618814468383789e-01
9.689103811979293823e-02 7.025957107543945312e-02 7.772040367126464844e-02
-1.939188688993453979e-01 3.443378955125808716e-02 -7.923498153686523438e-01
1.476600617170333862e-01 -5.953769758343696594e-02 2.946548759937286377e-01
3.332978188991546631e-01 -6.485325843095779419e-02 3.183579444885253906e-01
2.476251125335693359e-01 -7.629640400409698486e-03 -1.915831863880157471e-01
2.718705534934997559e-01 1.061938405036926270e-01 1.322803320363163948e-03
1.332049965858459473e-01 -4.060780256986618042e-02 -9.888633340597152710e-02
2.271764725446701050e-01 -1.328707337379455566e-01 -2.443590909242630005e-01
1.656678617000579834e-01 -7.686752080917358398e-02 3.104930818080902100e-01
-1.712192595005035400e-01 4.479370638728141785e-02 -7.634396553039550781e-01
-1.009779423475265503e-01 9.374721907079219818e-03 -6.111055612564086914e-01
-9.116043150424957275e-02 1.173418108373880386e-02 5.178812742233276367e-01
-1.224065013229846954e-02 1.563948951661586761e-02 -6.144684553146362305e-01
-8.391355872154235840e-01 2.010603100061416626e-01 2.651693066582083702e-03
3.516188822686672211e-03 -1.373168732970952988e-02 3.063707947731018066e-01
6.684185564517974854e-02 -1.115813776850700378e-01 -2.929855883121490479e-01
9.032794833183288574e-02 -1.659844815731048584e-01 -2.251037508249282837e-01
1.070303935557603836e-02 -3.092589601874351501e-02 1.869063377380371094e-01
-1.566557139158248901e-01 2.665029093623161316e-02 7.677125930786132812e-01
4.037560820579528809e-01 -9.902470558881759644e-02 4.265398532152175903e-02
-6.005355715751647949e-02 4.521827213466167450e-04 -9.782865643501281738e-02
7.475737947970628738e-03 -2.289831638336181641e-02 3.931283056735992432e-01
1.074407994747161865e-01 8.726394176483154297e-02 -5.375832691788673401e-02
-4.382176399230957031e-01 9.312190115451812744e-02 -4.437473416328430176e-02
4.498297348618507385e-02 -1.554347276687622070e-01 -1.865930706262588501e-01
7.882898300886154175e-02 1.057327911257743835e-01 7.343488279730081558e-03
1.805261522531509399e-02 1.515132933855056763e-02 -4.363972246646881104e-01
-9.340020418167114258e-01 5.675371363759040833e-02 -7.355661131441593170e-03
1.013116240501403809e-01 7.964476011693477631e-03 -3.483379185199737549e-01
3.747645914554595947e-01 -1.050454005599021912e-01 6.030923873186111450e-02
-3.161225020885467529e-01 -9.216330945491790771e-02 -3.315288049634546041e-04
-1.453465819358825684e-01 6.122854351997375488e-02 -7.984795421361923218e-02
1.583725363016128540e-01 -7.738279551267623901e-02 -2.689842283725738525e-01
1.816416531801223755e-01 -6.276499480009078979e-02 -2.838189899921417236e-01
-9.756079316139221191e-02 1.357835344970226288e-02 -6.592981219291687012e-01
-6.837368011474609375e-01 6.152686849236488342e-02 7.259468734264373779e-02
-2.965181693434715271e-02 1.008782833814620972e-01 2.592082507908344269e-02
9.472448825836181641e-01 -1.533178053796291351e-02 5.282406136393547058e-02
1.255842149257659912e-01 -4.535383731126785278e-02 -2.435183674097061157e-01
3.143136799335479736e-01 -1.734154224395751953e-01 3.269279301166534424e-01
-8.593130111694335938e-01 3.852335810661315918e-01 6.312920246273279190e-03
-8.754765987396240234e-01 7.416488230228424072e-02 2.107449769973754883e-01
-8.481936454772949219e-01 5.984541401267051697e-02 -6.843034923076629639e-02
1.236044317483901978e-01 -1.079743802547454834e-01 -3.335031867027282715e-01
1.672013779170811176e-03 -8.633086457848548889e-03 -5.085369944572448730e-01
2.221321165561676025e-01 -5.601207166910171509e-02 -1.869456171989440918e-01
3.030859231948852539e-01 -1.058047711849212646e-01 2.982613444328308105e-02
8.451644182205200195e-01 -8.158641308546066284e-02 -4.049654304981231689e-02
-2.969484925270080566e-01 7.883115671575069427e-03 1.054372489452362061e-01
9.249756485223770142e-02 -5.080499500036239624e-02 -1.778332442045211792e-01
6.971659511327743530e-02 -3.857379406690597534e-02 2.844034433364868164e-01
-7.975060343742370605e-01 1.907817274332046509e-01 7.262127473950386047e-03
3.370403945446014404e-01 4.305801168084144592e-02 -8.874338120222091675e-02
-5.763950347900390625e-01 4.275968670845031738e-02 -6.956940144300460815e-02
6.532348394393920898e-01 -9.661102294921875000e-02 8.482536301016807556e-03
3.554514423012733459e-02 1.479876320809125900e-02 5.473608970642089844e-01
-7.521881461143493652e-01 1.053802296519279480e-01 -2.311303280293941498e-03
7.530336081981658936e-02 -1.308079808950424194e-02 -1.768569052219390869e-01
9.994784593582153320e-01 -2.919020131230354309e-02 -1.381026953458786011e-02
-8.498751521110534668e-01 6.510673463344573975e-02 8.403941243886947632e-02
-7.062736749649047852e-01 8.886561729013919830e-03 -4.103894904255867004e-02
-3.060102462768554688e-02 -1.280960161238908768e-02 -4.369396269321441650e-01
3.345688804984092712e-02 -2.772571146488189697e-02 -3.392526507377624512e-01
-4.020157456398010254e-02 8.753514289855957031e-02 6.041771918535232544e-02
6.607889663428068161e-03 -1.050996333360671997e-01 -3.770316392183303833e-02
-1.923458874225616455e-01 -6.599231809377670288e-02 7.310996949672698975e-02
8.180714249610900879e-01 -1.884400099515914917e-01 1.151999831199645996e-02
4.498297348618507385e-02 -1.554347276687622070e-01 -1.865930706262588501e-01
3.991185426712036133e-01 -9.997392445802688599e-02 -3.577762842178344727e-02
-4.020157456398010254e-02 8.753514289855957031e-02 6.041771918535232544e-02
-2.687977254390716553e-01 -1.444636727683246136e-04 1.043795570731163025e-01
1.406901627779006958e-01 -1.362320035696029663e-02 -1.089479327201843262e-01
-4.687278270721435547e-01 -4.242485761642456055e-02 6.242461130023002625e-02
5.281022191047668457e-01 -3.369215503334999084e-02 9.580957889556884766e-02
-8.563839793205261230e-01 7.164270430803298950e-02 -1.981462836265563965e-01
-2.936940789222717285e-01 1.000917926430702209e-01 2.884980849921703339e-02
4.990022182464599609e-01 -6.081235781311988831e-02 -7.135933637619018555e-02
-2.888666689395904541e-01 -6.352436542510986328e-02 7.275740802288055420e-02
-3.326387107372283936e-01 1.067362427711486816e-01 3.546659834682941437e-03
7.690380811691284180e-01 5.035487003624439240e-03 -9.386910498142242432e-02
4.524639546871185303e-01 9.247101843357086182e-02 -4.852412641048431396e-02
8.539206534624099731e-02 -9.580733603797852993e-04 -4.791929125785827637e-01
-1.264980584383010864e-01 9.662041068077087402e-02 4.211158305406570435e-02
-6.414564251899719238e-01 -2.376616001129150391e-02 3.036853857338428497e-02
9.523670375347137451e-02 7.622601091861724854e-02 -6.482336670160293579e-02
-4.240189213305711746e-03 2.404831815510988235e-03 -5.783714652061462402e-01
-2.533663511276245117e-01 2.475187554955482483e-02 -9.359789639711380005e-02
-6.497822999954223633e-01 3.039287962019443512e-02 6.901481747627258301e-02
-8.336030840873718262e-01 7.237494736909866333e-02 2.118840366601943970e-01
9.713511914014816284e-02 -7.927963510155677795e-03 2.474114894866943359e-01
5.442080274224281311e-02 -2.948852442204952240e-02 -3.434291779994964600e-01
1.875267475843429565e-01 -1.058047711849212646e-01 9.865666739642620087e-03
6.495736241340637207e-01 -6.968066841363906860e-02 6.879785656929016113e-02
6.507669091224670410e-01 1.012850850820541382e-01 -1.706469245254993439e-02
6.971659511327743530e-02 -3.857379406690597534e-02 2.844034433364868164e-01
-8.536448478698730469e-01 2.221326977014541626e-01 3.383938688784837723e-03
-8.465664982795715332e-01 6.545929610729217529e-02 -1.329764276742935181e-01
5.663959383964538574e-01 -9.389899671077728271e-02 -1.188473403453826904e-02
2.332785278558731079e-01 -4.581487923860549927e-02 1.058169305324554443e-01
-3.891842961311340332e-01 7.476306054741144180e-03 1.010980159044265747e-01
-8.926201611757278442e-02 2.087369374930858612e-02 -5.457458496093750000e-01
-5.464271903038024902e-01 8.750802278518676758e-02 -4.524258151650428772e-02
6.776701211929321289e-01 1.599205471575260162e-02 -9.460134059190750122e-02
-6.005355715751647949e-02 4.521827213466167450e-04 -9.782865643501281738e-02
9.372646808624267578e-01 -2.368479967117309570e-02 -5.299896001815795898e-02
1.520499400794506073e-02 -1.020606234669685364e-02 -2.921991050243377686e-01
6.977083534002304077e-02 5.284840241074562073e-02 9.312468022108078003e-02
-1.425803303718566895e-01 1.959904097020626068e-02 -6.806959509849548340e-01
3.069062903523445129e-02 5.876213312149047852e-03 3.856160342693328857e-01
1.326083391904830933e-01 -6.195139884948730469e-02 -1.209621801972389221e-01
3.866396844387054443e-02 -4.459447041153907776e-02 -9.888633340597152710e-02
1.495042294263839722e-01 -1.081099808216094971e-01 -3.377881944179534912e-01
-7.591038346290588379e-01 3.497061133384704590e-01 7.804531138390302658e-03
1.000098511576652527e-01 -1.632453352212905884e-01 -1.863761097192764282e-01
6.954066753387451172e-01 -9.311251342296600342e-02 2.150023169815540314e-02
1.485243067145347595e-02 -3.393623605370521545e-02 -1.268201470375061035e-01
-5.636757016181945801e-01 1.018003672361373901e-01 -1.302378065884113312e-02
9.379933029413223267e-02 -1.449105422943830490e-02 1.667831391096115112e-01
-7.368381023406982422e-01 6.562201678752899170e-02 -7.540024816989898682e-02
-4.480351507663726807e-01 -2.314086072146892548e-03 -8.304813504219055176e-02
3.072624504566192627e-01 2.331450209021568298e-02 -9.392333775758743286e-02
9.379933029413223267e-02 -1.449105422943830490e-02 1.667831391096115112e-01
9.976884722709655762e-01 -1.362320035696029663e-02 -6.596294697374105453e-03
2.526965737342834473e-01 -1.615096628665924072e-01 -3.238212764263153076e-01
-1.452109813690185547e-01 1.479876320809125900e-02 5.962857604026794434e-01
8.259363174438476562e-01 -1.177902799099683762e-02 -8.741448819637298584e-02
7.760857045650482178e-02 1.506996899843215942e-02 -4.578492939472198486e-01
1.875267475843429565e-01 -1.058047711849212646e-01 9.865666739642620087e-03
3.279280364513397217e-01 -1.058047711849212646e-01 -3.664547577500343323e-02
8.625992387533187866e-02 -4.066204652190208435e-02 2.797659039497375488e-01
6.364167481660842896e-02 1.309019327163696289e-02 -4.954921305179595947e-01
-7.304413616657257080e-02 -1.853042980656027794e-03 -4.322478175163269043e-01
-1.720057427883148193e-01 4.520050808787345886e-02 7.919309139251708984e-01
-3.732683509588241577e-02 -2.693769289180636406e-03 -3.829161822795867920e-01
-1.032289117574691772e-01 3.755261003971099854e-02 7.196826934814453125e-01
-9.690991044044494629e-02 1.030478924512863159e-01 1.762204244732856750e-02
2.128570079803466797e-01 -9.601437300443649292e-02 2.549509108066558838e-01
2.485978603363037109e-02 1.680565439164638519e-02 -5.549666881561279297e-01
-4.304883480072021484e-01 -7.187739759683609009e-02 -1.161353290081024170e-02
-6.988427639007568359e-01 2.674505412578582764e-01 -2.121461788192391396e-03
-5.423320531845092773e-01 3.199297189712524414e-02 -7.586129009723663330e-02
8.794173002243041992e-01 -3.263288876041769981e-03 -7.583416998386383057e-02
6.077271103858947754e-01 4.807524755597114563e-02 9.437220543622970581e-02
3.028382733464241028e-02 -5.975466966629028320e-02 -9.888633340597152710e-02
5.273935198783874512e-02 -6.092082709074020386e-02 1.114308089017868042e-01
2.333056330680847168e-01 -9.411595016717910767e-02 -2.426505088806152344e-01
-3.979983627796173096e-01 9.493895620107650757e-02 -4.122878983616828918e-02
5.669654607772827148e-01 6.654410064220428467e-02 -7.453239709138870239e-02
-4.866307228803634644e-02 1.200538780540227890e-02 4.789908826351165771e-01
3.814090490341186523e-01 -3.013940341770648956e-02 1.044609174132347107e-01
-3.713699430227279663e-02 -7.683883421123027802e-03 3.775070905685424805e-01
1.855198591947555542e-01 -1.115526538342237473e-02 -1.077817678451538086e-01
2.640057206153869629e-01 -2.696634456515312195e-02 -2.290090471506118774e-01
-3.572674095630645752e-02 2.570108696818351746e-02 6.489260196685791016e-01
-8.219141960144042969e-01 1.130010113120079041e-01 2.814414212480187416e-03
5.357501506805419922e-01 -6.490590982139110565e-03 1.029421910643577576e-01
8.695455193519592285e-01 -2.297967672348022461e-02 8.425637334585189819e-02
1.107223331928253174e-01 -1.058047711849212646e-01 -4.714099690318107605e-02
-8.876807093620300293e-01 7.603617012500762939e-02 -2.017532587051391602e-01
-4.771387204527854919e-02 -1.825916231609880924e-03 5.719318389892578125e-01
-1.452109813690185547e-01 1.336138974875211716e-02 -5.574346780776977539e-01
-1.866506487131118774e-01 3.239976987242698669e-02 -7.773252129554748535e-01
3.026248812675476074e-01 -1.597739756107330322e-01 3.455866277217864990e-01
-6.461210846900939941e-01 8.365694433450698853e-02 -4.155423492193222046e-02
1.018540337681770325e-01 -1.031469777226448059e-01 9.203987568616867065e-02
7.657293677330017090e-01 9.320326149463653564e-02 -2.468546666204929352e-02
-7.691653966903686523e-01 6.863236427307128906e-02 -1.602593511343002319e-01
-1.245453953742980957e-01 1.968040131032466888e-02 -7.006563544273376465e-01
-1.720057427883148193e-01 4.520050808787345886e-02 7.919309139251708984e-01
6.882163137197494507e-02 8.181438781321048737e-03 3.754730820655822754e-01
1.716614216566085815e-01 -5.866986513137817383e-02 1.882081031799316406e-01
-1.733346283435821533e-01 2.445355243980884552e-02 -7.090365886688232422e-01
-4.153046756982803345e-02 -1.232143118977546692e-02 5.717961788177490234e-01
-6.636136174201965332e-01 9.832897782325744629e-02 -1.473235525190830231e-02
-8.219141960144042969e-01 1.130010113120079041e-01 2.814414212480187416e-03
-4.212710633873939514e-02 2.043976634740829468e-02 5.303836464881896973e-01
3.950110170990228653e-03 1.032377332448959351e-01 1.683555729687213898e-02
-8.629741668701171875e-01 6.163534894585609436e-02 8.167995512485504150e-02
1.482838243246078491e-01 -9.905184060335159302e-02 -3.168784976005554199e-01
9.376172423362731934e-01 -3.982131928205490112e-02 5.534623935818672180e-02
2.461334913969039917e-01 -6.585671752691268921e-02 2.864103317260742188e-01
1.422866713255643845e-02 -3.754321858286857605e-02 1.454124301671981812e-01
9.491126239299774170e-02 -1.283513149246573448e-03 2.954142391681671143e-01
-7.684874534606933594e-01 7.611753791570663452e-02 2.183928787708282471e-01
1.328795403242111206e-01 -2.989532425999641418e-02 3.788631260395050049e-01
-6.222281455993652344e-01 -1.459953002631664276e-02 5.016628280282020569e-02
-8.537533283233642578e-01 7.134438306093215942e-02 1.333439350128173828e-01
-7.130844146013259888e-02 -2.992082387208938599e-03 -5.716999173164367676e-01
-4.505608975887298584e-02 8.533995598554611206e-03 6.412781476974487305e-01
1.888827532529830933e-01 -4.185375291854143143e-03 -1.979564279317855835e-01
6.379661560058593750e-01 -3.504816815257072449e-02 9.505020827054977417e-02
4.907577335834503174e-01 3.627796471118927002e-02 9.746391326189041138e-02
-9.406229108572006226e-02 3.844758123159408569e-02 9.689438343048095703e-02
7.176182270050048828e-01 7.855835556983947754e-02 -5.942644551396369934e-02
-7.476862072944641113e-01 2.698642611503601074e-01 -2.501145005226135254e-03
-8.259009122848510742e-01 6.719499081373214722e-02 -1.592559069395065308e-01
-4.488758742809295654e-01 -6.168019026517868042e-02 4.363031312823295593e-02
-3.476090431213378906e-01 7.210374623537063599e-02 -7.032876461744308472e-02
4.690850526094436646e-02 -3.813986480236053467e-02 -2.970807552337646484e-01
5.135622248053550720e-02 4.297665134072303772e-02 9.570109844207763672e-02
-5.285279154777526855e-01 8.796906471252441406e-02 5.266134068369865417e-02
9.073475003242492676e-02 -5.552391335368156433e-02 -2.032177597284317017e-01
2.644125223159790039e-01 -9.400748461484909058e-02 -3.510228395462036133e-01
2.174403220415115356e-01 -2.243727445602416992e-02 -9.888633340597152710e-02
-7.099620103836059570e-01 6.640850752592086792e-02 1.221432909369468689e-01
2.420890145003795624e-02 4.411569982767105103e-02 -8.847218006849288940e-02
-9.116043150424957275e-02 1.173418108373880386e-02 5.178812742233276367e-01
-5.894941091537475586e-01 5.208903551101684570e-02 7.267604768276214600e-02
-7.203761935234069824e-01 9.323038905858993530e-02 2.269352041184902191e-02
1.297335922718048096e-01 -5.384245887398719788e-02 -1.718396842479705811e-01
-7.476862072944641113e-01 2.698642611503601074e-01 -2.501145005226135254e-03
-7.099620103836059570e-01 6.640850752592086792e-02 1.221432909369468689e-01
-6.560199260711669922e-01 9.737977385520935059e-02 2.722259424626827240e-02
1.984833031892776489e-01 -5.875121429562568665e-02 -2.948569059371948242e-01
7.101058363914489746e-01 6.518809497356414795e-02 -7.317638397216796875e-02
-7.348041534423828125e-01 6.800860166549682617e-02 1.215737685561180115e-01
1.839739829301834106e-01 -4.375221673399209976e-03 2.338242679834365845e-01
6.862129569053649902e-01 -3.277006745338439941e-02 -8.773993700742721558e-02
-7.297869324684143066e-01 6.074038147926330566e-02 -8.532623946666717529e-02
2.510422468185424805e-01 1.041327044367790222e-01 1.344553381204605103e-02
1.121325865387916565e-01 -1.228633671998977661e-01 2.665854692459106445e-01
-2.140727452933788300e-02 -1.641658693552017212e-02 4.342967867851257324e-01
2.833695113658905029e-01 -5.690704286098480225e-02 -2.736489176750183105e-01
-4.891493618488311768e-01 3.462521359324455261e-03 -7.879026979207992554e-02
5.931364297866821289e-01 3.077256120741367340e-02 9.890127927064895630e-02
3.522819578647613525e-01 -9.693646430969238281e-02 2.517507076263427734e-01
1.238089753314852715e-03 7.774629164487123489e-03 5.988621711730957031e-01
-8.554654568433761597e-02 -9.376339614391326904e-02 -2.533635124564170837e-02
1.774922609329223633e-01 -1.368031501770019531e-01 2.554933130741119385e-01
-8.646014332771301270e-01 6.543217599391937256e-02 1.229026541113853455e-01
7.657293677330017090e-01 9.320326149463653564e-02 -2.468546666204929352e-02
2.301325649023056030e-01 9.396262466907501221e-02 -4.526970162987709045e-02
1.320116966962814331e-01 -8.763422816991806030e-02 -9.655400365591049194e-02
5.479542016983032227e-01 7.161558419466018677e-02 7.636439800262451172e-02
-9.379108995199203491e-02 9.491183608770370483e-02 -4.171695560216903687e-02
-3.805907815694808960e-02 2.583668194711208344e-02 5.713351964950561523e-01
-1.576320379972457886e-01 2.735541388392448425e-02 -6.422395706176757812e-01
3.033842444419860840e-01 -7.383005321025848389e-02 2.686737179756164551e-01
9.491126239299774170e-02 -1.283513149246573448e-03 2.954142391681671143e-01
3.028382733464241028e-02 -5.975466966629028320e-02 -9.888633340597152710e-02
5.089517310261726379e-02 -2.829362405464053154e-03 5.265325903892517090e-01
6.119036078453063965e-01 -9.134969115257263184e-02 -2.162088640034198761e-02
7.896458357572555542e-02 -6.325317919254302979e-02 3.045537769794464111e-01
-4.005748033523559570e-01 9.168452769517898560e-02 5.450551211833953857e-02
4.246657788753509521e-01 8.235672488808631897e-03 1.048134863376617432e-01
7.074716687202453613e-02 -1.481649372726678848e-02 -1.533708274364471436e-01
-8.432035446166992188e-01 6.285575777292251587e-02 -1.069952696561813354e-01
9.976884722709655762e-01 -1.362320035696029663e-02 -6.596294697374105453e-03
-8.833143115043640137e-01 8.276198804378509521e-02 -2.442234903573989868e-01
4.516043409239500761e-04 -5.541542544960975647e-02 -9.536071121692657471e-02
-4.662056565284729004e-01 -5.405784584581851959e-03 8.656159043312072754e-02
-4.505608975887298584e-02 8.533995598554611206e-03 6.412781476974487305e-01
-8.747207373380661011e-02 4.802101105451583862e-02 -8.746872842311859131e-02
7.038953304290771484e-01 6.469993293285369873e-02 8.113754540681838989e-02
-3.719123080372810364e-02 -1.123662572354078293e-02 -4.479233324527740479e-01
1.227637082338333130e-01 -1.542143225669860840e-01 2.855967581272125244e-01
-3.161225020885467529e-01 -9.216330945491790771e-02 -3.315288049634546041e-04
1.930863857269287109e-01 -1.447222530841827393e-01 -2.566445469856262207e-01
1.447853147983551025e-01 -6.170732900500297546e-02 1.477718800306320190e-01
7.598135620355606079e-02 -5.241468315944075584e-04 -4.902850687503814697e-01
6.516618132591247559e-01 9.803065657615661621e-02 -2.945862337946891785e-02
7.012340426445007324e-02 4.954127129167318344e-03 -3.342896699905395508e-01
1.525416821241378784e-01 2.035840600728988647e-02 -9.470982849597930908e-02
5.457574725151062012e-01 3.652357961982488632e-03 1.055999696254730225e-01
-1.302406340837478638e-01 9.493895620107650757e-02 -4.163559526205062866e-02
-2.935313582420349121e-01 -5.159147828817367554e-02 8.482590317726135254e-02
-6.414564251899719238e-01 -2.376616001129150391e-02 3.036853857338428497e-02
-7.833763957023620605e-01 2.163304947316646576e-02 3.427384793758392334e-02
-5.812224149703979492e-01 -2.824099734425544739e-02 -4.109318926930427551e-02
2.115552425384521484e-01 -1.136696189641952515e-01 3.553770184516906738e-01
2.271764725446701050e-01 -1.328707337379455566e-01 -2.443590909242630005e-01
2.485978603363037109e-02 1.680565439164638519e-02 -5.549666881561279297e-01
-2.138793319463729858e-01 5.176359787583351135e-02 -8.399457335472106934e-01
3.516546264290809631e-02 -3.225478157401084900e-02 -2.945043444633483887e-01
1.366492509841918945e-01 -7.548280525952577591e-03 4.163974523544311523e-01
9.347388893365859985e-02 -1.305383741855621338e-01 3.335723578929901123e-01
4.446769133210182190e-02 -7.995921373367309570e-02 -9.888633340597152710e-02
-3.696849048137664795e-01 -3.100725635886192322e-02 -8.670936524868011475e-02
-7.262612581253051758e-01 7.546665519475936890e-02 -3.886932879686355591e-02
-6.819197535514831543e-01 6.095734238624572754e-02 -5.877556279301643372e-02
1.725835055112838745e-01 -4.331982880830764771e-02 -3.026946485042572021e-01
7.514912486076354980e-01 1.137603744864463806e-01 5.011150613427162170e-03
-6.626767572015523911e-03 -1.034724339842796326e-01 -6.091805920004844666e-02
2.799523770809173584e-01 -6.181579455733299255e-02 -1.374783813953399658e-01
8.550362586975097656e-01 6.299135833978652954e-02 5.371902883052825928e-02
-6.097528934478759766e-01 1.452469229698181152e-01 1.100471429526805878e-02
9.363154768943786621e-01 1.892103441059589386e-02 2.299184352159500122e-02
1.033998876810073853e-01 -2.360343933105468750e-02 -4.023613929748535156e-01
-1.186874359846115112e-01 -8.955977112054824829e-02 -4.567650333046913147e-02
-3.026166558265686035e-01 -2.297967672348022461e-02 9.800631552934646606e-02
2.892275154590606689e-01 9.846457839012145996e-02 3.506033122539520264e-02
-7.731520533561706543e-01 6.426601111888885498e-02 1.310115903615951538e-01
-3.035658597946166992e-01 1.006070747971534729e-01 2.692427299916744232e-02
6.640792638063430786e-02 -6.268364936113357544e-02 1.130309030413627625e-01
1.199432089924812317e-01 8.246366679668426514e-02 6.548919528722763062e-02
-2.705605626106262207e-01 -8.766134828329086304e-02 3.679602593183517456e-02
6.906878352165222168e-01 4.511914774775505066e-02 -8.676360547542572021e-02
6.833346188068389893e-02 -1.330605596303939819e-01 -2.045737653970718384e-01
-1.847829483449459076e-02 -9.327523410320281982e-02 -8.326510339975357056e-02
9.472448825836181641e-01 -1.533178053796291351e-02 5.282406136393547058e-02
-7.364078611135482788e-02 9.591685608029365540e-03 -6.316355466842651367e-01
-6.832486391067504883e-01 1.197810620069503784e-01 1.179120037704706192e-02
2.115552425384521484e-01 -1.136696189641952515e-01 3.553770184516906738e-01
-7.731520533561706543e-01 6.426601111888885498e-02 1.310115903615951538e-01
2.089788168668746948e-01 -8.877166546881198883e-03 1.447072923183441162e-01
-9.292324632406234741e-02 3.717292845249176025e-02 7.197911739349365234e-01
-8.410882353782653809e-01 4.168557226657867432e-01 6.801083683967590332e-03
1.901573985815048218e-01 -4.793025925755500793e-02 -2.395588159561157227e-01
2.365600615739822388e-01 -1.668794602155685425e-01 -3.015555739402770996e-01
-5.144796371459960938e-01 4.956685751676559448e-02 8.064939081668853760e-02
7.462842464447021484e-01 6.258455663919448853e-02 -7.263398170471191406e-02
3.333520591259002686e-01 -1.593400388956069946e-01 3.458849489688873291e-01
-1.358002871274948120e-01 4.002055153250694275e-02 7.333241701126098633e-01
4.910524562001228333e-02 8.837586641311645508e-02 5.957699194550514221e-02
-1.619170159101486206e-01 2.797917649149894714e-02 -7.548425793647766113e-01
-8.485733866691589355e-01 6.421176344156265259e-02 1.242586672306060791e-01
2.807388603687286377e-01 -1.058047711849212646e-01 -2.419730462133884430e-02
8.072503805160522461e-01 -3.588889539241790771e-02 8.908376842737197876e-02
2.269052714109420776e-01 1.561237219721078873e-02 1.028879508376121521e-01
-8.789480328559875488e-01 8.493159711360931396e-02 -2.569157481193542480e-01
4.465394187718629837e-03 -4.039083793759346008e-02 -2.060382515192031860e-01
-3.704713582992553711e-01 -8.136945962905883789e-02 -2.118696086108684540e-02
5.450216308236122131e-02 -1.798799610696732998e-03 1.058169305324554443e-01
5.442080274224281311e-02 -2.948852442204952240e-02 -3.434291779994964600e-01
-7.494761347770690918e-01 1.438095569610595703e-01 9.458863176405429840e-03
4.679495990276336670e-01 1.005257144570350647e-01 2.719547413289546967e-02
3.069062903523445129e-02 5.876213312149047852e-03 3.856160342693328857e-01
2.269052714109420776e-01 1.561237219721078873e-02 1.028879508376121521e-01
7.888322323560714722e-02 -1.907276222482323647e-03 3.020044565200805664e-01
-8.022249937057495117e-01 1.154689416289329529e-01 5.662035662680864334e-03
5.468693971633911133e-01 4.059007763862609863e-02 -8.939426392316818237e-02
-3.317744284868240356e-02 1.824302785098552704e-02 -4.910715520381927490e-01
-2.217713147401809692e-01 3.644068166613578796e-02 -7.740436792373657227e-01
3.617740273475646973e-01 -1.058047711849212646e-01 -5.370408296585083008e-02
-1.507163792848587036e-01 8.135173469781875610e-02 -5.967052653431892395e-02
1.363238096237182617e-01 2.703154925256967545e-03 3.975218236446380615e-01
2.803284861147403717e-02 -3.206494450569152832e-02 3.122287690639495850e-01
4.096918180584907532e-02 -1.671491004526615143e-02 -2.238019704818725586e-01
8.852481245994567871e-01 -4.619456082582473755e-02 -6.482336670160293579e-02
-5.631332397460937500e-01 -4.375374317169189453e-02 -1.619684509932994843e-02
1.620844192802906036e-02 -2.845795080065727234e-02 -2.113809287548065186e-01
-5.066996812820434570e-02 4.411724396049976349e-03 6.162462234497070312e-01
1.660475432872772217e-01 -6.924517452716827393e-03 1.058169305324554443e-01
-4.870610833168029785e-01 1.066277623176574707e-01 3.980583045631647110e-03
3.456917405128479004e-01 -1.058047711849212646e-01 4.802378639578819275e-02
-1.566557139158248901e-01 2.665029093623161316e-02 7.677125930786132812e-01
3.137441575527191162e-01 -1.471630632877349854e-01 3.136932551860809326e-01
-6.222281455993652344e-01 -1.459953002631664276e-02 5.016628280282020569e-02
-8.228905797004699707e-01 1.615461707115173340e-01 2.082169055938720703e-03
3.516546264290809631e-02 -2.346783690154552460e-02 1.911370754241943359e-01
4.540369808673858643e-01 -7.486062496900558472e-02 6.679096072912216187e-02
-1.949765384197235107e-01 3.703732788562774658e-02 7.433314919471740723e-01
7.038953304290771484e-01 6.469993293285369873e-02 8.113754540681838989e-02
3.571636080741882324e-01 1.384956017136573792e-02 1.033490002155303955e-01
7.980530709028244019e-02 -1.668794602155685425e-01 -2.114351540803909302e-01
-5.595840513706207275e-02 2.575532160699367523e-02 -6.766008734703063965e-01
3.213378190994262695e-01 -1.480580419301986694e-01 -2.510035336017608643e-01
-6.585728377103805542e-02 3.193872794508934021e-02 -6.202992796897888184e-01
-5.262262374162673950e-02 -2.693769289180636406e-03 4.153940081596374512e-01
-2.600921392440795898e-01 5.594010651111602783e-02 8.975369334220886230e-01
5.348551869392395020e-01 -2.577305212616920471e-02 9.789782762527465820e-02
-5.368031561374664307e-02 -6.897400598973035812e-03 -4.004901051521301270e-01
6.267654895782470703e-01 6.179806962609291077e-02 -7.922419160604476929e-02
2.683720588684082031e-01 -1.169766858220100403e-02 -9.419453889131546021e-02
-1.338476240634918213e-01 -8.936991542577743530e-02 4.053861275315284729e-02
8.648266196250915527e-01 -7.827776670455932617e-02 4.674914106726646423e-02
1.700341999530792236e-01 -9.259721636772155762e-02 -3.415850102901458740e-01
-8.256296515464782715e-01 7.538528740406036377e-02 -1.368274986743927002e-01
2.281799316406250000e-01 -9.663659147918224335e-03 1.539010554552078247e-01
1.018540337681770325e-01 -1.031469777226448059e-01 9.203987568616867065e-02
-1.051544547080993652e-01 4.113400820642709732e-03 5.477405786514282227e-01
9.713547229766845703e-01 7.096623070538043976e-03 6.990925408899784088e-03
1.326083391904830933e-01 -6.195139884948730469e-02 -1.209621801972389221e-01
2.079175412654876709e-02 1.463604252785444260e-02 4.501349925994873047e-01
1.654780209064483643e-01 -4.673535004258155823e-03 2.145689278841018677e-01
6.311047077178955078e-01 -2.634258195757865906e-02 -9.053331613540649414e-02
5.726335644721984863e-01 -5.815456807613372803e-02 8.094770461320877075e-02
-7.227356433868408203e-01 2.504461705684661865e-01 -3.396111307665705681e-03
2.847526669502258301e-01 -1.374540477991104126e-01 3.579534292221069336e-01
-1.570896357297897339e-01 7.025957107543945312e-02 7.774752378463745117e-02
-8.980441838502883911e-02 7.378520071506500244e-02 -6.726418435573577881e-02
-8.957082629203796387e-01 8.593504875898361206e-02 -2.829511463642120361e-01
1.018540337681770325e-01 -1.031469777226448059e-01 9.203987568616867065e-02
-3.177497088909149170e-01 1.004443541169166565e-01 -2.064455859363079071e-02
8.777507580816745758e-03 -2.680362574756145477e-02 3.423321843147277832e-01
-8.394881486892700195e-01 7.831427454948425293e-02 -1.681241989135742188e-01
1.498296707868576050e-01 -6.452782452106475830e-02 -1.107921078801155090e-01
-5.592279434204101562e-01 1.323105841875076294e-01 7.262127473950386047e-03
-1.445058733224868774e-01 2.990471944212913513e-02 6.612114906311035156e-01
4.310661256313323975e-01 4.105111956596374512e-02 9.621638059616088867e-02
-5.145881175994873047e-01 4.574444144964218140e-03 8.241219818592071533e-02
3.253480046987533569e-02 -1.671491004526615143e-02 4.738380312919616699e-01
1.615455895662307739e-01 -5.479166284203529358e-02 2.146503031253814697e-01
1.101256981492042542e-01 -3.607872873544692993e-02 1.058169305324554443e-01
2.762369215488433838e-01 -1.045014243572950363e-02 -1.429566591978073120e-01
-4.060837626457214355e-02 1.905663684010505676e-02 5.202407240867614746e-01
5.153557062149047852e-01 -3.298703208565711975e-02 -8.906882256269454956e-02
8.598871529102325439e-02 -7.366733253002166748e-02 3.011908531188964844e-01
9.713547229766845703e-01 7.096623070538043976e-03 6.990925408899784088e-03
-1.576320379972457886e-01 2.735541388392448425e-02 -6.422395706176757812e-01
-4.474385082721710205e-01 1.066819950938224792e-01 3.221217542886734009e-03
-1.000558510422706604e-01 9.944251738488674164e-03 6.471089720726013184e-01
-7.171760201454162598e-01 9.154893457889556885e-02 -2.308537438511848450e-02
-7.185048460960388184e-01 5.732323601841926575e-02 6.104148179292678833e-02
-1.510418206453323364e-01 4.053583368659019470e-02 -7.195863127708435059e-01
6.954066753387451172e-01 -9.311251342296600342e-02 2.150023169815540314e-02
2.190675437450408936e-01 -1.541329622268676758e-01 -3.283774852752685547e-01
-2.081063203513622284e-02 2.095505408942699432e-02 6.323285102844238281e-01
-6.626767572015523911e-03 -1.034724339842796326e-01 -6.091805920004844666e-02
3.585195839405059814e-01 -3.613297268748283386e-02 1.058169305324554443e-01
-8.036658912897109985e-02 -1.270111463963985443e-02 5.742098689079284668e-01
4.172854870557785034e-02 -2.927155978977680206e-02 3.594450354576110840e-01
7.768486738204956055e-01 9.127772599458694458e-02 3.560273721814155579e-02
-1.885797828435897827e-02 -1.136424988508224487e-01 3.465299261733889580e-03
8.327669650316238403e-02 2.730271546170115471e-03 -3.108306825160980225e-01
-2.969484925270080566e-01 7.883115671575069427e-03 1.054372489452362061e-01
2.902851998805999756e-01 -6.683303415775299072e-02 -2.584887146949768066e-01
-1.004391070455312729e-02 -2.154230326414108276e-02 3.705100715160369873e-01
3.192495703697204590e-01 -3.146829828619956970e-02 -9.888633340597152710e-02
3.662995249032974243e-02 9.125061333179473877e-02 5.670225247740745544e-02
3.173240125179290771e-01 6.158110499382019043e-02 8.645310997962951660e-02
8.171222209930419922e-01 -8.481373637914657593e-02 -3.485554456710815430e-02
-8.528041243553161621e-01 7.006973028182983398e-02 -1.827691197395324707e-01
7.201403379440307617e-01 -8.850208669900894165e-02 3.777235373854637146e-02
-6.767433881759643555e-02 -6.428372859954833984e-02 8.197827637195587158e-02
3.991185426712036133e-01 -9.997392445802688599e-02 -3.577762842178344727e-02
1.527586430311203003e-01 -4.578776285052299500e-02 -2.877242863178253174e-01
-4.010086953639984131e-01 -7.567422837018966675e-02 -1.961399056017398834e-02
1.656678617000579834e-01 -7.686752080917358398e-02 3.104930818080902100e-01
-2.645669877529144287e-01 1.103432253003120422e-01 -8.787005543708801270e-01
-1.674260012805461884e-02 -1.031469777226448059e-01 -1.551937661133706570e-03
-2.236697226762771606e-01 -9.162089973688125610e-02 -2.056319639086723328e-02
-6.493212580680847168e-01 1.566916406154632568e-01 -6.053890567272901535e-03
-1.436922550201416016e-01 3.587115928530693054e-02 7.001290321350097656e-01
7.655088603496551514e-02 -2.910884097218513489e-02 -3.711189329624176025e-01
-1.088970452547073364e-01 -5.758351180702447891e-03 5.841358900070190430e-01
-7.009580731391906738e-01 6.049630045890808105e-02 5.705481395125389099e-02
1.159294173121452332e-01 -1.058047711849212646e-01 1.195392198860645294e-02
4.935782253742218018e-01 6.187942996621131897e-02 -7.919707149267196655e-02
-8.923182487487792969e-01 7.950755953788757324e-02 -2.322363555431365967e-01
-2.174863219261169434e-01 4.357329756021499634e-02 8.001754283905029297e-01
2.261187881231307983e-01 -1.058047711849212646e-01 -3.105871379375457764e-02
-4.336885511875152588e-01 1.033462211489677429e-01 -8.982872590422630310e-03
-4.250643253326416016e-01 4.118671640753746033e-02 9.106354415416717529e-02
-3.805907815694808960e-02 2.583668194711208344e-02 5.713351964950561523e-01
