3.916267752647399902e-01 9.902476519346237183e-02 1.198941655457019806e-02
-9.079986810684204102e-02 -1.099203806370496750e-02 -3.999916315078735352e-01
5.100591778755187988e-01 9.828297048807144165e-02 1.531473267823457718e-02
3.102332353591918945e-01 7.221759855747222900e-02 -6.858555227518081665e-02
2.946554124355316162e-01 -5.470715463161468506e-02 -8.544234931468963623e-02
3.996330797672271729e-01 2.607244998216629028e-02 8.432783186435699463e-02
9.013721942901611328e-01 5.689556896686553955e-02 3.692928701639175415e-02
-5.481842756271362305e-01 -9.073591791093349457e-03 6.836631894111633301e-02
2.072611451148986816e-02 1.118525862693786621e-02 -4.308147728443145752e-01
-4.265952855348587036e-02 -1.935648731887340546e-02 -3.651525974273681641e-01
3.828274607658386230e-01 8.329346030950546265e-02 5.153509601950645447e-02
3.451338410377502441e-02 -1.759151555597782135e-02 3.918428421020507812e-01
-2.066231966018676758e-01 -1.779614388942718506e-02 8.072114735841751099e-02
1.919543147087097168e-01 -6.944086402654647827e-02 -3.135845959186553955e-01
8.363749980926513672e-01 -6.921065598726272583e-02 3.838731348514556885e-02
-1.144096180796623230e-01 9.164489805698394775e-03 -6.017360687255859375e-01
5.174772143363952637e-01 9.394701570272445679e-03 -8.830723166465759277e-02
1.692398488521575928e-01 -8.517216145992279053e-02 3.053590357303619385e-01
1.289011985063552856e-01 -5.324913561344146729e-02 -2.696904242038726807e-01
-7.037835717201232910e-01 4.080615565180778503e-02 1.268662959337234497e-01
-8.426282405853271484e-01 4.732888564467430115e-02 -3.654117463156580925e-04
2.638323009014129639e-01 -8.205149322748184204e-02 -3.039411902427673340e-01
1.250642985105514526e-01 -2.232369221746921539e-02 -3.263486921787261963e-01
-6.919914484024047852e-01 3.714830428361892700e-02 -8.953504264354705811e-02
1.587011516094207764e-01 -1.134885028004646301e-01 -2.750365138053894043e-01
-4.310564398765563965e-01 -7.770299166440963745e-02 -2.872188575565814972e-03
-6.265338659286499023e-01 -1.687529310584068298e-02 5.046076327562332153e-02
-3.747562766075134277e-01 8.840933442115783691e-02 4.281253367662429810e-02
2.878361195325851440e-02 -4.652175679802894592e-02 1.900473088026046753e-01
-3.590250015258789062e-01 3.873422369360923767e-02 8.118157088756561279e-02
-2.222777605056762695e-01 -8.760220557451248169e-02 1.553039881400763988e-03
3.996330797672271729e-01 2.607244998216629028e-02 8.432783186435699463e-02
-1.097030118107795715e-01 3.121389634907245636e-02 -6.765812039375305176e-01
2.219333052635192871e-01 -4.721240326762199402e-02 2.829003632068634033e-01
2.055113762617111206e-01 -4.386151209473609924e-02 -1.866598427295684814e-01
2.761615216732025146e-01 -1.251526921987533569e-01 2.880929708480834961e-01
6.408312171697616577e-02 -1.769383065402507782e-02 1.808899044990539551e-01
5.055571794509887695e-01 1.676156371831893921e-02 -8.856303244829177856e-02
-8.307490497827529907e-02 2.047056704759597778e-02 -6.650705337524414062e-01
3.527461588382720947e-01 -1.674739457666873932e-02 -8.482844382524490356e-02
8.503668904304504395e-01 -7.194764912128448486e-02 2.766956202685832977e-02
2.629114389419555664e-01 -7.844480872154235840e-02 2.548142373561859131e-01
-6.574593186378479004e-01 8.201449364423751831e-02 -8.678701706230640411e-03
-6.919914484024047852e-01 3.714830428361892700e-02 -8.953504264354705811e-02
1.154464706778526306e-01 -5.775109678506851196e-02 -2.648303508758544922e-01
8.422443643212318420e-03 1.028998475521802902e-02 -8.840955793857574463e-02
1.356797367334365845e-01 -5.283986032009124756e-02 2.799587547779083252e-01
6.690604686737060547e-01 -4.239093977957963943e-03 -8.687478303909301758e-02
7.685385346412658691e-01 -8.148874342441558838e-02 2.874389290809631348e-02
-7.090272903442382812e-01 2.457735240459442139e-01 7.154918741434812546e-03
3.356694802641868591e-02 -6.547606736421585083e-02 -8.759100735187530518e-02
2.569258809089660645e-01 -2.986960485577583313e-02 -2.779269814491271973e-01
-4.876123964786529541e-01 8.843491226434707642e-02 3.746645525097846985e-02
2.307837754487991333e-01 -5.872311815619468689e-02 2.366273105144500732e-01
1.937704533338546753e-01 -2.043082192540168762e-02 2.584976553916931152e-01
-3.823789060115814209e-01 9.257876127958297729e-02 -3.791590407490730286e-02
9.774554520845413208e-02 -7.294522970914840698e-02 2.514377534389495850e-01
-4.178318977355957031e-01 9.587850421667098999e-02 -2.724931389093399048e-02
-8.013943433761596680e-01 2.644208669662475586e-01 -6.657933350652456284e-03
1.874523460865020752e-01 -1.109436061233282089e-02 -1.402588933706283569e-01
1.108269765973091125e-02 -1.398482732474803925e-02 -4.260826110839843750e-01
-3.076360225677490234e-01 -7.877732813358306885e-02 -3.919487074017524719e-02
-6.025404334068298340e-01 1.502090543508529663e-01 -1.256676390767097473e-02
2.041300982236862183e-01 -1.248713210225105286e-01 2.533817887306213379e-01
-7.862769365310668945e-01 2.593817412853240967e-01 3.983078058809041977e-03
4.337559640407562256e-01 -9.022430516779422760e-03 8.263958990573883057e-02
6.803153157234191895e-01 6.042551994323730469e-02 -7.687326520681381226e-02
3.492265567183494568e-02 4.739264491945505142e-03 3.609941601753234863e-01
3.888745605945587158e-02 -2.554669231176376343e-02 -8.830723166465759277e-02
-3.287134468555450439e-01 7.398257404565811157e-02 -6.717868149280548096e-02
9.627114534378051758e-01 -3.676346503198146820e-03 -3.860654681921005249e-02
4.438701644539833069e-02 -1.856352761387825012e-02 -2.028515785932540894e-01
3.527461588382720947e-01 -1.674739457666873932e-02 -8.482844382524490356e-02
1.661958992481231689e-01 -7.355914264917373657e-02 2.281605601310729980e-01
-8.195556402206420898e-01 2.323443591594696045e-01 4.385790816741064191e-05
6.306402683258056641e-01 -4.524278640747070312e-02 -7.395721226930618286e-02
7.707895636558532715e-01 6.702499091625213623e-02 -7.226897776126861572e-02
-1.926824301481246948e-01 2.261923439800739288e-02 -6.974796056747436523e-01
8.060890436172485352e-01 -1.083856262266635895e-02 7.875152677297592163e-02
-5.502050518989562988e-01 1.394401490688323975e-01 -3.076823195442557335e-03
-7.010617107152938843e-02 1.717082783579826355e-02 -6.406934261322021484e-01
-1.432375609874725342e-01 1.561049278825521469e-02 6.502197980880737305e-01
-4.601041972637176514e-02 5.660123657435178757e-03 5.630198717117309570e-01
2.834876067936420441e-02 -6.084620952606201172e-02 8.409760892391204834e-02
-4.795445129275321960e-02 8.283302932977676392e-02 5.217457935214042664e-02
-1.894850134849548340e-01 5.067978426814079285e-02 7.765161991119384766e-02
2.581640519201755524e-02 -1.349495947360992432e-01 -1.246810853481292725e-01
7.426370680332183838e-02 2.871970646083354950e-03 4.383205473423004150e-01
-3.359268009662628174e-01 -8.665575832128524780e-02 4.443507175892591476e-03
-7.512332201004028320e-01 5.108905583620071411e-02 -2.224453538656234741e-01
-7.233157753944396973e-02 8.301208913326263428e-02 5.191879346966743469e-02
-8.392261862754821777e-01 5.906981229782104492e-02 -3.054759502410888672e-01
-5.091757774353027344e-01 2.425630763173103333e-02 7.893058657646179199e-02
8.328706622123718262e-01 -3.825962916016578674e-02 6.670366227626800537e-02
-1.967751532793045044e-01 6.487632542848587036e-02 -7.441765069961547852e-02
-4.240988492965698242e-01 4.011551290750503540e-02 8.003049343824386597e-02
1.734092682600021362e-01 -1.177858412265777588e-01 2.885022461414337158e-01
1.789344251155853271e-01 -1.003407165408134460e-01 -2.455691099166870117e-01
2.351322621107101440e-01 -6.846883893013000488e-02 3.185068070888519287e-01
1.758904904127120972e-01 -5.537222698330879211e-02 2.614904642105102539e-01
-1.297709182836115360e-03 1.555933151394128799e-02 -4.811037778854370117e-01
2.929672002792358398e-01 -1.190648078918457031e-01 -2.997461557388305664e-01
2.469754964113235474e-01 -9.550622850656509399e-02 -2.382789850234985352e-01
4.438701644539833069e-02 -1.856352761387825012e-02 -2.028515785932540894e-01
-8.075845241546630859e-01 4.129216074943542480e-02 -1.428424119949340820e-01
-6.899591069668531418e-03 -2.084009349346160889e-02 8.368834853172302246e-02
1.840758621692657471e-01 -1.214181035757064819e-01 2.705455422401428223e-01
9.892219305038452148e-02 -3.544590249657630920e-02 2.679876089096069336e-01
1.800854951143264771e-01 -7.130815833806991577e-02 7.642380893230438232e-02
-8.304932713508605957e-02 -1.004560291767120361e-02 4.198522567749023438e-01
1.816458404064178467e-01 -1.667065732181072235e-02 7.440304011106491089e-02
8.454557061195373535e-01 -7.711466401815414429e-02 -1.855233311653137207e-02
2.053834795951843262e-01 -1.388250477612018585e-02 2.139640003442764282e-01
-3.408124446868896484e-01 5.122951697558164597e-03 8.396971970796585083e-02
-7.696503400802612305e-01 3.814589977264404297e-02 9.044129401445388794e-02
2.385854721069335938e-01 -4.434751346707344055e-02 8.473709970712661743e-02
-4.202108085155487061e-01 5.004030093550682068e-02 -8.114501833915710449e-02
9.562143087387084961e-01 -6.387752480804920197e-03 3.782456368207931519e-02
2.780799865722656250e-01 -4.375918954610824585e-02 -2.808685898780822754e-01
-1.350009888410568237e-01 8.345953188836574554e-03 5.811812281608581543e-01
5.280926227569580078e-01 -8.230727165937423706e-02 -3.085600212216377258e-02
-7.931321859359741211e-01 5.180527642369270325e-02 -2.743203043937683105e-01
-1.839598715305328369e-01 2.105889096856117249e-02 6.669743657112121582e-01
-4.222467914223670959e-02 -2.971613034605979919e-02 2.550188899040222168e-01
-1.453606337308883667e-01 1.883348636329174042e-02 6.105207204818725586e-01
-5.071294307708740234e-01 3.434718353673815727e-03 -8.047995716333389282e-02
5.665895342826843262e-01 6.811195053160190582e-03 8.417434990406036377e-02
4.689379408955574036e-02 -2.838599868118762970e-02 1.438254117965698242e-01
1.819016337394714355e-01 -5.933701619505882263e-02 1.301404535770416260e-01
5.711171030998229980e-01 -1.378019060939550400e-02 8.161641657352447510e-02
4.441259801387786865e-02 -8.381646871566772461e-02 -5.482385680079460144e-02
2.587420046329498291e-01 -9.773162752389907837e-02 -2.379976063966751099e-01
-6.542515754699707031e-02 -8.485258556902408600e-03 3.818413019180297852e-01
5.085244178771972656e-01 -8.721850812435150146e-02 -1.016230508685112000e-02
-7.519646733999252319e-02 2.456326596438884735e-02 -5.934739112854003906e-01
-1.273168064653873444e-02 -5.598612502217292786e-02 -1.182862371206283569e-01
4.296376705169677734e-01 -6.790611147880554199e-02 -5.528428405523300171e-02
1.800598949193954468e-01 -9.604340046644210815e-02 -2.372813820838928223e-01
2.351322621107101440e-01 -6.846883893013000488e-02 3.185068070888519287e-01
-3.810640424489974976e-02 -3.360419347882270813e-02 2.332764118909835815e-01
-7.424083948135375977e-01 3.387415036559104919e-02 -6.418590247631072998e-02
9.435524940490722656e-01 -4.358013719320297241e-02 -2.377052046358585358e-02
5.062837898731231689e-02 4.048618022352457047e-03 -3.507513999938964844e-01
2.312953621149063110e-01 -4.104777425527572632e-02 -1.665544658899307251e-01
-4.513152837753295898e-01 -7.038730382919311523e-02 -2.727489173412322998e-02
8.796296715736389160e-01 7.825432717800140381e-02 1.424039993435144424e-02
2.786275371909141541e-02 6.403221189975738525e-02 -7.492922991514205933e-02
4.315920546650886536e-02 -9.276923537254333496e-02 1.391955465078353882e-01
-1.055079996585845947e-01 3.026746213436126709e-02 -7.147200703620910645e-01
8.989269286394119263e-02 -3.472967818379402161e-02 -2.731436491012573242e-01
-7.690876126289367676e-01 1.250901222229003906e-01 -4.304632078856229782e-03
7.482644915580749512e-02 -8.622091263532638550e-02 2.513720281422138214e-02
7.045237720012664795e-02 5.711275618523359299e-03 -4.408674538135528564e-01
3.239182233810424805e-01 4.584528505802154541e-02 7.908406108617782593e-02
4.147096723318099976e-02 -1.917743682861328125e-02 -3.835953176021575928e-01
-1.536483466625213623e-01 3.218590840697288513e-02 -7.041558027267456055e-01
5.274786949157714844e-01 4.937523603439331055e-02 7.806088775396347046e-02
1.825922727584838867e-01 -1.114933341741561890e-01 3.043358623981475830e-01
-7.616847753524780273e-02 -1.757890917360782623e-03 5.105822086334228516e-01
7.973920702934265137e-01 2.328429557383060455e-02 -8.585161715745925903e-02
2.816970832645893097e-02 1.182474382221698761e-02 4.360695481300354004e-01
-4.869625717401504517e-02 1.925535616464912891e-03 -5.447196364402770996e-01
2.316534668207168579e-01 -8.373972028493881226e-02 -5.467038229107856750e-02
2.376901954412460327e-01 -1.146140024065971375e-01 3.045405149459838867e-01
1.130931600928306580e-01 -5.769994482398033142e-02 -1.484954655170440674e-01
8.722628355026245117e-01 -1.488010119646787643e-02 -7.052958756685256958e-02
2.474103718996047974e-01 -2.475373260676860809e-02 -1.770420074462890625e-01
2.469243407249450684e-01 9.882012754678726196e-02 1.293585263192653656e-02
9.557130187749862671e-02 -2.680007740855216980e-02 -3.181633055210113525e-01
2.479323185980319977e-02 -1.233365684747695923e-01 -1.600061655044555664e-01
-1.045511849224567413e-02 -4.979592189192771912e-02 -1.559902131557464600e-01
2.025953233242034912e-01 -1.792404241859912872e-02 -2.478200793266296387e-01
-7.888604402542114258e-01 5.006587877869606018e-02 -3.400226309895515442e-02
2.439315766096115112e-01 -1.204716786742210388e-01 2.720035612583160400e-01
9.577593952417373657e-02 -6.018113717436790466e-02 -2.851147949695587158e-01
1.364726871252059937e-01 -4.670082777738571167e-02 1.996651440858840942e-01
-9.049291908740997314e-02 8.892092108726501465e-02 4.194283857941627502e-02
3.369484841823577881e-02 -2.731166407465934753e-02 1.659515500068664551e-01
-1.888966858386993408e-01 9.951076656579971313e-02 -9.548400528728961945e-03
5.963231250643730164e-02 -2.761862426996231079e-02 1.321356445550918579e-01
3.423353433609008789e-01 9.416468441486358643e-02 3.004844114184379578e-02
4.763711392879486084e-01 9.966424852609634399e-02 3.727285191416740417e-03
9.467603266239166260e-02 -7.534969598054885864e-02 -2.548799812793731689e-01
2.693574428558349609e-01 -3.741550818085670471e-02 1.382491141557693481e-01
-4.853241611272096634e-03 -4.813325405120849609e-02 1.658236682415008545e-01
2.591872215270996094e-02 -4.531953483819961548e-02 7.821436226367950439e-02
-1.820566318929195404e-02 -1.779614388942718506e-02 8.304886519908905029e-02
3.888745605945587158e-02 -2.554669231176376343e-02 -8.830723166465759277e-02
-1.554900556802749634e-01 -5.562800541520118713e-02 -6.689731031656265259e-02
-7.629637420177459717e-02 -9.431703016161918640e-03 -8.643993735313415527e-02
5.978730916976928711e-01 4.003877192735671997e-02 8.079788088798522949e-02
-6.774367690086364746e-01 3.607397153973579407e-02 -9.344869107007980347e-02
-7.819028496742248535e-01 2.692042291164398193e-01 -8.115956559777259827e-03
1.329683214426040649e-01 -6.463194638490676880e-02 -2.997973263263702393e-01
6.907109916210174561e-02 -1.557074766606092453e-02 3.885175287723541260e-01
1.057007238268852234e-01 -3.278564661741256714e-02 -2.795896232128143311e-01
3.247111737728118896e-01 1.028998475521802902e-02 -8.840955793857574463e-02
2.526029646396636963e-01 -3.626443818211555481e-02 -2.870332300662994385e-01
1.497483849525451660e-01 -1.667065732181072235e-02 3.155651986598968506e-01
-3.232546523213386536e-02 -2.043082192540168762e-02 3.579501807689666748e-01
-6.424698233604431152e-01 1.883348636329174042e-02 4.938642680644989014e-02
5.972847342491149902e-01 8.958598226308822632e-02 -4.461770132184028625e-02
-4.932654500007629395e-01 7.943097501993179321e-02 5.253269150853157043e-02
-1.634963899850845337e-01 1.635229215025901794e-02 6.478665471076965332e-01
-3.823789060115814209e-01 9.257876127958297729e-02 -3.791590407490730286e-02
-7.460150122642517090e-01 6.584834307432174683e-02 1.840983517467975616e-02
4.137017428874969482e-01 9.907592087984085083e-02 -1.517585758119821548e-02
3.247111737728118896e-01 1.028998475521802902e-02 -8.840955793857574463e-02
8.031730055809020996e-01 -6.378782540559768677e-02 5.347912758588790894e-02
7.773378491401672363e-01 2.139142528176307678e-02 -8.746311813592910767e-02
2.163314372301101685e-01 -4.301739111542701721e-02 -2.862658500671386719e-01
7.894624471664428711e-01 7.237108051776885986e-02 6.335275620222091675e-02
-7.580884695053100586e-01 4.085731133818626404e-02 1.105466708540916443e-01
4.930233359336853027e-01 -4.920759797096252441e-02 6.759893149137496948e-02
2.062020152807235718e-01 -4.984707385301589966e-02 2.891161441802978516e-01
-8.306455798447132111e-03 1.151779387146234512e-02 4.408784508705139160e-01
-3.434727489948272705e-01 9.979213774204254150e-02 -5.634758621454238892e-03
-1.806601583957672119e-01 2.804205566644668579e-02 7.545835971832275391e-01
2.697155475616455078e-01 -4.861927404999732971e-02 -3.107964694499969482e-01
2.839120924472808838e-01 9.242528676986694336e-02 3.449925035238265991e-02
1.587011516094207764e-01 -1.134885028004646301e-01 -2.750365138053894043e-01
5.712553486227989197e-02 -3.420548513531684875e-03 4.472477436065673828e-01
-6.024380922317504883e-01 2.648171223700046539e-02 4.079176485538482666e-02
-6.865685582160949707e-01 4.308271780610084534e-02 5.695791915059089661e-02
5.971568822860717773e-01 8.070994913578033447e-02 5.496273562312126160e-02
-6.882721185684204102e-02 1.269444171339273453e-02 -5.061459541320800781e-01
3.828274607658386230e-01 8.329346030950546265e-02 5.153509601950645447e-02
2.773126065731048584e-01 -2.025177143514156342e-02 -8.756542950868606567e-02
3.359404802322387695e-01 4.523137956857681274e-02 -8.311462402343750000e-02
-1.079891994595527649e-01 1.215727906674146652e-02 -6.281850934028625488e-01
2.816970832645893097e-02 1.182474382221698761e-02 4.360695481300354004e-01
1.004569604992866516e-01 9.378099441528320312e-02 -3.487196192145347595e-02
7.495586872100830078e-01 9.380657970905303955e-02 3.099487721920013428e-02
8.646505326032638550e-02 -1.405514776706695557e-01 -1.245531812310218811e-01
5.499373674392700195e-01 9.958751499652862549e-02 4.750459454953670502e-03
-7.889115810394287109e-01 4.817300662398338318e-02 -2.420902997255325317e-01
2.034394294023513794e-01 9.956192970275878906e-02 -8.857756853103637695e-03
-3.497908413410186768e-01 5.692114681005477905e-02 -7.874055206775665283e-02
-9.947127103805541992e-02 7.620798051357269287e-02 -6.474865227937698364e-02
2.406318187713623047e-01 -6.721546500921249390e-02 -2.369488626718521118e-01
2.569258809089660645e-01 -2.986960485577583313e-02 -2.779269814491271973e-01
4.704726859927177429e-02 -3.254457260482013226e-04 4.673530757427215576e-01
5.988451242446899414e-01 6.209892453625798225e-04 -8.733522146940231323e-02
4.855541586875915527e-01 -5.693254992365837097e-02 6.199705228209495544e-02
2.346206605434417725e-01 -8.591396361589431763e-02 -3.111289739608764648e-01
9.147757291793823242e-01 -4.150821641087532043e-02 3.836173191666603088e-02
2.442129552364349365e-01 -4.867042601108551025e-02 3.090936243534088135e-01
9.367843717336654663e-02 -3.071372583508491516e-02 2.922624051570892334e-01
9.009732306003570557e-02 -9.092751890420913696e-02 2.912136614322662354e-01
1.914938837289810181e-01 2.049614302814006805e-02 -8.840955793857574463e-02
6.665536165237426758e-01 8.541654795408248901e-02 -5.188222974538803101e-02
1.608498245477676392e-01 -9.586433321237564087e-02 3.096307814121246338e-01
-3.608922660350799561e-01 -7.972376048564910889e-02 -3.407900035381317139e-02
1.695723831653594971e-01 -1.022466365247964859e-02 -8.789797127246856689e-02
2.566189467906951904e-01 2.614918723702430725e-02 -8.817934244871139526e-02
1.029125824570655823e-01 -8.591396361589431763e-02 -3.584397584199905396e-02
-2.870958149433135986e-01 -8.373972028493881226e-02 2.355128526687622070e-02
4.104020297527313232e-01 4.587086662650108337e-02 7.908406108617782593e-02
5.883064270019531250e-01 -8.258865028619766235e-02 2.631385624408721924e-02
-1.090379506349563599e-01 -8.532563596963882446e-02 -2.103352919220924377e-02
-7.187218070030212402e-01 1.366646215319633484e-02 -5.336583778262138367e-02
-2.039373368024826050e-01 9.349962323904037476e-02 -3.561376407742500305e-02
-2.859088219702243805e-02 -6.899338681250810623e-03 -3.581438362598419189e-01
-2.825683057308197021e-01 1.942180842161178589e-02 8.460919559001922607e-02
-2.859088219702243805e-02 1.617323048412799835e-02 4.899908304214477539e-01
4.408414363861083984e-01 8.055647462606430054e-02 -5.899329483509063721e-02
2.724781334400177002e-01 -1.080912724137306213e-01 2.413339167833328247e-01
3.379716724157333374e-02 -2.974170632660388947e-02 3.002943396568298340e-01
-4.741728678345680237e-02 3.485879627987742424e-03 5.500767230987548828e-01
4.495128393173217773e-01 6.221607327461242676e-02 -7.590124756097793579e-02
1.094864755868911743e-01 -6.560397148132324219e-02 -8.628646284341812134e-02
-7.698293924331665039e-01 3.632976859807968140e-02 -7.958467304706573486e-02
1.608498245477676392e-01 -9.586433321237564087e-02 3.096307814121246338e-01
2.407341599464416504e-01 -1.981691271066665649e-02 -1.706215888261795044e-01
7.859836816787719727e-01 -6.106378510594367981e-03 -8.528887480497360229e-02
1.393375843763351440e-01 -1.099203806370496750e-02 3.398655652999877930e-01
8.512110114097595215e-01 7.027357071638107300e-02 -5.505406856536865234e-02
2.254888564348220825e-01 -1.101376116275787354e-01 -3.010507225990295410e-01
1.834619641304016113e-01 -8.322814106941223145e-02 2.305138558149337769e-01
2.761615216732025146e-01 -1.251526921987533569e-01 2.880929708480834961e-01
-1.631638705730438232e-01 7.584986835718154907e-02 6.138315051794052124e-02
-5.220677852630615234e-01 6.465652259066700935e-04 -7.840802520513534546e-02
5.611667037010192871e-01 5.891633778810501099e-02 7.381471246480941772e-02
2.126224189996719360e-01 -9.550622850656509399e-02 2.371133267879486084e-01
-7.704433202743530273e-01 5.239360034465789795e-02 -2.218570262193679810e-01
8.835792541503906250e-02 1.055838074535131454e-03 -3.091849386692047119e-01
-7.631275653839111328e-01 3.525543585419654846e-02 1.334913522005081177e-01
-6.569733619689941406e-01 2.352348268032073975e-01 7.345005287788808346e-04
2.664925456047058105e-01 -1.054054275155067444e-01 2.270862162113189697e-01
-1.344894170761108398e-01 8.789774775505065918e-02 -4.755931720137596130e-02
3.354137018322944641e-02 -1.419839113950729370e-01 -1.305643320083618164e-01
8.891963362693786621e-01 -5.148416385054588318e-02 -4.331314563751220703e-02
4.305689036846160889e-02 6.964670028537511826e-03 3.785415589809417725e-01
1.800854951143264771e-01 -7.130815833806991577e-02 7.642380893230438232e-02
-6.297056674957275391e-01 6.398104876279830933e-02 5.683002993464469910e-02
-2.934139370918273926e-01 -2.743956260383129120e-02 -8.244956284761428833e-02
-7.295163273811340332e-01 2.755604684352874756e-02 8.460919559001922607e-02
-5.944318175315856934e-01 1.062637194991111755e-01 1.096624322235584259e-02
6.048306822776794434e-01 -1.572422310709953308e-02 -8.503308147192001343e-02
5.735575035214424133e-02 -1.092829857952892780e-03 -3.054759502410888672e-01
2.400027029216289520e-02 1.282234024256467819e-02 -8.869092911481857300e-02
-6.330206245183944702e-02 2.374472096562385559e-02 -5.815795063972473145e-01
-1.862364411354064941e-01 7.884265482425689697e-02 -6.126985326409339905e-02
4.597446024417877197e-01 9.695283323526382446e-02 -2.492159232497215271e-02
-7.561956048011779785e-01 4.553833603858947754e-02 2.281349599361419678e-01
-3.843892738223075867e-02 9.966424852609634399e-02 3.497071098536252975e-03
2.154617458581924438e-01 -4.723798111081123352e-02 2.480612993240356445e-01
8.160497248172760010e-02 -3.058582730591297150e-02 -3.011274635791778564e-01
1.356797367334365845e-01 -5.283986032009124756e-02 2.799587547779083252e-01
4.309166669845581055e-01 -7.903312891721725464e-02 3.472946211695671082e-02
2.492112666368484497e-02 -4.406613856554031372e-02 -2.055374085903167725e-01
-3.096567988395690918e-01 -4.693102836608886719e-02 -7.288287580013275146e-02
-3.608922660350799561e-01 -7.972376048564910889e-02 -3.407900035381317139e-02
-7.931321859359741211e-01 5.180527642369270325e-02 -2.743203043937683105e-01
7.856511473655700684e-01 8.659320324659347534e-02 4.465425387024879456e-02
2.338021546602249146e-01 -1.083982214331626892e-01 2.292093038558959961e-01
6.802641749382019043e-01 -8.184684813022613525e-02 2.810440957546234131e-02
4.689379408955574036e-02 -2.838599868118762970e-02 1.438254117965698242e-01
-2.726179063320159912e-01 8.908701129257678986e-03 8.440457284450531006e-02
-1.136678233742713928e-01 3.223706781864166260e-02 -7.206544876098632812e-01
-2.131970673799514771e-01 -7.230575382709503174e-02 4.600996151566505432e-02
-3.828649222850799561e-01 6.618086993694305420e-02 -7.336889207363128662e-02
-7.319464087486267090e-01 4.154795408248901367e-02 -1.252438127994537354e-01
-1.967751532793045044e-01 6.487632542848587036e-02 -7.441765069961547852e-02
1.852628961205482483e-02 -1.071066409349441528e-02 -4.431696236133575439e-01
-1.178116649389266968e-01 3.085578605532646179e-02 6.676138639450073242e-01
-1.442095637321472168e-01 1.742662489414215088e-02 6.016446948051452637e-01
6.382884383201599121e-01 -4.136770963668823242e-03 8.302327990531921387e-02
2.953460812568664551e-01 -9.913849830627441406e-02 -3.145054578781127930e-01
-2.045664563775062561e-02 2.031709253787994385e-02 -5.536468625068664551e-01
-2.167406724765896797e-03 -4.447541013360023499e-02 -8.820492029190063477e-02
5.665895342826843262e-01 6.811195053160190582e-03 8.417434990406036377e-02
6.266754269599914551e-01 -7.297082245349884033e-02 -4.878712818026542664e-02
-7.733082175254821777e-01 7.487785071134567261e-02 -2.386180683970451355e-03
-1.114935725927352905e-01 1.185031980276107788e-02 -5.407548546791076660e-01
1.345798224210739136e-01 -4.099662229418754578e-02 -8.856303244829177856e-02
-9.374149888753890991e-02 -4.571619909256696701e-03 4.745408892631530762e-01
-8.232135176658630371e-01 3.473747372627258301e-01 3.983078058809041977e-03
6.598262786865234375e-01 -5.839059129357337952e-02 -6.469748914241790771e-02
-1.763372421264648438e-01 2.456326596438884735e-02 8.437898755073547363e-02
5.620468035340309143e-02 -1.431605666875839233e-01 1.336192488670349121e-01
9.089180231094360352e-01 7.042704522609710693e-02 -1.567641389556229115e-03
8.141721487045288086e-01 8.518633246421813965e-02 4.143125191330909729e-02
7.321494817733764648e-02 -3.150668740272521973e-02 2.919810414314270020e-01
4.893910288810729980e-01 6.477400660514831543e-02 -7.451996207237243652e-02
1.491344720125198364e-01 -6.515651475638151169e-03 3.209624588489532471e-01
6.408720016479492188e-01 1.036672294139862061e-02 8.455804735422134399e-02
2.417573183774948120e-01 -1.279664337635040283e-01 -2.869309186935424805e-01
2.713270783424377441e-01 -1.054310277104377747e-01 -2.311167567968368530e-01
2.769033610820770264e-01 9.715747088193893433e-02 -2.397515624761581421e-02
-6.765926480293273926e-01 8.525004610419273376e-03 5.603706836700439453e-02
9.636426717042922974e-02 4.432314541190862656e-03 8.389298617839813232e-02
1.448115706443786621e-01 -5.127951875329017639e-02 2.634856402873992920e-01
1.060844212770462036e-01 -5.104931443929672241e-02 1.788947135210037231e-01
-5.440045520663261414e-02 -8.573491126298904419e-02 2.536741830408573151e-02
-1.200370788574218750e-01 1.763126254081726074e-02 -6.723862290382385254e-01
9.334589540958404541e-02 -8.169337362051010132e-02 -6.569508463144302368e-02
-1.131050735712051392e-01 1.568723097443580627e-02 6.533660888671875000e-01
-7.606719732284545898e-01 -3.766072040889412165e-04 2.250253036618232727e-02
2.027232348918914795e-01 -8.624650537967681885e-02 -2.384725771844387054e-02
7.838197797536849976e-02 8.313998579978942871e-02 -5.559124052524566650e-02
3.290188685059547424e-02 -5.186784267425537109e-02 -1.668358445167541504e-01
1.828480660915374756e-01 -1.283375639468431473e-02 1.167112886905670166e-01
-8.460303544998168945e-01 5.786758288741111755e-02 2.760195136070251465e-01
2.970343232154846191e-01 -8.338161557912826538e-02 3.069705367088317871e-01
2.163314372301101685e-01 -4.301739111542701721e-02 -2.862658500671386719e-01
8.598312735557556152e-01 -7.363587617874145508e-02 -1.896160282194614410e-02
8.339552581310272217e-02 -1.943322457373142242e-02 8.435340970754623413e-02
1.819375716149806976e-02 4.387567564845085144e-02 7.967238873243331909e-02
-5.664479732513427734e-01 6.715288758277893066e-02 -6.674383580684661865e-02
-5.887683853507041931e-02 2.487021684646606445e-02 -6.319452524185180664e-01
-7.733082175254821777e-01 7.487785071134567261e-02 -2.386180683970451355e-03
-6.627542376518249512e-01 1.939623244106769562e-02 -6.587413698434829712e-02
-1.421887874603271484e-01 6.426241993904113770e-02 7.094982266426086426e-02
2.352089881896972656e-01 -1.600559614598751068e-02 9.276901930570602417e-02
9.142641425132751465e-01 5.436320975422859192e-02 -3.405342251062393188e-02
5.807196721434593201e-02 -9.941986948251724243e-02 1.422650665044784546e-01
1.009941250085830688e-01 -9.908734261989593506e-02 2.613625526428222656e-01
-3.467876464128494263e-02 -1.096646208316087723e-02 4.418504834175109863e-01
-7.372924685478210449e-01 2.022630572319030762e-01 5.543419625610113144e-03
-5.573673248291015625e-01 9.106958657503128052e-02 -1.566186547279357910e-02
-1.518833637237548828e-01 -8.642555773258209229e-02 1.268005929887294769e-02
2.008662931621074677e-02 -1.456417590379714966e-01 -1.599294245243072510e-01
3.767000976949930191e-03 -4.268486425280570984e-02 1.236944496631622314e-01
-9.176152758300304413e-03 -5.227711424231529236e-02 -1.424843072891235352e-01
-1.894850134849548340e-01 5.067978426814079285e-02 7.765161991119384766e-02
3.247111737728118896e-01 1.028998475521802902e-02 -8.840955793857574463e-02
3.165257573127746582e-01 7.377794384956359863e-02 6.348066031932830811e-02
2.773126065731048584e-01 -2.025177143514156342e-02 -8.756542950868606567e-02
2.177638858556747437e-01 -9.141352027654647827e-02 -3.093640208244323730e-01
1.605684608221054077e-01 -6.950499955564737320e-03 -2.956534922122955322e-01
-8.001665472984313965e-01 3.592049703001976013e-02 -9.117212146520614624e-02
-6.974909901618957520e-01 2.302849851548671722e-02 6.565490365028381348e-02
2.469754964113235474e-01 -9.550622850656509399e-02 -2.382789850234985352e-01
2.218821495771408081e-01 -2.332128770649433136e-02 -2.699206471443176270e-01
-6.403211355209350586e-01 1.020175442099571228e-01 -1.289929542690515518e-02
1.415885686874389648e-01 -2.286086231470108032e-02 -6.728100776672363281e-02
-4.130997359752655029e-01 -8.013302832841873169e-02 8.126934058964252472e-03
-1.521903276443481445e-01 3.476942330598831177e-02 8.233264088630676270e-02
-7.766847014427185059e-01 2.950007840991020203e-02 4.823536798357963562e-02
-5.398966073989868164e-01 5.507943034172058105e-02 -7.464785873889923096e-02
-7.293884158134460449e-01 4.571739211678504944e-02 -2.231104224920272827e-01
2.417573183774948120e-01 -1.279664337635040283e-01 -2.869309186935424805e-01
-5.868602991104125977e-01 8.400968462228775024e-02 4.158472642302513123e-02
-4.732623696327209473e-01 -5.805804580450057983e-02 -4.451537504792213440e-02
-4.724182486534118652e-01 2.333545684814453125e-02 8.097693324089050293e-02
8.929309844970703125e-01 -6.475985050201416016e-02 1.444503385573625565e-02
9.268747568130493164e-01 -5.539780110120773315e-02 -1.164590753614902496e-02
-3.592295944690704346e-01 -7.537526637315750122e-02 -4.262250661849975586e-02
3.837586939334869385e-02 -6.788051873445510864e-02 1.447974294424057007e-01
-7.283278275281190872e-03 -2.306549996137619019e-02 -3.503676950931549072e-01
1.278012990951538086e-01 -1.155478600412607193e-02 1.596846133470535278e-01
5.276183597743511200e-03 -3.073930181562900543e-02 2.795750498771667480e-01
1.493902653455734253e-01 -5.150973796844482422e-02 1.747764497995376587e-01
6.318783760070800781e-02 -8.118179440498352051e-02 -1.512580215930938721e-01
-4.710369706153869629e-01 9.605756402015686035e-02 9.636116214096546173e-03
2.179941087961196899e-01 -3.767130523920059204e-02 -2.618119716644287109e-01
1.345798224210739136e-01 -4.099662229418754578e-02 -8.856303244829177856e-02
-1.241041943430900574e-01 -3.190336283296346664e-03 -5.368667840957641602e-01
1.295662671327590942e-01 -7.875175774097442627e-02 2.441988140344619751e-01
-8.893257379531860352e-02 4.937523603439331055e-02 -8.191239833831787109e-02
1.728721261024475098e-01 -8.613158017396926880e-03 -1.816718727350234985e-01
2.568850852549076080e-02 -5.524432659149169922e-02 1.418813765048980713e-01
-3.161284029483795166e-01 1.888464763760566711e-02 -8.846070617437362671e-02
4.510323703289031982e-02 -6.545049697160720825e-02 1.288614869117736816e-01
-9.395978995598852634e-04 -2.600711770355701447e-02 -3.244046568870544434e-01
-9.346012026071548462e-02 9.981772303581237793e-02 1.604198710992932320e-03
-2.162666022777557373e-01 9.815506637096405029e-02 -1.970340311527252197e-02
1.264200061559677124e-01 -2.370497584342956543e-02 3.147211074829101562e-01
-4.373233914375305176e-01 -7.256154716014862061e-02 -3.190475702285766602e-02
-1.235926002264022827e-01 1.665924116969108582e-02 8.471152186393737793e-02
-1.475348770618438721e-01 3.425783663988113403e-02 -7.152572274208068848e-01
1.154464706778526306e-01 -5.775109678506851196e-02 -2.648303508758544922e-01
-3.204768896102905273e-01 4.791721329092979431e-02 7.847015559673309326e-02
-5.542362481355667114e-02 9.992004185914993286e-02 -4.125576931983232498e-03
1.796354167163372040e-02 -2.864179573953151703e-02 -3.099779188632965088e-01
1.627530716359615326e-02 -1.220728736370801926e-03 3.389447331428527832e-01
8.625171184539794922e-01 -4.749377816915512085e-02 -5.600050464272499084e-02
-3.232546523213386536e-02 -2.043082192540168762e-02 3.579501807689666748e-01
4.614839851856231689e-01 4.116426780819892883e-02 8.046534657478332520e-02
2.772614657878875732e-01 -8.210264891386032104e-02 5.140720680356025696e-02
6.643641740083694458e-02 4.282692447304725647e-02 -8.383084833621978760e-02
1.942052841186523438e-01 -8.113062381744384766e-02 6.179241463541984558e-02
2.998991906642913818e-01 -5.626749992370605469e-02 7.294502109289169312e-02
9.216925501823425293e-02 -5.532105639576911926e-02 1.546454727649688721e-01
-7.381518185138702393e-02 1.364087592810392380e-02 -5.164800286293029785e-01
2.581640519201755524e-02 -1.349495947360992432e-01 -1.246810853481292725e-01
1.852269321680068970e-01 -8.331784047186374664e-03 2.041671127080917358e-01
-1.168140694499015808e-01 5.577007308602333069e-02 -7.935445755720138550e-02
1.205623298883438110e-01 -3.539473935961723328e-02 -2.591517269611358643e-01
-4.802079871296882629e-03 -1.866585016250610352e-02 -3.874577879905700684e-01
2.119062244892120361e-01 4.349198564887046814e-02 -8.362621068954467773e-02
-1.707353442907333374e-01 1.865443401038646698e-02 -6.717467904090881348e-01
-1.119284182786941528e-01 1.000861078500747681e-02 6.057629585266113281e-01
2.907162010669708252e-01 -5.821152031421661377e-02 2.276745289564132690e-01
5.770003199577331543e-01 -7.885406166315078735e-02 -3.901581466197967529e-02
3.763406723737716675e-02 -4.383593797683715820e-02 8.473709970712661743e-02
-9.146492928266525269e-02 -8.087483048439025879e-02 4.107313975691795349e-02
1.240667030215263367e-01 -4.634270444512367249e-02 2.047298550605773926e-01
9.746569991111755371e-01 6.977267330512404442e-04 2.626269683241844177e-02
-7.612603306770324707e-01 4.267344623804092407e-02 1.272755712270736694e-01
9.797576814889907837e-02 -2.697913907468318939e-02 3.123933672904968262e-01
6.197038106620311737e-03 -7.871359586715698242e-03 -3.213351368904113770e-01
9.296221286058425903e-02 -1.754035428166389465e-02 -3.691941201686859131e-01
5.085244178771972656e-01 -8.721850812435150146e-02 -1.016230508685112000e-02
-1.774523407220840454e-02 1.146663259714841843e-02 -4.510224759578704834e-01
5.055571794509887695e-01 1.676156371831893921e-02 -8.856303244829177856e-02
-6.408070921897888184e-01 6.439031660556793213e-02 -5.812359601259231567e-02
4.369022250175476074e-01 -7.368704676628112793e-02 4.373339563608169556e-02
-6.433650851249694824e-01 4.221301898360252380e-02 6.406898051500320435e-02
5.549509525299072266e-01 3.740410134196281433e-02 -8.541676402091979980e-02
-1.321769133210182190e-02 -5.812435992993414402e-04 -3.790421783924102783e-01
5.770003199577331543e-01 -7.885406166315078735e-02 -3.901581466197967529e-02
4.264761880040168762e-02 -2.439562231302261353e-02 1.702233105897903442e-01
4.432066809386014938e-03 -1.479950696229934692e-01 -1.653522551059722900e-01
5.559485554695129395e-01 -3.772246837615966797e-02 -7.810107618570327759e-02
-4.322227463126182556e-02 -3.565053641796112061e-02 -2.213198840618133545e-01
-1.248204186558723450e-01 2.565020695328712463e-03 5.429912209510803223e-01
-4.343817532062530518e-01 -1.160594727843999863e-02 -8.280767500400543213e-02
6.262509524822235107e-02 -4.212211817502975464e-02 2.212541252374649048e-01
8.058332800865173340e-01 4.809626936912536621e-02 7.488904893398284912e-02
-1.791509389877319336e-01 5.369814857840538025e-02 -8.045437186956405640e-02
2.164849340915679932e-01 -6.578302383422851562e-02 -2.410415410995483398e-01
2.973668277263641357e-01 -3.605981171131134033e-02 -2.805872261524200439e-01
1.432256400585174561e-01 -1.927975006401538849e-02 2.859698832035064697e-01
-7.680796086788177490e-02 2.067520283162593842e-02 -5.604509115219116211e-01
1.627530716359615326e-02 -1.220728736370801926e-03 3.389447331428527832e-01
1.852269321680068970e-01 -8.331784047186374664e-03 2.041671127080917358e-01
-9.483102709054946899e-03 -8.399551361799240112e-02 4.728892073035240173e-02
-1.071706563234329224e-01 -1.434293854981660843e-02 8.148851990699768066e-02
2.194265574216842651e-01 -1.179904863238334656e-01 -2.431646436452865601e-01
-3.713797926902770996e-01 -5.726509541273117065e-02 6.030881777405738831e-02
5.863471701741218567e-02 -3.961533680558204651e-02 -2.382533997297286987e-01
-7.912648916244506836e-01 2.795382738113403320e-01 -7.783424574881792068e-03
-2.461944520473480225e-01 -7.795878499746322632e-02 3.682697191834449768e-02
6.942049264907836914e-01 5.530964955687522888e-02 7.575874775648117065e-02
4.960672855377197266e-01 -3.324608132243156433e-02 -8.007068186998367310e-02
4.301236867904663086e-01 7.629731204360723495e-03 -8.810260146856307983e-02
-4.178574681282043457e-01 -7.854711264371871948e-02 -1.676177792251110077e-02
2.455686330795288086e-01 -5.856964364647865295e-02 1.023356914520263672e-01
3.346463292837142944e-02 8.027509599924087524e-02 5.552548170089721680e-02
2.002675980329513550e-01 -1.155604422092437744e-01 -3.061154186725616455e-01
3.734654188156127930e-01 -4.317086562514305115e-02 -7.751274108886718750e-02
-6.587893962860107422e-01 1.694061607122421265e-02 3.667349368333816528e-02
2.218821495771408081e-01 -2.332128770649433136e-02 -2.699206471443176270e-01
1.301545947790145874e-01 -5.744414776563644409e-02 1.475344151258468628e-01
2.455686330795288086e-01 -5.856964364647865295e-02 1.023356914520263672e-01
6.226595044136047363e-01 -8.302349597215652466e-02 2.529068104922771454e-02
2.741919159889221191e-01 -1.243085712194442749e-01 2.481635957956314087e-01
1.481368839740753174e-01 -1.864026486873626709e-02 -2.861379683017730713e-01
-7.371286302804946899e-02 -5.447693541646003723e-02 8.023513108491897583e-02
4.684263467788696289e-02 -8.486521244049072266e-02 1.510132104158401489e-01
-8.204137906432151794e-03 7.058051973581314087e-02 -6.989009678363800049e-02
-1.241041943430900574e-01 -3.190336283296346664e-03 -5.368667840957641602e-01
9.610847383737564087e-02 2.360384445637464523e-03 -3.281904160976409912e-01
-6.088329553604125977e-01 -4.290245939046144485e-03 -6.697404384613037109e-02
-1.859294921159744263e-01 8.669551461935043335e-02 4.580532386898994446e-02
2.816970832645893097e-02 1.182474382221698761e-02 4.360695481300354004e-01
2.017256319522857666e-01 -5.455368012189865112e-02 -2.504035830497741699e-01
3.373729288578033447e-01 8.761637657880783081e-02 -4.807090386748313904e-02
-1.106750294566154480e-01 3.869567066431045532e-03 4.931370913982391357e-01
1.481368839740753174e-01 -1.864026486873626709e-02 -2.861379683017730713e-01
-7.698293924331665039e-01 3.632976859807968140e-02 -7.958467304706573486e-02
-6.408070921897888184e-01 6.439031660556793213e-02 -5.812359601259231567e-02
-7.460150122642517090e-01 6.584834307432174683e-02 1.840983517467975616e-02
2.460546493530273438e-01 -2.782325074076652527e-02 2.647901773452758789e-01
6.288752555847167969e-01 -3.380881994962692261e-02 7.596338540315628052e-02
2.366773970425128937e-02 -6.051366403698921204e-02 1.121070086956024170e-01
-8.070729970932006836e-01 3.234580457210540771e-01 4.443507175892591476e-03
-5.337728187441825867e-02 -2.073777094483375549e-02 3.284827768802642822e-01
1.952796280384063721e-01 -1.288490835577249527e-02 2.379830330610275269e-01
2.625277638435363770e-01 -1.058914512395858765e-01 -2.473085075616836548e-01
2.559538483619689941e-01 -8.527448773384094238e-02 -3.123311996459960938e-01
2.859840095043182373e-01 1.515005901455879211e-02 -8.861418813467025757e-02
1.627530716359615326e-02 -1.220728736370801926e-03 3.389447331428527832e-01
5.016691684722900391e-01 9.938287734985351562e-02 -1.113431993871927261e-02
4.528229311108589172e-02 -1.039218306541442871e-01 1.378398388624191284e-01
5.174772143363952637e-01 9.394701570272445679e-03 -8.830723166465759277e-02
-8.048731684684753418e-01 1.802648007869720459e-01 -3.307037288323044777e-03
-4.847730696201324463e-01 -4.744262620806694031e-02 -5.612840503454208374e-02
5.349326878786087036e-02 -3.409019485116004944e-02 8.463478088378906250e-02
1.448115706443786621e-01 -5.127951875329017639e-02 2.634856402873992920e-01
-6.846909970045089722e-02 -2.723492681980133057e-02 8.015839755535125732e-02
-2.870191037654876709e-01 9.083937108516693115e-02 -4.236670956015586853e-02
1.908903568983078003e-02 5.093557387590408325e-02 -8.142638951539993286e-02
1.658889502286911011e-01 -6.995245814323425293e-02 -8.439359068870544434e-02
2.058694958686828613e-01 -3.672487288713455200e-02 -8.851186931133270264e-02
-4.831615984439849854e-01 6.032320111989974976e-02 -7.403395324945449829e-02
2.694597542285919189e-01 -1.258689165115356445e-01 -2.912538349628448486e-01
-1.968263089656829834e-01 -6.509237736463546753e-02 5.465578287839889526e-02
-5.091246366500854492e-01 8.500728011131286621e-02 4.388687014579772949e-02
8.796041011810302734e-01 -3.906558733433485031e-03 -7.060632109642028809e-02
7.544035464525222778e-02 -6.805958598852157593e-02 8.136061578989028931e-02
-7.616184353828430176e-01 5.369814857840538025e-02 2.671434879302978516e-01
-3.526708856225013733e-02 -1.245005894452333450e-02 3.733489513397216797e-01
6.828221678733825684e-01 -4.644503071904182434e-02 6.933832913637161255e-02
-2.726179063320159912e-01 8.908701129257678986e-03 8.440457284450531006e-02
-3.372057974338531494e-01 9.250203520059585571e-02 -3.809496015310287476e-02
-5.240629315376281738e-01 -2.805347181856632233e-02 -6.449285149574279785e-02
1.720535755157470703e-01 -6.560397148132324219e-02 -1.095636785030364990e-01
7.607983797788619995e-02 -1.889606192708015442e-02 2.744847536087036133e-01
8.654842972755432129e-01 -1.337217837572097778e-01 -1.540607213973999023e-02
8.087493181228637695e-01 5.710019916296005249e-02 7.089867442846298218e-02
-7.698293924331665039e-01 3.632976859807968140e-02 -7.958467304706573486e-02
-6.880522370338439941e-01 3.558795899152755737e-02 -7.538966089487075806e-02
-6.868755817413330078e-01 4.927291721105575562e-02 -5.922350659966468811e-02
2.853445410728454590e-01 -1.196787133812904358e-01 2.766590118408203125e-01
8.363749980926513672e-01 -6.921065598726272583e-02 3.838731348514556885e-02
-2.623094618320465088e-01 4.410589113831520081e-02 7.959564775228500366e-02
2.062020152807235718e-01 -4.984707385301589966e-02 2.891161441802978516e-01
-7.226610779762268066e-01 3.625303134322166443e-02 -1.688054651021957397e-01
-4.092013090848922729e-02 -8.399551361799240112e-02 -4.615245759487152100e-02
3.356694802641868591e-02 -6.547606736421585083e-02 -8.759100735187530518e-02
7.610541582107543945e-02 -2.659544162452220917e-02 -8.833281695842742920e-02
4.286145269870758057e-01 6.610413640737533569e-02 6.959412992000579834e-02
-6.931321322917938232e-02 1.323161274194717407e-02 8.483941853046417236e-02
8.038753643631935120e-03 -1.438256353139877319e-01 1.345145255327224731e-01
4.397774860262870789e-02 -4.979592189192771912e-02 -8.858860284090042114e-02
1.908544152975082397e-01 -1.086413860321044922e-02 1.475599855184555054e-01
5.405497550964355469e-01 -8.642555773258209229e-02 1.275679655373096466e-02
-7.167522907257080078e-01 1.560411453247070312e-01 -9.241447784006595612e-03
5.863471701741218567e-02 -3.961533680558204651e-02 -2.382533997297286987e-01
8.491390943527221680e-01 2.203091047704219818e-02 -7.812664657831192017e-02
2.668610401451587677e-02 7.246043533086776733e-03 -3.891716003417968750e-01
4.768675565719604492e-02 6.357178092002868652e-02 -7.518502324819564819e-02
-3.232546523213386536e-02 -2.043082192540168762e-02 3.579501807689666748e-01
1.862757056951522827e-01 -1.116212084889411926e-01 -2.919444739818572998e-01
2.600977122783660889e-01 -8.379089087247848511e-02 2.307184785604476929e-01
6.171087622642517090e-01 9.997120499610900879e-02 -3.358196467161178589e-03
-9.269274026155471802e-02 -7.769036106765270233e-03 -5.450521707534790039e-01
1.467811763286590576e-01 -4.869600012898445129e-02 1.880265325307846069e-01
5.702729821205139160e-01 8.971387892961502075e-02 4.053597897291183472e-02
-5.658596158027648926e-01 9.894803166389465332e-02 1.170804351568222046e-02
-5.698500275611877441e-01 7.853570580482482910e-02 -5.451690778136253357e-02
1.657610684633255005e-01 -2.191442809998989105e-02 2.834119498729705811e-01
2.556061185896396637e-02 -8.622091263532638550e-02 -2.985840849578380585e-02
1.025288850069046021e-01 -1.329418085515499115e-02 1.694303601980209351e-01
1.760439574718475342e-01 -1.083856262266635895e-02 -1.470118463039398193e-01
-1.350009888410568237e-01 8.345953188836574554e-03 5.811812281608581543e-01
-3.514023125171661377e-01 -7.632171362638473511e-02 3.726181760430335999e-02
5.711032543331384659e-03 -1.376610100269317627e-01 1.183227896690368652e-01
-8.177139759063720703e-01 4.515464231371879578e-02 1.691745668649673462e-01
6.772969961166381836e-01 1.000735163688659668e-01 -2.053649164736270905e-03
1.570384949445724487e-01 -3.544590249657630920e-02 -2.759829461574554443e-01
-6.854687333106994629e-01 1.117377057671546936e-01 6.234061904251575470e-03
1.949982494115829468e-01 -3.715971857309341431e-02 -2.944768369197845459e-01
-7.672458887100219727e-01 2.927372157573699951e-01 5.748054012656211853e-03
2.937601208686828613e-01 -1.269688308238983154e-01 -2.709949910640716553e-01
2.417573183774948120e-01 -1.279664337635040283e-01 -2.869309186935424805e-01
9.112458229064941406e-01 4.684288054704666138e-02 3.966627642512321472e-02
8.956015855073928833e-02 -3.173689916729927063e-02 2.684224545955657959e-01
-3.512742114253342152e-04 -8.348391950130462646e-02 -5.640977621078491211e-02
3.402737900614738464e-02 1.154336985200643539e-02 4.873561561107635498e-01
-1.516172289848327637e-02 -2.802788652479648590e-02 -2.998996376991271973e-01
-6.865685582160949707e-01 4.308271780610084534e-02 5.695791915059089661e-02
-6.774367690086364746e-01 3.607397153973579407e-02 -9.344869107007980347e-02
-5.627645254135131836e-01 6.776679307222366333e-02 6.230401247739791870e-02
8.127396702766418457e-01 -2.567459270358085632e-02 7.478673756122589111e-02
-6.518830060958862305e-01 -2.252832800149917603e-02 3.301564604043960571e-02
-2.052163332700729370e-01 9.920381754636764526e-02 9.661694988608360291e-03
7.482644915580749512e-02 -8.622091263532638550e-02 2.513720281422138214e-02
2.551352977752685547e-01 -1.120816543698310852e-01 -2.968812882900238037e-01
2.859328687191009521e-01 -8.512101322412490845e-02 1.797498576343059540e-02
-5.859650373458862305e-01 1.422282904386520386e-01 7.845561020076274872e-03
2.280211895704269409e-01 -6.603881716728210449e-02 -8.756542950868606567e-02
5.404082592576742172e-03 -3.501105308532714844e-02 -2.474108040332794189e-01
2.289420664310455322e-01 -2.956265583634376526e-02 2.768892049789428711e-01
