-8.205208927392959595e-02 1.198176480829715729e-02 5.604139566421508789e-01
-6.675363779067993164e-01 1.436994671821594238e-01 -1.785367203410714865e-04
-1.573773622512817383e-01 -7.274226099252700806e-02 -1.678206399083137512e-02
8.013701438903808594e-02 -1.198713481426239014e-01 -1.732831597328186035e-01
8.262935876846313477e-01 -7.052122801542282104e-02 -9.143899194896221161e-03
6.897313985973596573e-03 -1.433004885911941528e-01 -1.629364192485809326e-01
2.572186663746833801e-02 -6.732512265443801880e-02 -8.804450184106826782e-02
3.202787339687347412e-01 -2.454906469210982323e-03 9.340251237154006958e-02
5.559737607836723328e-02 3.275648877024650574e-02 9.299623221158981323e-02
5.192501544952392578e-01 6.046514958143234253e-02 8.194527029991149902e-02
4.048943817615509033e-01 -7.339231669902801514e-02 2.400898188352584839e-02
-2.371447086334228516e-01 5.396458134055137634e-02 -8.752358555793762207e-01
8.155947327613830566e-01 -7.336523383855819702e-02 1.986487209796905518e-02
-4.099785089492797852e-01 1.004977971315383911e-01 -1.572572253644466400e-02
5.854972079396247864e-02 7.864739745855331421e-03 -3.875309824943542480e-01
-6.720913201570510864e-02 -1.911260373890399933e-02 -4.248550534248352051e-01
-7.299959063529968262e-01 4.069259390234947205e-02 -3.438775986433029175e-02
-8.491929038427770138e-04 -2.021532272920012474e-03 -4.940048158168792725e-01
-8.369030356407165527e-01 6.165691837668418884e-02 -3.755678236484527588e-02
2.018871754407882690e-01 -3.019065037369728088e-02 -2.091446220874786377e-01
-8.730894923210144043e-01 2.879307568073272705e-01 1.043905224651098251e-02
2.236369848251342773e-01 -1.148875951766967773e-01 -2.619346082210540771e-01
2.964704036712646484e-01 -9.739023447036743164e-02 -3.120160400867462158e-01
9.154008328914642334e-02 4.711190238595008850e-02 -7.601846009492874146e-02
1.543788760900497437e-01 5.786934052594006062e-04 -2.979314923286437988e-01
-1.278539746999740601e-01 2.400781027972698212e-02 -7.689515948295593262e-01
-7.913991212844848633e-01 2.427247464656829834e-01 1.333722099661827087e-02
5.970673561096191406e-01 -7.409655302762985229e-02 1.867310144007205963e-02
1.852294802665710449e-01 -3.506607562303543091e-02 -2.070048451423645020e-01
-7.298875451087951660e-01 7.387255877256393433e-02 -3.387313336133956909e-02
-7.444100826978683472e-02 2.452244237065315247e-02 -6.302999854087829590e-01
6.349872946739196777e-01 -7.187551259994506836e-02 3.126794472336769104e-02
-1.581628769636154175e-01 2.947911806404590607e-02 -7.397261261940002441e-01
-2.622531652450561523e-01 1.200885698199272156e-02 9.529851377010345459e-02
4.270234107971191406e-01 -4.546697810292243958e-02 -6.025459244847297668e-02
1.868004500865936279e-01 -1.189504414796829224e-01 2.565937936305999756e-01
-2.057253271341323853e-01 1.948450319468975067e-02 -7.370716929435729980e-01
-1.586504131555557251e-01 2.408906817436218262e-02 7.201924324035644531e-01
-6.334354281425476074e-01 -2.293168567121028900e-02 1.385184843093156815e-02
6.624521613121032715e-01 -4.262298345565795898e-02 -6.247561797499656677e-02
-2.234122902154922485e-01 -4.714629054069519043e-02 7.124642282724380493e-02
2.251808792352676392e-01 -1.339752133935689926e-02 9.919885545969009399e-02
9.384237229824066162e-02 -8.839322254061698914e-04 -4.178940355777740479e-01
-6.622816920280456543e-01 8.858009427785873413e-02 -3.287095949053764343e-02
-1.575127989053726196e-01 1.794061623513698578e-02 6.814869642257690430e-01
-4.665109515190124512e-02 -1.261203922331333160e-02 -3.512090742588043213e-01
5.047593116760253906e-01 1.000915095210075378e-01 2.891149185597896576e-02
-6.920759081840515137e-01 1.151240617036819458e-01 1.588327623903751373e-02
2.117463797330856323e-01 -1.052643451839685440e-02 1.094372421503067017e-01
2.298666983842849731e-01 -8.901296183466911316e-03 1.080558747053146362e-01
2.934097051620483398e-01 -8.684609085321426392e-03 -8.487548679113388062e-02
4.659455120563507080e-01 1.004436165094375610e-01 -1.410058233886957169e-02
1.638588756322860718e-01 -2.412344887852668762e-02 -8.874873071908950806e-02
-6.528604030609130859e-02 9.323883056640625000e-02 -3.352101892232894897e-02
-9.367184340953826904e-02 1.428404729813337326e-02 5.879058837890625000e-01
3.647533953189849854e-01 -1.329808235168457031e-01 -2.592260539531707764e-01
-1.154487356543540955e-01 3.096883185207843781e-02 -7.166761755943298340e-01
-9.453857690095901489e-02 1.618004776537418365e-02 -6.928949356079101562e-01
4.066820442676544189e-01 -7.052122801542282104e-02 -2.680376917123794556e-02
3.785670995712280273e-01 -7.504454255104064941e-02 4.318564757704734802e-02
7.672420889139175415e-02 7.377201225608587265e-03 9.467554092407226562e-02
1.491467747837305069e-02 -1.525366902351379395e-01 1.571080535650253296e-01
-2.665056288242340088e-01 3.771317005157470703e-02 -8.687623739242553711e-01
-5.607103705406188965e-01 -3.449726849794387817e-02 3.931239247322082520e-02
2.889134883880615234e-01 9.462019801139831543e-02 -3.016239404678344727e-02
2.794605791568756104e-01 9.164852090179920197e-03 -8.273571729660034180e-02
1.846606731414794922e-01 -3.284505009651184082e-02 -6.997834891080856323e-02
7.620958983898162842e-02 -9.443009272217750549e-03 -2.386680096387863159e-01
6.125874519348144531e-01 7.685198634862899780e-02 -5.713973566889762878e-02
2.770228683948516846e-01 -1.005863472819328308e-01 -2.168911099433898926e-01
-6.608190536499023438e-01 1.344632357358932495e-01 -9.640219504944980145e-04
1.741243451833724976e-01 -5.876604840159416199e-02 2.778831422328948975e-01
1.384254097938537598e-01 -5.072160437703132629e-02 -1.326004564762115479e-01
-2.111424654722213745e-01 2.939786203205585480e-02 -8.535672426223754883e-01
3.045690059661865234e-01 -4.660457745194435120e-02 -8.143559843301773071e-02
-2.189477160573005676e-02 2.664288273081183434e-03 4.346279799938201904e-01
2.571690678596496582e-01 -1.164585575461387634e-01 2.403965443372726440e-01
-9.733297862112522125e-03 2.691380446776747704e-03 5.577595233917236328e-01
2.771583199501037598e-01 -9.392327815294265747e-02 -3.125306665897369385e-01
-1.020142287015914917e-01 3.883144585415720940e-03 5.708148479461669922e-01
-6.566207408905029297e-01 6.758867949247360229e-02 6.184768676757812500e-02
-2.317817509174346924e-01 2.601215429604053497e-02 8.309457898139953613e-01
8.745061159133911133e-01 8.034604042768478394e-02 5.401114933192729950e-03
-2.251774445176124573e-02 -1.423717848956584930e-02 3.833547830581665039e-01
3.556526005268096924e-01 -1.183545514941215515e-01 -2.379637807607650757e-01
-1.767978072166442871e-01 -2.011477202177047729e-02 -7.588303089141845703e-02
-1.246578618884086609e-01 -2.967601828277111053e-02 -7.192851603031158447e-02
2.084419131278991699e-01 -6.838146597146987915e-02 3.969159349799156189e-02
3.388865888118743896e-01 -1.046492084860801697e-01 -3.091178834438323975e-01
5.307841300964355469e-02 8.822797238826751709e-02 -4.240512102842330933e-02
-4.526972025632858276e-02 -8.411824703216552734e-02 7.509259134531021118e-02
2.204137891530990601e-01 -1.132895275950431824e-01 -2.709270715713500977e-01
-9.150995016098022461e-01 7.969598472118377686e-02 -1.642636358737945557e-01
-1.305354535579681396e-01 1.076290849596261978e-02 6.476569175720214844e-01
-6.235762238502502441e-01 -1.978974789381027222e-02 3.476199880242347717e-02
2.883446812629699707e-01 -1.148334145545959473e-01 -3.069510459899902344e-01
2.365568578243255615e-01 -3.097613155841827393e-02 -1.749895513057708740e-01
1.864483356475830078e-01 -8.647470921277999878e-02 2.146292850375175476e-02
-7.124489545822143555e-02 2.647261135280132294e-02 -6.481494903564453125e-01
5.931128263473510742e-01 -7.322980463504791260e-02 -1.301715336740016937e-02
-8.753105998039245605e-01 8.814671635627746582e-02 2.570271492004394531e-01
6.298681497573852539e-01 9.388887882232666016e-02 4.407947883009910583e-02
3.715248107910156250e-01 9.191162884235382080e-02 -3.674421459436416626e-02
8.680009096860885620e-02 -3.609532490372657776e-02 2.144484519958496094e-01
4.793212935328483582e-02 -2.837590686976909637e-02 -1.445181518793106079e-01
-1.756106130778789520e-02 4.776975605636835098e-03 -5.619086027145385742e-01
1.897753030061721802e-02 2.041319152340292931e-03 5.382036566734313965e-01
2.654031217098236084e-01 -8.568922430276870728e-02 -3.106617629528045654e-01
2.959828674793243408e-01 -1.448094751685857773e-02 9.039600938558578491e-02
-2.394470125436782837e-01 4.418664798140525818e-02 8.847108483314514160e-01
1.503160297870635986e-01 9.513483196496963501e-02 -2.891645021736621857e-02
-9.521572291851043701e-02 2.327649854123592377e-02 6.515030860900878906e-01
-2.887700498104095459e-01 1.012832745909690857e-01 -1.150035392493009567e-02
-2.384494058787822723e-02 -2.366299368441104889e-02 2.729806303977966309e-01
-1.253620982170104980e-01 1.051913946866989136e-02 5.988214015960693359e-01
-1.650472171604633331e-02 -8.669138699769973755e-02 -6.984292715787887573e-02
1.120981276035308838e-01 -1.204323489218950272e-02 -1.811109185218811035e-01
2.368818819522857666e-01 -7.222764194011688232e-02 7.845121622085571289e-02
8.881572484970092773e-01 4.673270136117935181e-02 4.730267450213432312e-02
1.740701794624328613e-01 -1.133437156677246094e-01 -2.843886613845825195e-01
-1.669115424156188965e-01 2.628301084041595459e-02 -8.146722316741943359e-01
6.463943049311637878e-03 -3.447018936276435852e-02 -6.870532780885696411e-02
2.794605791568756104e-01 9.164852090179920197e-03 -8.273571729660034180e-02
5.925394594669342041e-02 7.292456179857254028e-02 7.235693186521530151e-02
-1.388236880302429199e-01 -4.674000665545463562e-02 7.146310806274414062e-02
7.320307195186614990e-02 -1.496849581599235535e-02 -7.802280038595199585e-02
9.541334211826324463e-02 -1.506948620080947876e-01 -1.476059406995773315e-01
1.726075410842895508e-01 -9.524265304207801819e-03 -8.763822168111801147e-02
-2.129030376672744751e-01 4.703064635396003723e-02 -8.682206273078918457e-01
-1.329460889101028442e-01 -6.637713313102722168e-02 -7.739983499050140381e-02
-8.124447464942932129e-01 2.655579745769500732e-01 1.276842132210731506e-02
9.592796862125396729e-02 -1.249363943934440613e-01 1.825144290924072266e-01
1.513723731040954590e-01 -6.878775358200073242e-02 9.334833920001983643e-02
-1.772041022777557373e-01 -5.345724895596504211e-02 7.070470601320266724e-02
1.894548535346984863e-01 -2.156962873414158821e-03 -1.849300116300582886e-01
-7.756352424621582031e-01 8.879677951335906982e-02 -2.479942701756954193e-02
8.970142602920532227e-01 -5.039656907320022583e-02 6.349113769829273224e-03
-1.673178076744079590e-01 -6.136627495288848877e-02 -5.841276049613952637e-02
6.463943049311637878e-03 -3.447018936276435852e-02 -6.870532780885696411e-02
1.446009427309036255e-01 -2.523396722972393036e-02 -2.668642103672027588e-01
1.104142330586910248e-02 1.198176480829715729e-02 4.796985387802124023e-01
-4.564304649829864502e-01 4.039465263485908508e-02 8.790411800146102905e-02
-6.563816219568252563e-02 -7.455700635910034180e-02 -2.860019914805889130e-03
-8.785608410835266113e-01 7.612067461013793945e-02 -1.576547175645828247e-01
3.433286249637603760e-01 -6.775850057601928711e-02 -2.909433841705322266e-01
-1.756106130778789520e-02 4.776975605636835098e-03 -5.619086027145385742e-01
1.411339789628982544e-01 -2.563244896009564400e-03 -2.306777387857437134e-01
-2.480060905218124390e-01 -3.019065037369728088e-02 8.394961059093475342e-02
-6.208676695823669434e-01 -1.060770079493522644e-02 -3.882981464266777039e-02
1.924838684499263763e-02 -5.921870470046997070e-03 -3.189499676227569580e-01
-1.543708592653274536e-01 1.135879568755626678e-02 6.547533273696899414e-01
-1.466243565082550049e-01 3.096883185207843781e-02 -7.401053309440612793e-01
-6.992807388305664062e-01 1.772857010364532471e-01 7.152908365242183208e-04
3.674574196338653564e-02 -7.980383001267910004e-03 -2.871784567832946777e-01
-9.014753699302673340e-01 8.042729645967483521e-02 -1.892095357179641724e-01
5.229067206382751465e-01 9.332008659839630127e-02 -3.330433368682861328e-02
1.905878819525241852e-02 -1.735203526914119720e-02 -3.356618583202362061e-01
6.947655081748962402e-01 -4.156664013862609863e-02 7.539053261280059814e-02
-5.445177108049392700e-02 -9.226322174072265625e-03 -5.282952785491943359e-01
-2.230563433840870857e-03 -3.186996281147003174e-02 1.901796758174896240e-01
9.470454417169094086e-03 -2.572150528430938721e-02 8.573726564645767212e-02
7.948695868253707886e-02 -1.203047260642051697e-01 -1.383967995643615723e-01
7.369920015335083008e-01 8.007518202066421509e-02 -5.012454092502593994e-02
-1.088939979672431946e-01 -7.287769764661788940e-02 -1.588823646306991577e-02
9.181094169616699219e-02 -2.298586070537567139e-02 1.401794850826263428e-01
1.745848059654235840e-01 -1.385797839611768723e-02 3.026936054229736328e-01
3.372343480587005615e-01 -8.019082993268966675e-02 -2.135954611003398895e-02
7.913801074028015137e-01 -4.980069026350975037e-02 -4.408443346619606018e-02
-7.968433499336242676e-01 8.365049958229064941e-02 -1.022644862532615662e-01
2.237182408571243286e-01 -6.269346922636032104e-02 -2.340363711118698120e-01
-4.716796875000000000e-01 1.010665893554687500e-01 -1.266503799706697464e-02
1.437612920999526978e-01 -2.590337302535772324e-03 2.434030473232269287e-01
1.004783734679222107e-01 -2.100860327482223511e-02 -8.942586928606033325e-02
7.011530548334121704e-02 -5.473028123378753662e-02 1.038034185767173767e-01
1.503160297870635986e-01 9.513483196496963501e-02 -2.891645021736621857e-02
2.649155855178833008e-01 -5.948962643742561340e-03 -8.075845986604690552e-02
5.529943853616714478e-02 -3.046150133013725281e-02 2.312686592340469360e-01
-8.670223951339721680e-01 6.645108014345169067e-02 -6.309858709573745728e-02
5.961735248565673828e-01 1.171091385185718536e-02 9.524434059858322144e-02
7.285095751285552979e-02 -1.602482981979846954e-02 -3.181644976139068604e-01
1.692218482494354248e-01 -8.026757859624922276e-04 2.876339852809906006e-01
1.650235652923583984e-01 9.261585772037506104e-02 4.719432815909385681e-02
4.890225529670715332e-01 2.259935438632965088e-02 9.432342648506164551e-02
-3.031842224299907684e-02 -8.614968508481979370e-02 6.006003171205520630e-02
-8.602238893508911133e-01 9.147825837135314941e-02 -1.763167679309844971e-01
-2.295607328414916992e-01 -5.594913661479949951e-02 -4.909528419375419617e-02
6.604749560356140137e-01 1.022312790155410767e-01 -5.035648937337100506e-04
-2.576485872268676758e-01 3.614220023155212402e-02 -8.662975430488586426e-01
8.847483433783054352e-03 -4.852765798568725586e-02 2.260411381721496582e-01
3.726082444190979004e-01 -7.000660896301269531e-02 -2.927852272987365723e-01
-2.315379977226257324e-01 2.682472392916679382e-02 8.408049941062927246e-01
7.062993198633193970e-02 -2.752850065007805824e-03 -2.927581369876861572e-01
-6.584626436233520508e-01 4.640767723321914673e-02 -5.364568531513214111e-02
-9.403162002563476562e-01 9.080111980438232422e-02 -2.397243529558181763e-01
-8.773148655891418457e-01 3.503090739250183105e-01 1.046613790094852448e-02
-3.855472207069396973e-01 9.724750369787216187e-02 -2.439314126968383789e-02
-7.614739984273910522e-02 2.178678475320339203e-02 -6.088210344314575195e-01
-4.782615303993225098e-01 9.724750369787216187e-02 -2.431188523769378662e-02
1.433279216289520264e-01 -3.796424344182014465e-02 7.820744067430496216e-02
3.045690059661865234e-01 -4.660457745194435120e-02 -8.143559843301773071e-02
-8.234415054321289062e-01 8.427346497774124146e-02 -1.007747799158096313e-01
1.770225167274475098e-01 -8.257436007261276245e-02 3.083003461360931396e-01
3.918345272541046143e-02 -1.487988829612731934e-01 1.494969725608825684e-01
-4.434293508529663086e-01 9.342842549085617065e-02 -3.368353471159934998e-02
-4.526972025632858276e-02 -8.411824703216552734e-02 7.509259134531021118e-02
2.069792747497558594e-01 2.387238480150699615e-02 -8.197731524705886841e-02
-1.682974956929683685e-02 -4.898811504244804382e-02 -2.082507908344268799e-01
-4.559474810957908630e-02 -7.425906509160995483e-02 1.742715947329998016e-02
-1.897447705268859863e-01 2.449535392224788666e-02 -7.973102927207946777e-01
7.926569320261478424e-03 -1.545603480190038681e-02 3.708682656288146973e-01
3.356634080410003662e-01 -1.354727298021316528e-01 2.960576415061950684e-01
-8.752564191818237305e-01 8.034604042768478394e-02 1.276929974555969238e-01
-1.924804300069808960e-01 2.471204102039337158e-02 8.153443932533264160e-01
4.483398497104644775e-01 -4.208127036690711975e-02 -6.285481899976730347e-02
-1.669115424156188965e-01 2.628301084041595459e-02 -8.146722316741943359e-01
-3.535636141896247864e-02 -1.859797351062297821e-02 -3.229857683181762695e-01
7.845313288271427155e-03 -1.545603480190038681e-02 2.817563712596893311e-01
2.503163814544677734e-01 -1.181649565696716309e-01 3.169406950473785400e-01
1.339833587408065796e-01 -8.671846985816955566e-02 6.642516702413558960e-02
-1.973287612199783325e-01 4.870995879173278809e-02 -7.539548724889755249e-02
-8.148328214883804321e-02 2.758312411606311798e-02 6.973862648010253906e-01
1.002345904707908630e-01 -5.921870470046997070e-03 9.294205904006958008e-02
-9.453857690095901489e-02 1.618004776537418365e-02 -6.928949356079101562e-01
1.956303864717483521e-01 -4.974651709198951721e-02 -8.197731524705886841e-02
1.478241384029388428e-01 -8.707059919834136963e-02 3.904153779149055481e-02
9.311106055974960327e-02 -4.072698205709457397e-02 -1.744478493928909302e-01
4.053316544741392136e-03 -2.008769102394580841e-02 -3.073573112487792969e-01
5.054093599319458008e-01 -5.562411248683929443e-02 -4.920362681150436401e-02
-7.038039565086364746e-01 1.596529334783554077e-01 1.387893501669168472e-02
-9.486360847949981689e-02 2.495581097900867462e-02 -8.184188604354858398e-02
-6.928343176841735840e-01 -3.267470747232437134e-03 2.679880708456039429e-02
-6.313769221305847168e-01 -1.632277294993400574e-02 -2.623496949672698975e-02
6.838182359933853149e-02 -9.354406595230102539e-02 -1.885594874620437622e-01
6.429504752159118652e-01 -9.090901352465152740e-03 9.250868111848831177e-02
1.970884390175342560e-02 -8.777481317520141602e-02 6.271443516016006470e-02
2.229869216680526733e-01 6.092560663819313049e-02 -6.940954923629760742e-02
2.429761737585067749e-01 -4.416686296463012695e-02 7.344036549329757690e-02
-7.060791850090026855e-01 3.012917563319206238e-02 -3.799016028642654419e-02
1.678946465253829956e-01 -3.679955378174781799e-02 2.167778164148330688e-01
-2.723832130432128906e-01 -5.229256674647331238e-02 6.615431606769561768e-02
-2.340298742055892944e-01 5.678149312734603882e-02 8.427463471889495850e-02
-9.703046828508377075e-02 6.412171572446823120e-02 -6.694475561380386353e-02
7.325229048728942871e-01 4.749110341072082520e-02 -7.406828552484512329e-02
-5.672921538352966309e-01 -8.359583094716072083e-03 6.964836269617080688e-02
-2.224101126194000244e-01 5.518343672156333923e-02 -8.749920725822448730e-01
2.285936772823333740e-01 -2.629031054675579071e-02 2.134462743997573853e-01
7.535142898559570312e-01 7.620193064212799072e-02 -5.275185406208038330e-02
1.767516583204269409e-01 -1.626860909163951874e-02 2.833544313907623291e-01
-6.390963196754455566e-01 1.051023602485656738e-01 1.683127321302890778e-02
4.483398497104644775e-01 -4.208127036690711975e-02 -6.285481899976730347e-02
-1.303187757730484009e-01 2.928951941430568695e-02 7.289140820503234863e-01
1.930301636457443237e-01 3.803819417953491211e-02 9.196697175502777100e-02
-8.568923473358154297e-01 9.990190714597702026e-02 1.672293245792388916e-02
-1.919387280941009521e-01 3.868825361132621765e-02 8.814335465431213379e-01
3.211408853530883789e-02 -5.813532043248414993e-03 -8.509215712547302246e-02
6.910005807876586914e-01 9.166785329580307007e-02 4.936118796467781067e-02
2.346918685361742973e-03 6.379668414592742920e-02 -6.721561402082443237e-02
-8.345195055007934570e-01 7.579564303159713745e-02 -1.560566574335098267e-01
1.665132790803909302e-01 -5.244727246463298798e-03 -1.832777708768844604e-01
9.343608468770980835e-02 6.872627884149551392e-02 -6.339652836322784424e-02
7.792456746101379395e-01 1.571959070861339569e-02 -7.542257755994796753e-02
-1.416947543621063232e-01 -6.892318278551101685e-02 5.182598531246185303e-02
-1.333794593811035156e-01 1.198176480829715729e-02 -6.468493342399597168e-01
-2.241165041923522949e-01 3.581716865301132202e-02 8.828961253166198730e-01
3.674574196338653564e-02 -7.980383001267910004e-03 -2.871784567832946777e-01
1.532412767410278320e-01 -8.625801652669906616e-02 -5.017871409654617310e-02
1.228736620396375656e-02 -1.697283424437046051e-02 -2.456561326980590820e-01
-9.279922842979431152e-01 8.638615161180496216e-02 2.169403284788131714e-01
4.094402119517326355e-02 6.295703351497650146e-02 -6.783857941627502441e-02
3.045690059661865234e-01 -4.660457745194435120e-02 -8.143559843301773071e-02
-4.261532425880432129e-02 -4.441063478589057922e-02 2.226283252239227295e-01
-9.486360847949981689e-02 2.495581097900867462e-02 -8.184188604354858398e-02
1.970659345388412476e-01 -7.003369182348251343e-02 -2.948166429996490479e-01
6.017486006021499634e-02 -5.681587383151054382e-02 -1.827360689640045166e-01
-1.671824008226394653e-01 -1.943762972950935364e-02 -7.615388929843902588e-02
7.057575881481170654e-02 -6.824603676795959473e-02 -1.852279454469680786e-01
-8.477373719215393066e-01 2.783153355121612549e-01 3.814854062511585653e-05
-5.003905296325683594e-01 3.910226747393608093e-03 8.468092232942581177e-02
6.017486006021499634e-02 -5.681587383151054382e-02 -1.827360689640045166e-01
1.866379380226135254e-01 5.277280882000923157e-02 -7.368908822536468506e-02
-3.606013059616088867e-01 7.549770176410675049e-02 7.054219394922256470e-02
-5.914215929806232452e-03 -3.926435858011245728e-02 -1.615550518035888672e-01
-9.773468971252441406e-02 -4.782343283295631409e-02 7.062344998121261597e-02
1.897753030061721802e-02 2.041319152340292931e-03 5.382036566734313965e-01
-4.526972025632858276e-02 -8.411824703216552734e-02 7.509259134531021118e-02
-7.349301129579544067e-02 -1.307249628007411957e-02 -3.802449405193328857e-01
-2.052377909421920776e-01 3.706311434507369995e-02 -8.021674305200576782e-02
3.690871000289916992e-01 -8.964373916387557983e-02 2.428342550992965698e-01
-5.786456540226936340e-02 -1.196197792887687683e-02 3.839506506919860840e-01
2.524020075798034668e-01 -1.591649092733860016e-02 -1.562191843986511230e-01
5.054093599319458008e-01 -5.562411248683929443e-02 -4.920362681150436401e-02
-8.847139030694961548e-02 2.850403636693954468e-02 7.074350714683532715e-01
-8.602238893508911133e-01 9.147825837135314941e-02 -1.763167679309844971e-01
-8.140427470207214355e-01 5.989634245634078979e-02 -2.255131490528583527e-02
9.592796862125396729e-02 -1.249363943934440613e-01 1.825144290924072266e-01
2.524020075798034668e-01 -1.591649092733860016e-02 -1.562191843986511230e-01
-9.182413816452026367e-01 3.045071959495544434e-01 7.270027417689561844e-03
1.722283512353897095e-01 -1.750680850818753242e-03 -2.063006162643432617e-01
-2.620139718055725098e-02 -1.857089065015316010e-02 3.058355748653411865e-01
1.564915627241134644e-01 -6.783975660800933838e-02 -2.473625242710113525e-01
-5.168902501463890076e-02 -8.308900147676467896e-02 -7.428497821092605591e-02
4.613409638404846191e-01 5.320618301630020142e-02 8.568309247493743896e-02
7.190296053886413574e-02 -1.453512161970138550e-02 9.036891162395477295e-02
6.550577878952026367e-01 -5.459484830498695374e-02 -5.058499798178672791e-02
7.285095751285552979e-02 -1.602482981979846954e-02 -3.181644976139068604e-01
1.973909586668014526e-01 -8.604133874177932739e-02 -1.017315592616796494e-02
-3.494420051574707031e-01 -6.932946294546127319e-02 -2.404102869331836700e-02
-4.362516105175018311e-01 4.822241514921188354e-02 -7.349948585033416748e-02
1.478241384029388428e-01 -8.707059919834136963e-02 3.904153779149055481e-02
-3.489590436220169067e-02 -2.509080804884433746e-03 -5.254241824150085449e-01
9.682179987430572510e-02 1.039149821735918522e-03 -2.983919680118560791e-01
2.375048547983169556e-01 -7.492844946682453156e-03 1.702175140380859375e-01
-5.496052503585815430e-01 -8.982552215456962585e-03 -6.044419109821319580e-02
2.158092260360717773e-01 2.844986133277416229e-02 9.356502443552017212e-02
-8.631491065025329590e-01 1.875512003898620605e-01 5.103172268718481064e-03
-3.509317040443420410e-01 -1.006597839295864105e-02 -8.013548702001571655e-02
-8.389886617660522461e-01 6.347166001796722412e-02 -5.768144875764846802e-02
-1.351400315761566162e-01 -1.824586465954780579e-02 -5.325477123260498047e-01
-1.544250398874282837e-01 3.207934275269508362e-02 -7.553274631500244141e-01
1.833876520395278931e-01 -2.517979405820369720e-02 2.711117267608642578e-01
-7.907761335372924805e-01 1.909910738468170166e-01 -1.803678344003856182e-03
2.092273980379104614e-01 -9.885286539793014526e-02 -3.032132089138031006e-01
3.240978121757507324e-01 -7.864695042371749878e-02 5.239478498697280884e-02
4.969586431980133057e-01 7.436010986566543579e-02 7.124642282724380493e-02
6.702257990837097168e-01 -4.270423948764801025e-02 7.452379167079925537e-02
2.019142657518386841e-01 8.592569082975387573e-02 -4.538454487919807434e-02
-8.178889155387878418e-01 7.121816277503967285e-02 1.335976719856262207e-01
3.485832512378692627e-01 1.012291014194488525e-01 2.029824256896972656e-02
2.057333439588546753e-01 -6.301070563495159149e-03 -1.336838901042938232e-01
-4.326537996530532837e-02 -7.492844946682453156e-03 -4.375311434268951416e-01
5.235567688941955566e-01 -2.098151110112667084e-02 -7.553091645240783691e-02
4.911893904209136963e-01 -5.987655743956565857e-02 -4.370523244142532349e-02
-2.126050889492034912e-01 2.170552872121334076e-02 -7.543253302574157715e-01
-7.968433499336242676e-01 8.365049958229064941e-02 -1.022644862532615662e-01
-1.951889991760253906e-01 2.796232327818870544e-02 -7.715247273445129395e-01
2.369043789803981781e-02 9.578934404999017715e-04 -5.122876763343811035e-01
1.846290379762649536e-02 -8.452453464269638062e-02 -7.837492227554321289e-02
-6.447302103042602539e-01 -2.003351598978042603e-02 -2.237048931419849396e-03
2.769416272640228271e-01 -3.132824972271919250e-02 -1.240684688091278076e-01
8.847483433783054352e-03 -4.852765798568725586e-02 2.260411381721496582e-01
-2.622531652450561523e-01 1.200885698199272156e-02 9.529851377010345459e-02
-6.713553667068481445e-01 4.838492721319198608e-02 6.219980120658874512e-02
3.810318708419799805e-01 1.618004776537418365e-02 -8.297948539257049561e-02
1.891298294067382812e-01 -1.203047260642051697e-01 -2.704665958881378174e-01
2.854465246200561523e-01 -2.824047580361366272e-02 9.849462658166885376e-02
-7.067834138870239258e-01 1.620713435113430023e-02 -3.327724710106849670e-02
-4.911588877439498901e-02 -2.125237323343753815e-02 -4.243945777416229248e-01
4.374513924121856689e-01 -5.486571043729782104e-02 -5.020580068230628967e-02
-9.453857690095901489e-02 1.618004776537418365e-02 -6.928949356079101562e-01
1.424611806869506836e-01 -1.307249628007411957e-02 -1.433805525302886963e-01
2.330628037452697754e-01 -5.948962643742561340e-03 -8.433376997709274292e-02
1.371523886919021606e-01 -4.947565495967864990e-02 1.542369574308395386e-01
5.421917438507080078e-01 -3.276379406452178955e-02 -7.003252208232879639e-02
2.049207836389541626e-01 -8.896658569574356079e-02 2.980348765850067139e-01
-2.380385398864746094e-01 -4.779634252190589905e-02 -5.862944945693016052e-02
8.504539728164672852e-01 8.430055528879165649e-02 -1.315258163958787918e-02
3.346070647239685059e-01 -6.618752330541610718e-02 -2.524816989898681641e-01
-2.945167757570743561e-02 -3.625784069299697876e-02 3.367132544517517090e-01
4.581448733806610107e-01 -5.245507881045341492e-02 6.550426036119461060e-02
2.552188932895660400e-01 -5.578662455081939697e-02 -9.619729965925216675e-02
2.778037637472152710e-02 -1.201615203171968460e-02 -2.670267224311828613e-01
2.353921681642532349e-01 -5.521782860159873962e-02 -2.878556251525878906e-01
2.964974939823150635e-01 -1.033683959394693375e-02 1.084892451763153076e-01
-9.591995179653167725e-02 8.677314035594463348e-03 -6.069250702857971191e-01
-3.725235909223556519e-02 -8.847132325172424316e-03 -3.628017604351043701e-01
2.779437899589538574e-01 -9.283982962369918823e-02 3.282625079154968262e-01
6.128537282347679138e-02 -1.559146493673324585e-02 2.285600900650024414e-01
-4.911588877439498901e-02 -2.125237323343753815e-02 -4.243945777416229248e-01
4.116116166114807129e-01 9.719334542751312256e-02 3.617045655846595764e-02
4.541316255927085876e-02 -1.268323808908462524e-01 1.920756697654724121e-01
-8.386636972427368164e-01 8.191701024770736694e-02 -1.949063315987586975e-02
1.624233424663543701e-01 -1.074661090970039368e-01 2.546165287494659424e-01
-5.686239525675773621e-02 -1.670197211205959320e-02 8.950217813253402710e-02
5.750466585159301758e-01 -5.459484830498695374e-02 -5.053082853555679321e-02
-4.362516105175018311e-01 4.822241514921188354e-02 -7.349948585033416748e-02
8.504539728164672852e-01 8.430055528879165649e-02 -1.315258163958787918e-02
6.799766421318054199e-01 -6.819186359643936157e-02 4.009787738323211670e-02
4.584969580173492432e-01 1.111502666026353836e-02 9.516308456659317017e-02
2.537562847137451172e-01 -4.538572207093238831e-02 -2.700603306293487549e-01
3.954143822193145752e-01 -5.630125477910041809e-02 7.273613661527633667e-02
-8.847364187240600586e-01 3.298864662647247314e-01 1.070990972220897675e-02
1.781284622848033905e-02 -1.529971510171890259e-01 -1.765605211257934570e-01
-7.404509782791137695e-01 1.706497222185134888e-01 -1.939106499776244164e-03
1.017468236386775970e-02 -7.165884226560592651e-02 1.014469563961029053e-01
-7.802398800849914551e-01 5.493966862559318542e-02 -2.842891030013561249e-02
1.217406317591667175e-01 -1.667489111423492432e-02 -3.362035751342773438e-01
-2.105511538684368134e-02 -2.155031636357307434e-02 -2.635326683521270752e-01
1.686801165342330933e-01 -4.795885458588600159e-02 2.739286124706268311e-01
4.702521264553070068e-01 1.022854447364807129e-01 1.222670730203390121e-02
-6.833813786506652832e-01 1.417570840567350388e-02 -3.972364217042922974e-02
-4.440793991088867188e-01 1.028271615505218506e-01 1.473690150305628777e-03
5.968731641769409180e-02 -5.064034834504127502e-02 1.149085536599159241e-01
-5.445177108049392700e-02 -9.226322174072265625e-03 -5.282952785491943359e-01
-8.500667214393615723e-01 2.588678002357482910e-01 3.902626340277493000e-04
-2.767710983753204346e-01 -6.415610760450363159e-02 5.079672858119010925e-02
4.210870340466499329e-02 -1.341996788978576660e-01 -1.629364192485809326e-01
1.965512931346893311e-01 -9.930557571351528168e-03 1.287222504615783691e-01
3.541899621486663818e-01 -9.508795291185379028e-02 -2.200330644845962524e-01
2.027539312839508057e-01 -6.905861198902130127e-02 -2.831156253814697266e-01
-2.417221963405609131e-01 9.424100071191787720e-02 4.399822279810905457e-02
2.060312926769256592e-01 -3.159132087603211403e-03 1.748762726783752441e-01
-8.242540359497070312e-01 1.433202624320983887e-01 3.505116794258356094e-03
-2.912619411945343018e-01 4.348241910338401794e-02 -7.758942991495132446e-02
-5.532076358795166016e-01 9.034065902233123779e-02 -3.742135688662528992e-02
-1.795876473188400269e-01 -2.255248650908470154e-02 8.706445991992950439e-02
-5.092475414276123047e-01 6.347939372062683105e-03 8.470800518989562988e-02
1.109334453940391541e-01 -7.844952866435050964e-03 -8.777365088462829590e-02
-7.656947970390319824e-01 2.327843010425567627e-01 -6.660789949819445610e-04
-2.250645011663436890e-01 3.178140521049499512e-02 -8.301923274993896484e-01
-5.757970809936523438e-01 -3.327841311693191528e-02 3.259514644742012024e-02
-8.517460823059082031e-01 2.060507237911224365e-01 3.342602634802460670e-03
2.729870975017547607e-01 -4.779634252190589905e-02 -9.546598047018051147e-02
-2.250645011663436890e-01 3.178140521049499512e-02 -8.301923274993896484e-01
-2.723561227321624756e-01 8.652158081531524658e-02 -4.505952075123786926e-02
-9.307595342397689819e-02 -1.100619323551654816e-03 -5.037556290626525879e-01
2.829275429248809814e-01 -7.564043253660202026e-02 3.252288997173309326e-01
-9.063824266195297241e-02 4.885314032435417175e-03 5.811073780059814453e-01
6.803829073905944824e-01 -7.398819923400878906e-02 1.948567107319831848e-02
3.917888272553682327e-03 1.553780515678226948e-03 -5.276722908020019531e-01
2.188698947429656982e-01 -7.596545666456222534e-02 3.175094723701477051e-01
2.102024704217910767e-01 -5.244727246463298798e-03 -2.044046223163604736e-01
4.592553377151489258e-01 8.524854481220245361e-02 5.843489244580268860e-02
8.073289692401885986e-02 -1.017432659864425659e-02 -8.000005781650543213e-02
1.241241693496704102e-01 -3.140950575470924377e-02 -2.279691696166992188e-01
3.755374345928430557e-03 -3.317007422447204590e-02 3.361986279487609863e-01
-2.480060905218124390e-01 -3.019065037369728088e-02 8.394961059093475342e-02
1.293517202138900757e-01 2.406198531389236450e-02 9.413383156061172485e-02
-7.208409309387207031e-01 3.042711876332759857e-02 4.665261507034301758e-02
1.043516173958778381e-01 -1.196197792887687683e-02 -3.767508566379547119e-01
3.332256972789764404e-01 -9.324612468481063843e-02 -2.403744161128997803e-01
2.283769696950912476e-01 8.503185957670211792e-02 -4.654923453927040100e-02
8.807311952114105225e-02 -1.307868957519531250e-01 1.881482601165771484e-01
-1.698367893695831299e-01 2.379112318158149719e-02 -7.886970639228820801e-01
7.734718918800354004e-02 -3.839761018753051758e-02 2.782352268695831299e-01
-1.027997136116027832e-01 -1.398562919348478317e-03 -4.856624305248260498e-01
-8.773148655891418457e-01 3.503090739250183105e-01 1.046613790094852448e-02
2.188698947429656982e-01 -7.596545666456222534e-02 3.175094723701477051e-01
-4.982778429985046387e-01 -3.465978428721427917e-02 5.759523808956146240e-02
-9.369304776191711426e-01 3.494423627853393555e-01 7.161684334278106689e-03
-2.655034363269805908e-01 -6.117668002843856812e-02 5.458872392773628235e-02
2.060312926769256592e-01 -3.159132087603211403e-03 1.748762726783752441e-01
8.644798398017883301e-02 -1.391215249896049500e-02 2.099251300096511841e-01
1.239616572856903076e-01 -3.739544004201889038e-02 -8.915501832962036133e-02
-3.278547227382659912e-01 1.017166525125503540e-01 1.802304573357105255e-02
-1.757956445217132568e-01 3.178140521049499512e-02 7.893150448799133301e-01
-2.517214044928550720e-02 -1.951888576149940491e-02 3.290209174156188965e-01
1.930301636457443237e-01 3.803819417953491211e-02 9.196697175502777100e-02
3.541854023933410645e-02 -7.534249126911163330e-02 9.138938970863819122e-03
3.658910095691680908e-01 -1.219298765063285828e-01 -2.850657999515533447e-01
8.248850703239440918e-01 -9.443009272217750549e-03 7.660938799381256104e-02
1.384254097938537598e-01 -5.072160437703132629e-02 -1.326004564762115479e-01
2.939514517784118652e-01 -4.538572207093238831e-02 -2.789444327354431152e-01
1.678946465253829956e-01 -3.679955378174781799e-02 2.167778164148330688e-01
3.321693539619445801e-01 -1.281054019927978516e-01 2.758246362209320068e-01
-4.099785089492797852e-01 1.004977971315383911e-01 -1.572572253644466400e-02
-8.140427470207214355e-01 5.989634245634078979e-02 -2.255131490528583527e-02
8.097666501998901367e-02 -3.912892565131187439e-02 1.938633322715759277e-01
2.581712305545806885e-01 -8.598717302083969116e-02 -2.185975313186645508e-01
3.242332339286804199e-01 -6.718969345092773438e-02 -3.040616400539875031e-02
2.027268409729003906e-01 -9.692977368831634521e-02 -2.814904749393463135e-01
-5.994970798492431641e-01 9.819551557302474976e-02 -1.903017610311508179e-02
-6.112793684005737305e-01 -2.114402502775192261e-02 -2.756216563284397125e-02
-9.426772594451904297e-02 2.918118052184581757e-02 -6.937075257301330566e-01
6.664337515830993652e-01 5.136435478925704956e-02 -7.428497821092605591e-02
1.244988013058900833e-02 -1.344976276159286499e-01 1.784515678882598877e-01
-4.326537996530532837e-02 -7.492844946682453156e-03 -4.375311434268951416e-01
-7.566211223602294922e-01 6.227988749742507935e-02 6.192894652485847473e-02
1.144274920225143433e-01 -3.918309882283210754e-02 -1.894804090261459351e-01
-1.168030202388763428e-01 -1.913193613290786743e-03 5.487129092216491699e-01
-6.061872243881225586e-01 1.036939099431037903e-01 1.601870544254779816e-02
8.352272212505340576e-02 -1.340100914239883423e-01 -1.363112032413482666e-01
2.767791152000427246e-01 -7.016912102699279785e-02 2.367941439151763916e-01
9.679470956325531006e-02 -7.328398525714874268e-02 -1.269212551414966583e-02
8.122631907463073730e-01 9.112614393234252930e-02 -1.366721000522375107e-02
6.648898720741271973e-01 -7.569459825754165649e-02 6.430370733141899109e-03
9.456602334976196289e-01 -9.334670379757881165e-03 3.825605288147926331e-02
3.276414796710014343e-02 -4.522321000695228577e-02 -1.206285879015922546e-01
-1.893114000558853149e-01 3.906745091080665588e-02 8.616609573364257812e-01
2.579545378684997559e-01 -2.688619866967201233e-02 -7.309320569038391113e-02
-3.264462351799011230e-01 9.183036535978317261e-02 -3.834227100014686584e-02
6.450089812278747559e-01 -5.844102427363395691e-02 -4.557414725422859192e-02
1.757494956254959106e-01 -1.005321815609931946e-01 -2.315986603498458862e-01
6.184379458427429199e-01 -2.220036834478378296e-02 -7.501628994941711426e-02
-2.758772671222686768e-01 -6.756889820098876953e-02 -2.856433764100074768e-02
1.499639153480529785e-01 -1.900425553321838379e-02 8.852709084749221802e-02
-3.411808609962463379e-01 -2.071066014468669891e-02 -7.574760168790817261e-02
-7.205429673194885254e-01 1.397178620100021362e-01 1.479984819889068604e-02
8.709803223609924316e-02 -6.401629652827978134e-04 -8.143559843301773071e-02
-2.234122902154922485e-01 -4.714629054069519043e-02 7.124642282724380493e-02
6.802970916032791138e-02 -8.785607665777206421e-02 -4.086124151945114136e-02
-2.748479843139648438e-01 5.526469275355339050e-02 -8.816821575164794922e-01
-6.491993069648742676e-01 1.003623604774475098e-01 2.384646795690059662e-02
-8.356029391288757324e-01 2.547778785228729248e-01 -7.202508277259767056e-04
2.379382252693176270e-01 -5.158834159374237061e-02 -5.443116649985313416e-02
-7.017726302146911621e-01 4.405122250318527222e-02 -4.026535153388977051e-02
4.374513924121856689e-01 -5.486571043729782104e-02 -5.020580068230628967e-02
-7.257209718227386475e-02 -4.215475637465715408e-03 -5.214425921440124512e-01
5.054093599319458008e-01 -5.562411248683929443e-02 -4.920362681150436401e-02
-1.150153577327728271e-01 -4.513419233262538910e-03 -5.230948328971862793e-01
-7.442700266838073730e-01 2.218145877122879028e-01 1.165790855884552002e-02
7.095542550086975098e-01 7.476639002561569214e-02 7.086721807718276978e-02
3.420826792716979980e-01 -9.005001187324523926e-02 -2.182454019784927368e-01
4.558425545692443848e-01 2.184095419943332672e-02 -8.224816620349884033e-02
1.276994794607162476e-01 -8.750396966934204102e-02 4.218347743153572083e-02
-1.500642448663711548e-01 -9.110243991017341614e-04 9.359212219715118408e-02
2.102024704217910767e-01 -5.244727246463298798e-03 -2.044046223163604736e-01
-5.757700204849243164e-01 1.025563105940818787e-01 2.692545996978878975e-03
4.890225529670715332e-01 2.259935438632965088e-02 9.432342648506164551e-02
-8.506896495819091797e-01 9.960396587848663330e-02 -6.272816099226474762e-03
9.294087886810302734e-01 3.844448179006576538e-02 3.110543265938758850e-02
6.263469457626342773e-01 -1.377672143280506134e-02 9.069393575191497803e-02
-2.623344063758850098e-01 -7.331106811761856079e-02 2.059618383646011353e-02
-7.160158362239599228e-03 -2.897179313004016876e-02 2.471950501203536987e-01
-7.875528931617736816e-01 1.644200086593627930e-01 1.266007870435714722e-02
-1.992789357900619507e-01 2.433284185826778412e-02 7.698404788970947266e-01
-7.956019788980484009e-02 3.765900060534477234e-02 9.212948381900787354e-02
2.133985906839370728e-01 -8.753105252981185913e-02 -2.671621441841125488e-01
2.777000069618225098e-01 -6.152878701686859131e-02 3.171302974224090576e-01
1.080894395709037781e-01 -8.788315951824188232e-02 4.705890268087387085e-02
9.479036927223205566e-02 -6.960032880306243896e-02 3.673925623297691345e-02
8.352272212505340576e-02 -1.340100914239883423e-01 -1.363112032413482666e-01
1.241241693496704102e-01 -3.140950575470924377e-02 -2.279691696166992188e-01
-6.204614043235778809e-01 -2.653408050537109375e-02 5.256908480077981949e-04
-6.442155241966247559e-01 -1.804845058359205723e-03 -4.067163914442062378e-02
-1.322735194116830826e-02 -4.739005863666534424e-02 1.104664951562881470e-01
7.272682785987854004e-01 7.820627093315124512e-02 6.588345766067504883e-02
-4.911588877439498901e-02 -2.125237323343753815e-02 -4.243945777416229248e-01
4.229830577969551086e-02 -2.079191617667675018e-02 -2.999629080295562744e-01
-8.825153708457946777e-01 7.203073054552078247e-02 -1.112569421529769897e-01
2.941952049732208252e-01 -7.000660896301269531e-02 -2.211164832115173340e-01
1.866379380226135254e-01 5.277280882000923157e-02 -7.368908822536468506e-02
-9.164041280746459961e-02 1.463616453111171722e-02 6.935401558876037598e-01
5.225545763969421387e-01 -6.472489982843399048e-02 -3.636501356959342957e-02
-1.219493001699447632e-01 -6.700009852647781372e-02 -3.081245161592960358e-02
-4.260132610797882080e-01 -5.326765403151512146e-02 -3.690672665834426880e-02
3.789191842079162598e-01 4.681396111845970154e-02 -7.615388929843902588e-02
-8.039126992225646973e-01 1.057253256440162659e-01 2.638374688103795052e-03
-8.377698659896850586e-01 1.747667491436004639e-01 9.057682007551193237e-03
-4.933753311634063721e-01 8.887803554534912109e-02 5.277398601174354553e-02
1.144274920225143433e-01 -3.918309882283210754e-02 -1.894804090261459351e-01
-4.126103594899177551e-02 6.328677409328520298e-04 5.372015237808227539e-01
7.572520971298217773e-01 -7.138797640800476074e-02 -3.320476505905389786e-03
-5.799953937530517578e-01 1.769684627652168274e-02 -6.672807037830352783e-02
9.541334211826324463e-02 -1.506948620080947876e-01 -1.476059406995773315e-01
8.455785512924194336e-01 4.256150871515274048e-02 -5.732933431863784790e-02
5.868514627218246460e-02 -2.694036252796649933e-02 -1.405365616083145142e-01
-6.622816920280456543e-01 8.858009427785873413e-02 -3.287095949053764343e-02
6.017486006021499634e-02 -5.681587383151054382e-02 -1.827360689640045166e-01
-8.974666595458984375e-01 9.770796447992324829e-02 2.506890892982482910e-01
2.027539312839508057e-01 -6.905861198902130127e-02 -2.831156253814697266e-01
2.524020075798034668e-01 -1.591649092733860016e-02 -1.562191843986511230e-01
8.612882494926452637e-01 1.775101572275161743e-02 7.102973759174346924e-02
2.133985906839370728e-01 -8.224933594465255737e-02 -2.393993288278579712e-01
-1.924804300069808960e-01 2.471204102039337158e-02 8.153443932533264160e-01
1.220385730266571045e-01 -5.202171579003334045e-02 -1.261269897222518921e-01
7.913801074028015137e-01 -4.980069026350975037e-02 -4.408443346619606018e-02
-8.810527324676513672e-01 6.948468089103698730e-02 -8.300656825304031372e-02
-8.535608053207397461e-01 1.477623134851455688e-01 7.405455689877271652e-03
4.246669411659240723e-01 9.849345684051513672e-02 -2.081783115863800049e-02
2.082523256540298462e-01 -8.251245133578777313e-03 -1.149405911564826965e-01
4.034813493490219116e-02 -1.030975766479969025e-02 -4.085223674774169922e-01
4.270001780241727829e-03 8.836340159177780151e-02 -4.221552237868309021e-02
-5.167773962020874023e-01 4.681396111845970154e-02 -7.192851603031158447e-02
3.977933526039123535e-02 -2.184825949370861053e-02 -1.913763880729675293e-01
-2.514505200088024139e-02 -3.750378638505935669e-02 -6.637595593929290771e-02
3.844175934791564941e-01 1.025833860039710999e-01 9.978596121072769165e-03
-8.631491065025329590e-01 1.627406924962997437e-01 7.188769988715648651e-03
2.031601965427398682e-01 -1.109523978084325790e-02 -9.562849253416061401e-02
-7.214328739792108536e-03 -8.815402537584304810e-02 4.543375968933105469e-02
-8.500667214393615723e-01 2.588678002357482910e-01 3.902626340277493000e-04
-2.384494058787822723e-02 -2.366299368441104889e-02 2.729806303977966309e-01
2.301917225122451782e-01 -5.657210573554039001e-02 1.185651198029518127e-01
-4.782615303993225098e-01 9.724750369787216187e-02 -2.431188523769378662e-02
5.314928889274597168e-01 1.845524646341800690e-02 -8.268153667449951172e-02
3.187890052795410156e-01 -6.737930327653884888e-02 4.212930798530578613e-02
-5.291245412081480026e-03 9.334716945886611938e-02 4.543375968933105469e-02
-7.731704115867614746e-01 6.869919598102569580e-02 1.015011370182037354e-01
9.880580910248681903e-05 -4.755257070064544678e-02 -2.154555767774581909e-01
-7.817024588584899902e-01 3.514003008604049683e-02 -2.022194676101207733e-02
8.774312734603881836e-01 -5.416148528456687927e-02 1.214545127004384995e-02
1.186257749795913696e-01 -2.725757891312241554e-03 -2.500168979167938232e-01
-1.091919392347335815e-01 6.998001132160425186e-03 -5.872066617012023926e-01
7.297872304916381836e-01 -3.604115173220634460e-02 -6.583423912525177002e-02
2.697910070419311523e-01 -8.433493971824645996e-02 1.171208079904317856e-02
7.062993198633193970e-02 -2.752850065007805824e-03 -2.927581369876861572e-01
-1.542625278234481812e-01 -3.149076178669929504e-02 8.319120854139328003e-02
3.068983852863311768e-01 7.105565071105957031e-02 -6.160887330770492554e-02
7.404590249061584473e-01 -1.727077737450599670e-02 8.641440421342849731e-02
2.690867781639099121e-01 -3.482230752706527710e-02 1.444319486618041992e-01
-7.343837618827819824e-01 1.221392527222633362e-01 -3.347562393173575401e-03
-4.201943799853324890e-02 -2.046689018607139587e-02 3.132570385932922363e-01
1.049745976924896240e-01 -4.920480400323867798e-02 6.954002380371093750e-02
1.881501637399196625e-02 -2.306711673736572266e-02 -3.228774070739746094e-01
-8.077859282493591309e-01 8.400260657072067261e-02 -2.417645603418350220e-02
5.186272263526916504e-01 2.208472974598407745e-02 -8.222108334302902222e-02
3.311625868082046509e-02 -1.087662354111671448e-01 -1.360674351453781128e-01
2.588438242673873901e-02 -3.723292797803878784e-02 -9.213444590568542480e-02
-4.968468844890594482e-02 -1.645820401608943939e-02 3.607111275196075439e-01
4.014545083045959473e-01 -4.714629054069519043e-02 7.113807648420333862e-02
8.856112360954284668e-01 6.639691442251205444e-02 -2.420354261994361877e-02
-5.990366339683532715e-01 8.806546032428741455e-02 -3.804432600736618042e-02
5.787257477641105652e-02 -2.631739340722560883e-02 -2.545402348041534424e-01
3.755374345928430557e-03 -3.317007422447204590e-02 3.361986279487609863e-01
9.974705427885055542e-02 -5.551576241850852966e-02 -4.933905974030494690e-02
-9.399099349975585938e-01 8.920305967330932617e-02 -2.486084550619125366e-01
1.914862692356109619e-01 -6.640421599149703979e-02 2.658300101757049561e-01
-2.292402647435665131e-02 3.698060027090832591e-05 -5.154837369918823242e-01
2.418385744094848633e-01 -5.976821854710578918e-02 -8.460462093353271484e-02
-2.111424654722213745e-01 2.939786203205585480e-02 -8.535672426223754883e-01
-2.945167757570743561e-02 -3.625784069299697876e-02 3.367132544517517090e-01
7.948695868253707886e-02 -1.203047260642051697e-01 -1.383967995643615723e-01
-4.120099544525146484e-01 1.026375666260719299e-01 1.149539463222026825e-02
-5.496052503585815430e-01 -8.982552215456962585e-03 -6.044419109821319580e-02
-7.809757441282272339e-02 -8.081380277872085571e-02 6.994631141424179077e-02
-1.207304373383522034e-01 2.417032420635223389e-02 -7.587673664093017578e-01
8.292683959007263184e-02 -2.252540364861488342e-02 -2.822217941284179688e-01
-4.415920749306678772e-02 2.807498676702380180e-04 4.421307444572448730e-01
8.332545757293701172e-01 -3.059693239629268646e-02 -5.261642858386039734e-02
-5.133691430091857910e-02 2.067627198994159698e-02 -8.238359540700912476e-02
4.763193428516387939e-01 -1.393923442810773849e-02 -7.842908054590225220e-02
2.317085117101669312e-01 -2.431305497884750366e-02 -2.616366744041442871e-01
-8.310843259096145630e-02 4.342825338244438171e-02 -7.756234705448150635e-02
2.133985906839370728e-01 -8.753105252981185913e-02 -2.671621441841125488e-01
3.726082444190979004e-01 -7.000660896301269531e-02 -2.927852272987365723e-01
6.169165670871734619e-02 -1.305702030658721924e-01 -1.365549713373184204e-01
1.480950117111206055e-01 -2.945933118462562561e-02 -2.591447830200195312e-01
