1.687468588352203369e-01 6.703343242406845093e-02 -2.698125541210174561e-01
8.357487618923187256e-02 -1.811883449554443359e-01 -3.468134999275207520e-02
1.452836543321609497e-01 5.865768343210220337e-02 4.064600467681884766e-01
2.702543139457702637e-01 1.162034645676612854e-02 -8.072024583816528320e-02
1.079810485243797302e-01 -1.651301831007003784e-01 7.863031700253486633e-03
5.502873063087463379e-01 -1.520950794219970703e-01 -5.417854711413383484e-02
-1.219915822148323059e-01 -1.236397102475166321e-01 -9.142568707466125488e-02
5.641561932861804962e-03 4.401398450136184692e-02 5.412763953208923340e-01
4.231810867786407471e-01 -4.101930558681488037e-02 -1.055978983640670776e-01
8.274636864662170410e-01 -1.917551159858703613e-01 -6.281450390815734863e-03
-6.721009612083435059e-01 7.557559758424758911e-02 -2.985558658838272095e-02
-5.618554539978504181e-03 -1.450228393077850342e-01 6.075229868292808533e-02
1.439246833324432373e-01 5.699362978339195251e-02 -9.930220991373062134e-02
-6.263846880756318569e-04 4.287688061594963074e-02 7.115371227264404297e-01
1.635050773620605469e-01 3.907728195190429688e-02 2.415520548820495605e-01
4.917679727077484131e-01 4.664874076843261719e-02 1.271652989089488983e-02
3.133811056613922119e-01 1.059417985379695892e-02 -8.083118498325347900e-02
8.133746385574340820e-01 -1.475466638803482056e-01 6.222221255302429199e-02
6.280190497636795044e-02 5.080888047814369202e-02 -2.411630451679229736e-01
4.164065420627593994e-02 4.565030336380004883e-02 9.561534523963928223e-01
-1.884780451655387878e-02 5.377645045518875122e-02 -2.776613533496856689e-01
1.431481093168258667e-01 -1.808000653982162476e-01 -3.506962954998016357e-02
5.254022404551506042e-02 6.442641466856002808e-02 8.639590814709663391e-03
2.931351065635681152e-01 1.053587649948894978e-03 -2.799910306930541992e-01
1.858034282922744751e-01 5.261161178350448608e-02 -3.526548445224761963e-01
-1.599117368459701538e-02 4.443000257015228271e-02 6.450025439262390137e-01
-6.643982231616973877e-02 -5.663371086120605469e-02 1.038513705134391785e-01
5.423201620578765869e-02 -1.295222155749797821e-02 -1.014377623796463013e-01
5.401642322540283203e-01 -1.045585498213768005e-01 -9.885846823453903198e-02
4.463595524430274963e-02 5.080888047814369202e-02 8.425261378288269043e-01
-8.757334202527999878e-02 -1.395065337419509888e-02 -1.038783714175224304e-01
-1.279267221689224243e-01 8.708249777555465698e-03 9.142640978097915649e-02
9.317094832658767700e-02 -2.110609784722328186e-02 -9.059365093708038330e-02
2.669539153575897217e-01 1.844298094511032104e-02 -2.718094289302825928e-01
1.182630658149719238e-02 5.030966922640800476e-02 6.688540577888488770e-01
-8.687369823455810547e-01 1.778318881988525391e-01 -1.210564933717250824e-02
4.393519368022680283e-03 5.840807780623435974e-02 -4.012453258037567139e-01
1.868295967578887939e-01 -5.932392925024032593e-02 1.084829866886138916e-01
-3.096416890621185303e-01 -7.366255670785903931e-02 -1.176345795392990112e-01
1.285044103860855103e-01 3.838392719626426697e-02 3.898195028305053711e-01
-7.507276535034179688e-01 1.842939555644989014e-01 -3.757631173357367516e-03
-5.050851702690124512e-01 2.093906700611114502e-02 -7.888978719711303711e-02
1.184368729591369629e-01 4.553937166929244995e-02 -3.194291591644287109e-01
-2.817132771015167236e-01 -3.391933068633079529e-02 9.686233103275299072e-02
3.881175816059112549e-02 4.351476952433586121e-02 2.196974456310272217e-01
-8.893990516662597656e-01 2.757616043090820312e-01 -2.917226254940032959e-01
3.378150165081024170e-01 1.708400063216686249e-02 3.009588718414306641e-01
-6.233164072036743164e-01 -3.383894218131899834e-03 6.094643846154212952e-02
6.607455015182495117e-02 -2.029320150613784790e-01 1.660593450069427490e-01
-4.500326216220855713e-01 -1.375068575143814087e-01 -6.066836789250373840e-02
-8.062517046928405762e-01 1.803834289312362671e-01 -2.630559727549552917e-02
1.766788512468338013e-01 -1.811079867184162140e-02 -7.037536799907684326e-02
1.128900200128555298e-01 4.345929622650146484e-02 2.694421447813510895e-02
6.632415950298309326e-02 6.539711356163024902e-02 -5.065523386001586914e-01
7.610695436596870422e-03 5.829713866114616394e-02 -7.701943516731262207e-01
8.596003055572509766e-02 1.178675610572099686e-02 -1.007166579365730286e-01
-3.800036013126373291e-01 -4.099157825112342834e-02 9.622443467378616333e-02
-8.126028776168823242e-01 1.411948949098587036e-01 -7.307618856430053711e-03
-9.081824868917465210e-02 -6.733914464712142944e-02 -1.150830164551734924e-01
8.712486922740936279e-02 -1.410291045904159546e-01 1.739358752965927124e-01
2.128721028566360474e-01 1.614103652536869049e-02 9.858185797929763794e-02
6.069410219788551331e-02 4.201711714267730713e-02 2.260763347148895264e-01
-1.443176716566085815e-01 -7.155758794397115707e-03 -9.009443968534469604e-02
-4.816293716430664062e-02 4.670421406626701355e-02 -8.085892349481582642e-02
-6.488671153783798218e-02 -1.253869682550430298e-01 -1.232368946075439453e-01
2.214697003364562988e-01 -1.311834305524826050e-01 8.327253162860870361e-02
2.344216108322143555e-01 5.144677311182022095e-02 -4.277975857257843018e-02
7.093156576156616211e-01 4.634366184473037720e-02 -7.058009970933198929e-03
-6.588162779808044434e-01 4.409436136484146118e-03 -8.243977278470993042e-02
-8.528730273246765137e-01 2.746522426605224609e-01 1.964838653802871704e-01
5.780233070254325867e-03 5.654987692832946777e-02 -5.392233729362487793e-01
-8.943912386894226074e-01 2.673581242561340332e-01 1.731870621442794800e-01
1.003263890743255615e-01 6.148658320307731628e-02 3.739277422428131104e-01
-7.345660030841827393e-02 -1.637712270021438599e-01 1.463019382208585739e-02
3.293209150433540344e-02 3.580464050173759460e-02 -2.412739843130111694e-01
-7.547768950462341309e-01 -3.103497438132762909e-02 3.995159268379211426e-02
5.071882009506225586e-01 -1.563106924295425415e-01 -4.596920311450958252e-02
1.193520948290824890e-01 6.858655810356140137e-02 -4.349424540996551514e-01
-5.438022017478942871e-01 -3.111817687749862671e-02 7.814169675111770630e-02
2.982585132122039795e-02 4.296008497476577759e-02 4.603200256824493408e-01
2.819859087467193604e-01 2.698513865470886230e-02 -2.737230956554412842e-01
-8.422785401344299316e-01 3.516675159335136414e-02 -1.393611077219247818e-02
-6.973668932914733887e-01 1.000094860792160034e-01 -2.930089831352233887e-02
-2.658391022123396397e-04 5.158543959259986877e-02 3.865191042423248291e-01
3.128818869590759277e-01 3.023005090653896332e-02 -5.897657573223114014e-02
-3.247291445732116699e-01 -9.754177182912826538e-02 9.203656762838363647e-02
1.307434774935245514e-02 5.577331781387329102e-02 3.013471662998199463e-01
1.792026609182357788e-01 7.147092372179031372e-02 -6.502264738082885742e-02
4.659750759601593018e-01 3.269840031862258911e-02 -5.207074061036109924e-02
2.127888798713684082e-01 6.251274794340133667e-02 -4.783799406141042709e-03
2.021111994981765747e-01 -3.943845629692077637e-02 -2.919722497463226318e-01
-9.246215820312500000e-01 2.626710236072540283e-01 2.245126105844974518e-02
-3.676063716411590576e-01 3.630385547876358032e-02 3.778831660747528076e-02
-2.969948649406433105e-01 4.698155447840690613e-02 -2.093574497848749161e-03
9.146879911422729492e-01 -9.560035914182662964e-02 6.469056755304336548e-02
2.901397645473480225e-01 -2.415686659514904022e-02 3.014303445816040039e-01
2.518942058086395264e-01 -2.387952432036399841e-02 1.023259758949279785e-01
-3.080127947032451630e-02 5.055927485227584839e-02 -1.009385362267494202e-01
-1.489770263433456421e-01 4.678741469979286194e-02 1.733755809254944324e-03
1.345782130956649780e-01 5.430340394377708435e-02 -8.716741204261779785e-01
2.602625638246536255e-02 -1.597497463226318359e-01 3.210278972983360291e-02
4.210455715656280518e-01 -1.556728035211563110e-01 -4.824341088533401489e-02
6.123288869857788086e-01 4.462413862347602844e-02 -1.956616900861263275e-02
3.986639976501464844e-01 -1.213655099272727966e-01 9.597482532262802124e-02
5.918887257575988770e-01 -8.242659270763397217e-02 1.151669546961784363e-01
-4.115374386310577393e-01 -1.104382053017616272e-01 -1.006334573030471802e-01
6.747032403945922852e-01 -8.311993628740310669e-02 1.166646033525466919e-01
4.458677470684051514e-01 -4.298843815922737122e-02 -1.057088300585746765e-01
1.484176218509674072e-01 6.844788789749145508e-02 -3.880715072154998779e-01
-8.064458370208740234e-01 2.641409635543823242e-01 5.259842053055763245e-02
3.314638733863830566e-01 8.871833560988306999e-04 -2.932202816009521484e-01
-1.258743852376937866e-01 1.550314947962760925e-02 7.156866788864135742e-02
1.145818009972572327e-01 -7.177662104368209839e-02 1.070685386657714844e-01
-7.975228130817413330e-02 3.380777314305305481e-02 7.054249942302703857e-02
1.156079769134521484e-01 -1.477407962083816528e-01 -1.240689307451248169e-01
-7.698625326156616211e-03 4.881201311945915222e-02 5.889793038368225098e-01
-6.080976873636245728e-02 -1.089960262179374695e-01 -1.033514216542243958e-01
2.330829389393329620e-02 6.181938946247100830e-02 -6.320776939392089844e-01
2.373059839010238647e-01 4.584445059299468994e-02 -9.786003828048706055e-02
-2.716808766126632690e-02 -1.034769117832183838e-01 9.614123404026031494e-02
1.518011987209320068e-01 4.745303839445114136e-02 -1.150608994066715240e-03
7.931008338928222656e-01 -1.605263054370880127e-01 -2.941183745861053467e-02
2.226068228483200073e-01 4.381700418889522552e-03 8.612915873527526855e-02
8.426823467016220093e-02 3.921595588326454163e-02 4.025666788220405579e-02
1.018517762422561646e-01 6.864202022552490234e-02 -9.252012372016906738e-01
2.167197689414024353e-02 4.290461540222167969e-02 5.439665913581848145e-01
-7.779073119163513184e-01 1.778041273355484009e-01 -2.741497009992599487e-02
1.756249368190765381e-01 7.252482324838638306e-02 -7.983275502920150757e-02
-8.062517046928405762e-01 1.803834289312362671e-01 -2.630559727549552917e-02
4.711613953113555908e-01 -9.604411572217941284e-02 -1.026303321123123169e-01
4.737961292266845703e-01 -5.347199738025665283e-02 1.132255569100379944e-01
1.696343421936035156e-01 7.113810628652572632e-02 5.514997616410255432e-02
7.610695436596870422e-03 5.829713866114616394e-02 -7.701943516731262207e-01
1.710487902164459229e-01 -1.852375417947769165e-01 -3.785365493968129158e-03
-4.112323522567749023e-01 -2.967598848044872284e-02 -1.146115362644195557e-01
1.704386472702026367e-01 5.838033929467201233e-02 2.985459864139556885e-01
2.134544998407363892e-01 6.326157599687576294e-02 -7.034762948751449585e-02
1.905737221240997314e-01 -1.675181649625301361e-02 2.932764887809753418e-01
8.440690487623214722e-02 6.750491261482238770e-02 -1.801305077970027924e-02
3.408102989196777344e-01 4.739756509661674500e-02 2.038832986727356911e-03
-2.777824364602565765e-02 5.097528919577598572e-02 1.188556104898452759e-01
-8.757260441780090332e-01 1.953321993350982666e-01 -1.218885090202093124e-02
2.655117511749267578e-01 -3.985446691513061523e-02 3.407020866870880127e-01
-8.621639609336853027e-01 2.677464187145233154e-01 -2.046647369861602783e-01
-7.503671050071716309e-01 4.964120686054229736e-03 -7.131832838058471680e-02
-1.521110087633132935e-01 -1.555618643760681152e-01 3.953557834029197693e-02
7.013835906982421875e-01 3.541636094450950623e-02 5.820074677467346191e-02
2.008076608180999756e-01 -1.150421053171157837e-01 9.500413388013839722e-02
-5.684025287628173828e-01 3.702494874596595764e-02 -4.544225335121154785e-02
2.448219805955886841e-01 -3.666503354907035828e-02 -3.161842525005340576e-01
1.725187152624130249e-01 5.089208856225013733e-02 3.493828773498535156e-01
8.698693513870239258e-01 -1.195905059576034546e-01 -5.919845029711723328e-02
-8.686538338661193848e-01 7.393927127122879028e-02 -1.596071384847164154e-02
4.845570623874664307e-01 3.034098632633686066e-02 -5.587033927440643311e-02
9.164555370807647705e-02 4.320969060063362122e-02 -1.163033321499824524e-01
-5.202540662139654160e-03 -2.055141143500804901e-02 -1.018537729978561401e-01
-7.371656298637390137e-01 -3.749705478549003601e-02 -7.434136420488357544e-02
6.080300211906433105e-01 -2.468665130436420441e-03 9.772209823131561279e-02
-9.547761082649230957e-02 -1.363420039415359497e-01 1.063751801848411560e-01
-1.874427194707095623e-03 -1.526220291852951050e-01 -5.803360790014266968e-02
1.436750590801239014e-01 -1.342619359493255615e-01 -8.316086977720260620e-02
-4.968832060694694519e-02 -1.718973666429519653e-01 -5.492737144231796265e-02
-8.766690492630004883e-01 2.661655545234680176e-01 2.317235246300697327e-02
-8.784717321395874023e-01 2.721284329891204834e-01 1.941264420747756958e-01
-4.239346683025360107e-01 -1.387826353311538696e-01 -6.901638209819793701e-02
3.746183514595031738e-01 -1.155135855078697205e-01 9.894239902496337891e-02
-4.289342090487480164e-02 -9.884528070688247681e-02 -1.079275682568550110e-01
1.712984144687652588e-01 6.678383052349090576e-02 -2.564168870449066162e-01
1.313333213329315186e-01 -1.580856740474700928e-01 1.113396212458610535e-01
-2.622160911560058594e-01 -7.765910122543573380e-03 -1.041002497076988220e-01
5.073546171188354492e-01 -3.353105112910270691e-02 1.096755638718605042e-01
4.556301832199096680e-01 -1.655184775590896606e-01 -7.141212932765483856e-03
1.799792349338531494e-01 6.132017448544502258e-02 1.981201767921447754e-01
-3.878524005413055420e-01 -1.462431550025939941e-01 4.413946717977523804e-02
1.852487474679946899e-01 4.570577666163444519e-02 2.357555925846099854e-01
7.844404131174087524e-02 5.422019958496093750e-02 -7.864466905593872070e-01
5.262139439582824707e-01 -1.379228830337524414e-01 8.460377901792526245e-02
4.485782608389854431e-02 3.203277662396430969e-02 -3.836063146591186523e-01
-1.025221124291419983e-01 4.556710273027420044e-02 1.526808366179466248e-02
3.448520973324775696e-02 5.369324609637260437e-02 -3.185971379280090332e-01
-8.373972773551940918e-01 2.651948332786560059e-01 -6.321991980075836182e-02
3.895042836666107178e-02 5.638347193598747253e-02 -5.423573255538940430e-01
1.002357807010412216e-02 -1.818817108869552612e-01 1.260559167712926865e-02
7.160550355911254883e-01 1.015043258666992188e-02 -7.400855422019958496e-02
-7.955814152956008911e-02 3.436245769262313843e-02 4.594219475984573364e-02
7.987031936645507812e-01 -1.613860577344894409e-01 2.433719299733638763e-02
-2.940272986888885498e-01 -7.674106210470199585e-02 9.849864244461059570e-02
7.400655746459960938e-02 3.807884827256202698e-02 8.196176290512084961e-01
-3.106401264667510986e-01 3.730228915810585022e-02 -5.573166534304618835e-02
-1.446578837931156158e-02 5.272254720330238342e-02 -2.172006368637084961e-01
9.444671869277954102e-02 3.879994153976440430e-02 6.293881535530090332e-01
8.521120250225067139e-02 -1.101885885000228882e-01 1.146677359938621521e-01
3.625262379646301270e-01 -3.042481839656829834e-02 -1.027412638068199158e-01
1.484176218509674072e-01 -1.775551587343215942e-01 -5.648049339652061462e-02
1.863858401775360107e-01 -3.838455677032470703e-02 -3.076143860816955566e-01
2.736101448535919189e-01 -2.124476991593837738e-02 -2.954112887382507324e-01
2.996452525258064270e-02 3.641479462385177612e-02 5.338435769081115723e-01
7.544873654842376709e-02 6.611820310354232788e-02 -6.142445802688598633e-01
5.384548567235469818e-04 5.091981962323188782e-02 2.054974883794784546e-01
-2.745301127433776855e-01 -1.642426997423171997e-01 -2.306068688631057739e-02
1.471418589353561401e-01 -1.416392624378204346e-01 7.034835964441299438e-02
9.680413454771041870e-02 -1.792192012071609497e-01 4.552618414163589478e-02
5.822371840476989746e-01 -1.175381690263748169e-01 1.027420014142990112e-01
6.123288869857788086e-01 4.462413862347602844e-02 -1.956616900861263275e-02
2.569344267249107361e-02 4.465187340974807739e-02 6.818891763687133789e-01
-1.833952665328979492e-01 2.368476055562496185e-02 6.064136326313018799e-02
1.745710372924804688e-01 4.836826771497726440e-02 -9.888619929552078247e-02
-2.026151120662689209e-01 -1.380892843008041382e-01 -8.182962238788604736e-02
4.092584848403930664e-01 -9.191171824932098389e-02 1.097033023834228516e-01
3.283853530883789062e-01 -8.791796863079071045e-02 1.093704849481582642e-01
-4.505595862865447998e-01 -5.578151467489078641e-05 -1.004947870969772339e-01
3.981018811464309692e-02 3.954876586794853210e-02 8.067489266395568848e-01
-7.809857726097106934e-01 2.768432497978210449e-01 -1.573883928358554840e-02
-6.373221874237060547e-01 -4.187906906008720398e-02 6.419134885072708130e-02
6.776633858680725098e-02 4.015891999006271362e-02 5.925847887992858887e-01
-6.316921710968017578e-01 3.028551675379276276e-02 2.464227005839347839e-02
4.421253688633441925e-03 5.674401670694351196e-02 1.765706390142440796e-01
6.667729932814836502e-03 3.982611000537872314e-02 2.279899865388870239e-01
4.526626467704772949e-01 -1.554786711931228638e-01 5.434568226337432861e-02
6.632415950298309326e-02 -2.042910009622573853e-01 -1.250673681497573853e-01
8.814623355865478516e-01 -3.968806192278862000e-02 5.467849597334861755e-02
-2.287408113479614258e-01 4.290461540222167969e-02 -3.886922821402549744e-02
-6.002137064933776855e-01 2.742888592183589935e-02 3.423833101987838745e-02
3.301603496074676514e-01 9.518372267484664917e-02 -3.045358657836914062e-01
5.986207351088523865e-02 4.248860105872154236e-02 1.117833629250526428e-01
2.996249198913574219e-01 6.375767989084124565e-04 3.413954675197601318e-01
-4.607935547828674316e-01 -1.273561120033264160e-01 4.935351014137268066e-02
-5.558666586875915527e-01 8.223181962966918945e-02 -1.917788945138454437e-02
-2.896452844142913818e-01 -2.679162658751010895e-02 -1.129197403788566589e-01
-4.587134420871734619e-01 -4.864623770117759705e-02 9.101039916276931763e-02
4.275002703070640564e-02 -2.024882584810256958e-01 1.129482090473175049e-01
8.088465034961700439e-02 -1.461044847965240479e-01 1.894116103649139404e-01
-5.284928679466247559e-01 -6.071064621210098267e-02 -1.042666509747505188e-01
-8.240570425987243652e-01 1.999360918998718262e-01 -2.541810087859630585e-02
6.758403778076171875e-01 4.617725685238838196e-02 -1.094080973416566849e-02
1.254813820123672485e-01 5.111395940184593201e-02 7.645651102066040039e-01
1.357430666685104370e-01 5.105849355459213257e-02 -6.938974261283874512e-01
1.743769049644470215e-01 6.750491261482238770e-02 -1.699136793613433838e-01
-7.427679300308227539e-01 3.311441466212272644e-02 -9.304486215114593506e-03
3.981018811464309692e-02 3.954876586794853210e-02 8.067489266395568848e-01
5.491501688957214355e-01 -1.388658434152603149e-01 8.427096903324127197e-02
5.628434941172599792e-02 6.683646235615015030e-03 -8.873545378446578979e-02
1.040705144405364990e-01 6.312289834022521973e-02 3.084471225738525391e-01
1.030443459749221802e-01 5.677175149321556091e-02 6.167413592338562012e-01
5.739446282386779785e-01 -5.125325918197631836e-02 -1.044885292649269104e-01
1.285598874092102051e-01 5.308309569954872131e-02 6.831926703453063965e-01
-6.533785723149776459e-03 4.212805256247520447e-02 8.624670505523681641e-01
2.291798442602157593e-01 -3.771892935037612915e-02 2.849284708499908447e-01
1.136665791273117065e-01 4.254406690597534180e-02 2.814616858959197998e-01
1.731566041707992554e-01 2.975856699049472809e-02 -2.748601734638214111e-01
8.203636407852172852e-01 -1.599438786506652832e-01 -1.511154579930007458e-03
7.369389533996582031e-01 4.434679448604583740e-02 -1.815172098577022552e-02
-1.338895857334136963e-01 4.293234646320343018e-02 -3.720516711473464966e-02
-1.685019731521606445e-01 -7.660238444805145264e-02 -1.153326258063316345e-01
4.469770789146423340e-01 -1.629114449024200439e-01 -2.439193241298198700e-02
-2.896452844142913818e-01 -2.679162658751010895e-02 -1.129197403788566589e-01
6.956148743629455566e-01 -4.908997938036918640e-02 -1.023807227611541748e-01
5.419687833636999130e-03 1.525354012846946716e-02 -8.227337151765823364e-02
7.137179374694824219e-02 3.910501673817634583e-02 7.038547396659851074e-01
-4.530630633234977722e-02 4.196164757013320923e-02 2.902428433299064636e-02
7.880633929744362831e-04 5.086435377597808838e-02 1.531074494123458862e-01
-1.977061629295349121e-01 8.403171785175800323e-03 -9.173075109720230103e-02
1.466981023550033569e-01 7.058342546224594116e-02 -2.761636972427368164e-01
-3.688266873359680176e-01 -1.094397753477096558e-01 -1.050986796617507935e-01
2.621281445026397705e-01 3.169996663928031921e-02 -7.362027466297149658e-02
5.114610772579908371e-03 5.391512438654899597e-02 -4.128105342388153076e-01
2.264896184206008911e-01 -1.680728420615196228e-02 -2.862589657306671143e-01
8.282605558633804321e-02 -1.829355955123901367e-01 1.781963743269443512e-02
4.575993120670318604e-01 -2.759591862559318542e-02 1.068466678261756897e-01
3.857952952384948730e-01 -1.228631511330604553e-01 -9.089872986078262329e-02
3.576098755002021790e-02 5.946197733283042908e-02 2.543930411338806152e-01
6.222854852676391602e-01 3.161676600575447083e-02 6.308197975158691406e-02
-7.898052334785461426e-01 -1.977485232055187225e-02 -6.743553280830383301e-02
7.567060738801956177e-02 4.096321761608123779e-02 3.250044882297515869e-01
-6.525760889053344727e-01 -1.397838909178972244e-02 6.163979694247245789e-02
1.640246249735355377e-02 4.443000257015228271e-02 3.782265782356262207e-01
1.593097858130931854e-02 4.570577666163444519e-02 1.837815493345260620e-01
-4.884445965290069580e-01 -1.092733740806579590e-01 6.025307998061180115e-02
1.308618336915969849e-01 -1.598884165287017822e-01 -4.031140729784965515e-02
-8.583921194076538086e-01 2.650284469127655029e-01 5.001913011074066162e-02
-7.778795361518859863e-01 -2.052367664873600006e-02 -7.026442885398864746e-02
-6.117771845310926437e-03 5.014326423406600952e-02 4.903284907341003418e-01
-1.726695150136947632e-02 5.258387699723243713e-02 5.459528788924217224e-02
1.007424071431159973e-01 4.723116010427474976e-02 -6.004107184708118439e-03
-3.096416890621185303e-01 -7.366255670785903931e-02 -1.176345795392990112e-01
6.064769029617309570e-01 -1.433310508728027344e-01 -7.001481950283050537e-02
-8.247227072715759277e-01 2.778971493244171143e-01 -2.553352415561676025e-01
3.324068188667297363e-01 -1.265795528888702393e-01 9.089945256710052490e-02
-4.092429205775260925e-02 -1.085800081491470337e-01 9.835997968912124634e-02
3.577836453914642334e-01 4.703702032566070557e-02 -3.369351383298635483e-03
1.013802960515022278e-01 3.990931436419487000e-02 2.760257720947265625e-01
2.742480337619781494e-01 3.488940745592117310e-02 2.783831655979156494e-01
2.198888510465621948e-01 -1.313221007585525513e-01 -8.532413840293884277e-02
-2.569188177585601807e-01 -2.376858703792095184e-02 9.419984370470046997e-02
-6.435347199440002441e-01 2.437811531126499176e-02 3.354497253894805908e-02
-2.384478002786636353e-01 -5.810362845659255981e-02 -1.179396435618400574e-01
2.439899295568466187e-01 4.523429274559020996e-02 -2.658293955028057098e-02
2.262677401304244995e-01 -1.611392945051193237e-02 -3.412837982177734375e-01
-8.418976515531539917e-02 2.016250789165496826e-02 -7.872337847948074341e-02
4.131135344505310059e-01 -6.331766396760940552e-02 1.127540692687034607e-01
-6.146078109741210938e-01 -9.207811951637268066e-02 -5.864376574754714966e-02
2.807858958840370178e-02 4.393078014254570007e-02 2.968264818191528320e-01
1.201286613941192627e-01 5.241747200489044189e-02 -7.758798599243164062e-01
-4.848114252090454102e-01 5.660535022616386414e-02 5.689163808710873127e-04
-2.655442059040069580e-01 -7.912620157003402710e-02 -1.165529415011405945e-01
1.423715502023696899e-01 5.394285917282104492e-02 -8.354531526565551758e-01
-3.129420876502990723e-01 -1.282436102628707886e-01 -9.247958660125732422e-02
-8.169367909431457520e-02 -1.713981330394744873e-01 7.003269158303737640e-03
1.699394285678863525e-01 -1.722024381160736084e-01 9.924747794866561890e-02
-2.637414634227752686e-01 3.957650065422058105e-02 -5.051762238144874573e-02
6.934719532728195190e-02 4.487374797463417053e-02 -3.752860426902770996e-01
-6.659439802169799805e-01 -4.795287922024726868e-02 5.653668940067291260e-02
-5.400857925415039062e-01 -1.639127172529697418e-02 -1.012990847229957581e-01
-6.277538537979125977e-01 -5.200208723545074463e-02 -9.142568707466125488e-02
1.002357807010412216e-02 -1.818817108869552612e-01 1.260559167712926865e-02
3.931097686290740967e-02 4.063040018081665039e-02 6.709618568420410156e-01
1.263688802719116211e-01 -1.098003163933753967e-01 1.109513416886329651e-01
1.644480377435684204e-01 4.251633584499359131e-02 -2.117647081613540649e-01
-8.188430666923522949e-01 2.661100924015045166e-01 -1.921565830707550049e-01
2.226068228483200073e-01 4.381700418889522552e-03 8.612915873527526855e-02
9.164555370807647705e-02 4.320969060063362122e-02 -1.163033321499824524e-01
-2.702590227127075195e-01 -1.268291622400283813e-01 -9.328387677669525146e-02
8.615417033433914185e-02 4.933896660804748535e-02 -4.444276094436645508e-01
-6.456148028373718262e-01 -3.810720890760421753e-02 -9.275693446397781372e-02
-2.756671905517578125e-01 2.060625702142715454e-02 -8.130266517400741577e-02
3.881175816059112549e-02 -1.907566636800765991e-01 1.627589762210845947e-01
-2.472747303545475006e-02 4.454093426465988159e-02 9.486545622348785400e-02
-1.755464673042297363e-01 -3.611033782362937927e-02 -1.139736473560333252e-01
7.050999999046325684e-01 -4.160454962402582169e-03 -8.532413840293884277e-02
-6.644723005592823029e-03 4.512335732579231262e-02 5.096038579940795898e-01
-2.578137628734111786e-02 4.587218165397644043e-02 5.962457060813903809e-01
-8.775842785835266113e-01 2.872713208198547363e-01 -1.005331240594387054e-02
-9.077314734458923340e-01 2.661933004856109619e-01 2.450743019580841064e-01
2.229950875043869019e-01 -2.354671619832515717e-02 2.991561591625213623e-01
4.130784422159194946e-02 -1.114088967442512512e-01 1.157493740320205688e-01
3.587192669510841370e-02 6.364985555410385132e-02 -1.804249882698059082e-01
8.579990863800048828e-01 -1.922016777098178864e-02 3.778831660747528076e-02
4.275002703070640564e-02 -2.024882584810256958e-01 1.129482090473175049e-01
7.556040883064270020e-01 -1.661563664674758911e-01 1.576730050146579742e-02
-2.745301127433776855e-01 -1.642426997423171997e-01 -2.306068688631057739e-02
5.073749646544456482e-02 3.874447196722030640e-02 8.551729917526245117e-01
3.331001698970794678e-01 -1.322956383228302002e-02 -3.098331093788146973e-01
-2.622160911560058594e-01 -7.765910122543573380e-03 -1.041002497076988220e-01
-6.968954801559448242e-01 -7.970862835645675659e-02 -2.186811342835426331e-02
6.360620260238647461e-02 2.773113083094358444e-03 -3.039257228374481201e-01
-1.854753494262695312e-01 3.039645403623580933e-02 5.171092599630355835e-02
2.448219805955886841e-01 9.956292808055877686e-03 2.729472517967224121e-01
3.448520973324775696e-02 5.369324609637260437e-02 -3.185971379280090332e-01
-2.940272986888885498e-01 -7.674106210470199585e-02 9.849864244461059570e-02
6.013941764831542969e-02 -1.502646207809448242e-01 1.970385313034057617e-01
1.385164856910705566e-01 7.266066502779722214e-03 -2.803238332271575928e-01
-1.977061629295349121e-01 8.403171785175800323e-03 -9.173075109720230103e-02
5.516462922096252441e-01 3.685854375362396240e-02 -4.333444312214851379e-02
-6.456148028373718262e-01 -3.810720890760421753e-02 -9.275693446397781372e-02
5.117089152336120605e-01 4.501241818070411682e-02 2.866374142467975616e-02
-6.008793711662292480e-01 -9.304881840944290161e-02 -6.363593786954879761e-02
4.100276529788970947e-02 4.542843252420425415e-02 -3.788914680480957031e-01
5.864176526665687561e-02 5.957291647791862488e-02 -7.243773937225341797e-01
2.010018229484558105e-01 2.429491281509399414e-02 6.613274663686752319e-02
1.132228299975395203e-01 6.678383052349090576e-02 1.822284311056137085e-01
6.000074371695518494e-02 5.122489482164382935e-02 -4.941551685333251953e-01
-7.721662521362304688e-01 1.945001780986785889e-01 -3.785365493968129158e-03
2.067705541849136353e-01 -1.288260221481323242e-01 8.526939898729324341e-02
-4.747438430786132812e-01 -9.945543110370635986e-02 -9.652879089117050171e-02
2.668984532356262207e-01 -1.525416783988475800e-02 -3.262518048286437988e-01
8.823423832654953003e-02 -6.611882895231246948e-02 -1.125869303941726685e-01
1.412899196147918701e-01 4.481827840209007263e-02 -3.383162319660186768e-01
1.226247474551200867e-01 -1.730067282915115356e-01 9.358968585729598999e-02
1.763460487127304077e-01 -1.839062869548797607e-01 4.229841288179159164e-03
4.000784456729888916e-01 -1.514571905136108398e-01 -5.667463317513465881e-02
1.583742350339889526e-01 5.943424254655838013e-02 2.890886068344116211e-01
-9.207942485809326172e-01 -1.436666958034038544e-02 -1.110721472650766373e-02
-6.659439802169799805e-01 -4.795287922024726868e-02 5.653668940067291260e-02
-9.007701277732849121e-01 1.650158315896987915e-02 -4.050554707646369934e-02
5.172280073165893555e-01 -8.736329525709152222e-02 -1.049045398831367493e-01
2.272587642073631287e-02 6.190259382128715515e-02 -9.589815735816955566e-01
9.233891218900680542e-02 5.546824261546134949e-02 6.778676509857177734e-01
3.765043020248413086e-01 -1.646032482385635376e-01 -1.637672819197177887e-02
8.598776161670684814e-02 -1.512630581855773926e-01 5.415153875946998596e-02
6.778667215257883072e-03 5.937877669930458069e-02 -6.994996666908264160e-01
7.671692967414855957e-01 -1.371463239192962646e-01 8.931860327720642090e-02
2.982585132122039795e-02 4.296008497476577759e-02 4.603200256824493408e-01
1.712984144687652588e-01 6.678383052349090576e-02 -2.564168870449066162e-01
-9.007701277732849121e-01 1.650158315896987915e-02 -4.050554707646369934e-02
1.197126507759094238e-01 5.347137525677680969e-02 -8.555604219436645508e-01
2.262677401304244995e-01 -1.611392945051193237e-02 -3.412837982177734375e-01
-5.744763016700744629e-01 4.329289123415946960e-02 1.511881593614816666e-03
2.472348511219024658e-01 -3.552792221307754517e-02 1.062365099787712097e-01
7.233769297599792480e-01 -3.175606206059455872e-02 1.124767214059829712e-01
-8.784717321395874023e-01 2.721284329891204834e-01 1.941264420747756958e-01
-6.252928823232650757e-02 -1.539532840251922607e-01 -5.611994490027427673e-02
7.212062180042266846e-02 5.158543959259986877e-02 8.860967159271240234e-01
6.359030008316040039e-01 4.698155447840690613e-02 1.706021721474826336e-03
7.475537806749343872e-02 6.500883400440216064e-02 1.468117535114288330e-01
-7.980423569679260254e-01 2.936224937438964844e-01 -1.027518603950738907e-02
-3.800036013126373291e-01 -4.099157825112342834e-02 9.622443467378616333e-02
-2.012838870286941528e-01 -6.281845271587371826e-02 -1.171076223254203796e-01
2.466524243354797363e-01 -3.555565327405929565e-02 -3.359588086605072021e-01
8.389734029769897461e-01 7.485147798433899879e-04 4.075588658452033997e-02
2.665379345417022705e-01 -2.274242043495178223e-02 3.523781895637512207e-01
4.485782608389854431e-02 3.203277662396430969e-02 -3.836063146591186523e-01
7.192648202180862427e-02 4.110188409686088562e-02 3.583965301513671875e-01
-4.393271803855895996e-01 -7.901526987552642822e-02 8.976235240697860718e-02
7.225171327590942383e-01 -1.575864702463150024e-01 -4.103249683976173401e-02
7.826450467109680176e-01 -1.629114449024200439e-01 3.232466429471969604e-02
7.988622039556503296e-02 3.411005018278956413e-03 -9.103740751743316650e-02
-2.906159758567810059e-01 1.378362346440553665e-02 7.040382921695709229e-02
8.163348585367202759e-02 4.395851492881774902e-02 -1.281181275844573975e-01
-9.162735342979431152e-01 2.655554115772247314e-01 -4.516490548849105835e-02
-5.634658336639404297e-01 -1.162069365382194519e-01 4.423980601131916046e-03
1.339403390884399414e-01 5.058700963854789734e-02 -6.672447919845581055e-01
5.739446282386779785e-01 -5.125325918197631836e-02 -1.044885292649269104e-01
3.142408728599548340e-01 -4.418102279305458069e-02 4.205490648746490479e-01
-8.944467306137084961e-01 -2.238187566399574280e-02 -1.082987152040004730e-02
7.709134817123413086e-01 4.307102039456367493e-02 2.142509259283542633e-02
5.172280073165893555e-01 -8.736329525709152222e-02 -1.049045398831367493e-01
-7.933626323938369751e-02 -2.185492217540740967e-02 6.682610511779785156e-02
6.124120354652404785e-01 -3.425214812159538269e-02 1.115892305970191956e-01
-9.185754656791687012e-01 -1.475494913756847382e-02 -2.752590365707874298e-02
2.396079152822494507e-01 -2.343577891588211060e-02 3.172666430473327637e-01
1.588457077741622925e-01 5.330496653914451599e-02 4.612075090408325195e-01
1.013802960515022278e-01 3.990931436419487000e-02 2.760257720947265625e-01
1.759022921323776245e-01 5.682722106575965881e-02 2.758870720863342285e-01
4.796406999230384827e-02 5.103075504302978516e-02 -5.413588881492614746e-01
2.500914633274078369e-01 -1.415005773305892944e-01 7.420342415571212769e-02
1.032939553260803223e-01 6.728304177522659302e-02 -5.675123333930969238e-01
-4.289342090487480164e-02 -9.884528070688247681e-02 -1.079275682568550110e-01
4.119690507650375366e-02 6.412133574485778809e-02 -2.315392494201660156e-01
6.956148743629455566e-01 -4.908997938036918640e-02 -1.023807227611541748e-01
5.145858600735664368e-02 5.899049714207649231e-02 3.573149144649505615e-01
-9.115309715270996094e-01 2.640854716300964355e-01 5.906051024794578552e-02
-8.131574988365173340e-01 2.659991383552551270e-01 -1.650047153234481812e-01
3.309646248817443848e-01 5.973932147026062012e-02 -3.065327405929565430e-01
-3.378197252750396729e-01 3.999251499772071838e-02 -5.071176216006278992e-02
1.550461202859878540e-01 -1.847938001155853271e-01 2.898595295846462250e-03
2.078521698713302612e-01 -1.122131943702697754e-01 -1.005502566695213318e-01
-9.691978991031646729e-02 2.407304011285305023e-02 -1.036565005779266357e-01
2.761062383651733398e-01 -4.323805496096611023e-02 2.827651798725128174e-01
5.502890795469284058e-03 4.237766191363334656e-02 7.254042625427246094e-01
-6.441522389650344849e-02 4.698155447840690613e-02 -1.268806774169206619e-02
-8.667678833007812500e-01 2.892127335071563721e-01 -9.332221001386642456e-03
-3.776461780071258545e-01 -2.121703512966632843e-02 9.101039916276931763e-02
2.545844316482543945e-01 -7.920940220355987549e-02 1.090376749634742737e-01
-8.272743225097656250e-01 1.727564930915832520e-01 -2.558450587093830109e-02
1.483066976070404053e-01 5.200145766139030457e-02 -7.151141166687011719e-01
-7.503671050071716309e-01 4.964120686054229736e-03 -7.131832838058471680e-02
6.640736013650894165e-02 3.910501673817634583e-02 7.288988232612609863e-01
4.659750759601593018e-01 3.269840031862258911e-02 -5.207074061036109924e-02
2.107088118791580200e-01 -3.633505897596478462e-03 -3.544298708438873291e-01
5.887269973754882812e-01 2.618084661662578583e-02 7.073663920164108276e-02
1.940127760171890259e-01 4.370890930294990540e-02 1.368551552295684814e-01
-2.822957038879394531e-01 -1.636602729558944702e-01 -2.882941626012325287e-02
1.427875608205795288e-01 4.218352213501930237e-02 -2.033334821462631226e-01
5.781047940254211426e-01 -1.329584419727325439e-01 9.103813022375106812e-02
7.090031355619430542e-02 6.509203463792800903e-02 1.302543878555297852e-01
-8.310738801956176758e-01 -2.260375209152698517e-02 -5.484417080879211426e-02
7.669677585363388062e-02 5.391512438654899597e-02 -7.556893229484558105e-01
-1.607437804341316223e-02 5.460847914218902588e-02 -1.646164357662200928e-01
1.414285898208618164e-01 3.929915651679039001e-02 6.348518133163452148e-01
6.124878674745559692e-02 6.481469422578811646e-02 1.134474277496337891e-01
3.478288417682051659e-03 5.255614221096038818e-02 -3.841055333614349365e-01
6.680192947387695312e-01 -1.609700620174407959e-01 4.710703343152999878e-02
-3.776461780071258545e-01 -2.121703512966632843e-02 9.101039916276931763e-02
3.423560410737991333e-02 -1.965253949165344238e-01 1.163317859172821045e-01
7.137179374694824219e-02 3.910501673817634583e-02 7.038547396659851074e-01
-8.406144380569458008e-01 2.758170664310455322e-01 1.341094672679901123e-01
8.389734029769897461e-01 7.485147798433899879e-04 4.075588658452033997e-02
1.628117114305496216e-01 4.642686620354652405e-02 9.554821066558361053e-03
8.734674751758575439e-02 5.438660457730293274e-02 7.431265115737915039e-01
-7.547768950462341309e-01 -3.103497438132762909e-02 3.995159268379211426e-02
-8.169367909431457520e-02 -1.713981330394744873e-01 7.003269158303737640e-03
1.945323310792446136e-02 4.340383037924766541e-02 5.032526850700378418e-01
4.968359693884849548e-02 3.691400960087776184e-02 5.375044941902160645e-01
2.068537473678588867e-01 -1.492107212543487549e-01 5.975386500358581543e-02
1.724632382392883301e-01 4.029759392142295837e-02 3.279720544815063477e-01
7.685560584068298340e-01 -1.642426997423171997e-01 3.024459443986415863e-02
1.764847189188003540e-01 -1.806059181690216064e-01 2.919069118797779083e-02
1.272841095924377441e-01 6.961271911859512329e-02 -3.503529131412506104e-01
6.518705189228057861e-02 5.521863326430320740e-02 5.871765613555908203e-01
2.964909374713897705e-01 4.431905969977378845e-02 -2.555677294731140137e-02
-8.421676158905029297e-01 2.451706975698471069e-01 -7.973241619765758514e-03
-3.770914673805236816e-01 -7.485513389110565186e-02 9.622443467378616333e-02
-8.642163872718811035e-01 9.870598465204238892e-02 -1.437985897064208984e-02
1.529309060424566269e-02 5.807526409626007080e-02 1.866936534643173218e-01
-6.373221874237060547e-01 -4.187906906008720398e-02 6.419134885072708130e-02
4.347111657261848450e-02 5.818619951605796814e-02 -9.328004121780395508e-01
-6.810868978500366211e-01 1.802696846425533295e-02 3.812112659215927124e-02
7.396014332771301270e-01 -7.025124132633209229e-02 1.184118613600730896e-01
-6.847755908966064453e-01 -5.006068572402000427e-02 5.129491165280342102e-02
7.684728503227233887e-01 -6.148720905184745789e-02 1.158325746655464172e-01
2.112080305814743042e-01 -1.728957891464233398e-01 -5.872696638107299805e-02
4.358279407024383545e-01 -1.501536965370178223e-01 -5.894884467124938965e-02
7.318635582923889160e-01 -9.915035963058471680e-02 1.142239943146705627e-01
-3.397333920001983643e-01 -9.756950289011001587e-02 -1.119213178753852844e-01
2.472348511219024658e-01 -3.552792221307754517e-02 1.062365099787712097e-01
2.360856831073760986e-01 -4.212867468595504761e-02 3.095010221004486084e-01
1.021568551659584045e-01 6.401039659976959229e-02 2.680937647819519043e-01
-8.126028776168823242e-01 1.411948949098587036e-01 -7.307618856430053711e-03
1.427875608205795288e-01 4.218352213501930237e-02 -2.033334821462631226e-01
-5.182386189699172974e-02 4.578897729516029358e-02 -6.039102748036384583e-02
-9.156079292297363281e-01 2.664428949356079102e-01 -1.971487551927566528e-01
8.178120851516723633e-01 -4.287750646471977234e-02 1.001627072691917419e-01
1.908233463764190674e-01 -1.530935019254684448e-01 -5.542659014463424683e-02
8.282605558633804321e-02 -1.829355955123901367e-01 1.781963743269443512e-02
-8.009544610977172852e-01 2.657495439052581787e-01 -1.020201742649078369e-01
-3.914023637771606445e-01 2.906520850956439972e-02 -7.267731428146362305e-02
8.914947509765625000e-02 -1.014800369739532471e-01 9.941387921571731567e-02
7.270304113626480103e-02 3.904955089092254639e-02 -2.946347296237945557e-01
2.611297369003295898e-01 -3.874509781599044800e-02 -2.859539091587066650e-01
-8.422785401344299316e-01 3.516675159335136414e-02 -1.393611077219247818e-02
-4.386412352323532104e-02 4.773037880659103394e-02 -9.932995587587356567e-02
3.942190855741500854e-02 4.323742538690567017e-02 2.605500221252441406e-01
1.199899986386299133e-01 5.275028198957443237e-02 7.333362698554992676e-01
8.128198981285095215e-01 -9.518436342477798462e-02 1.041009724140167236e-01
2.321196794509887695e-01 -1.089988276362419128e-02 3.540977537631988525e-01
1.939850449562072754e-01 -2.962051704525947571e-02 -3.364302814006805420e-01
-7.792940139770507812e-01 2.447824329137802124e-01 -6.669730413705110550e-03
-8.290492296218872070e-01 2.693272531032562256e-01 2.461836785078048706e-01
1.482160761952400208e-02 5.727097019553184509e-02 2.316786646842956543e-01
-4.929653108119964600e-01 -5.269543454051017761e-02 -1.101463213562965393e-01
-6.928185224533081055e-01 -1.331560197286307812e-03 -8.357688039541244507e-02
-1.673999987542629242e-02 4.839600250124931335e-02 1.998951584100723267e-01
7.050999999046325684e-01 -4.160454962402582169e-03 -8.532413840293884277e-02
3.331001698970794678e-01 -1.322956383228302002e-02 -3.098331093788146973e-01
-8.165411353111267090e-01 1.531483680009841919e-01 -7.474024314433336258e-03
3.135123476386070251e-02 -1.582798361778259277e-01 -1.190212815999984741e-01
-1.675035357475280762e-01 4.612179100513458252e-02 -2.455833926796913147e-02
2.230228185653686523e-01 4.273820668458938599e-02 -3.226846829056739807e-02
6.196988001465797424e-02 6.572992354631423950e-02 -3.701274394989013672e-01
-1.673999987542629242e-02 4.839600250124931335e-02 1.998951584100723267e-01
-2.646844387054443359e-01 -1.025339439511299133e-01 -1.088150739669799805e-01
2.452120184898376465e-03 4.509561881422996521e-02 6.820555925369262695e-01
3.296888470649719238e-01 4.692608490586280823e-02 -2.389165759086608887e-01
-5.620587989687919617e-02 4.409718886017799377e-02 5.556598678231239319e-02
1.184368729591369629e-01 4.553937166929244995e-02 -3.194291591644287109e-01
6.009300947189331055e-01 4.002024978399276733e-02 -3.648407757282257080e-02
1.940127760171890259e-01 4.370890930294990540e-02 1.368551552295684814e-01
3.076881542801856995e-02 2.529334649443626404e-02 3.780046701431274414e-01
-4.045105888508260250e-04 4.648233577609062195e-02 4.217416346073150635e-01
8.248288631439208984e-01 -1.334576457738876343e-01 -6.141719222068786621e-02
-6.454761028289794922e-01 -2.188265696167945862e-02 6.377533078193664551e-02
-2.940272986888885498e-01 -7.674106210470199585e-02 9.849864244461059570e-02
1.040705144405364990e-01 6.312289834022521973e-02 3.084471225738525391e-01
5.875270068645477295e-02 6.101509556174278259e-02 -7.754916548728942871e-01
8.933603167533874512e-01 -6.609109789133071899e-02 6.732532382011413574e-02
-4.150671139359474182e-02 3.524995222687721252e-02 4.486056044697761536e-02
4.393519368022680283e-03 5.840807780623435974e-02 -4.012453258037567139e-01
5.478670075535774231e-02 -1.848770081996917725e-01 -1.392673105001449585e-01
-9.081824868917465210e-02 -6.733914464712142944e-02 -1.150830164551734924e-01
4.205740690231323242e-01 4.565030336380004883e-02 2.392117865383625031e-02
1.452836543321609497e-01 5.865768343210220337e-02 4.064600467681884766e-01
2.978776395320892334e-01 -3.660956025123596191e-02 -2.792976796627044678e-01
-7.366941571235656738e-01 1.636319309473037720e-01 -2.343182917684316635e-03
-4.170288443565368652e-01 -6.689538806676864624e-02 -1.165529415011405945e-01
3.414759337902069092e-01 -3.855376737192273140e-03 9.428304433822631836e-02
-4.439865648746490479e-01 -1.412232518196105957e-01 3.423833101987838745e-02
-6.116125583648681641e-01 -7.083365321159362793e-02 -8.440890908241271973e-02
8.372538685798645020e-01 -2.399046346545219421e-02 -6.011367961764335632e-02
-3.252838253974914551e-01 -1.393095701932907104e-01 -8.113626390695571899e-02
-8.456344008445739746e-01 1.150137335062026978e-01 -1.149549428373575211e-02
4.431220293045043945e-01 -1.048081442713737488e-01 -9.996784478425979614e-02
-8.488237857818603516e-01 2.784795761108398438e-01 -2.314560562372207642e-01
1.748206466436386108e-01 -1.600270867347717285e-01 1.064861267805099487e-01
5.423201620578765869e-02 -1.295222155749797821e-02 -1.014377623796463013e-01
8.255777359008789062e-01 -1.568931192159652710e-01 3.307348862290382385e-02
3.749788999557495117e-01 -4.603920876979827881e-02 -1.071510240435600281e-01
-8.944467306137084961e-01 -2.238187566399574280e-02 -1.082987152040004730e-02
-8.418976515531539917e-02 2.016250789165496826e-02 -7.872337847948074341e-02
4.216760769486427307e-02 6.298423558473587036e-02 -3.729896852746605873e-03
2.149798870086669922e-01 -1.220622332766652107e-03 -2.720035612583160400e-01
1.456719338893890381e-01 6.639554351568222046e-02 -7.818982601165771484e-01
1.329419016838073730e-01 6.037720665335655212e-02 3.053408861160278320e-01
6.357846409082412720e-02 5.255614221096038818e-02 7.885274887084960938e-01
7.788935303688049316e-02 4.989365115761756897e-02 -4.578509628772735596e-01
1.892702281475067139e-01 5.635573714971542358e-02 3.403970003128051758e-01
-4.289342090487480164e-02 -9.884528070688247681e-02 -1.079275682568550110e-01
2.736101448535919189e-01 -2.124476991593837738e-02 -2.954112887382507324e-01
3.850741982460021973e-01 -1.705689541995525360e-02 1.010224744677543640e-01
-9.156079292297363281e-01 2.664428949356079102e-01 -1.971487551927566528e-01
6.718391925096511841e-02 -1.544830761849880219e-02 9.544787555932998657e-02
-5.084687471389770508e-01 -4.304391145706176758e-02 -1.091201528906822205e-01
7.164914160966873169e-02 6.564672291278839111e-02 9.070532023906707764e-02
3.190111815929412842e-01 -3.708104416728019714e-02 3.901800215244293213e-01
-5.744763016700744629e-01 4.329289123415946960e-02 1.511881593614816666e-03
8.711174726486206055e-01 -1.004538610577583313e-01 -6.607655435800552368e-02
2.246314287185668945e-01 5.760378018021583557e-02 -6.923826038837432861e-02
2.996249198913574219e-01 6.375767989084124565e-04 3.413954675197601318e-01
3.119389414787292480e-01 3.777377307415008545e-02 -2.985452711582183838e-01
-7.194157242774963379e-01 1.800228953361511230e-01 -2.325482666492462158e-02
5.822371840476989746e-01 -1.175381690263748169e-01 1.027420014142990112e-01
-4.094573855400085449e-01 3.558276221156120300e-02 3.956330940127372742e-02
1.452836543321609497e-01 5.865768343210220337e-02 4.064600467681884766e-01
1.031552776694297791e-01 5.643893778324127197e-02 6.427561044692993164e-01
-2.020678482949733734e-02 -1.119358614087104797e-01 9.170375764369964600e-02
5.172280073165893555e-01 -8.736329525709152222e-02 -1.049045398831367493e-01
1.005131192505359650e-02 -1.713149398565292358e-01 9.389476478099822998e-02
-6.316921710968017578e-01 3.028551675379276276e-02 2.464227005839347839e-02
8.160574734210968018e-02 6.670062243938446045e-02 5.193279683589935303e-02
2.494258582592010498e-01 5.311082676053047180e-02 -3.471634387969970703e-01
6.995735317468643188e-02 5.557917803525924683e-02 5.768594145774841309e-01
-8.156259059906005859e-01 2.670530378818511963e-01 2.063017785549163818e-01
9.680413454771041870e-02 -1.792192012071609497e-01 4.552618414163589478e-02
3.724828064441680908e-01 -1.578638106584548950e-01 4.705156758427619934e-02
9.049809575080871582e-01 -4.343219101428985596e-02 -5.421687848865985870e-03
4.646641388535499573e-02 6.442641466856002808e-02 -7.358038425445556641e-01
-1.155294924974441528e-01 -1.549239754676818848e-01 -5.456682667136192322e-02
3.173951804637908936e-02 5.180731788277626038e-02 7.013586163520812988e-01
2.023330628871917725e-01 -1.357596069574356079e-01 7.858543843030929565e-02
-9.064833521842956543e-01 2.654444575309753418e-01 -3.812040016055107117e-02
2.103482633829116821e-01 -4.631655663251876831e-02 3.411735594272613525e-01
-8.901552110910415649e-02 -8.120627701282501221e-02 1.020486429333686829e-01
1.204817928373813629e-02 4.176750779151916504e-02 7.508920431137084961e-01
-2.317435294389724731e-02 5.086435377597808838e-02 1.932112127542495728e-01
-8.540378808975219727e-01 2.745967507362365723e-01 1.594863235950469971e-01
-5.313495397567749023e-01 3.172770142555236816e-02 3.515356034040451050e-02
-3.701856434345245361e-01 -1.430537104606628418e-01 -7.448004186153411865e-02
4.724649190902709961e-01 3.735775873064994812e-02 5.074022710323333740e-02
4.861933887004852295e-01 -1.750064268708229065e-02 -9.569675475358963013e-02
5.697030574083328247e-03 4.074133932590484619e-02 9.460304379463195801e-01
9.164555370807647705e-02 4.320969060063362122e-02 -1.163033321499824524e-01
2.662051022052764893e-01 2.357382141053676605e-02 -6.851716339588165283e-02
1.047916039824485779e-01 4.997685179114341736e-02 -5.269924998283386230e-01
5.931367874145507812e-01 -4.576470702886581421e-03 9.877599030733108521e-02
3.520630300045013428e-02 -1.852652728557586670e-01 -1.786499768495559692e-01
-2.429962158203125000e-01 -2.742951363325119019e-02 9.553109109401702881e-02
-5.313495397567749023e-01 3.172770142555236816e-02 3.515356034040451050e-02
2.985358610749244690e-02 -1.444681584835052490e-01 1.201036572456359863e-01
1.308063566684722900e-01 5.435886979103088379e-02 6.184608340263366699e-01
