-6.113070249557495117e-02 -1.820813305675983429e-02 9.898136556148529053e-02
-4.150571525096893311e-01 5.590560287237167358e-02 -1.209581121802330017e-01
-2.728218436241149902e-01 7.880686968564987183e-02 2.165201902389526367e-01
3.677828311920166016e-01 5.949605628848075867e-02 7.593454420566558838e-02
2.530581653118133545e-01 -1.069990545511245728e-01 1.880268193781375885e-02
-3.489491641521453857e-01 5.733693391084671021e-02 1.624935716390609741e-01
8.260022401809692383e-01 -2.987710013985633850e-02 -8.439857512712478638e-02
8.325523734092712402e-01 -1.568529903888702393e-01 1.758969202637672424e-02
1.436706632375717163e-01 -6.539347022771835327e-02 -1.038306877017021179e-01
8.843106031417846680e-02 -6.214265897870063782e-02 -2.016219943761825562e-01
4.158535599708557129e-02 -6.439881771802902222e-02 -4.733804464340209961e-01
-3.532674312591552734e-01 5.008511245250701904e-03 -9.014815092086791992e-02
8.226301074028015137e-01 -1.464697867631912231e-01 -1.478523481637239456e-03
7.100160717964172363e-01 7.587143778800964355e-02 -5.048334971070289612e-02
6.776292324066162109e-01 -1.134764403104782104e-01 3.221835941076278687e-02
8.226301074028015137e-01 -1.464697867631912231e-01 -1.478523481637239456e-03
-1.061326488852500916e-01 -4.967311397194862366e-02 -6.810930371284484863e-01
3.507524430751800537e-01 -1.646142639219760895e-02 -1.047040373086929321e-01
-7.580423951148986816e-01 2.620655000209808350e-01 -7.248699665069580078e-02
7.998259067535400391e-01 -4.224960878491401672e-02 -8.796476572751998901e-02
1.339424699544906616e-01 -6.857150793075561523e-02 3.164463639259338379e-01
-3.356547653675079346e-01 1.180126145482063293e-02 1.998536884784698486e-01
-4.370365738868713379e-01 4.384847357869148254e-02 -8.769790828227996826e-02
-5.690949410200119019e-02 8.552683889865875244e-02 4.718666896224021912e-02
1.500024646520614624e-01 -6.267637759447097778e-02 -2.673660814762115479e-01
9.010498225688934326e-02 -1.068535000085830688e-01 -1.121032834053039551e-01
1.877507418394088745e-01 -1.006672456860542297e-01 -1.089737638831138611e-01
-3.448735177516937256e-01 8.741910755634307861e-02 -3.847474604845046997e-02
9.829259477555751801e-03 -6.626682728528976440e-02 2.604061663150787354e-01
8.057210445404052734e-01 -1.066594272851943970e-01 -4.245335236191749573e-02
-6.079106405377388000e-02 4.181065037846565247e-02 -9.305932372808456421e-02
7.988069653511047363e-01 3.402325138449668884e-02 -6.161860749125480652e-02
9.496787786483764648e-01 -9.685845673084259033e-02 -1.035761553794145584e-02
2.501469850540161133e-01 -8.375815302133560181e-02 -1.356838196516036987e-01
7.843967080116271973e-01 4.544962197542190552e-02 5.611427873373031616e-02
1.023319363594055176e-01 -8.235108852386474609e-02 3.200610578060150146e-01
6.482626497745513916e-02 -1.084789037704467773e-01 1.069143265485763550e-01
1.880176067352294922e-01 2.298503369092941284e-02 9.560925513505935669e-02
-3.941937088966369629e-01 3.552735969424247742e-02 -1.474498212337493896e-01
5.631106719374656677e-02 -7.708669453859329224e-02 3.886920809745788574e-01
-6.136237382888793945e-01 -2.628665231168270111e-02 -2.678151056170463562e-02
-5.162085592746734619e-02 -4.518504440784454346e-02 6.409456133842468262e-01
-4.418642520904541016e-01 2.720624208450317383e-02 7.574047148227691650e-02
-2.488774061203002930e-01 6.708937883377075195e-02 6.936013698577880859e-02
-2.605949044227600098e-01 6.172982044517993927e-03 1.422123610973358154e-01
-3.178965747356414795e-01 -3.778580203652381897e-02 -8.415596932172775269e-02
-9.152823686599731445e-02 -4.921217635273933411e-02 5.464051365852355957e-01
1.019195169210433960e-01 -6.216691434383392334e-02 1.845214813947677612e-01
-1.092136576771736145e-01 -5.088609829545021057e-02 6.666125059127807617e-01
6.111330389976501465e-01 -8.919235318899154663e-02 7.110684365034103394e-02
-2.409201860427856445e-01 3.606107458472251892e-02 2.168355584144592285e-01
-6.885865330696105957e-01 1.165794059634208679e-01 3.518998622894287109e-03
6.278843432664871216e-02 -6.976023316383361816e-02 8.047113567590713501e-02
4.377238750457763672e-01 -1.197111979126930237e-01 7.109451573342084885e-03
7.753840833902359009e-02 -1.577991098165512085e-01 -9.776572883129119873e-02
-3.199344277381896973e-01 -1.662937924265861511e-03 -9.381137788295745850e-02
2.267362624406814575e-01 -1.187893226742744446e-01 8.589300327003002167e-03
-7.885855436325073242e-01 2.621382772922515869e-01 -8.495654910802841187e-02
-2.123421132564544678e-01 9.382369369268417358e-02 -1.898317337036132812e-01
7.477400898933410645e-01 7.378508895635604858e-02 -3.949365392327308655e-02
-3.489491641521453857e-01 5.054418370127677917e-02 1.850794553756713867e-01
2.787250578403472900e-01 4.804542288184165955e-02 -8.675177395343780518e-02
1.903465390205383301e-01 -6.578163057565689087e-02 1.218826398253440857e-01
1.254636142402887344e-02 -7.919730991125106812e-02 -1.819230318069458008e-01
-6.067824363708496094e-01 5.573578551411628723e-02 3.745847940444946289e-02
-5.406259298324584961e-01 2.623584866523742676e-02 -6.312271207571029663e-02
-1.237452775239944458e-01 -5.120148137211799622e-02 -6.306811571121215820e-01
9.871722012758255005e-02 -8.574746549129486084e-02 2.992461323738098145e-01
3.253644704818725586e-02 -8.504392951726913452e-02 -1.864838600158691406e-01
-5.249298810958862305e-01 2.871035225689411163e-02 -6.574276834726333618e-02
3.178439289331436157e-02 -1.068292409181594849e-01 -1.546792536973953247e-01
7.411777228116989136e-02 -9.431117027997970581e-02 -1.543881446123123169e-01
4.942128062248229980e-02 -1.552760899066925049e-01 -1.237965151667594910e-01
-3.901180624961853027e-01 4.806968569755554199e-02 1.238719373941421509e-01
2.202589064836502075e-01 -6.735851615667343140e-02 -1.537331193685531616e-01
-7.681344747543334961e-01 1.642256826162338257e-01 -2.837073057889938354e-03
-2.748233824968338013e-02 -8.640248328447341919e-02 4.457511603832244873e-01
-5.105437636375427246e-01 1.898216456174850464e-02 -6.957582384347915649e-02
8.394299447536468506e-02 -1.335635483264923096e-01 7.564342767000198364e-02
-4.023095592856407166e-03 4.620167613029479980e-02 -8.988128602504730225e-02
1.048427354544401169e-02 -7.097323238849639893e-02 1.479134112596511841e-01
-3.891234397888183594e-01 -5.714325234293937683e-03 8.153855800628662109e-02
-1.522505581378936768e-01 -4.239516332745552063e-02 7.037057280540466309e-01
6.533572077751159668e-02 -5.770311132073402405e-02 -4.374759197235107422e-01
-2.486590594053268433e-01 -9.023553133010864258e-02 3.469286113977432251e-02
-4.423009455204010010e-01 5.309146270155906677e-02 1.306404322385787964e-01
-3.416598774492740631e-03 -7.138564437627792358e-02 -1.985167413949966431e-01
2.673834934830665588e-02 -7.002709805965423584e-02 -1.258343309164047241e-01
-1.305622905492782593e-01 5.413463711738586426e-02 -8.519914746284484863e-02
-2.450928688049316406e-01 3.761370107531547546e-02 1.321445405483245850e-01
5.880861878395080566e-01 -1.205117776989936829e-01 1.893591019324958324e-03
-1.532209515571594238e-01 -4.433595761656761169e-02 9.107267111539840698e-02
-1.599166542291641235e-01 -1.012961566448211670e-02 9.905415028333663940e-02
-3.450675904750823975e-01 5.522632971405982971e-02 1.098255142569541931e-01
-8.403802514076232910e-01 2.710416316986083984e-01 1.427945941686630249e-01
-9.914582222700119019e-02 -8.429186791181564331e-02 6.217923387885093689e-02
4.412900805473327637e-01 -1.151018291711807251e-01 -3.231274709105491638e-02
-2.475431114435195923e-01 6.711363792419433594e-02 2.056517750024795532e-01
-6.491523236036300659e-02 -8.254515379667282104e-02 6.659451872110366821e-02
7.135214656591415405e-02 -8.244813233613967896e-02 -7.583486288785934448e-02
4.173091426491737366e-02 -8.499539643526077271e-02 2.545110285282135010e-01
2.530581653118133545e-01 -7.468497753143310547e-02 6.921458244323730469e-02
-3.083382248878479004e-01 1.092529296875000000e-01 -1.830875128507614136e-01
-4.492634832859039307e-01 -5.833386257290840149e-02 -4.502489045262336731e-02
1.691192090511322021e-01 -1.130154877901077271e-01 2.591080777347087860e-02
-2.955664414912462234e-03 -7.684411108493804932e-02 1.477193385362625122e-01
6.123460531234741211e-01 3.674034774303436279e-02 8.998098224401473999e-02
1.474309414625167847e-01 6.561137735843658447e-03 -1.024478748440742493e-01
2.530581653118133545e-01 8.361031115055084229e-02 3.442600369453430176e-02
7.123085111379623413e-02 -1.081877946853637695e-01 3.197576105594635010e-02
8.058665990829467773e-01 -7.427256554365158081e-02 -7.527688145637512207e-02
2.717502787709236145e-02 -6.682480126619338989e-02 -1.921364217996597290e-01
-6.510808467864990234e-01 1.609263420104980469e-01 1.361108105629682541e-02
4.034810513257980347e-02 -8.009491115808486938e-02 3.692842423915863037e-01
3.633190095424652100e-01 9.168883413076400757e-02 3.141778707504272461e-02
-2.951408624649047852e-01 9.823898226022720337e-02 1.346190422773361206e-01
8.629984259605407715e-01 -1.104196906089782715e-01 -1.913966797292232513e-02
5.092538893222808838e-02 -9.025979042053222656e-02 3.048501908779144287e-01
-1.524334540590643883e-03 -7.893045246601104736e-02 1.025960817933082581e-01
-5.105437636375427246e-01 1.898216456174850464e-02 -6.957582384347915649e-02
4.494656026363372803e-01 -9.722235798835754395e-02 6.033548712730407715e-02
-2.265341132879257202e-01 5.219385027885437012e-02 1.188501641154289246e-01
9.556344896554946899e-02 -9.314670413732528687e-02 2.307364195585250854e-01
-1.322847306728363037e-01 -3.577224165201187134e-02 7.104499340057373047e-01
1.254636142402887344e-02 -7.919730991125106812e-02 -1.819230318069458008e-01
7.848454266786575317e-02 -9.426265209913253784e-02 -1.313170641660690308e-01
-2.612498998641967773e-01 6.687103956937789917e-02 1.725128740072250366e-01
-3.376926183700561523e-01 5.294590443372726440e-02 1.034694388508796692e-01
-1.522505581378936768e-01 -4.239516332745552063e-02 7.037057280540466309e-01
6.864597797393798828e-01 -3.332199901342391968e-02 -1.003372743725776672e-01
-1.309626083821058273e-02 -6.228821724653244019e-02 -3.441484272480010986e-01
7.679727673530578613e-01 -1.139858812093734741e-01 2.513449452817440033e-02
5.602359175682067871e-01 8.914154767990112305e-02 -4.310836642980575562e-02
1.459510922431945801e-01 -6.583014875650405884e-02 8.711832016706466675e-02
-1.381070911884307861e-01 4.945249110460281372e-02 -8.830440044403076172e-02
4.483982026576995850e-01 7.555789779871702194e-03 -1.020111963152885437e-01
-5.591483786702156067e-02 3.407362382858991623e-03 -1.035153046250343323e-01
7.731643915176391602e-01 5.124771967530250549e-02 5.652669817209243774e-02
-3.299052119255065918e-01 -1.165798120200634003e-02 8.697276562452316284e-02
-6.999886631965637207e-01 2.457871735095977783e-01 1.344126183539628983e-02
-1.826360635459423065e-02 -6.238524988293647766e-02 5.426934361457824707e-01
-7.339038848876953125e-01 6.742901355028152466e-02 -1.181320473551750183e-02
-3.237674832344055176e-01 4.299937933683395386e-02 1.169093698263168335e-01
4.076052457094192505e-02 -6.493254005908966064e-02 1.953656226396560669e-01
-7.191054224967956543e-01 1.955693513154983521e-01 1.225253287702798843e-02
-2.459419518709182739e-01 6.653139740228652954e-02 -7.319054007530212402e-02
4.513093531131744385e-01 -1.142284795641899109e-01 -3.626709803938865662e-02
2.530581653118133545e-01 -2.820317633450031281e-02 6.455669552087783813e-02
2.543924450874328613e-01 -9.690696746110916138e-02 9.364420920610427856e-02
1.530592143535614014e-01 -1.154172196984291077e-01 -1.494272053241729736e-02
-7.406118512153625488e-02 -4.266202449798583984e-02 5.903154015541076660e-01
-6.978294849395751953e-01 2.659955918788909912e-01 -3.214292973279953003e-02
-6.540890932083129883e-01 2.425848692655563354e-01 -1.062447484582662582e-02
4.476339742541313171e-02 -5.486471578478813171e-02 3.482752144336700439e-01
7.261365652084350586e-02 -1.149805486202239990e-01 1.006795540452003479e-01
4.835506677627563477e-01 2.948666550219058990e-02 9.432348608970642090e-02
-2.441224902868270874e-01 7.390638440847396851e-02 -2.219517230987548828e-01
7.933363318443298340e-02 -2.422456815838813782e-02 9.869025647640228271e-02
5.462622642517089844e-01 1.116546615958213806e-01 -2.740033902227878571e-03
6.262711286544799805e-01 -1.167029812932014465e-01 1.870564185082912445e-02
6.050195693969726562e-01 7.473122328519821167e-02 5.946213006973266602e-02
-3.901180624961853027e-01 4.806968569755554199e-02 1.238719373941421509e-01
5.996581315994262695e-01 1.941884122788906097e-02 -5.273951217532157898e-02
2.476239800453186035e-01 -1.010796651244163513e-01 6.353778392076492310e-02
5.999977588653564453e-01 -6.832890957593917847e-02 8.478938043117523193e-02
-4.342466592788696289e-01 -7.393292337656021118e-02 1.140343770384788513e-02
-3.043111264705657959e-01 6.070904433727264404e-02 -7.406388968229293823e-02
-3.518117964267730713e-01 -7.631039619445800781e-02 3.808923810720443726e-02
3.043676912784576416e-01 -9.338930994272232056e-02 6.620636582374572754e-02
-6.987513899803161621e-01 1.052743270993232727e-01 1.990629825741052628e-03
-7.856146432459354401e-03 -4.875123873353004456e-02 -4.729680120944976807e-01
-5.690949410200119019e-02 8.552683889865875244e-02 4.718666896224021912e-02
-2.714269980788230896e-02 -7.349625229835510254e-02 4.331360459327697754e-01
4.630268514156341553e-01 -6.956616044044494629e-02 8.401306718587875366e-02
7.023619860410690308e-02 -5.486471578478813171e-02 4.081242084503173828e-01
-8.284686207771301270e-01 2.721575796604156494e-01 -1.664210110902786255e-01
7.194045782089233398e-01 -8.317591995000839233e-02 7.375116646289825439e-02
7.188466787338256836e-01 8.307659626007080078e-02 2.644452452659606934e-02
-4.977103471755981445e-01 -2.269434509798884392e-03 -6.998823583126068115e-02
-6.070735454559326172e-01 -1.832756795920431614e-03 4.328083246946334839e-02
-4.590159356594085693e-01 -1.112426817417144775e-02 7.098554074764251709e-02
4.113534390926361084e-01 -1.871759071946144104e-02 1.006795540452003479e-01
1.339424699544906616e-01 -6.857150793075561523e-02 3.164463639259338379e-01
5.511870384216308594e-01 -9.850811958312988281e-02 -6.178842484951019287e-02
-2.688432335853576660e-01 8.945692330598831177e-02 -3.990606963634490967e-02
-5.931969881057739258e-01 -9.547380730509757996e-03 -4.650473967194557190e-02
4.345336556434631348e-02 7.453714311122894287e-02 -6.622796505689620972e-02
2.041261196136474609e-01 -6.667923927307128906e-02 -1.065962985157966614e-01
6.798003613948822021e-02 -1.667267233133316040e-01 -7.927975058555603027e-02
-6.581889986991882324e-01 2.419802546501159668e-02 3.495971858501434326e-02
3.921907045878469944e-04 -5.738772824406623840e-02 -3.722655475139617920e-01
-1.232600733637809753e-01 -9.593657404184341431e-02 4.303823783993721008e-02
8.197674751281738281e-01 -1.569257527589797974e-01 1.831748709082603455e-02
-3.456619754433631897e-02 -4.833881929516792297e-02 9.221287816762924194e-02
-4.011077582836151123e-01 -6.464141607284545898e-02 -4.919758066534996033e-02
-2.623173296451568604e-01 1.638636365532875061e-02 -1.892252266407012939e-01
2.274883240461349487e-01 -1.024867296218872070e-01 -6.683446466922760010e-02
-2.265341132879257202e-01 5.219385027885437012e-02 1.188501641154289246e-01
8.060606718063354492e-01 5.857605487108230591e-03 -7.787268608808517456e-02
2.345479279756546021e-01 -2.099801041185855865e-02 -1.037336364388465881e-01
-3.484396934509277344e-01 -8.480133116245269775e-02 -1.588885299861431122e-02
-4.321360886096954346e-01 -4.865420237183570862e-02 -6.047839298844337463e-02
4.630268514156341553e-01 -6.956616044044494629e-02 8.401306718587875366e-02
1.593667715787887573e-01 9.651652723550796509e-02 -1.467586215585470200e-02
9.433226585388183594e-01 -9.647029638290405273e-02 -1.853317394852638245e-02
7.110106945037841797e-01 -1.507861539721488953e-02 -1.031514108180999756e-01
3.486539050936698914e-02 8.931136876344680786e-02 4.092763364315032959e-02
-8.511160500347614288e-03 -7.766894251108169556e-02 -3.902420401573181152e-01
5.757257714867591858e-02 -9.098757803440093994e-02 1.027901619672775269e-01
-2.182615250349044800e-01 8.130563050508499146e-02 -2.040964961051940918e-01
-1.133620738983154297e-01 -3.926565498113632202e-02 -9.808111190795898438e-02
-8.137914538383483887e-01 2.628660798072814941e-01 1.503151506185531616e-01
2.530581653118133545e-01 -8.186588436365127563e-02 2.208968158811330795e-03
2.530581653118133545e-01 -4.858142137527465820e-02 -2.061951719224452972e-02
9.340069293975830078e-01 -1.983353868126869202e-02 -3.153643384575843811e-02
-8.391671776771545410e-01 2.644429802894592285e-01 -7.422178518027067184e-03
-3.854601681232452393e-01 7.727849483489990234e-02 4.560977965593338013e-02
6.548127532005310059e-02 -8.742138743400573730e-02 -2.589721977710723877e-01
5.160830616950988770e-01 6.415393948554992676e-02 7.299911230802536011e-02
-6.423595547676086426e-02 -5.272984504699707031e-02 -4.789844453334808350e-01
1.168393045663833618e-01 -5.918296426534652710e-02 -3.219991922378540039e-01
-7.205367088317871094e-01 2.713327407836914062e-01 -4.623788222670555115e-02
1.198838278651237488e-02 -7.907600700855255127e-02 1.719549000263214111e-01
-4.698601067066192627e-01 4.181065037846565247e-02 8.748221397399902344e-02
-7.079701423645019531e-01 2.718664705753326416e-01 1.028748694807291031e-02
-3.638931810855865479e-01 7.900094240903854370e-02 -2.149891555309295654e-01
-7.484112381935119629e-01 2.714540362358093262e-01 7.668659836053848267e-02
-1.548591186292469501e-03 7.747257500886917114e-02 5.837044119834899902e-02
1.660867333412170410e-01 -6.592718511819839478e-02 -8.825588226318359375e-02
5.996581315994262695e-01 1.941884122788906097e-02 -5.273951217532157898e-02
5.240523815155029297e-02 -5.355468019843101501e-02 3.756888210773468018e-01
-3.542135357856750488e-01 7.456140220165252686e-02 1.272925734519958496e-01
8.190517872571945190e-02 4.984064772725105286e-02 -8.694585412740707397e-02
-3.084837794303894043e-01 1.083310618996620178e-01 -1.595069468021392822e-01
-2.911380231380462646e-01 -4.118217900395393372e-02 -8.507784456014633179e-02
-9.075193107128143311e-02 -6.442307680845260620e-02 -8.403466641902923584e-02
-2.451413720846176147e-01 9.651652723550796509e-02 1.635124832391738892e-01
-2.588118426501750946e-02 -4.748973250389099121e-02 5.872343778610229492e-01
-7.489207386970520020e-01 2.438949048519134521e-01 -1.676220633089542389e-02
6.833107327111065388e-04 -6.794075667858123779e-02 2.577618658542633057e-01
2.237037867307662964e-01 -2.893097512423992157e-02 9.861747175455093384e-02
-4.071613308042287827e-03 -4.802344739437103271e-02 4.925726056098937988e-01
4.386578127741813660e-02 -8.734859526157379150e-02 1.718821078538894653e-01
7.135214656591415405e-02 -8.244813233613967896e-02 -7.583486288785934448e-02
5.312454700469970703e-01 -5.018256604671478271e-02 9.478442370891571045e-02
-8.174546360969543457e-01 2.709931135177612305e-01 -5.713054165244102478e-02
-5.799268484115600586e-01 7.621107250452041626e-02 1.382942032068967819e-02
-7.070967555046081543e-01 1.517561376094818115e-01 -9.848158806562423706e-03
9.392581880092620850e-03 -8.305461704730987549e-02 2.392758876085281372e-01
-1.335705071687698364e-01 -4.256498813629150391e-02 6.503584384918212891e-01
1.959505528211593628e-01 -9.081776440143585205e-02 -1.935434788465499878e-01
9.781597852706909180e-01 -5.127425864338874817e-02 -2.146861143410205841e-02
8.834606967866420746e-03 -5.459785833954811096e-02 -3.941236138343811035e-01
6.016959547996520996e-01 9.387221932411193848e-02 -2.425848878920078278e-02
1.202114224433898926e-01 -1.018559858202934265e-01 3.554195538163185120e-02
7.281980942934751511e-03 -7.575241476297378540e-02 2.967959046363830566e-01
4.137309193611145020e-01 -6.806204468011856079e-02 -8.881385624408721924e-02
-7.950385808944702148e-01 2.619442045688629150e-01 5.400367453694343567e-02
7.251662015914916992e-02 -8.938642591238021851e-02 -2.195985168218612671e-01
-3.205409049987792969e-01 2.829793281853199005e-02 1.219554170966148376e-01
-3.544318974018096924e-01 9.290182590484619141e-02 -1.715883612632751465e-01
8.915886282920837402e-02 -8.111383765935897827e-02 3.378435075283050537e-01
4.942128062248229980e-02 -1.552760899066925049e-01 -1.237965151667594910e-01
-4.412092268466949463e-01 -3.761598095297813416e-02 -6.588833034038543701e-02
5.890686810016632080e-02 -9.479637444019317627e-02 -1.544366478919982910e-01
2.530581653118133545e-01 4.464904963970184326e-02 -6.118192896246910095e-02
-4.051348865032196045e-01 2.912276796996593475e-02 8.471660315990447998e-02
2.038592696189880371e-01 9.193143248558044434e-02 -3.512688726186752319e-02
9.697052091360092163e-02 -1.464940458536148071e-01 -9.703794121742248535e-02
5.996581315994262695e-01 2.827367372810840607e-02 2.212627604603767395e-02
5.014301538467407227e-01 -1.193472966551780701e-01 -1.164338551461696625e-02
3.510678112506866455e-01 9.440593421459197998e-02 -2.222066558897495270e-02
7.790230214595794678e-02 -1.840239763259887695e-01 8.617218583822250366e-02
3.183291479945182800e-02 -5.125000327825546265e-02 -4.713911414146423340e-01
-1.599166542291641235e-01 -1.012961566448211670e-02 9.905415028333663940e-02
2.081047296524047852e-01 4.423663392663002014e-02 -8.949313312768936157e-02
6.256646513938903809e-01 -1.435082219541072845e-02 1.014316082000732422e-01
-1.232600733637809753e-01 -9.593657404184341431e-02 4.303823783993721008e-02
-3.448735177516937256e-01 8.741910755634307861e-02 -3.847474604845046997e-02
-1.724347323179244995e-01 -4.280758276581764221e-02 9.102415293455123901e-02
-6.866700053215026855e-01 7.824889570474624634e-02 1.408394426107406616e-03
8.439787030220031738e-01 -7.728078216314315796e-02 -6.698001921176910400e-02
7.874776721000671387e-01 -7.339920848608016968e-02 7.493989169597625732e-02
-5.840510129928588867e-01 1.421249806880950928e-01 -1.457882393151521683e-02
7.525677680969238281e-01 5.362518131732940674e-02 -6.627649068832397461e-02
8.687843382358551025e-02 6.922423839569091797e-02 6.948143243789672852e-02
1.375814378261566162e-01 -6.369528919458389282e-02 -2.994618415832519531e-01
-3.489491641521453857e-01 3.724980726838111877e-02 -1.461883187294006348e-01
-8.174546360969543457e-01 2.709931135177612305e-01 -5.713054165244102478e-02
-2.752235531806945801e-01 1.123096719384193420e-01 1.686555594205856323e-01
-7.430983185768127441e-01 1.174527481198310852e-01 -1.187405665405094624e-03
5.110855698585510254e-01 2.305781282484531403e-02 -9.912427514791488647e-02
2.618402242660522461e-01 -1.012009680271148682e-01 -6.108488887548446655e-02
1.844756603240966797e-01 -6.522365659475326538e-02 -1.761977076530456543e-01
1.193986460566520691e-02 9.268347918987274170e-02 3.287337720394134521e-02
4.757389724254608154e-01 -1.243429630994796753e-02 -1.054560914635658264e-01
5.996581315994262695e-01 2.827367372810840607e-02 2.212627604603767395e-02
-2.749567031860351562e-01 1.026785224676132202e-01 -2.010882794857025146e-01
1.834445446729660034e-02 -8.366110175848007202e-02 7.426062226295471191e-02
5.706312134861946106e-02 6.662844121456146240e-02 -7.605319470167160034e-02
2.770874463021755219e-02 -8.552911877632141113e-02 -8.391337841749191284e-02
-4.722375273704528809e-01 -3.329773247241973877e-02 -6.261325627565383911e-02
-3.645846620202064514e-02 -6.214265897870063782e-02 3.503130674362182617e-01
-1.014262512326240540e-01 -3.810118511319160461e-02 6.591889858245849609e-01
-7.912540435791015625e-01 1.847980022430419922e-01 -1.648342120461165905e-03
7.612527608871459961e-01 6.347466260194778442e-02 4.662868753075599670e-02
-2.080238759517669678e-01 4.814246296882629395e-02 8.483790606260299683e-02
3.486539050936698914e-02 8.931136876344680786e-02 4.092763364315032959e-02
3.391925618052482605e-02 -8.557762950658798218e-02 -1.691623628139495850e-01
-4.494818449020385742e-01 7.693886011838912964e-02 1.535902172327041626e-01
4.345336556434631348e-02 7.453714311122894287e-02 -6.622796505689620972e-02
-8.069016933441162109e-01 2.723274230957031250e-01 -1.367269903421401978e-01
-2.731251530349254608e-02 -8.499539643526077271e-02 -4.401687681674957275e-01
-2.376208454370498657e-01 1.444557961076498032e-02 1.790630221366882324e-01
-2.748233824968338013e-02 -8.640248328447341919e-02 4.457511603832244873e-01
-3.325738012790679932e-01 1.255331095308065414e-02 -1.400263309478759766e-01
-3.605695962905883789e-01 1.016353517770767212e-01 -1.530538499355316162e-01
-7.560045719146728516e-01 2.666991353034973145e-01 1.114751771092414856e-01
-2.355587631464004517e-01 7.735127955675125122e-02 -5.941095948219299316e-02
3.033002614974975586e-01 -1.213366091251373291e-01 -4.171363078057765961e-03
3.379917740821838379e-01 9.544910490512847900e-02 1.378090027719736099e-02
-3.489491641521453857e-01 5.995699018239974976e-02 1.512127518653869629e-01
2.770874463021755219e-02 -8.552911877632141113e-02 -8.391337841749191284e-02
-4.835911393165588379e-01 3.746814653277397156e-02 -8.054125308990478516e-02
-6.205134391784667969e-01 1.421007215976715088e-01 1.416905783116817474e-02
-6.236187219619750977e-01 -8.407166227698326111e-03 3.517805784940719604e-02
2.530581653118133545e-01 -1.104963594116270542e-03 -9.468473494052886963e-02
8.260022401809692383e-01 -2.987710013985633850e-02 -8.439857512712478638e-02
-7.658419013023376465e-02 -5.898888409137725830e-02 4.746446013450622559e-01
-2.302458584308624268e-01 -8.754269033670425415e-02 4.277138039469718933e-02
-2.276985794305801392e-01 -9.462655335664749146e-02 2.309666946530342102e-02
6.520108580589294434e-01 7.038871198892593384e-02 6.331944465637207031e-02
-4.107389152050018311e-01 1.793899200856685638e-02 7.823922485113143921e-02
1.160872504115104675e-01 7.902520895004272461e-02 -5.902280658483505249e-02
-4.877153038978576660e-01 3.991838172078132629e-02 -8.997832238674163818e-02
-3.264967352151870728e-02 -1.073387041687965393e-01 1.766247116029262543e-02
-3.500651121139526367e-01 -5.277836695313453674e-02 6.630340218544006348e-02
3.003890812397003174e-01 -1.097870524972677231e-02 -1.054560914635658264e-01
8.367613703012466431e-02 -1.360137909650802612e-01 -9.737757593393325806e-02
-6.491523236036300659e-02 -4.829029738903045654e-02 -5.315797328948974609e-01
1.271618064492940903e-02 -7.834821939468383789e-02 2.247927784919738770e-01
4.277288317680358887e-01 -2.708722837269306183e-02 -1.027389913797378540e-01
-3.153978288173675537e-01 7.737554609775543213e-02 -5.623292550444602966e-02
5.793647095561027527e-02 -8.582023531198501587e-02 -2.970843911170959473e-01
-6.752402405254542828e-04 -7.233177870512008667e-02 -4.598677456378936768e-01
-4.749303758144378662e-01 3.911780938506126404e-02 7.933092117309570312e-02
-9.574944525957107544e-02 -4.205552861094474792e-02 -6.207346320152282715e-01
3.286759853363037109e-01 -1.141557097434997559e-01 3.420766443014144897e-02
5.507381632924079895e-02 -7.478202134370803833e-02 4.065473079681396484e-01
2.530581653118133545e-01 -1.069990545511245728e-01 1.880268193781375885e-02
-3.674958273768424988e-02 -6.910523027181625366e-02 4.444168508052825928e-01
7.423058748245239258e-01 -6.607274711132049561e-02 -8.745530247688293457e-02
7.045575976371765137e-01 -1.102256178855895996e-01 4.015132039785385132e-02
-2.365291565656661987e-01 6.839940696954727173e-02 2.175390869379043579e-01
-1.637739688158035278e-01 -9.154555201530456543e-02 4.495476186275482178e-02
5.951336026191711426e-02 -8.528651297092437744e-02 -3.117372989654541016e-01
-9.481551125645637512e-03 -1.425378210842609406e-02 1.000730618834495544e-01
9.262800961732864380e-02 -5.692679807543754578e-02 2.742828130722045898e-01
5.511870384216308594e-01 -9.850811958312988281e-02 -6.178842484951019287e-02
-2.532926797866821289e-01 4.195620864629745483e-02 -1.228503808379173279e-01
4.137309193611145020e-01 -6.806204468011856079e-02 -8.881385624408721924e-02
8.915886282920837402e-02 -8.111383765935897827e-02 3.378435075283050537e-01
-1.474713683128356934e-01 6.046644970774650574e-02 7.658956199884414673e-02
-2.734526097774505615e-01 7.623533159494400024e-02 -2.228735834360122681e-01
7.027138471603393555e-01 -2.538903988897800446e-02 9.791394323110580444e-02
7.452170848846435547e-01 3.431623568758368492e-03 -9.339895844459533691e-02
2.090379362925887108e-03 6.611898541450500488e-02 -7.665969431400299072e-02
1.012644991278648376e-01 3.385343030095100403e-02 -9.686811268329620361e-02
-2.813613116741180420e-01 5.398907884955406189e-02 1.148958131670951843e-01
5.996581315994262695e-01 -2.994987927377223969e-02 -8.100219815969467163e-02
4.590360075235366821e-02 8.048079907894134521e-02 -5.768851563334465027e-02
-4.260225892066955566e-01 5.423167720437049866e-02 -1.440534591674804688e-01
-6.145941019058227539e-01 7.599272578954696655e-02 1.509093120694160461e-02
-3.409434258937835693e-01 8.865823037922382355e-03 -9.070612490177154541e-02
-4.337857365608215332e-01 7.635662704706192017e-02 -4.538878798484802246e-02
7.079417258501052856e-02 -6.755259633064270020e-02 -1.180469393730163574e-01
-2.737194597721099854e-01 4.215028882026672363e-02 -8.905645459890365601e-02
5.996581315994262695e-01 -1.624308526515960693e-02 -2.066803723573684692e-02
-3.587258458137512207e-01 1.025814861059188843e-01 1.878208220005035400e-01
-1.944869011640548706e-01 -4.161885380744934082e-02 -9.419953823089599609e-02
-6.875433325767517090e-01 2.009811624884605408e-02 2.639600448310375214e-02
4.364743828773498535e-02 -6.107522174715995789e-02 4.718547463417053223e-01
1.254636142402887344e-02 -7.919730991125106812e-02 -1.819230318069458008e-01
-3.489491641521453857e-01 7.553179562091827393e-02 -1.942712664604187012e-01
8.801864832639694214e-02 -1.114628687500953674e-01 1.945769786834716797e-02
-1.727258414030075073e-01 6.713789701461791992e-02 -7.532539963722229004e-02
-6.674077510833740234e-01 8.598963730037212372e-03 2.981663867831230164e-02
4.496111869812011719e-01 -1.857202872633934021e-02 -1.043158769607543945e-01
-2.491199970245361328e-01 1.298998855054378510e-02 -1.766829043626785278e-01
-5.052794218063354492e-01 -5.467063561081886292e-02 -3.080863878130912781e-02
-8.273041248321533203e-01 2.666506171226501465e-01 -5.742165446281433105e-02
-2.663687169551849365e-01 3.263661928940564394e-04 -1.866779476404190063e-01
-6.651637703180313110e-02 -3.096879273653030396e-02 9.643408656120300293e-02
-7.860866785049438477e-01 2.621868252754211426e-01 8.680294454097747803e-02
-2.964994311332702637e-01 -7.247734069824218750e-02 5.351847782731056213e-02
4.809548854827880859e-01 9.484260529279708862e-02 -2.013432234525680542e-02
-1.532209515571594238e-01 -4.433595761656761169e-02 9.107267111539840698e-02
-4.612963497638702393e-01 -6.978449970483779907e-02 -1.375399064272642136e-02
5.910701751708984375e-01 8.477478474378585815e-02 -4.927035793662071228e-02
-2.616865932941436768e-01 5.503224954009056091e-02 1.933520436286926270e-01
-3.269697427749633789e-01 8.118432760238647461e-02 -4.948869720101356506e-02
-1.105964630842208862e-01 -4.843586683273315430e-02 -6.918644309043884277e-01
-8.317080326378345490e-03 -8.599004894495010376e-02 3.832336366176605225e-01
-6.629439592361450195e-01 2.661654353141784668e-01 -1.478523481637239456e-03
2.654427476227283478e-02 -7.769320160150527954e-02 -7.784841954708099365e-02
-3.205166459083557129e-01 1.014412716031074524e-01 -2.009427249431610107e-01
-5.672761704772710800e-03 -6.716443598270416260e-02 -5.076838135719299316e-01
-3.722628355026245117e-01 3.606107458472251892e-02 -2.154258340597152710e-01
-2.080238759517669678e-01 4.814246296882629395e-02 8.483790606260299683e-02
-3.604725897312164307e-01 9.147048741579055786e-02 -1.795455664396286011e-01
1.620353311300277710e-01 -3.225456550717353821e-02 -1.011621057987213135e-01
-2.737194597721099854e-01 4.215028882026672363e-02 -8.905645459890365601e-02
-3.672410845756530762e-01 8.028671890497207642e-02 4.335361719131469727e-02
8.498616516590118408e-02 -6.612126529216766357e-02 1.261281073093414307e-01
-6.852872371673583984e-01 1.450119167566299438e-01 -1.499124057590961456e-02
-2.382516115903854370e-01 4.603185877203941345e-02 -1.229231581091880798e-01
1.019922941923141479e-01 -1.471490561962127686e-01 -1.150387227535247803e-01
7.438462972640991211e-02 -8.077418804168701172e-02 3.497551083564758301e-01
-3.747616112232208252e-01 4.251418262720108032e-02 7.355708628892898560e-02
5.134387612342834473e-01 -3.822061000391840935e-03 1.005097404122352600e-01
-3.672410845756530762e-01 8.028671890497207642e-02 4.335361719131469727e-02
4.835506677627563477e-01 2.948666550219058990e-02 9.432348608970642090e-02
5.735423788428306580e-02 -1.460088342428207397e-01 -9.837222099304199219e-02
-7.683285474777221680e-01 2.832443118095397949e-01 8.322441950440406799e-03
-2.260974347591400146e-01 -4.154607653617858887e-02 -9.247709065675735474e-02
5.973049402236938477e-01 5.648783966898918152e-02 7.782681286334991455e-02
-1.105964630842208862e-01 -4.843586683273315430e-02 -6.918644309043884277e-01
-3.572460114955902100e-01 6.000551208853721619e-02 -2.175364345312118530e-01
2.530581653118133545e-01 9.445444494485855103e-02 1.569742523133754730e-02
8.260022401809692383e-01 -2.987710013985633850e-02 -8.439857512712478638e-02
6.623212099075317383e-01 8.870486915111541748e-02 2.974385954439640045e-02
-3.444853425025939941e-01 8.984508365392684937e-02 2.916162461042404175e-02
-5.621443986892700195e-01 1.378552466630935669e-01 8.565040305256843567e-03
-3.520786762237548828e-01 4.401829093694686890e-02 1.250606626272201538e-01
-3.675079345703125000e-01 6.187351793050765991e-02 1.334788203239440918e-01
9.524806588888168335e-02 -5.838238447904586792e-02 3.682895600795745850e-01
-2.364563643932342529e-01 2.640566788613796234e-02 2.116196900606155396e-01
-7.580423951148986816e-01 2.620655000209808350e-01 -7.248699665069580078e-02
-1.524334540590643883e-03 -7.893045246601104736e-02 1.025960817933082581e-01
-3.419865667819976807e-01 8.535701781511306763e-02 3.840461373329162598e-02
-1.522505581378936768e-01 -4.239516332745552063e-02 7.037057280540466309e-01
8.171109855175018311e-02 -5.605344474315643311e-02 -3.783304989337921143e-01
1.702836900949478149e-01 7.419750094413757324e-02 6.116031855344772339e-02
-8.347399532794952393e-02 -3.201197087764739990e-02 9.611871093511581421e-02
3.746119141578674316e-02 -8.295757323503494263e-02 3.097506165504455566e-01
4.173091426491737366e-02 -8.499539643526077271e-02 2.545110285282135010e-01
3.933526575565338135e-01 -1.156355440616607666e-01 -3.022640384733676910e-02
-3.835436403751373291e-01 8.846227824687957764e-02 -1.838638037443161011e-01
-3.657369613647460938e-01 5.333406478166580200e-02 -1.255674809217453003e-01
8.693545460700988770e-01 -9.882349520921707153e-02 3.804071620106697083e-02
1.513852775096893311e-01 3.635219112038612366e-02 -9.490306675434112549e-02
-7.633552551269531250e-01 2.543508708477020264e-01 1.203419361263513565e-02
-8.347399532794952393e-02 -3.201197087764739990e-02 9.611871093511581421e-02
1.616957038640975952e-01 -6.386510282754898071e-02 1.500482857227325439e-01
-3.604725897312164307e-01 9.147048741579055786e-02 -1.795455664396286011e-01
-1.042889133095741272e-01 9.561892598867416382e-02 2.151978202164173126e-02
2.530581653118133545e-01 5.622098222374916077e-02 -4.110914887860417366e-04
4.377238750457763672e-01 -1.197111979126930237e-01 7.109451573342084885e-03
1.157476156949996948e-01 -6.755259633064270020e-02 7.823922485113143921e-02
8.057210445404052734e-01 -1.066594272851943970e-01 -4.245335236191749573e-02
2.936933636665344238e-01 -9.207926690578460693e-02 -7.171069085597991943e-02
-7.636464238166809082e-01 2.204356491565704346e-01 -7.519217208027839661e-03
-1.504068225622177124e-01 -3.540834039449691772e-02 -7.112722396850585938e-01
8.102090954780578613e-01 -4.283184558153152466e-02 8.258174359798431396e-02
1.622294187545776367e-01 -9.338930994272232056e-02 -1.992930620908737183e-01
-3.268242180347442627e-01 -3.303087502717971802e-02 -8.609676361083984375e-02
3.684135675430297852e-01 -1.064168214797973633e-01 -5.116262286901473999e-02
4.211907461285591125e-02 -8.717878162860870361e-02 1.605285108089447021e-01
-4.758279919624328613e-01 -4.719861596822738647e-02 -5.196319893002510071e-02
5.026916265487670898e-01 -7.805710285902023315e-02 7.855460792779922485e-02
6.259800791740417480e-01 1.859400793910026550e-02 9.611871093511581421e-02
-6.479392945766448975e-02 -6.185154244303703308e-02 5.494375824928283691e-01
3.942017853260040283e-01 -5.498600751161575317e-02 9.335309267044067383e-02
-8.089394569396972656e-01 2.646370530128479004e-01 2.627470530569553375e-02
-6.132355332374572754e-01 1.692717224359512329e-01 1.103954110294580460e-02
-1.069454476237297058e-02 -7.349625229835510254e-02 -2.024953365325927734e-01
-3.284496068954467773e-01 8.761318027973175049e-02 -1.313655674457550049e-01
-4.075851440429687500e-01 4.933119565248489380e-02 -1.423795223236083984e-01
4.660593271255493164e-01 -2.650498785078525543e-02 9.922397136688232422e-02
6.798003613948822021e-02 -1.667267233133316040e-01 -7.927975058555603027e-02
-8.281775116920471191e-01 2.503965198993682861e-01 -9.023325517773628235e-03
-4.001373648643493652e-01 3.790482133626937866e-02 -7.944956421852111816e-02
-7.951356768608093262e-01 2.619927227497100830e-01 -6.222509592771530151e-02
-7.172374129295349121e-01 2.659228146076202393e-01 -5.936244130134582520e-02
-3.400822356343269348e-02 -6.333138793706893921e-02 5.466962456703186035e-01
4.598245322704315186e-01 -1.170911416411399841e-01 1.914232037961483002e-02
-8.184978961944580078e-01 2.720605432987213135e-01 1.218341141939163208e-01
-1.359722167253494263e-01 8.606055378913879395e-02 4.621627181768417358e-02
-3.678233027458190918e-01 9.413907676935195923e-02 -6.379006430506706238e-03
1.789929419755935669e-01 -3.627981059253215790e-03 1.005825251340866089e-01
-3.042868673801422119e-01 7.145614176988601685e-02 6.191237270832061768e-02
-1.193542554974555969e-01 -5.239020660519599915e-02 6.004559993743896484e-01
6.833107327111065388e-04 -6.794075667858123779e-02 2.577618658542633057e-01
2.074982374906539917e-01 -7.138564437627792358e-02 -1.997054666280746460e-01
5.714439749717712402e-01 7.851574569940567017e-02 -5.807667225599288940e-02
-3.722628355026245117e-01 3.606107458472251892e-02 -2.154258340597152710e-01
7.195864617824554443e-02 -9.853237867355346680e-02 -1.024478748440742493e-01
-3.764597773551940918e-01 2.786125615239143372e-02 1.882817447185516357e-01
-1.821508258581161499e-02 -7.133712619543075562e-02 -4.480046629905700684e-01
8.847958594560623169e-02 -9.416560828685760498e-02 1.389372795820236206e-01
1.952227652072906494e-01 5.857605487108230591e-03 -1.024721339344978333e-01
5.325312018394470215e-01 -7.895470410585403442e-02 -8.170572668313980103e-02
6.538788676261901855e-01 -1.124575138092041016e-01 -4.124036058783531189e-02
-4.857260286808013916e-01 -3.045934066176414490e-02 -6.137600913643836975e-02
-7.856146432459354401e-03 -4.875123873353004456e-02 -4.729680120944976807e-01
2.667407095432281494e-01 7.485251873731613159e-02 -6.324400752782821655e-02
-7.153450846672058105e-01 2.536249533295631409e-02 3.203620901331305504e-03
2.418501377105712891e-01 -9.038109332323074341e-02 -7.367572933435440063e-02
-6.742975115776062012e-01 1.059778556227684021e-01 -9.435743093490600586e-03
7.477400898933410645e-01 7.378508895635604858e-02 -3.949365392327308655e-02
1.531197689473628998e-02 -7.204066216945648193e-02 -1.175617352128028870e-01
5.996581315994262695e-01 -2.994987927377223969e-02 -8.100219815969467163e-02
-3.242769539356231689e-01 5.950732156634330750e-05 1.718821078538894653e-01
-3.854601681232452393e-01 7.727849483489990234e-02 4.560977965593338013e-02
1.479403823614120483e-01 -9.719808399677276611e-02 -5.916836112737655640e-02
-3.164652585983276367e-01 1.095216721296310425e-02 -1.414333879947662354e-01
-4.080218374729156494e-01 -8.099253475666046143e-02 -1.575562753714621067e-03
2.530581653118133545e-01 -9.164259582757949829e-02 -4.502489045262336731e-02
-4.284242987632751465e-01 7.769091427326202393e-02 -1.926458626985549927e-01
-7.856146432459354401e-03 -4.785362631082534790e-02 4.756149947643280029e-01
-2.412355542182922363e-01 7.555789779871702194e-03 -1.471344530582427979e-01
2.123502045869827271e-01 -9.110888093709945679e-02 6.766194850206375122e-02
7.229828089475631714e-02 -9.513600170612335205e-02 2.388392090797424316e-01
-2.656166553497314453e-01 9.421184659004211426e-02 2.067677229642868042e-01
4.106499254703521729e-01 5.173291638493537903e-02 -8.442282676696777344e-02
-2.435402572154998779e-01 1.439705770462751389e-02 -1.629033386707305908e-01
2.620463632047176361e-02 -5.074054002761840820e-02 4.727038443088531494e-01
-9.832099080085754395e-02 -4.043012484908103943e-02 -6.382502317428588867e-01
-7.689958065748214722e-02 -4.659212008118629456e-02 -5.613222718238830566e-01
9.422309994697570801e-01 -9.156981110572814941e-02 2.256295457482337952e-02
2.530581653118133545e-01 7.332415133714675903e-02 4.085485637187957764e-02
2.530581653118133545e-01 8.601203560829162598e-02 2.183515951037406921e-02
-5.909287557005882263e-02 -6.374379992485046387e-02 5.205684304237365723e-01
7.790230214595794678e-02 -1.840239763259887695e-01 8.617218583822250366e-02
-4.902505502104759216e-02 -4.964885115623474121e-02 -6.377164721488952637e-01
5.731663703918457031e-01 -1.058103367686271667e-01 4.786593839526176453e-02
-1.193179003894329071e-02 -7.150694727897644043e-02 2.388149350881576538e-01
-3.959161341190338135e-01 8.399847149848937988e-02 1.854190826416015625e-01
2.232306264340877533e-02 -8.215699344873428345e-02 1.750358790159225464e-01
2.530581653118133545e-01 4.464904963970184326e-02 -6.118192896246910095e-02
8.434935808181762695e-01 1.711415871977806091e-02 -5.298211053013801575e-02
-1.309626083821058273e-02 -6.228821724653244019e-02 -3.441484272480010986e-01
2.785795032978057861e-01 8.526185527443885803e-03 -1.018413826823234558e-01
-6.357486248016357422e-01 1.404510587453842163e-01 1.363534200936555862e-02
-4.023095592856407166e-03 4.620167613029479980e-02 -8.988128602504730225e-02
-3.356024972163140774e-04 -4.814473912119865417e-02 -5.328655242919921875e-01
-4.546976983547210693e-01 8.526185527443885803e-03 7.506119459867477417e-02
-8.069016933441162109e-01 2.723274230957031250e-01 -1.367269903421401978e-01
-5.333237648010253906e-01 9.712302684783935547e-02 8.953196927905082703e-03
7.748988270759582520e-02 -1.307979375123977661e-01 1.123727858066558838e-01
8.547136932611465454e-02 -6.934782117605209351e-02 -4.004068970680236816e-01
-3.733302652835845947e-01 6.182499974966049194e-02 1.240660175681114197e-01
-2.108137458562850952e-01 1.303851138800382614e-02 -9.929410368204116821e-02
5.714439749717712402e-01 7.851574569940567017e-02 -5.807667225599288940e-02
-4.492634832859039307e-01 -5.833386257290840149e-02 -4.502489045262336731e-02
1.437434405088424683e-01 -4.996423050761222839e-02 -9.774146974086761475e-02
-6.388782262802124023e-01 3.836575523018836975e-02 3.823479637503623962e-02
8.539495468139648438e-01 -5.304522812366485596e-02 -7.343313097953796387e-02
4.938125908374786377e-01 -8.725157380104064941e-02 -7.644135504961013794e-02
-1.359722167253494263e-01 8.606055378913879395e-02 4.621627181768417358e-02
-8.172848224639892578e-01 2.712357342243194580e-01 5.972899124026298523e-02
-3.178965747356414795e-01 -3.778580203652381897e-02 -8.415596932172775269e-02
1.012644991278648376e-01 3.385343030095100403e-02 -9.686811268329620361e-02
5.122858099639415741e-03 -7.533999532461166382e-02 -2.718784213066101074e-01
-4.825237095355987549e-01 8.906877785921096802e-02 -4.001544322818517685e-03
-7.227200865745544434e-01 1.840944588184356689e-01 8.880417793989181519e-03
-3.518117964267730713e-01 1.929754205048084259e-02 -1.769497692584991455e-01
-9.220751374959945679e-02 -1.057618036866188049e-01 -1.790241897106170654e-02
5.078347325325012207e-01 4.930693283677101135e-02 8.233913779258728027e-02
-4.360418915748596191e-01 8.596350997686386108e-02 2.777881547808647156e-02
6.198666095733642578e-01 -9.904184192419052124e-02 -6.072099506855010986e-02
7.198655605316162109e-01 1.369540579617023468e-03 -9.725627303123474121e-02
5.996581315994262695e-01 -3.283680230379104614e-02 -3.025066480040550232e-02
2.977690100669860840e-01 -1.079937219619750977e-01 4.558552056550979614e-02
7.195864617824554443e-02 -9.853237867355346680e-02 -1.024478748440742493e-01
5.090112984180450439e-02 -8.926512300968170166e-02 -1.410452425479888916e-01
-2.339091002941131592e-01 1.272500492632389069e-03 -1.821656227111816406e-01
8.687843382358551025e-02 6.922423839569091797e-02 6.948143243789672852e-02
5.090112984180450439e-02 -8.926512300968170166e-02 -1.410452425479888916e-01
7.068622708320617676e-01 -7.521869987249374390e-02 -8.265186101198196411e-02
4.205236732959747314e-01 -9.974537044763565063e-02 5.689059197902679443e-02
5.989060401916503906e-01 8.436236530542373657e-02 4.624053463339805603e-02
-3.489491641521453857e-01 5.733693391084671021e-02 1.624935716390609741e-01
4.666900634765625000e-01 -1.149562746286392212e-01 -3.270090371370315552e-02
-8.284686207771301270e-01 2.721575796604156494e-01 -1.664210110902786255e-01
-5.864527225494384766e-01 1.235419735312461853e-01 1.239809021353721619e-02
2.324373275041580200e-01 7.822462916374206543e-02 5.504684522747993469e-02
1.280715912580490112e-01 -6.544198840856552124e-02 -1.142866685986518860e-01
7.300181686878204346e-02 -9.426265209913253784e-02 -8.997832238674163818e-02
-1.829877495765686035e-01 3.062687627971172333e-02 -7.263133525848388672e-01
2.530581653118133545e-01 7.332415133714675903e-02 4.085485637187957764e-02
1.173730194568634033e-01 -1.420340267941355705e-03 1.003156602382659912e-01
-3.542135357856750488e-01 7.456140220165252686e-02 1.272925734519958496e-01
-4.123765230178833008e-02 -5.794571340084075928e-02 -8.927479386329650879e-02
-6.585043668746948242e-01 -1.830904220696538687e-04 -3.216718882322311401e-02
7.623687386512756348e-01 2.490155957639217377e-02 7.768125087022781372e-02
-4.977103471755981445e-01 -2.269434509798884392e-03 -6.998823583126068115e-02
-5.824013352394104004e-01 1.004466265439987183e-01 -1.814501546323299408e-02
8.547136932611465454e-02 -6.934782117605209351e-02 -4.004068970680236816e-01
-3.552567064762115479e-01 7.245080173015594482e-02 2.011637091636657715e-01
3.504855632781982422e-01 -1.136705055832862854e-01 3.626975044608116150e-02
5.996581315994262695e-01 -9.278280287981033325e-02 1.249513030052185059e-02
1.526953130960464478e-01 -1.012980118393898010e-01 8.830705285072326660e-02
-3.678233027458190918e-01 9.413907676935195923e-02 -6.379006430506706238e-03
1.296484917402267456e-01 7.606551051139831543e-02 5.885563790798187256e-02
4.135125577449798584e-01 -2.308435365557670593e-02 -1.034667789936065674e-01
-2.455053031444549561e-01 -5.292392522096633911e-02 7.886998355388641357e-02
6.931312680244445801e-01 -1.035056486725807190e-01 -5.349156633019447327e-02
2.965560257434844971e-01 -1.983353868126869202e-02 1.004612222313880920e-01
-5.609799623489379883e-01 9.016046673059463501e-02 -1.688350737094879150e-02
8.988786935806274414e-01 -1.124090030789375305e-01 1.734709367156028748e-02
1.455992180854082108e-02 -6.735851615667343140e-02 4.861195087432861328e-01
2.384295016527175903e-01 -8.589302003383636475e-02 1.394224762916564941e-01
-1.267777532339096069e-01 -4.860568046569824219e-02 -6.094537377357482910e-01
-3.214022144675254822e-02 -4.867845773696899414e-02 4.895886778831481934e-01
8.988786935806274414e-01 -1.124090030789375305e-01 1.734709367156028748e-02
-3.489491641521453857e-01 9.345979988574981689e-02 1.592427492141723633e-01
3.469556942582130432e-02 -8.084698021411895752e-02 -3.536825478076934814e-01
2.530581653118133545e-01 -9.911461174488067627e-02 4.604645445942878723e-02
2.818788290023803711e-01 -1.160479635000228882e-01 -2.937731146812438965e-02
-8.110743165016174316e-01 2.918322980403900146e-01 -7.761815562844276428e-03
-3.543105721473693848e-01 -6.784371286630630493e-02 4.985524713993072510e-02
-8.186677098274230957e-01 2.723516821861267090e-01 -1.447569876909255981e-01
6.623212099075317383e-01 8.870486915111541748e-02 2.974385954439640045e-02
2.617189288139343262e-01 -7.980379462242126465e-02 7.780255377292633057e-02
-2.209543585777282715e-01 9.542483836412429810e-02 -1.847371757030487061e-01
