-6.415730118751525879e-01 1.622592657804489136e-01 -5.085197277367115021e-03
-7.834917306900024414e-01 1.949270069599151611e-01 -8.917479217052459717e-02
2.383044362068176270e-01 -3.381729125976562500e-02 -3.536774218082427979e-02
2.875281870365142822e-01 6.175395473837852478e-02 -1.399457920342683792e-02
-4.396036565303802490e-01 -8.234970271587371826e-03 -1.438002884387969971e-01
-8.385974913835525513e-02 -6.332815438508987427e-02 -3.236950039863586426e-01
-4.940654933452606201e-01 1.355910860002040863e-02 1.210725903511047363e-01
3.360971510410308838e-01 5.911153554916381836e-02 -2.510207518935203552e-02
7.243217229843139648e-01 -4.590691998600959778e-02 -4.401989653706550598e-02
-4.291399940848350525e-02 -3.517356887459754944e-02 -4.573123157024383545e-01
7.594916224479675293e-01 1.991961337625980377e-02 -6.826931983232498169e-02
-5.728702545166015625e-01 4.781696945428848267e-02 1.186835113912820816e-02
2.705044746398925781e-01 -3.727814927697181702e-02 -7.123911380767822266e-02
-1.258469372987747192e-02 -5.869808048009872437e-02 6.277576833963394165e-02
-3.432841300964355469e-01 5.501930043101310730e-02 2.531426772475242615e-02
8.155435323715209961e-01 -9.731557220220565796e-03 5.896413698792457581e-02
-1.540357470512390137e-01 -2.102613076567649841e-02 6.592366695404052734e-01
-6.775379180908203125e-01 -5.181826418265700340e-04 -3.230440989136695862e-02
3.360971510410308838e-01 5.911153554916381836e-02 -2.510207518935203552e-02
5.047440528869628906e-01 -1.419793814420700073e-02 2.561826258897781372e-02
-6.673189997673034668e-01 2.120574377477169037e-02 2.416844293475151062e-02
1.093171685934066772e-01 -6.753730773925781250e-02 -5.171329900622367859e-02
-5.303577184677124023e-01 7.183254510164260864e-02 2.280827146023511887e-03
7.400701195001602173e-02 -9.848480112850666046e-03 5.019506067037582397e-02
-7.734832763671875000e-01 1.938980966806411743e-01 -3.144308226183056831e-03
-4.262746870517730713e-01 -4.349835216999053955e-02 1.204879730939865112e-01
-4.716633856296539307e-01 4.311674460768699646e-02 7.004436571151018143e-03
-6.305356621742248535e-01 8.467047661542892456e-02 -1.086109597235918045e-02
8.897290378808975220e-02 -4.006086662411689758e-02 -1.280159652233123779e-01
8.831005096435546875e-01 3.799560293555259705e-02 4.291868768632411957e-03
8.013025522232055664e-01 -8.047894574701786041e-03 -2.839924767613410950e-02
9.404151439666748047e-01 -5.112159997224807739e-02 -5.225113406777381897e-02
-5.678083747625350952e-02 -5.420831590890884399e-02 -6.284417957067489624e-02
-7.479944825172424316e-01 2.165807783603668213e-01 4.100907535757869482e-04
6.069798469543457031e-01 3.301476687192916870e-02 -6.020176783204078674e-02
-8.121373653411865234e-01 1.913024336099624634e-01 -1.630221158266067505e-01
8.497078418731689453e-01 -5.748210847377777100e-02 5.075628310441970825e-02
-6.543407440185546875e-01 -1.426809094846248627e-02 2.508042566478252411e-02
-4.388085603713989258e-01 5.013200268149375916e-02 4.408789798617362976e-03
-4.365637004375457764e-01 -2.649803459644317627e-02 1.234109997749328613e-01
1.394594013690948486e-01 -2.825184538960456848e-02 6.539479643106460571e-02
5.003010034561157227e-01 7.970285601913928986e-03 6.057764962315559387e-02
8.330582976341247559e-01 2.217769389972090721e-03 2.183002233505249023e-02
6.156662479043006897e-02 -7.977742701768875122e-03 1.806516572833061218e-02
-3.048404753208160400e-01 -3.456558287143707275e-02 -9.969768673181533813e-02
-2.762073650956153870e-02 -5.989067628979682922e-02 -3.552870154380798340e-01
-4.485489428043365479e-02 -8.135738223791122437e-02 -1.482432931661605835e-01
5.166231989860534668e-01 -1.295858249068260193e-02 3.810542821884155273e-02
-3.313815593719482422e-01 -2.004399336874485016e-02 -8.627515286207199097e-02
-5.549345016479492188e-01 3.582087159156799316e-02 2.440228499472141266e-02
-7.214426249265670776e-02 -7.102155685424804688e-02 -8.938525617122650146e-02
8.093466758728027344e-01 -2.960813231766223907e-02 -7.332030683755874634e-02
8.488659858703613281e-01 5.561708938330411911e-03 -4.748076200485229492e-02
9.296584725379943848e-01 -8.119368553161621094e-02 8.805019780993461609e-03
-5.875086784362792969e-01 -7.065757643431425095e-03 -4.490849748253822327e-02
-5.282890796661376953e-02 -4.749704524874687195e-02 4.494803547859191895e-01
-5.107851624488830566e-01 -9.942018426954746246e-03 1.059897691011428833e-01
-6.900718212127685547e-01 -3.183982567861676216e-03 -2.959184348583221436e-02
-7.505902051925659180e-01 2.089341431856155396e-01 -9.621731936931610107e-03
2.710657119750976562e-01 4.285951703786849976e-02 -5.152622610330581665e-02
-9.358756989240646362e-02 -4.946132004261016846e-02 3.599422276020050049e-01
-5.645687580108642578e-01 -1.209335960447788239e-02 -4.783152043819427490e-02
4.562686383724212646e-01 5.257715005427598953e-03 6.516095250844955444e-02
7.137988209724426270e-01 -8.332164585590362549e-02 -2.643497474491596222e-02
2.277113795280456543e-01 -8.746065199375152588e-02 6.907011265866458416e-04
9.250283837318420410e-01 8.741962723433971405e-03 2.522073127329349518e-02
-6.033865809440612793e-01 6.308685243129730225e-02 -2.770160790532827377e-03
1.652287989854812622e-01 -2.387900091707706451e-02 5.779492855072021484e-02
-4.816952347755432129e-01 -2.856603590771555901e-03 6.990794837474822998e-02
-3.986344933509826660e-01 3.644204698503017426e-03 -1.104076504707336426e-01
1.414345391094684601e-02 -6.508196890354156494e-02 4.612620919942855835e-02
-5.626980662345886230e-01 4.303815148887224495e-05 8.370462059974670410e-02
-8.164166808128356934e-01 1.897123157978057861e-01 -2.043887674808502197e-01
8.142807483673095703e-01 -8.390625566244125366e-02 -2.507869154214859009e-02
4.729649126529693604e-01 2.976436354219913483e-02 -6.256356835365295410e-02
-7.286323904991149902e-01 1.920507401227951050e-01 8.407877385616302490e-02
-6.415730118751525879e-01 1.622592657804489136e-01 -5.085197277367115021e-03
-4.168274402618408203e-01 -3.222716599702835083e-02 -1.045148447155952454e-01
-4.728793203830718994e-01 -3.638955205678939819e-02 7.771827280521392822e-02
-4.896692037582397461e-01 -8.749419823288917542e-03 5.498882383108139038e-02
-8.181471228599548340e-01 1.999312192201614380e-01 -6.441480945795774460e-03
-1.811614185571670532e-01 6.322715431451797485e-02 -2.466166159138083458e-03
-6.273788213729858398e-01 1.699658669531345367e-02 3.162800148129463196e-02
4.173681512475013733e-02 -8.739051222801208496e-02 -6.663242727518081665e-02
7.653376460075378418e-01 -4.555616155266761780e-02 -5.763339344412088394e-03
-1.385787725448608398e-01 -7.899557054042816162e-02 5.021844431757926941e-02
-3.502292633056640625e-01 -4.151068627834320068e-02 8.950390666723251343e-02
1.962596327066421509e-01 6.219825521111488342e-02 2.982353093102574348e-03
5.836423635482788086e-01 6.018721312284469604e-02 1.380923949182033539e-02
4.145745635032653809e-01 -8.566006273031234741e-02 1.041853055357933044e-02
6.921918392181396484e-01 1.945192925631999969e-02 5.989950895309448242e-02
-5.907248333096504211e-02 -3.189978748559951782e-02 4.775179922580718994e-01
4.784009233117103577e-02 -1.948276720941066742e-02 -7.063112407922744751e-02
2.601219117641448975e-01 4.732590168714523315e-02 -4.607770591974258423e-02
-7.617444396018981934e-01 1.900630891323089600e-01 1.369037032127380371e-01
8.476266860961914062e-01 8.367816917598247528e-03 5.267378687858581543e-02
-5.678083747625350952e-02 -5.420831590890884399e-02 -6.284417957067489624e-02
7.206972241401672363e-01 4.496409371495246887e-02 -4.897734895348548889e-02
-4.527455866336822510e-01 -1.593853347003459930e-03 1.338403522968292236e-01
8.487724661827087402e-01 5.544021725654602051e-02 -2.793545136228203773e-03
-7.198165059089660645e-01 2.000481337308883667e-01 1.315448246896266937e-02
5.004179477691650391e-01 3.282769396901130676e-02 3.698298707604408264e-02
-5.807740688323974609e-01 3.037235140800476074e-02 4.268484655767679214e-03
-3.099850118160247803e-01 -5.766917392611503601e-02 5.173841863870620728e-02
-8.019184470176696777e-01 1.881923377513885498e-01 1.990355104207992554e-01
-7.945758104324340820e-01 1.864385455846786499e-01 -2.568161487579345703e-01
8.462002277374267578e-01 -1.782249100506305695e-02 -3.845445811748504639e-02
-2.617200016975402832e-01 -1.847724802792072296e-02 -7.521442323923110962e-02
6.114462018013000488e-01 -7.583870738744735718e-02 3.303105756640434265e-02
8.727880716323852539e-01 -6.777115911245346069e-02 4.196382313966751099e-02
-5.947110652923583984e-01 3.663931787014007568e-02 6.115836557000875473e-03
-5.678083747625350952e-02 -5.420831590890884399e-02 -6.284417957067489624e-02
6.345264315605163574e-01 -2.622761763632297516e-03 6.616647541522979736e-02
-8.019184470176696777e-01 1.881923377513885498e-01 1.990355104207992554e-01
6.176195740699768066e-01 -1.267796568572521210e-02 5.197225883603096008e-02
-5.078621506690979004e-01 1.030870247632265091e-02 -1.315703690052032471e-01
3.684609234333038330e-01 -4.962501674890518188e-02 -6.618811935186386108e-02
8.572610020637512207e-01 1.447109412401914597e-02 -3.169642016291618347e-02
8.649543523788452148e-01 3.198586404323577881e-02 2.150264196097850800e-02
-4.383876919746398926e-01 5.153505504131317139e-02 -1.233430113643407822e-02
-4.768438264727592468e-02 -4.934439808130264282e-02 -7.556518912315368652e-02
-5.461654663085937500e-01 6.493420898914337158e-02 -5.435960367321968079e-03
-1.834296733140945435e-01 -4.106639325618743896e-02 5.460571050643920898e-01
-6.789643168449401855e-01 1.047239173203706741e-02 -3.242133185267448425e-02
6.544839590787887573e-02 2.511090599000453949e-02 5.739739909768104553e-02
-4.340148270130157471e-01 -3.849413245916366577e-02 -1.195508837699890137e-01
7.439644932746887207e-01 -6.283708661794662476e-02 -2.924107946455478668e-02
-3.422785699367523193e-01 -4.595369100570678711e-02 -1.148506551980972290e-01
-1.121546328067779541e-01 -7.977742701768875122e-03 -3.889875486493110657e-02
8.700287342071533203e-01 2.658411115407943726e-02 -2.882016450166702271e-02
8.373141884803771973e-01 -4.684228822588920593e-02 1.722333393990993500e-02
9.443437457084655762e-01 -2.481436729431152344e-02 -5.246159434318542480e-02
2.625647373497486115e-02 -7.977742701768875122e-03 2.000605501234531403e-02
-8.154470473527908325e-02 -2.888322249054908752e-02 -5.160534381866455078e-01
-5.107851624488830566e-01 -9.942018426954746246e-03 1.059897691011428833e-01
-7.628200650215148926e-01 1.963534206151962280e-01 -7.479350268840789795e-02
1.204714328050613403e-01 4.303815148887224495e-05 6.583909690380096436e-02
2.924622595310211182e-01 5.960260704159736633e-02 -2.407317049801349640e-02
-6.940830498933792114e-02 -5.441877245903015137e-02 6.698492169380187988e-02
5.118995904922485352e-01 2.999820373952388763e-02 7.799498736858367920e-03
-6.708734035491943359e-01 1.596636176109313965e-01 -9.762038476765155792e-03
-2.301045507192611694e-01 -3.982703015208244324e-02 6.165332347154617310e-02
-5.643007159233093262e-02 -7.350029051303863525e-02 1.793226301670074463e-01
1.101122349500656128e-01 6.028075143694877625e-02 1.329478714615106583e-02
-4.044572114944458008e-01 -2.935090474784374237e-02 -1.394742280244827271e-01
-4.992926493287086487e-02 -4.894686862826347351e-02 -4.453396201133728027e-01
7.374402880668640137e-01 -3.070719353854656219e-02 -1.523394137620925903e-02
9.443437457084655762e-01 -2.481436729431152344e-02 -5.246159434318542480e-02
-9.340050071477890015e-02 -4.123007878661155701e-02 -5.282366275787353516e-01
-3.124169409275054932e-01 -4.275005310773849487e-02 9.280107915401458740e-02
-2.001727670431137085e-01 5.597805231809616089e-02 -3.183672577142715454e-02
-6.323595643043518066e-01 8.167729526758193970e-02 2.210674574598670006e-03
-2.182145416736602783e-02 -7.977742701768875122e-03 1.963190734386444092e-02
1.216640248894691467e-01 -7.977742701768875122e-03 -1.754897832870483398e-02
7.844425439834594727e-01 -7.291568070650100708e-02 4.221716430038213730e-03
-5.018649250268936157e-02 -6.746716052293777466e-02 -6.894745677709579468e-02
-3.411561250686645508e-01 1.388648804277181625e-02 -7.067789137363433838e-02
7.651739716529846191e-01 -4.995238408446311951e-02 1.182158198207616806e-02
2.160426825284957886e-01 -6.136388704180717468e-02 -4.095656797289848328e-02
-8.177729249000549316e-01 1.901566237211227417e-01 -1.900074928998947144e-01
8.044360280036926270e-01 -5.182312801480293274e-02 -6.169835478067398071e-02
-4.291399940848350525e-02 -3.517356887459754944e-02 -4.573123157024383545e-01
-9.531801193952560425e-02 -6.388937681913375854e-02 -3.167966604232788086e-01
-8.668923377990722656e-02 -7.394458353519439697e-02 -1.035560742020606995e-01
2.471436709165573120e-01 -1.981014758348464966e-02 -1.680068485438823700e-02
-6.143429130315780640e-02 -8.788156509399414062e-02 -7.002701982855796814e-03
8.312109112739562988e-01 -1.092415116727352142e-02 3.987873904407024384e-03
-6.705694198608398438e-01 5.403716489672660828e-02 -8.756517432630062103e-03
-7.894546985626220703e-01 1.873972713947296143e-01 2.126217335462570190e-01
8.811858482658863068e-03 -6.201863661408424377e-02 -3.140372931957244873e-01
-6.221640706062316895e-01 1.292407661676406860e-01 1.672838116064667702e-03
-4.290807545185089111e-01 -2.666172012686729431e-02 -7.881559431552886963e-02
7.137988209724426270e-01 -8.332164585590362549e-02 -2.643497474491596222e-02
-3.424890339374542236e-01 6.301670521497726440e-02 -1.460645464248955250e-03
2.999919652938842773e-01 1.285758428275585175e-02 6.249515339732170105e-02
-3.503352776169776917e-02 -5.851100757718086243e-02 -1.445018351078033447e-01
-5.923960208892822266e-01 3.551687672734260559e-02 -5.880260374397039413e-03
-5.522453784942626953e-01 -1.237397640943527222e-02 -1.335346400737762451e-01
-7.499821186065673828e-01 1.955349743366241455e-01 -1.186155006289482117e-01
-1.258469372987747192e-02 -5.869808048009872437e-02 6.277576833963394165e-02
9.918136596679687500e-01 -1.952953822910785675e-02 -2.279092557728290558e-03
-7.914891839027404785e-01 1.472933590412139893e-01 -3.214460797607898712e-03
-1.332004219293594360e-01 -4.333465918898582458e-02 5.152367353439331055e-01
7.322723865509033203e-01 -5.287541821599006653e-02 3.759097680449485779e-02
5.614273548126220703e-01 -3.660000860691070557e-02 1.542275119572877884e-02
-9.050086140632629395e-02 -8.399979025125503540e-02 -2.500854060053825378e-02
-4.354537650942802429e-02 -7.756913453340530396e-02 1.246737539768218994e-01
7.831564545631408691e-01 -3.285853564739227295e-02 4.493361711502075195e-02
7.598891258239746094e-01 -6.148080155253410339e-02 3.258675336837768555e-02
-4.066318869590759277e-01 -4.611737653613090515e-02 -1.102907285094261169e-01
-2.762073650956153870e-02 -5.989067628979682922e-02 -3.552870154380798340e-01
-4.208495020866394043e-01 -2.621742524206638336e-02 7.025870680809020996e-02
4.302185773849487305e-01 -6.831915583461523056e-03 6.670431047677993774e-02
-5.234360098838806152e-01 4.041736014187335968e-03 -9.478700906038284302e-02
5.726985931396484375e-01 -2.932752482593059540e-02 4.939999803900718689e-02
8.159644603729248047e-01 6.123950332403182983e-02 -1.343724317848682404e-03
1.850586086511611938e-01 -5.341325327754020691e-02 -6.342878192663192749e-02
-1.509256362915039062e-01 -3.479942679405212402e-02 5.909314155578613281e-01
6.181574463844299316e-01 -8.701635897159576416e-02 3.075890243053436279e-03
3.245687782764434814e-01 -7.071755826473236084e-02 3.927463665604591370e-02
-3.368300795555114746e-01 -8.799848705530166626e-02 -6.371328607201576233e-03
4.579314496368169785e-03 -3.760552778840065002e-02 -7.112219184637069702e-02
-1.043334417045116425e-02 1.835286989808082581e-02 6.032042205333709717e-02
-4.539849460124969482e-01 -5.049937681178562343e-05 -6.770809739828109741e-02
-3.831307590007781982e-01 -2.977181784808635712e-02 -1.299100816249847412e-01
-7.907642722129821777e-01 1.878883391618728638e-01 2.007191777229309082e-01
-2.301045507192611694e-01 -3.982703015208244324e-02 6.165332347154617310e-02
-9.777334332466125488e-02 -5.839408189058303833e-02 -3.744854629039764404e-01
5.969479680061340332e-01 -1.747173070907592773e-02 -4.780814051628112793e-02
8.487724661827087402e-01 5.544021725654602051e-02 -2.793545136228203773e-03
-5.022265911102294922e-01 -2.458053082227706909e-02 4.998460412025451660e-02
5.129519104957580566e-01 6.123950332403182983e-02 8.173647336661815643e-03
6.301644444465637207e-02 -8.507546782493591309e-02 -2.206213027238845825e-02
-6.573807001113891602e-01 4.126939550042152405e-02 2.467900514602661133e-03
-3.043727874755859375e-01 5.544021725654602051e-02 -3.300593793392181396e-02
-2.230191379785537720e-01 -2.345808781683444977e-02 -7.458306103944778442e-02
-7.883556485176086426e-01 1.874206662178039551e-01 2.408464699983596802e-01
3.017925620079040527e-01 -4.534570500254631042e-02 5.945520475506782532e-02
4.973779916763305664e-01 6.847840268164873123e-03 2.865820936858654022e-02
-4.442570805549621582e-01 -8.305122144520282745e-03 6.820090115070343018e-02
8.948394060134887695e-01 2.186050266027450562e-02 3.567347303032875061e-02
6.057872176170349121e-01 -3.959318250417709351e-02 4.025677591562271118e-02
2.602855861186981201e-01 1.599106751382350922e-02 -6.983605772256851196e-02
-8.045608997344970703e-01 1.965872645378112793e-01 -5.248886998742818832e-03
-3.156673610210418701e-01 -8.562348783016204834e-03 -8.538655936717987061e-02
2.340359985828399658e-02 -6.753730773925781250e-02 -5.171329900622367859e-02
-2.827548608183860779e-02 -8.217582106590270996e-02 7.437433302402496338e-02
7.743172049522399902e-01 -7.277537882328033447e-02 -1.219399459660053253e-02
-4.485489428043365479e-02 -8.135738223791122437e-02 -1.482432931661605835e-01
-2.114907205104827881e-01 -2.542236447334289551e-02 -6.687288880348205566e-01
-8.000711202621459961e-01 1.887769550085067749e-01 1.832043975591659546e-01
4.145745635032653809e-01 -8.566006273031234741e-02 1.041853055357933044e-02
-6.419004201889038086e-01 -2.441683597862720490e-02 -2.575683407485485077e-02
8.364723920822143555e-01 -4.749704524874687195e-02 -4.621801152825355530e-02
-5.098030567169189453e-01 1.285758428275585175e-02 -9.279935061931610107e-02
-5.237634181976318359e-01 5.291472375392913818e-02 7.051205262541770935e-03
-1.914738416671752930e-01 -6.304754316806793213e-02 -1.210045907646417618e-02
-8.110383749008178711e-01 1.925885826349258423e-01 9.665948152542114258e-02
-3.545443713665008545e-02 -4.041163623332977295e-02 3.466132283210754395e-01
7.897039651870727539e-01 -6.337492167949676514e-02 1.883295946754515171e-03
-1.009769737720489502e-01 3.418397903442382812e-02 5.075628310441970825e-02
5.089297890663146973e-01 5.908815562725067139e-02 -2.517222799360752106e-02
-9.531801193952560425e-02 -2.750355377793312073e-02 5.448177456855773926e-01
6.424770355224609375e-01 3.296799957752227783e-02 -6.024853512644767761e-02
-3.831307590007781982e-01 -2.977181784808635712e-02 -1.299100816249847412e-01
-6.625143438577651978e-02 -2.027783915400505066e-02 6.642369925975799561e-02
-7.133859395980834961e-01 1.993466019630432129e-01 -5.320988595485687256e-02
7.808414101600646973e-01 -3.377052024006843567e-02 6.127917394042015076e-02
-7.200971841812133789e-01 1.975226551294326782e-01 -4.687665496021509171e-03
-8.255023509263992310e-02 -6.746716052293777466e-02 -1.861958652734756470e-01
-3.649612367153167725e-01 2.615300705656409264e-03 6.911288201808929443e-02
9.900832772254943848e-01 -3.098780103027820587e-02 1.864976994693279266e-02
-1.155687272548675537e-01 -4.693583026528358459e-02 -4.172551631927490234e-01
5.333897471427917480e-01 4.766646306961774826e-03 1.766763441264629364e-02
-2.170094251632690430e-01 -4.186145588755607605e-02 3.052505897358059883e-03
6.472941637039184570e-01 1.051916275173425674e-02 -5.921963229775428772e-02
9.995304346084594727e-01 -3.052011691033840179e-02 2.725127153098583221e-03
3.320157900452613831e-02 -4.578999802470207214e-02 -1.619698256254196167e-01
-3.558389842510223389e-03 -7.705467939376831055e-02 -1.398717612028121948e-01
-4.638296961784362793e-01 -1.803295500576496124e-02 1.166763454675674438e-01
-5.807740688323974609e-01 3.037235140800476074e-02 4.268484655767679214e-03
-4.006923139095306396e-01 -3.007581457495689392e-02 -9.560544788837432861e-02
-9.421894699335098267e-02 -7.754575461149215698e-02 1.224756315350532532e-01
6.173390150070190430e-01 8.297661319375038147e-03 -5.194714292883872986e-02
2.768290974199771881e-02 -1.001115068793296814e-01 -3.934305533766746521e-02
-3.537134826183319092e-01 -1.955292746424674988e-02 -8.134108781814575195e-02
7.196683287620544434e-01 -5.172958597540855408e-02 -3.447914123535156250e-02
-9.852164238691329956e-02 -5.306249111890792847e-02 4.174673855304718018e-01
4.539769291877746582e-01 -5.968021973967552185e-02 5.026521161198616028e-02
5.434682965278625488e-01 -3.285853564739227295e-02 -7.301630824804306030e-02
1.194659173488616943e-01 -3.963995352387428284e-02 -1.099165901541709900e-01
-3.010756075382232666e-01 6.074843183159828186e-02 1.079267822206020355e-02
7.861964106559753418e-01 -7.015634328126907349e-02 2.627302147448062897e-02
8.028458952903747559e-01 -5.266496166586875916e-02 4.484007880091667175e-02
5.511617064476013184e-01 -2.357501164078712463e-02 -5.711505189538002014e-02
-2.580019235610961914e-01 5.747464671730995178e-02 2.007620781660079956e-02
-7.875605821609497070e-01 1.920741200447082520e-01 1.630939990282058716e-01
-6.559075713157653809e-01 3.673285618424415588e-02 1.317786704748868942e-02
6.103471517562866211e-01 7.081686053425073624e-03 -3.653695061802864075e-02
-2.552893459796905518e-01 -8.718004077672958374e-02 -1.079094223678112030e-02
-6.234736442565917969e-01 -3.353668376803398132e-02 -1.916248723864555359e-02
-4.177628457546234131e-01 -4.927424713969230652e-02 9.677638858556747437e-02
-7.520759105682373047e-02 -3.334960713982582092e-02 -4.627374708652496338e-01
-6.066603660583496094e-01 -3.043674165382981300e-03 3.756758943200111389e-02
-1.846456676721572876e-01 -7.317291200160980225e-02 -4.486172646284103394e-02
-1.834296733140945435e-01 -4.106639325618743896e-02 5.460571050643920898e-01
2.382451668381690979e-02 4.510440304875373840e-02 4.023338854312896729e-02
-7.119126915931701660e-01 9.365001320838928223e-02 -7.867917418479919434e-03
2.710657119750976562e-01 4.285951703786849976e-02 -5.152622610330581665e-02
-2.234868258237838745e-01 3.236507473047822714e-04 -7.437259703874588013e-02
5.463913083076477051e-01 6.510299281217157841e-04 -7.432582974433898926e-02
7.303081154823303223e-01 -3.716123476624488831e-02 -6.415369361639022827e-02
-7.766635417938232422e-01 1.923781186342239380e-01 1.689166575670242310e-01
-4.686000645160675049e-01 -4.221221804618835449e-02 -1.276184320449829102e-01
6.241204738616943359e-01 -3.961657360196113586e-02 6.127917394042015076e-02
2.340359985828399658e-02 -6.753730773925781250e-02 -5.171329900622367859e-02
-2.053874582052230835e-01 -5.631289258599281311e-02 5.274394154548645020e-02
5.172312259674072266e-01 -3.009919635951519012e-02 4.867508634924888611e-02
-4.797754343599081039e-03 -9.477991610765457153e-02 -5.821410939097404480e-02
-4.619823396205902100e-01 2.919294405728578568e-03 1.318994760513305664e-01
4.173681512475013733e-02 -7.090463489294052124e-02 2.022391557693481445e-01
1.149761453270912170e-01 -9.889553487300872803e-02 -4.401989653706550598e-02
-7.783238291740417480e-01 1.895720064640045166e-01 1.537870764732360840e-01
5.172312259674072266e-01 -3.009919635951519012e-02 4.867508634924888611e-02
1.453756093978881836e-01 -1.354318019002676010e-02 -6.261034309864044189e-02
-1.662656813859939575e-01 -6.028820574283599854e-02 -5.842456966638565063e-02
2.309150397777557373e-01 -1.625575497746467590e-02 -7.549503445625305176e-02
-7.484387755393981934e-01 1.581670343875885010e-01 -8.382369764149188995e-03
-5.372794270515441895e-01 -1.307549700140953064e-02 -8.884742110967636108e-02
-7.249844670295715332e-01 2.226372808218002319e-01 -8.709748275578022003e-03
6.861821413040161133e-01 -8.203551918268203735e-02 -2.919431030750274658e-02
5.514656901359558105e-01 4.035740718245506287e-02 4.598590731620788574e-02
-7.275099158287048340e-01 1.611602157354354858e-01 -5.954297957941889763e-04
6.308784484863281250e-01 -3.898519650101661682e-02 1.670888252556324005e-02
-7.119126915931701660e-01 9.365001320838928223e-02 -7.867917418479919434e-03
9.995304346084594727e-01 -3.052011691033840179e-02 2.725127153098583221e-03
-8.110383749008178711e-01 1.925885826349258423e-01 9.665948152542114258e-02
-7.873033285140991211e-01 1.923079639673233032e-01 -1.649630069732666016e-01
-1.743332445621490479e-01 -4.410634189844131470e-02 5.065611600875854492e-01
-1.053498387336730957e-01 -2.904691547155380249e-02 5.263208150863647461e-01
4.964894652366638184e-01 3.238339349627494812e-02 5.206579715013504028e-02
5.047440528869628906e-01 -1.419793814420700073e-02 2.561826258897781372e-02
-6.083881482481956482e-03 -8.722680807113647461e-02 -6.677272915840148926e-02
3.930485621094703674e-02 -6.157434359192848206e-02 4.888554662466049194e-02
2.519841790199279785e-01 6.084197014570236206e-02 -1.883510872721672058e-02
-1.138149127364158630e-01 -5.182312801480293274e-02 -3.867388069629669189e-01
6.177132129669189453e-01 -3.166593983769416809e-02 -6.130082532763481140e-02
-4.541954100131988525e-01 1.931162178516387939e-02 -9.649405628442764282e-02
-6.942576169967651367e-01 1.130355149507522583e-01 7.842381601221859455e-04
5.261047184467315674e-02 4.870557039976119995e-02 -4.444081336259841919e-02
-8.255023509263992310e-02 -6.746716052293777466e-02 -1.861958652734756470e-01
8.599735498428344727e-01 1.751103997230529785e-02 -2.257658168673515320e-02
-4.094848036766052246e-01 -3.608555346727371216e-02 -1.257009208202362061e-01
-6.742874979972839355e-01 1.155376285314559937e-01 1.996329374378547072e-04
1.106500700116157532e-01 -1.882801763713359833e-02 6.134932488203048706e-02
-4.038850590586662292e-02 -5.741195380687713623e-02 -3.800275325775146484e-01
-3.424890339374542236e-01 6.301670521497726440e-02 -1.460645464248955250e-03
7.626952528953552246e-01 -6.096634641289710999e-02 -2.739372663199901581e-02
4.573551937937736511e-02 -4.069224372506141663e-02 2.457337677478790283e-01
7.551421523094177246e-01 -5.830055102705955505e-02 -4.666231200098991394e-02
-1.641611009836196899e-01 -7.977742701768875122e-03 -2.907739020884037018e-02
1.484155505895614624e-01 -7.977742701768875122e-03 1.507198624312877655e-02
-6.361946463584899902e-01 1.262709647417068481e-01 -1.081432774662971497e-02
-6.218259036540985107e-02 -6.031159684062004089e-02 3.449763357639312744e-01
-4.509917497634887695e-01 2.253864146769046783e-02 -1.112027093768119812e-01
-7.580964565277099609e-01 1.909516900777816772e-01 -1.221465170383453369e-01
-6.279633641242980957e-01 2.609304152429103851e-02 -1.518717315047979355e-02
-3.572444915771484375e-01 -4.029471427202224731e-02 8.220803737640380859e-02
3.595749437808990479e-01 -5.773933231830596924e-02 -6.027192249894142151e-02
6.436929702758789062e-01 -3.702092170715332031e-02 -9.929613443091511726e-04
-7.198165059089660645e-01 2.000481337308883667e-01 1.315448246896266937e-02
-3.133882209658622742e-02 -8.311118930578231812e-02 -7.294616103172302246e-02
7.737433910369873047e-02 -7.977742701768875122e-03 -8.616211824119091034e-03
-2.448366135358810425e-01 -6.816868484020233154e-02 -5.096500366926193237e-02
-7.078204751014709473e-01 1.245639249682426453e-01 -8.920206688344478607e-03
1.319296807050704956e-01 2.663088031113147736e-02 -6.485522538423538208e-02
-6.742874979972839355e-01 1.155376285314559937e-01 1.996329374378547072e-04
-5.177661776542663574e-02 -9.708176366984844208e-03 -5.833103135228157043e-02
-3.024084866046905518e-01 1.629506051540374756e-02 1.161618977785110474e-01
8.028458952903747559e-01 -5.266496166586875916e-02 4.484007880091667175e-02
-8.289974331855773926e-01 1.889874041080474854e-01 2.030809819698333740e-01
-7.125565409660339355e-02 -1.000413447618484497e-01 3.223599120974540710e-02
5.221886634826660156e-01 2.334692282602190971e-03 1.002099923789501190e-02
-9.679121524095535278e-02 5.389685928821563721e-02 -3.632649406790733337e-02
9.250283837318420410e-01 8.741962723433971405e-03 2.522073127329349518e-02
-4.613743722438812256e-01 -1.850063912570476532e-02 1.275266259908676147e-01
-1.132303029298782349e-01 -4.408295080065727234e-02 -4.284796118736267090e-01
-4.906280040740966797e-01 6.713232398033142090e-02 -5.623033735901117325e-03
-3.246703147888183594e-01 9.490258991718292236e-03 9.640225768089294434e-02
2.601219117641448975e-01 4.732590168714523315e-02 -4.607770591974258423e-02
-7.278606891632080078e-01 1.970915682613849640e-02 1.128374598920345306e-02
1.709111630916595459e-01 -4.649152606725692749e-02 -6.759117543697357178e-02
-1.627580523490905762e-01 -2.486113831400871277e-02 -6.278533339500427246e-01
8.597396612167358398e-01 -3.482281044125556946e-02 6.132594496011734009e-02
-4.997010529041290283e-01 -9.240488521754741669e-03 -8.293121308088302612e-02
8.242658376693725586e-01 -5.783286690711975098e-02 2.603917755186557770e-02
8.032902479171752930e-01 -3.706769272685050964e-02 -1.429857313632965088e-02
8.651413917541503906e-01 -1.742495968937873840e-02 5.791184678673744202e-02
2.242271453142166138e-01 -1.637266948819160461e-02 -4.282730445265769958e-02
-2.469177991151809692e-01 -1.871109567582607269e-02 -7.519103586673736572e-02
-4.539849460124969482e-01 -5.049937681178562343e-05 -6.770809739828109741e-02
5.909850001335144043e-01 -7.102155685424804688e-02 -4.750414192676544189e-02
-3.077167272567749023e-01 -3.201670944690704346e-02 1.224288716912269592e-01
-1.072673350572586060e-01 -6.157434359192848206e-02 3.352251350879669189e-01
-5.008702874183654785e-01 2.030694391578435898e-03 -8.213615417480468750e-02
5.826945230364799500e-02 -7.198030501604080200e-02 1.781066656112670898e-01
2.218653410673141479e-01 -7.977742701768875122e-03 3.473421325907111168e-03
-1.404261291027069092e-01 -5.226742848753929138e-02 -4.818890988826751709e-01
-3.768872022628784180e-01 6.289977580308914185e-02 -4.383671097457408905e-03
6.320008635520935059e-01 2.141620032489299774e-02 -5.884548276662826538e-02
8.718293309211730957e-01 -4.186145588755607605e-02 5.805215612053871155e-02
1.091300919651985168e-01 -4.567308351397514343e-02 -1.610344499349594116e-01
8.373141884803771973e-01 -4.684228822588920593e-02 1.722333393990993500e-02
7.532480359077453613e-01 5.417747423052787781e-02 -3.571850433945655823e-02
9.961272031068801880e-02 -4.723981767892837524e-02 -1.836002171039581299e-01
3.530615940690040588e-02 5.808263272047042847e-02 1.879007555544376373e-02
1.313217133283615112e-01 -4.101962223649024963e-02 6.118563935160636902e-02
1.924121193587779999e-02 -6.863637268543243408e-02 2.395603507757186890e-01
-5.595411658287048340e-01 4.930336028337478638e-03 1.161385104060173035e-01
-1.117804795503616333e-01 -9.496698528528213501e-02 3.906418010592460632e-02
4.995059967041015625e-01 9.443487972021102905e-03 -3.822450060397386551e-03
-6.204570531845092773e-01 1.154908537864685059e-01 -1.093124877661466599e-02
-4.097420275211334229e-01 -8.112353086471557617e-02 9.202552028000354767e-03
9.173817038536071777e-01 1.071942271664738655e-03 -4.928134009242057800e-02
-1.835232228040695190e-01 -4.160422831773757935e-02 -5.510128140449523926e-01
-5.578575134277343750e-01 1.905439794063568115e-02 4.291868768632411957e-03
-8.053918182849884033e-02 4.351427778601646423e-02 4.215089231729507446e-02
7.925568819046020508e-01 -4.429341480135917664e-02 -5.957039073109626770e-02
1.920270919799804688e-01 -1.910862699151039124e-02 6.656400859355926514e-02
-3.767593950033187866e-02 -4.983547329902648926e-02 2.729997634887695312e-01
-9.117899835109710693e-02 -4.721643775701522827e-02 -3.764731287956237793e-01
8.539637923240661621e-01 -2.170426957309246063e-02 1.437046099454164505e-02
-1.115700304508209229e-01 -7.977742701768875122e-03 -9.972496889531612396e-03
-1.695753820240497589e-02 -1.001115068793296814e-01 -1.063113915733993053e-03
-4.034984111785888672e-01 -1.562437787652015686e-02 1.194824650883674622e-01
-5.333275198936462402e-01 6.109919771552085876e-02 5.040163639932870865e-03
-4.282046481966972351e-02 -5.114498734474182129e-02 4.159240126609802246e-01
3.321920335292816162e-01 -8.603420853614807129e-02 8.360721170902252197e-03
-4.854959622025489807e-02 -5.226742848753929138e-02 -4.208329617977142334e-01
5.032942295074462891e-01 3.233662620186805725e-02 2.012297511100769043e-02
-7.702796459197998047e-01 2.134472876787185669e-01 -8.592828176915645599e-03
4.537664651870727539e-01 2.780009061098098755e-02 -6.399000436067581177e-02
5.994500517845153809e-01 3.079326637089252472e-02 5.323500558733940125e-02
-2.645728886127471924e-01 -7.621285319328308105e-02 3.261014074087142944e-02
-3.935601413249969482e-01 -2.888322249054908752e-02 -1.406200379133224487e-01
-3.116919994354248047e-01 -3.260130807757377625e-02 -1.347038298845291138e-01
-1.992841809988021851e-01 -7.977742701768875122e-03 -1.352689415216445923e-02
-1.604555174708366394e-02 -8.219920098781585693e-02 6.174686178565025330e-02
-3.295108079910278320e-01 4.339735582470893860e-02 -5.089485272765159607e-02
-4.297354817390441895e-01 1.311481092125177383e-02 -1.224972903728485107e-01
6.239801049232482910e-01 -8.283057808876037598e-02 -2.748726494610309601e-02
-7.010624408721923828e-01 1.576058119535446167e-01 -1.004264876246452332e-02
-5.594476461410522461e-01 -2.638111077249050140e-02 8.665104210376739502e-02
-1.077584028244018555e-01 -2.673187106847763062e-02 5.512484312057495117e-01
1.378692686557769775e-01 -1.356657035648822784e-02 6.726553291082382202e-02
5.514656901359558105e-01 4.035740718245506287e-02 4.598590731620788574e-02
-3.351230323314666748e-01 2.030694391578435898e-03 -1.409240514039993286e-01
-6.720426082611083984e-01 1.607626676559448242e-01 -1.277456904063001275e-04
-3.423487246036529541e-01 -3.059026971459388733e-02 -1.071572527289390564e-01
-9.875549376010894775e-02 -7.977742701768875122e-03 2.115187980234622955e-02
-2.552893459796905518e-01 -8.718004077672958374e-02 -1.079094223678112030e-02
7.854480743408203125e-01 6.140319257974624634e-02 -1.586531475186347961e-02
-5.485740303993225098e-01 -8.305122144520282745e-03 -8.208938688039779663e-02
7.317345738410949707e-01 -8.774126321077346802e-02 -7.797764614224433899e-03
8.100014925003051758e-01 -3.484619036316871643e-02 2.002943865954875946e-02
-4.990229010581970215e-01 -4.298389703035354614e-02 -1.079289168119430542e-01
8.631070256233215332e-01 -1.966984197497367859e-02 9.670235216617584229e-03
7.927439212799072266e-01 -7.644668966531753540e-02 2.227432094514369965e-02
7.017560005187988281e-01 -6.519889086484909058e-02 4.598590731620788574e-02
7.322723865509033203e-01 -5.287541821599006653e-02 3.759097680449485779e-02
-1.900240182876586914e-01 -2.586665749549865723e-02 -4.783152043819427490e-02
-7.717528343200683594e-01 1.950439065694808960e-01 9.401706606149673462e-02
-5.058978796005249023e-01 -3.898519650101661682e-02 8.845161646604537964e-02
-6.673189997673034668e-01 2.120574377477169037e-02 2.416844293475151062e-02
6.550109982490539551e-01 -3.681046515703201294e-02 9.413009509444236755e-03
-8.385974913835525513e-02 -6.332815438508987427e-02 -3.236950039863586426e-01
-1.249115169048309326e-02 -5.156590044498443604e-02 -3.882821798324584961e-01
-8.329851925373077393e-02 -3.168933093547821045e-02 -4.864256680011749268e-01
-2.769088931381702423e-02 -1.279488857835531235e-02 5.547989532351493835e-02
6.233487725257873535e-01 -2.154058404266834259e-02 3.352212533354759216e-02
-1.596011817455291748e-01 -3.767567873001098633e-02 5.204280018806457520e-01
7.302145957946777344e-01 -3.725476562976837158e-02 -3.742555156350135803e-02
-7.835385203361511230e-01 1.928925663232803345e-01 -1.520549207925796509e-01
8.163620233535766602e-01 -1.805633679032325745e-02 -2.269350178539752960e-02
4.372447356581687927e-02 -6.720992922782897949e-02 2.320540249347686768e-01
-3.552100062370300293e-01 -4.691243916749954224e-02 9.710377454757690430e-02
3.486778736114501953e-01 -8.591728657484054565e-02 9.038862772285938263e-03
5.625840649008750916e-02 -9.933982789516448975e-02 -4.673246294260025024e-02
2.723985910415649414e-01 6.149672716856002808e-02 -1.530409418046474457e-02
-4.915758594870567322e-02 -5.851100757718086243e-02 1.794863194227218628e-01
8.500118255615234375e-01 -8.748403191566467285e-02 -9.177433326840400696e-03
4.974949359893798828e-01 2.698164246976375580e-02 9.740388952195644379e-03
-2.833737730979919434e-01 2.447953075170516968e-02 5.784169584512710571e-02
-1.743332445621490479e-01 -4.410634189844131470e-02 5.065611600875854492e-01
-7.006882429122924805e-01 7.870750129222869873e-02 -7.591194007545709610e-04
-7.006882429122924805e-01 7.870750129222869873e-02 -7.591194007545709610e-04
-7.926583290100097656e-01 1.894784718751907349e-01 2.305340319871902466e-01
-6.543407440185546875e-01 -1.426809094846248627e-02 2.508042566478252411e-02
6.832824945449829102e-01 -7.335997372865676880e-02 9.389624930918216705e-03
6.606465578079223633e-01 -3.098780103027820587e-02 6.506741791963577271e-02
-7.215937972068786621e-01 -1.300534512847661972e-02 7.799498736858367920e-03
-8.177729249000549316e-01 1.901566237211227417e-01 -1.900074928998947144e-01
-1.901534572243690491e-02 -5.752886831760406494e-02 -1.079055368900299072e-01
-1.420162618160247803e-01 -6.159772351384162903e-02 -6.597767025232315063e-02
-6.973677277565002441e-01 1.667724102735519409e-01 -3.167692571878433228e-03
1.169638037681579590e-01 -7.754575461149215698e-02 -3.887537494301795959e-02
5.185874700546264648e-01 -2.280333079397678375e-02 3.396642208099365234e-02
5.551011487841606140e-02 -4.702936485409736633e-02 -2.658424675464630127e-01
8.241488933563232422e-01 3.708361834287643433e-02 4.628990218043327332e-02
-5.485740303993225098e-01 -8.305122144520282745e-03 -8.208938688039779663e-02
-9.340050071477890015e-02 -4.123007878661155701e-02 -5.282366275787353516e-01
-3.143110573291778564e-01 5.272765085101127625e-02 -3.880522027611732483e-02
5.228902101516723633e-01 -2.357501164078712463e-02 -3.237845143303275108e-03
-1.431153267621994019e-01 -6.026482582092285156e-02 -3.830674886703491211e-01
-1.090102735906839371e-02 -5.247788503766059875e-02 1.550965905189514160e-01
1.917698681354522705e-01 1.937161199748516083e-03 -7.418552786111831665e-02
-6.122383475303649902e-02 -7.977742701768875122e-03 -1.172631140798330307e-02
-5.078621506690979004e-01 1.030870247632265091e-02 -1.315703690052032471e-01
-1.845988929271697998e-01 -3.182963281869888306e-02 -5.988802909851074219e-01
-5.058978796005249023e-01 -3.898519650101661682e-02 8.845161646604537964e-02
8.044360280036926270e-01 -5.182312801480293274e-02 -6.169835478067398071e-02
-7.700818032026290894e-02 -8.198874443769454956e-02 -7.591595500707626343e-02
7.643554806709289551e-01 -5.301572009921073914e-02 1.789758913218975067e-03
-2.332380414009094238e-01 -2.235902845859527588e-02 6.878355741500854492e-01
-6.218259036540985107e-02 -6.031159684062004089e-02 3.449763357639312744e-01
3.684609234333038330e-01 -4.962501674890518188e-02 -6.618811935186386108e-02
3.341329097747802734e-01 4.777019843459129333e-02 3.698298707604408264e-02
-4.810529574751853943e-02 -3.676370158791542053e-02 -4.007225632667541504e-01
-6.389774084091186523e-01 3.437105193734169006e-02 1.937467977404594421e-02
7.317345738410949707e-01 -8.774126321077346802e-02 -7.797764614224433899e-03
-6.279633641242980957e-01 2.609304152429103851e-02 -1.518717315047979355e-02
-6.367090940475463867e-01 1.030270755290985107e-01 -2.212826802860945463e-04
6.114570796489715576e-02 -4.284359514713287354e-02 1.307068765163421631e-01
-5.113229751586914062e-01 -4.006086662411689758e-02 1.099183186888694763e-01
8.309771418571472168e-01 -2.993551082909107208e-02 -2.608421258628368378e-02
6.233487725257873535e-01 -2.154058404266834259e-02 3.352212533354759216e-02
-4.472736418247222900e-01 -3.358344361186027527e-02 -1.296762377023696899e-01
6.549407839775085449e-01 -4.794134944677352905e-02 5.842630192637443542e-02
1.558984965085983276e-01 -6.021805480122566223e-02 6.144286319613456726e-02
7.456715106964111328e-01 -5.911899358034133911e-02 -5.926639959216117859e-02
-5.523622632026672363e-01 4.893941059708595276e-02 1.275695115327835083e-02
-5.010807514190673828e-01 -5.476954206824302673e-02 2.798006683588027954e-02
2.999919652938842773e-01 1.285758428275585175e-02 6.249515339732170105e-02
-6.141091138124465942e-02 -9.567867964506149292e-03 4.935323074460029602e-02
4.502822458744049072e-01 -2.970166504383087158e-02 -7.381137460470199585e-02
-7.939210534095764160e-01 1.908113658428192139e-01 -1.379308700561523438e-01
-7.751903533935546875e-01 1.199104711413383484e-01 -5.108580924570560455e-03
6.360104680061340332e-02 -4.059871286153793335e-02 -1.825011521577835083e-01
-8.216547966003417969e-01 1.889406293630599976e-01 2.129725068807601929e-01
-4.043527692556381226e-02 -3.692738711833953857e-02 3.813154101371765137e-01
5.906342267990112305e-01 -3.405112773180007935e-02 -4.918780922889709473e-02
-3.020577430725097656e-01 -4.633803386241197586e-03 -7.979772984981536865e-02
-4.258537292480468750e-01 5.672635138034820557e-02 -2.407317049801349640e-02
8.549459576606750488e-01 -4.891026299446821213e-03 -5.786722991615533829e-03
-2.920259237289428711e-01 -1.988030783832073212e-02 -8.192569017410278320e-02
7.308927178382873535e-01 5.754479765892028809e-02 1.991251669824123383e-02
4.758286848664283752e-02 -4.644475504755973816e-02 1.048205569386482239e-01
-8.053918182849884033e-02 4.351427778601646423e-02 4.215089231729507446e-02
1.439491808414459229e-01 5.842321552336215973e-03 6.509079784154891968e-02
-4.433685243129730225e-01 3.018527664244174957e-02 -1.680068485438823700e-02
-1.275180578231811523e-01 -2.390238270163536072e-02 6.078382134437561035e-01
-5.121648311614990234e-01 4.369114991277456284e-03 7.617490738630294800e-02
4.917658269405364990e-01 2.553182095289230347e-02 5.707002058625221252e-02
-6.587369441986083984e-01 1.063476279377937317e-01 -9.738653898239135742e-03
-1.619863659143447876e-01 -6.770100444555282593e-02 -5.150284245610237122e-02
5.402646660804748535e-01 -1.964646205306053162e-02 3.936817497014999390e-02
-1.512530297040939331e-01 -5.063053220510482788e-02 -4.409901499748229980e-01
-8.500556647777557373e-02 -5.446554347872734070e-02 -7.493381202220916748e-02
-4.094848036766052246e-01 -3.608555346727371216e-02 -1.257009208202362061e-01
-6.098873615264892578e-01 5.349932983517646790e-02 -1.179646328091621399e-02
-7.548819482326507568e-02 -6.877667456865310669e-02 2.447750121355056763e-01
8.607451915740966797e-01 1.816579885780811310e-02 2.122203260660171509e-02
8.724139332771301270e-01 8.671810850501060486e-03 -3.347362205386161804e-02
3.044224716722965240e-02 -9.293256700038909912e-02 -6.085652112960815430e-02
4.173681512475013733e-02 -7.090463489294052124e-02 2.022391557693481445e-01
5.296716094017028809e-01 -2.392577193677425385e-02 3.625807911157608032e-02
5.742887258529663086e-01 -3.893842548131942749e-02 5.515251308679580688e-02
-3.124169409275054932e-01 -4.275005310773849487e-02 9.280107915401458740e-02
6.058339476585388184e-01 -8.619791269302368164e-02 -1.612254045903682709e-02
-2.234868258237838745e-01 3.236507473047822714e-04 -7.437259703874588013e-02
1.455626934766769409e-01 4.201768711209297180e-02 -5.255513265728950500e-02
-7.002673149108886719e-01 1.158416122198104858e-01 -9.200817905366420746e-03
7.477059960365295410e-01 -8.540283143520355225e-02 -5.903644487261772156e-03
-4.990229010581970215e-01 -4.298389703035354614e-02 -1.079289168119430542e-01
-4.099649563431739807e-02 -4.017778858542442322e-02 4.485215842723846436e-01
-8.516927063465118408e-02 -3.524371981620788574e-02 4.512575566768646240e-01
-6.543407440185546875e-01 -1.426809094846248627e-02 2.508042566478252411e-02
6.759974360466003418e-02 -7.799005508422851562e-02 2.931296825408935547e-02
-2.132679373025894165e-01 -3.838740987703204155e-03 6.633016467094421387e-02
4.866680502891540527e-01 -7.569839805364608765e-02 -4.179839417338371277e-02
-7.551033496856689453e-01 1.906477063894271851e-01 1.202073693275451660e-01
-6.977185010910034180e-01 2.152244895696640015e-01 -8.850053884088993073e-03
-4.541954100131988525e-01 1.931162178516387939e-02 -9.649405628442764282e-02
6.091311573982238770e-01 -3.063704073429107666e-02 -5.664736777544021606e-02
2.396139651536941528e-01 -6.887020915746688843e-02 4.151952266693115234e-02
-6.279633641242980957e-01 2.609304152429103851e-02 -1.518717315047979355e-02
1.415639817714691162e-01 -9.622973948717117310e-02 1.563320681452751160e-02
-7.177821397781372070e-01 1.929159462451934814e-01 5.379622802138328552e-02
4.749292135238647461e-01 3.544672206044197083e-02 4.802433541044592857e-04
-6.103082895278930664e-01 4.314012825489044189e-02 -1.132878009229898453e-02
5.836298316717147827e-02 -7.700791954994201660e-02 -4.002119600772857666e-02
8.834154158830642700e-02 -7.179324328899383545e-02 1.525944769382476807e-01
4.655521512031555176e-01 4.720897972583770752e-02 3.766112774610519409e-02
-5.576938390731811523e-01 -1.897851470857858658e-03 -5.075454711914062500e-02
-5.382148027420043945e-01 1.540646050125360489e-02 4.526099562644958496e-02
8.309771418571472168e-01 -2.993551082909107208e-02 -2.608421258628368378e-02
4.255417287349700928e-01 5.455162003636360168e-02 2.631978876888751984e-02
-5.282890796661376953e-02 -4.749704524874687195e-02 4.494803547859191895e-01
-1.275180578231811523e-01 -2.390238270163536072e-02 6.078382134437561035e-01
-5.333275198936462402e-01 6.109919771552085876e-02 5.040163639932870865e-03
-6.903415173292160034e-02 6.140319257974624634e-02 -1.584193110466003418e-02
4.823186099529266357e-01 6.037428602576255798e-02 1.275695115327835083e-02
5.764400362968444824e-01 -3.734830021858215332e-02 1.107328850775957108e-02
-7.074462771415710449e-01 2.742594107985496521e-02 1.235941983759403229e-02
-2.636608779430389404e-01 2.919294405728578568e-03 -7.404521107673645020e-02
-3.852120041847229004e-01 -8.406994491815567017e-02 -1.474287360906600952e-02
3.197282254695892334e-01 -1.983353681862354279e-02 6.647046655416488647e-02
-1.498733460903167725e-01 -4.957824572920799255e-02 5.765461921691894531e-02
7.413220405578613281e-01 -6.515212357044219971e-02 -1.259152684360742569e-02
8.336663246154785156e-01 -2.855584211647510529e-02 -3.595234453678131104e-02
-1.914738416671752930e-01 -6.304754316806793213e-02 -1.210045907646417618e-02
-8.164166808128356934e-01 1.897123157978057861e-01 -2.043887674808502197e-01
-2.332380414009094238e-01 -2.235902845859527588e-02 6.878355741500854492e-01
2.006324827671051025e-01 -7.525409758090972900e-02 -8.616211824119091034e-03
6.923087835311889648e-01 4.369114991277456284e-03 6.527787446975708008e-02
-3.129205107688903809e-02 -9.985428303480148315e-02 -4.364574700593948364e-02
5.209259390830993652e-01 -1.634928956627845764e-02 -3.599911555647850037e-02
-3.985409736633300781e-01 5.725398194044828415e-03 -1.389129906892776489e-01
9.803086519241333008e-01 -6.716316193342208862e-02 -6.932549178600311279e-03
4.691532552242279053e-01 -5.893192812800407410e-02 5.082643404603004456e-02
8.422716856002807617e-01 8.601658977568149567e-03 -8.943591266870498657e-03
-3.123468160629272461e-01 1.447109412401914597e-02 -1.160432472825050354e-01
-3.944253325462341309e-01 -3.844736143946647644e-02 1.029498204588890076e-01
8.037111163139343262e-01 -5.783286690711975098e-02 2.573518455028533936e-02
6.317436695098876953e-01 1.306803990155458450e-02 -4.044211655855178833e-02
-4.294314980506896973e-01 -3.554771840572357178e-02 1.017104685306549072e-01
4.537664651870727539e-01 2.780009061098098755e-02 -6.399000436067581177e-02
-7.050377130508422852e-01 2.000247538089752197e-01 -4.362236708402633667e-02
8.044360280036926270e-01 -5.182312801480293274e-02 -6.169835478067398071e-02
5.836423635482788086e-01 6.018721312284469604e-02 1.380923949182033539e-02
-6.212754845619201660e-01 6.146315019577741623e-03 -1.878834143280982971e-02
-3.197595775127410889e-01 -1.286504045128822327e-02 -1.435196846723556519e-01
-6.419004201889038086e-01 -2.441683597862720490e-02 -2.575683407485485077e-02
8.571674227714538574e-01 3.098034113645553589e-02 -6.862396840006113052e-03
-4.557980224490165710e-02 -5.357693880796432495e-02 2.356084138154983521e-01
