-1.460154354572296143e-01 7.482430338859558105e-02 -4.007318019866943359e-01
-7.481981068849563599e-02 1.991236582398414612e-02 -7.673831582069396973e-01
2.135038673877716064e-01 -1.016351729631423950e-01 -7.735520601272583008e-03
1.946746855974197388e-01 -5.434668809175491333e-02 -6.333703994750976562e-01
1.676019877195358276e-01 -9.644553065299987793e-02 -6.370351314544677734e-01
1.260426044464111328e-01 -1.282936781644821167e-01 -1.406593173742294312e-01
1.533273234963417053e-02 -8.575174212455749512e-02 -1.271147429943084717e-01
3.407304584980010986e-01 -1.288552135229110718e-01 -7.906183600425720215e-02
7.875478267669677734e-02 -1.278217583894729614e-01 -6.094902753829956055e-01
2.269920408725738525e-01 -1.203996241092681885e-01 -5.412313938140869141e-01
-2.729409337043762207e-01 2.444793283939361572e-02 -5.210329890251159668e-01
1.141049414873123169e-01 6.711718440055847168e-02 -3.913136124610900879e-01
-2.402347028255462646e-01 -3.708917275071144104e-02 -4.745336174964904785e-01
-2.636324614286422729e-02 8.380372822284698486e-02 -4.102746248245239258e-01
2.975481450557708740e-01 -1.055205166339874268e-01 1.843094825744628906e-03
-9.934715926647186279e-03 -9.183084964752197266e-02 -1.721545904874801636e-01
-1.567147672176361084e-01 2.295478433370590210e-02 -7.775524854660034180e-01
-1.568828523159027100e-02 -1.061574369668960571e-01 -6.905988454818725586e-01
-2.749827504158020020e-01 -1.832314394414424896e-02 -5.809968709945678711e-01
1.065552532672882080e-01 6.467106938362121582e-02 -4.402889013290405273e-01
2.875365018844604492e-01 -1.411595046520233154e-01 -3.963760435581207275e-01
3.581241965293884277e-01 -1.867490634322166443e-02 -5.261221528053283691e-02
3.845605254173278809e-01 -1.237257272005081177e-01 -2.572381496429443359e-01
1.409292519092559814e-01 6.629087030887603760e-03 -6.273782849311828613e-01
-1.017713323235511780e-01 8.137689530849456787e-02 -5.311555862426757812e-01
2.307068705558776855e-01 -6.007404625415802002e-02 -5.941134691238403320e-01
-1.081302687525749207e-01 -4.557581990957260132e-02 -2.127224504947662354e-01
-2.122318744659423828e-01 1.618760824203491211e-02 -3.483710587024688721e-01
2.136074900627136230e-01 3.766918554902076721e-02 -4.038067460060119629e-01
-2.534658014774322510e-01 4.979762062430381775e-02 -6.180906295776367188e-01
-1.291266083717346191e-01 -8.813521265983581543e-02 -6.967897415161132812e-01
-1.641644537448883057e-01 -3.230823203921318054e-02 -2.836384773254394531e-01
9.200432151556015015e-02 7.253429293632507324e-02 -3.060917854309082031e-01
3.593417629599571228e-02 6.477084755897521973e-02 -5.518044233322143555e-01
-7.578559964895248413e-02 -9.339901804924011230e-02 -2.771469056606292725e-01
2.412232458591461182e-01 -6.327949464321136475e-02 4.525324702262878418e-02
-1.037365570664405823e-01 6.345896422863006592e-02 -6.607738137245178223e-01
1.136280447244644165e-01 5.709283426403999329e-02 -4.856384396553039551e-01
3.731512725353240967e-01 -1.291428357362747192e-01 -1.252340972423553467e-01
-1.675645709037780762e-01 -8.895246684551239014e-02 -5.897607803344726562e-01
-2.088916301727294922e-01 4.967151954770088196e-02 -3.953897356986999512e-01
2.488631606101989746e-01 -1.103304326534271240e-01 -1.422432065010070801e-02
1.199598610401153564e-01 6.679804623126983643e-02 -3.761398196220397949e-01
-1.861555278301239014e-01 4.296475276350975037e-02 -7.326341867446899414e-01
2.240156829357147217e-01 -8.791312575340270996e-02 1.870492100715637207e-02
1.981188654899597168e-01 -1.409341841936111450e-01 -4.974321722984313965e-01
2.606393098831176758e-01 -1.001295894384384155e-01 9.029477834701538086e-03
-1.520104110240936279e-01 -9.561389684677124023e-02 -5.464488863945007324e-01
2.886284291744232178e-01 4.335809499025344849e-03 -3.554853796958923340e-02
3.772341907024383545e-01 -6.593947112560272217e-02 -3.544012308120727539e-01
-1.267497837543487549e-01 6.989681720733642578e-02 -6.322150826454162598e-01
-1.057750508189201355e-01 8.120106160640716553e-02 -4.018458425998687744e-01
-1.908140629529953003e-02 8.343422412872314453e-02 -3.944537043571472168e-01
-4.559249430894851685e-02 7.216401398181915283e-02 -2.709025740623474121e-01
-2.301156520843505859e-03 -1.361781954765319824e-01 -4.899616837501525879e-01
4.066561758518218994e-01 -9.796106070280075073e-02 -6.291031837463378906e-02
-6.278475373983383179e-02 4.938049986958503723e-02 -1.979998350143432617e-01
1.550565659999847412e-01 5.665870383381843567e-02 -4.004472494125366211e-01
-1.531935036182403564e-01 2.089143171906471252e-02 -2.545263469219207764e-01
-1.157280579209327698e-01 8.198004961013793945e-02 -4.341058135032653809e-01
-1.594766080379486084e-01 -7.853503525257110596e-02 -3.991925418376922607e-01
3.526071012020111084e-01 -1.396307498216629028e-01 -2.395746558904647827e-01
1.211955100297927856e-01 -1.531271487474441528e-01 -4.034566879272460938e-01
3.356104493141174316e-01 -2.534464001655578613e-03 -8.066192269325256348e-02
2.267673015594482422e-01 2.780560776591300964e-02 -4.307216107845306396e-01
3.256238102912902832e-01 -1.465203613042831421e-01 -2.351747155189514160e-01
-1.393252611160278320e-01 3.865659609436988831e-02 -7.476147413253784180e-01
1.467140913009643555e-01 -1.315411776304244995e-01 -5.703446865081787109e-01
1.762594431638717651e-01 -7.930314540863037109e-02 -6.461319923400878906e-01
1.521015465259552002e-01 1.230621710419654846e-02 -1.527124643325805664e-02
-1.149368360638618469e-01 8.256366848945617676e-02 -4.977488517761230469e-01
1.142350211739540100e-01 2.343356981873512268e-02 -4.390421509742736816e-02
-2.614445090293884277e-01 -4.927508533000946045e-03 -4.738320708274841309e-01
3.859631717205047607e-01 -9.442342817783355713e-02 -3.322052955627441406e-01
-1.247040256857872009e-01 -9.446945786476135254e-02 -6.702955365180969238e-01
2.918565273284912109e-01 -1.359588950872421265e-01 -4.148414433002471924e-01
3.149189651012420654e-01 -1.482947021722793579e-01 -2.236914783716201782e-01
2.642948329448699951e-01 3.008001670241355896e-02 -1.483730673789978027e-01
4.963584989309310913e-02 6.606473028659820557e-02 -5.263413786888122559e-01
6.797703355550765991e-02 -1.386110037565231323e-01 -2.672389745712280273e-01
2.780990302562713623e-01 -1.077141985297203064e-02 -4.672509431838989258e-01
-1.913067698478698730e-01 -7.700534909963607788e-02 -6.294032931327819824e-01
2.057874202728271484e-01 -1.567476689815521240e-01 -3.044243454933166504e-01
1.059556081891059875e-01 -1.380935758352279663e-01 -5.561336278915405273e-01
5.356657505035400391e-02 -1.214664578437805176e-01 -1.916812658309936523e-01
2.186246812343597412e-01 4.363719001412391663e-02 -1.717113852500915527e-01
5.349139124155044556e-02 7.548886537551879883e-02 -4.312289953231811523e-01
2.496986091136932373e-01 3.304419293999671936e-02 -3.320905566215515137e-01
1.714425981044769287e-01 4.559266194701194763e-02 -1.230092644691467285e-01
3.908706605434417725e-01 -8.432014286518096924e-02 -3.249822258949279785e-01
1.211320608854293823e-01 -1.485034376382827759e-01 -4.801811873912811279e-01
-6.561038643121719360e-02 -1.038017570972442627e-01 -6.821829080581665039e-01
-1.383472234010696411e-02 2.790917828679084778e-02 -7.220160961151123047e-01
3.093240037560462952e-02 2.449110522866249084e-02 -8.104938268661499023e-02
3.610092401504516602e-02 -8.555220812559127808e-02 -7.289529442787170410e-01
4.169905781745910645e-01 -1.048890799283981323e-01 -1.801240593194961548e-01
4.210050702095031738e-01 -9.962587058544158936e-02 -1.698423773050308228e-01
3.114691078662872314e-01 -8.855540305376052856e-02 2.714699506759643555e-02
2.246527373790740967e-01 -1.505697518587112427e-01 -1.947980076074600220e-01
3.930830955505371094e-02 -1.246880143880844116e-01 -2.259164899587631226e-01
1.153655201196670532e-01 -1.187773197889328003e-01 -6.274601817131042480e-01
1.643215119838714600e-01 -1.402559280395507812e-01 -1.636351197957992554e-01
-9.309708327054977417e-02 4.260933026671409607e-02 -7.278990149497985840e-01
-1.045131161808967590e-01 -1.101553887128829956e-01 -4.661073982715606689e-01
-5.574928969144821167e-02 -1.242149621248245239e-01 -4.503111243247985840e-01
-7.934257388114929199e-03 -1.350375264883041382e-01 -4.275127351284027100e-01
-1.264805793762207031e-01 5.445898696780204773e-02 -2.778726220130920410e-01
2.215798199176788330e-01 -1.385667771100997925e-01 -1.185154616832733154e-01
2.831864356994628906e-02 6.338603794574737549e-03 -6.105762720108032227e-02
-4.245642572641372681e-02 7.050694525241851807e-02 -2.595877051353454590e-01
3.121160566806793213e-01 -1.185038983821868896e-01 -4.391245841979980469e-01
-1.286652088165283203e-01 2.024526149034500122e-02 -2.212239354848861694e-01
3.404507935047149658e-01 -1.342280209064483643e-01 -3.324395418167114258e-01
4.060451313853263855e-02 -2.633830159902572632e-02 -4.061397910118103027e-02
1.479984074831008911e-02 -1.345998495817184448e-01 -5.523931980133056641e-01
1.703791320323944092e-01 5.745654925704002380e-02 -3.343700766563415527e-01
-2.247375249862670898e-01 -6.108675524592399597e-02 -6.186018586158752441e-01
-1.055242940783500671e-01 7.888776063919067383e-02 -3.743023574352264404e-01
-1.402123272418975830e-01 4.597842320799827576e-02 -7.291408181190490723e-01
4.028464555740356445e-01 -4.549825936555862427e-02 -7.635796070098876953e-02
2.483726739883422852e-01 -1.551532596349716187e-01 -2.579912245273590088e-01
-2.430595457553863525e-01 3.626977279782295227e-02 -4.414258003234863281e-01
3.934273123741149902e-01 -9.340904653072357178e-02 -3.006285429000854492e-02
-6.650335341691970825e-02 -9.111712872982025146e-02 -2.528085708618164062e-01
1.054503917694091797e-01 -1.020379662513732910e-01 -7.616341114044189453e-02
-2.845265716314315796e-02 -1.104938536882400513e-01 -6.718124151229858398e-01
3.312031552195549011e-02 6.507477164268493652e-02 -1.986235678195953369e-01
2.484716475009918213e-03 -1.319362372159957886e-01 -5.640377402305603027e-01
2.010979354381561279e-01 -1.229660809040069580e-01 -5.588393211364746094e-01
-1.465598046779632568e-01 3.234783187508583069e-02 -2.580326795578002930e-01
2.414668202400207520e-01 -1.314716637134552002e-01 -7.995438575744628906e-02
1.798834204673767090e-01 -4.536056146025657654e-02 -6.459958553314208984e-01
4.198748618364334106e-02 -4.968686401844024658e-02 -4.984518885612487793e-02
-1.673640608787536621e-01 -7.374928146600723267e-02 -7.106727361679077148e-01
3.058802187442779541e-01 -8.562220260500907898e-03 -1.178026199340820312e-02
-9.655684232711791992e-03 6.287369132041931152e-02 -6.082783341407775879e-01
2.882309854030609131e-01 2.309061586856842041e-02 -2.682138681411743164e-01
1.361080706119537354e-01 2.054255455732345581e-02 -6.011304855346679688e-01
3.490248024463653564e-01 -1.341048777103424072e-01 -1.162659227848052979e-01
7.056598365306854248e-02 7.250173389911651611e-02 -4.337842762470245361e-01
-1.245457902550697327e-01 -1.053284108638763428e-01 -5.311943888664245605e-01
-7.160291075706481934e-03 -1.327525675296783447e-01 -5.406963825225830078e-01
1.296204328536987305e-01 -6.837025284767150879e-02 -3.062099218368530273e-03
3.555129766464233398e-01 -1.392142474651336670e-01 -1.994186043739318848e-01
4.233988523483276367e-01 -6.602269411087036133e-02 -1.337821185588836670e-01
-5.289722979068756104e-02 6.774260103702545166e-02 -2.531137764453887939e-01
1.549374759197235107e-01 5.309215560555458069e-02 -4.321887791156768799e-01
5.698996409773826599e-02 5.083281919360160828e-02 -1.321110278367996216e-01
-1.940071582794189453e-03 8.181466162204742432e-02 -4.372904598712921143e-01
-1.372871696949005127e-01 -2.395207434892654419e-02 -2.318504601716995239e-01
1.434344947338104248e-01 6.317423284053802490e-02 -2.526625990867614746e-01
2.327432855963706970e-02 -1.116667985916137695e-01 -1.918772906064987183e-01
-1.761327683925628662e-02 1.725536957383155823e-02 -1.053304672241210938e-01
-2.843382954597473145e-02 8.268272876739501953e-02 -3.624526560306549072e-01
-1.810207962989807129e-01 3.054241463541984558e-02 -3.063874840736389160e-01
-1.270602345466613770e-01 6.516176462173461914e-02 -3.162337839603424072e-01
3.157186210155487061e-01 1.233575120568275452e-02 -1.426328867673873901e-01
1.018350273370742798e-01 2.663106843829154968e-02 -5.377519130706787109e-02
-1.412122547626495361e-01 -9.783180803060531616e-02 -5.996162295341491699e-01
1.059586554765701294e-01 5.844090133905410767e-03 -6.659919619560241699e-01
3.324926793575286865e-01 -4.811323434114456177e-02 -4.335573613643646240e-01
-5.840875208377838135e-03 -1.319931149482727051e-01 -3.656518459320068359e-01
-1.292147040367126465e-01 6.879633665084838867e-02 -3.360402584075927734e-01
-1.732978820800781250e-01 -8.572652935981750488e-02 -5.133612155914306641e-01
1.393663883209228516e-01 3.849728778004646301e-02 -8.138012886047363281e-02
1.354387551546096802e-01 -1.219072043895721436e-01 -1.083094179630279541e-01
-7.918713241815567017e-02 -1.118715554475784302e-01 -3.848869204521179199e-01
3.643987774848937988e-01 -1.349595487117767334e-01 -1.586307883262634277e-01
-7.786079496145248413e-02 -7.817625999450683594e-02 -2.321757525205612183e-01
-7.270328700542449951e-03 7.238540053367614746e-02 -2.523303627967834473e-01
3.119302392005920410e-01 -1.299571543931961060e-01 -7.006877660751342773e-02
-1.662654578685760498e-01 7.115003466606140137e-02 -4.107357263565063477e-01
-1.755344271659851074e-01 7.564854621887207031e-02 -4.966619610786437988e-01
4.173797070980072021e-01 -5.610743910074234009e-02 -1.173782646656036377e-01
2.107041776180267334e-01 4.595508798956871033e-02 -3.380866348743438721e-01
-1.745255589485168457e-01 -6.505130976438522339e-02 -3.803904354572296143e-01
3.542805910110473633e-01 -1.283461749553680420e-01 -3.282410502433776855e-01
1.251041293144226074e-01 -2.732676267623901367e-02 1.153811812400817871e-02
2.865521907806396484e-01 -1.121608167886734009e-01 -4.889736473560333252e-01
1.223816722631454468e-01 -1.472211815416812897e-02 -6.794227957725524902e-01
-1.948339045047760010e-01 -1.760382764041423798e-02 -3.230422437191009521e-01
-7.766353338956832886e-02 -1.179895251989364624e-01 -5.580697655677795410e-01
1.892335563898086548e-01 -1.189376264810562134e-01 -5.789117813110351562e-01
2.462224289774894714e-02 -1.409233957529067993e-01 -4.755245149135589600e-01
8.824438601732254028e-02 7.051789760589599609e-02 -4.168377816677093506e-01
-2.089034914970397949e-01 -6.767681986093521118e-02 -6.439731121063232422e-01
1.155312508344650269e-01 -5.872996151447296143e-02 -7.050350308418273926e-01
3.879233896732330322e-01 -5.801644921302795410e-02 -1.387569308280944824e-02
2.570777237415313721e-01 -1.400350779294967651e-01 -4.436959624290466309e-01
2.686119973659515381e-01 1.257915049791336060e-02 -4.671123623847961426e-02
6.812651455402374268e-02 -2.511012554168701172e-02 -2.109920978546142578e-02
-2.113811671733856201e-01 -6.900697946548461914e-02 -5.675196051597595215e-01
7.846798747777938843e-02 5.438519641757011414e-02 -5.533874630928039551e-01
-1.138339936733245850e-02 -7.938012480735778809e-02 -7.513822317123413086e-01
1.894064396619796753e-01 -1.463830471038818359e-01 -1.819707900285720825e-01
3.042941689491271973e-01 1.725936681032180786e-02 -2.519404888153076172e-01
6.980291754007339478e-02 -1.406867057085037231e-01 -5.370826721191406250e-01
3.804133832454681396e-01 -1.126321852207183838e-01 -5.611389875411987305e-02
-2.050554454326629639e-01 6.678172945976257324e-02 -4.766208827495574951e-01
-1.106054410338401794e-01 -7.833947241306304932e-02 -2.884106040000915527e-01
1.598242521286010742e-01 2.917440608143806458e-02 -5.349618196487426758e-02
-2.782270312309265137e-03 7.552485167980194092e-02 -5.221282243728637695e-01
5.558772385120391846e-02 -1.081947237253189087e-01 -1.410528868436813354e-01
8.123805373907089233e-02 -1.366884112358093262e-01 -5.661195516586303711e-01
3.659758865833282471e-01 -1.202898919582366943e-01 -6.568935513496398926e-02
-6.811278313398361206e-02 -1.210182309150695801e-01 -5.417349338531494141e-01
-2.602355778217315674e-01 -3.300450742244720459e-02 -5.553919672966003418e-01
3.487472236156463623e-01 -1.081534028053283691e-01 -3.964146077632904053e-01
5.077396333217620850e-02 -1.126894503831863403e-01 -6.672692298889160156e-01
-4.473653435707092285e-02 -1.272491663694381714e-01 -4.555401504039764404e-01
-1.658119261264801025e-01 7.299624383449554443e-02 -5.981079339981079102e-01
8.422224223613739014e-02 -1.467567086219787598e-01 -4.840511977672576904e-01
-2.087847590446472168e-01 6.843285262584686279e-02 -5.243846178054809570e-01
2.324655354022979736e-01 -1.563146710395812988e-01 -3.108209967613220215e-01
2.473200112581253052e-02 6.893649697303771973e-02 -5.393074154853820801e-01
1.677717566490173340e-01 -6.259017437696456909e-02 2.232617139816284180e-02
1.909898519515991211e-01 4.907618090510368347e-02 -1.699938029050827026e-01
1.347967982292175293e-01 -1.476290524005889893e-01 -4.879845678806304932e-01
-3.774493932723999023e-03 -1.353387981653213501e-01 -4.107675552368164062e-01
1.638470292091369629e-01 -9.981900453567504883e-02 -2.923235297203063965e-02
3.203154206275939941e-01 -1.467680484056472778e-01 -2.020997107028961182e-01
-1.384268403053283691e-01 7.943533360958099365e-02 -5.430740118026733398e-01
-7.663423568010330200e-02 6.397262215614318848e-02 -6.480250358581542969e-01
-2.448933422565460205e-01 4.238973930478096008e-02 -6.867582798004150391e-01
1.962655782699584961e-01 -1.547434926033020020e-01 -3.919731676578521729e-01
1.384190320968627930e-01 -6.570604443550109863e-02 -6.851362586021423340e-01
4.830851405858993530e-02 -1.218190975487232208e-02 -3.666096925735473633e-02
-1.922858059406280518e-01 -5.170603841543197632e-02 -7.505429983139038086e-01
2.309626638889312744e-01 -1.376499831676483154e-01 -4.829131364822387695e-01
2.082036435604095459e-01 -1.145465523004531860e-01 -3.935903310775756836e-02
1.742765009403228760e-01 -1.560498774051666260e-01 -3.692190349102020264e-01
7.790740579366683960e-02 -1.271390765905380249e-01 -1.867265850305557251e-01
2.232158482074737549e-01 3.199422731995582581e-02 -9.144356846809387207e-02
3.076364099979400635e-01 -1.724697835743427277e-02 -4.257129728794097900e-01
3.392978906631469727e-01 -1.062687486410140991e-01 -8.246630430221557617e-03
-3.771789371967315674e-02 -1.289515048265457153e-01 -5.057373642921447754e-01
2.290372177958488464e-02 8.075493574142456055e-02 -3.697003722190856934e-01
1.064809411764144897e-01 -1.086914986371994019e-01 -9.234952926635742188e-02
1.012739539146423340e-02 -4.223625734448432922e-02 -7.231277227401733398e-02
3.221600949764251709e-01 -6.719269603490829468e-02 3.980675339698791504e-02
6.526290625333786011e-02 5.268861725926399231e-02 -5.776164531707763672e-01
-6.254584342241287231e-02 4.798236861824989319e-02 -6.999176740646362305e-01
-2.776132225990295410e-01 -1.086420007050037384e-02 -5.636088252067565918e-01
9.094715863466262817e-02 -8.320008218288421631e-02 -7.059976458549499512e-01
8.563026785850524902e-02 -1.497321575880050659e-01 -3.763110339641571045e-01
-2.829750776290893555e-01 -5.067059770226478577e-03 -6.322467327117919922e-01
-2.696921527385711670e-01 -1.655334047973155975e-02 -6.857863664627075195e-01
-5.895584076642990112e-02 4.192859306931495667e-02 -7.151435613632202148e-01
3.610184192657470703e-01 -1.281063705682754517e-01 -9.573525190353393555e-02
1.903411000967025757e-01 1.853287965059280396e-02 -5.327379703521728516e-01
2.028724849224090576e-01 5.099863931536674500e-02 -2.700976133346557617e-01
-8.362611383199691772e-02 -1.118215918540954590e-01 -3.982468247413635254e-01
-1.635758876800537109e-01 7.731425762176513672e-02 -4.791091680526733398e-01
1.085396930575370789e-01 6.187381222844123840e-02 -1.886469125747680664e-01
6.078935414552688599e-02 4.221818968653678894e-02 -6.224528551101684570e-01
-5.040177702903747559e-02 3.616930171847343445e-02 -7.250679135322570801e-01
-2.333394587039947510e-01 2.924357727169990540e-02 -4.046765267848968506e-01
-1.256130635738372803e-01 -1.039785593748092651e-01 -4.903928339481353760e-01
-1.881260871887207031e-01 3.687337413430213928e-02 -3.274352252483367920e-01
2.559784948825836182e-01 3.380152210593223572e-02 -2.950237393379211426e-01
-1.853917241096496582e-01 -6.709181517362594604e-02 -7.109444141387939453e-01
7.550540566444396973e-02 6.503191590309143066e-02 -1.980998665094375610e-01
-4.463583230972290039e-02 -1.218066811561584473e-01 -5.939846634864807129e-01
2.098170518875122070e-01 -1.557014733552932739e-01 -2.676534354686737061e-01
1.139365732669830322e-01 2.891404554247856140e-02 -5.593901872634887695e-02
2.164622843265533447e-01 -1.183059811592102051e-01 -5.563324689865112305e-01
-1.303366124629974365e-01 -9.706486761569976807e-02 -4.278149604797363281e-01
1.856371760368347168e-01 2.365405485033988953e-02 -4.098394513130187988e-02
4.206494987010955811e-01 -7.837313413619995117e-02 -8.344992995262145996e-02
2.529010474681854248e-01 -2.081489935517311096e-02 -5.299550294876098633e-01
-2.239111661911010742e-01 1.024362817406654358e-02 -3.698946833610534668e-01
1.449066027998924255e-02 -1.197454482316970825e-01 -2.386961132287979126e-01
3.434017300605773926e-03 -7.834011316299438477e-02 -1.251294612884521484e-01
1.251585185527801514e-01 -1.316138356924057007e-01 -1.558814197778701782e-01
3.474801182746887207e-01 -1.170088648796081543e-01 -3.933387994766235352e-02
-1.819628179073333740e-01 -6.271919608116149902e-02 -3.907867372035980225e-01
2.515932321548461914e-01 2.398357912898063660e-02 -3.928338885307312012e-01
1.998679637908935547e-01 -1.042401194572448730e-01 -5.982077121734619141e-01
2.256605029106140137e-01 -5.053362622857093811e-02 4.620689153671264648e-02
-1.436707079410552979e-01 4.081073775887489319e-02 -2.678617835044860840e-01
1.130207479000091553e-01 -1.473758667707443237e-01 -2.718970775604248047e-01
6.212945654988288879e-02 7.554496824741363525e-02 -4.064537584781646729e-01
-7.821347564458847046e-02 -1.166243553161621094e-01 -5.776894092559814453e-01
1.069099381566047668e-01 -7.464489340782165527e-02 -7.037991285324096680e-01
-1.748741269111633301e-01 1.989272609353065491e-02 -7.798873186111450195e-01
-3.307218104600906372e-02 -1.188450902700424194e-01 -3.200443089008331299e-01
3.683351352810859680e-02 -1.347654610872268677e-01 -2.923785150051116943e-01
2.927187383174896240e-01 -1.447095572948455811e-01 -1.459218561649322510e-01
-1.464883983135223389e-02 8.208267390727996826e-02 -3.524611890316009521e-01
1.564437747001647949e-01 4.811665043234825134e-02 -1.277983784675598145e-01
-1.609881967306137085e-02 -9.419368207454681396e-02 -7.237539887428283691e-01
-2.065389454364776611e-01 6.163151189684867859e-02 -4.409950673580169678e-01
-1.048304140567779541e-02 3.514382615685462952e-02 -1.259754598140716553e-01
-4.647851735353469849e-02 7.590898871421813965e-02 -2.956235408782958984e-01
4.477728903293609619e-02 4.972669854760169983e-02 -6.123178005218505859e-01
2.893866896629333496e-01 -1.160953938961029053e-01 -2.240771055221557617e-02
-2.527748942375183105e-01 -3.366450592875480652e-02 -6.904284358024597168e-01
2.485650181770324707e-01 -1.545184850692749023e-01 -2.420731037855148315e-01
3.190544247627258301e-01 -2.485293522477149963e-02 -4.203571975231170654e-01
1.563608944416046143e-01 5.245395004749298096e-04 -6.212819218635559082e-01
2.061842978000640869e-01 -8.156275004148483276e-02 2.056884765625000000e-02
1.692376434803009033e-01 5.506223067641258240e-02 -3.757007122039794922e-01
1.366444379091262817e-01 3.284508362412452698e-02 -5.634034276008605957e-01
-1.226589754223823547e-01 8.054782450199127197e-02 -4.214205145835876465e-01
3.120912611484527588e-01 -1.031105071306228638e-01 5.206614732742309570e-03
1.685176193714141846e-01 5.064886435866355896e-02 -1.529503911733627319e-01
2.377428114414215088e-01 2.645985409617424011e-02 -4.129340648651123047e-01
1.045087426900863647e-01 -1.129998862743377686e-01 -1.065160036087036133e-01
-2.646684050559997559e-01 4.209321364760398865e-02 -5.481756925582885742e-01
-2.677948027849197388e-02 4.376969113945960999e-02 -1.555985063314437866e-01
3.124997913837432861e-01 -3.062366694211959839e-02 -4.454577565193176270e-01
3.095066249370574951e-01 -1.127625256776809692e-01 -1.509249210357666016e-02
-3.250563889741897583e-02 4.010533913969993591e-02 -7.051485776901245117e-01
1.205893456935882568e-01 -1.326702833175659180e-01 -5.778605937957763672e-01
-5.731751769781112671e-02 -1.232490837574005127e-01 -5.460250973701477051e-01
1.422255188226699829e-01 -7.561051100492477417e-02 -6.772822141647338867e-01
2.194342017173767090e-01 -1.522161662578582764e-01 -4.042237699031829834e-01
2.465291321277618408e-01 2.974516525864601135e-02 -1.065116226673126221e-01
1.420297175645828247e-01 -8.258473873138427734e-02 -1.284423470497131348e-02
2.452995181083679199e-01 -1.861291006207466125e-02 3.205174207687377930e-02
3.501140177249908447e-01 -1.093951053917407990e-02 -2.858976721763610840e-01
-7.946456223726272583e-02 -1.083705127239227295e-01 -6.470781564712524414e-01
1.525646299123764038e-01 6.192822381854057312e-02 -2.620868682861328125e-01
1.897798106074333191e-02 4.146250709891319275e-02 -1.209818124771118164e-01
-2.161492705345153809e-01 -3.631002455949783325e-02 -7.559011578559875488e-01
3.463611304759979248e-01 -5.307689309120178223e-02 2.630293369293212891e-02
-2.080095112323760986e-01 6.563532352447509766e-02 -6.100822687149047852e-01
3.762699663639068604e-01 -6.789252161979675293e-02 5.995541810989379883e-03
-2.729934155941009521e-01 3.628320619463920593e-02 -5.735303163528442383e-01
1.472754180431365967e-01 3.126241639256477356e-02 -5.541634559631347656e-01
2.007106840610504150e-01 -1.448456197977066040e-01 -1.643086522817611694e-01
6.385274231433868408e-03 -1.118605285882949829e-01 -6.735366582870483398e-01
3.664253354072570801e-01 -1.167108677327632904e-02 -1.890990138053894043e-01
8.514710515737533569e-02 -1.348892003297805786e-01 -2.176241576671600342e-01
-2.694730162620544434e-01 -2.542032301425933838e-02 -6.437336206436157227e-01
9.144401550292968750e-02 7.171881198883056641e-02 -3.862946927547454834e-01
1.309567987918853760e-01 5.523825809359550476e-02 -1.557304263114929199e-01
-2.485761046409606934e-02 8.161728084087371826e-02 -3.432651162147521973e-01
1.437131315469741821e-02 7.862991094589233398e-02 -3.054798543453216553e-01
1.580626368522644043e-01 -1.122955977916717529e-01 -6.175777912139892578e-01
1.852503269910812378e-01 4.674499854445457458e-02 -4.092179238796234131e-01
-9.574418514966964722e-02 4.121266677975654602e-02 -2.117192149162292480e-01
7.552201300859451294e-02 -1.472672820091247559e-01 -4.660937190055847168e-01
-9.354343265295028687e-02 5.898274108767509460e-02 -6.760636568069458008e-01
-9.571518748998641968e-02 -1.126762479543685913e-01 -4.586031436920166016e-01
1.410424858331680298e-01 -9.611791372299194336e-02 -6.576697230339050293e-01
1.708605587482452393e-01 1.708492636680603027e-02 -5.652853250503540039e-01
-5.890106409788131714e-02 -3.512527048587799072e-02 -1.381992548704147339e-01
1.840758025646209717e-01 4.500054940581321716e-02 -4.247732460498809814e-01
-2.455823123455047607e-01 -4.809678718447685242e-02 -6.025291681289672852e-01
2.182155251502990723e-01 -1.567196846008300781e-01 -3.062419891357421875e-01
1.452100574970245361e-01 4.133483394980430603e-02 -9.255963563919067383e-02
3.824679255485534668e-01 -5.951296538114547729e-02 -3.341802060604095459e-01
-1.889425218105316162e-01 -8.014179766178131104e-02 -5.570299625396728516e-01
-5.863810330629348755e-02 -1.222215145826339722e-01 -5.588602423667907715e-01
2.060305774211883545e-01 2.345905452966690063e-02 -4.600456357002258301e-02
2.331973016262054443e-01 -1.097286045551300049e-01 -5.566405653953552246e-01
1.738953143358230591e-01 5.465781316161155701e-02 -1.980160176753997803e-01
-9.472454339265823364e-02 -8.371812105178833008e-02 -2.768702507019042969e-01
-7.240135222673416138e-02 -1.164847761392593384e-01 -4.068673849105834961e-01
-4.777207970619201660e-03 3.616284579038619995e-03 -8.348485827445983887e-02
2.163686752319335938e-01 3.723293915390968323e-02 -1.141975224018096924e-01
-1.652452349662780762e-01 -5.105943232774734497e-02 -3.188084065914154053e-01
-1.911577284336090088e-01 -2.791080996394157410e-02 -7.876891493797302246e-01
3.593351840972900391e-01 -7.225478067994117737e-03 -1.629883497953414917e-01
7.832483202219009399e-02 -1.011808663606643677e-01 -9.827551245689392090e-02
-2.204332351684570312e-01 -3.378620743751525879e-02 -4.042381644248962402e-01
1.450228393077850342e-01 5.600332841277122498e-02 -1.707388162612915039e-01
-1.132199689745903015e-01 1.188527047634124756e-02 -7.887707948684692383e-01
2.333392500877380371e-01 -1.470480412244796753e-01 -1.633702963590621948e-01
7.552076131105422974e-02 6.473688781261444092e-02 -4.973258674144744873e-01
-5.452977865934371948e-02 8.199091255664825439e-02 -3.595443367958068848e-01
3.161077797412872314e-01 -9.181885048747062683e-03 -3.820498287677764893e-01
-1.965662091970443726e-02 -1.135684400796890259e-01 -6.619987487792968750e-01
2.641564905643463135e-01 -8.940733969211578369e-02 2.606117725372314453e-02
7.813569903373718262e-02 -9.520286321640014648e-02 -8.432400226593017578e-02
2.010574042797088623e-01 2.727452293038368225e-02 -5.701649188995361328e-02
2.330317497253417969e-01 -1.389229148626327515e-01 -1.155837774276733398e-01
2.374787330627441406e-01 3.674835339188575745e-02 -3.403660655021667480e-01
-6.731758266687393188e-02 -5.446347221732139587e-02 -1.696502566337585449e-01
3.992310464382171631e-01 -1.183958947658538818e-01 -1.296073496341705322e-01
2.721974551677703857e-01 1.411895826458930969e-02 -3.931298851966857910e-01
1.704119443893432617e-01 -1.557027101516723633e-01 -3.078067898750305176e-01
1.354607641696929932e-01 -2.295099757611751556e-02 -6.752876043319702148e-01
1.269451826810836792e-01 1.819029822945594788e-02 -6.179631352424621582e-01
-2.152534127235412598e-01 -4.958978667855262756e-02 -7.249127626419067383e-01
2.621670067310333252e-01 -5.615967139601707458e-02 -5.531170368194580078e-01
-1.335912644863128662e-01 4.357330128550529480e-02 -2.601727247238159180e-01
-2.377242743968963623e-01 5.879985168576240540e-02 -5.800808072090148926e-01
2.206043303012847900e-01 4.635313525795936584e-02 -2.444869279861450195e-01
-8.140262216329574585e-02 5.425361171364784241e-02 -6.885701417922973633e-01
5.694974958896636963e-02 7.191482186317443848e-02 -2.468543648719787598e-01
-3.438220173120498657e-02 5.751993879675865173e-02 -6.504635810852050781e-01
2.412217259407043457e-01 -7.772836834192276001e-02 3.508949279785156250e-02
2.627681493759155273e-01 -1.543021798133850098e-01 -3.074873089790344238e-01
2.789034545421600342e-01 -3.047013655304908752e-02 3.860360383987426758e-02
3.512180745601654053e-01 -9.383359551429748535e-02 -4.092849493026733398e-01
1.079770922660827637e-01 -9.933318197727203369e-02 -6.739176511764526367e-01
4.106853306293487549e-01 -6.747768819332122803e-02 -5.311977863311767578e-02
-2.031345367431640625e-01 5.561983957886695862e-02 -6.806653738021850586e-01
5.273908376693725586e-02 -1.253856271505355835e-01 -6.224513053894042969e-01
7.230311632156372070e-03 3.372438251972198486e-03 -7.394680380821228027e-02
7.349410653114318848e-02 -6.062782555818557739e-02 -7.333235144615173340e-01
-7.846869528293609619e-03 5.315675213932991028e-02 -6.474099159240722656e-01
1.445514261722564697e-01 -1.266496181488037109e-01 -1.179826259613037109e-01
-1.297312080860137939e-01 3.466043993830680847e-02 -7.553179264068603516e-01
3.499577939510345459e-01 -1.365762948989868164e-01 -1.369645893573760986e-01
1.078323870897293091e-01 -1.511577367782592773e-01 -4.359751045703887939e-01
1.538176685571670532e-01 5.616998299956321716e-02 -1.812931150197982788e-01
-1.444462835788726807e-01 -2.491302415728569031e-02 -2.434486597776412964e-01
4.709920287132263184e-02 7.445159554481506348e-02 -2.684623897075653076e-01
3.006975725293159485e-02 8.000995218753814697e-02 -3.551332950592041016e-01
2.491708397865295410e-01 3.462363407015800476e-02 -1.529504060745239258e-01
-1.284749507904052734e-01 -5.135551840066909790e-02 -7.887102961540222168e-01
-2.154132425785064697e-01 -7.769316434860229492e-04 -7.806801795959472656e-01
3.996855020523071289e-01 -9.530475735664367676e-02 -4.321125149726867676e-02
2.860182523727416992e-01 -1.330259442329406738e-01 -7.920470833778381348e-02
2.921684980392456055e-01 -4.976909235119819641e-02 -5.054749250411987305e-01
1.124273389577865601e-01 5.517284199595451355e-02 -4.995303153991699219e-01
1.318909376859664917e-01 -1.242879033088684082e-01 -1.198008060455322266e-01
4.231636971235275269e-02 -1.419221907854080200e-01 -5.013860464096069336e-01
1.840225458145141602e-01 -1.433635056018829346e-01 -4.951010942459106445e-01
-1.721006929874420166e-01 7.415744662284851074e-02 -5.776965022087097168e-01
-6.657620519399642944e-02 -2.806561067700386047e-02 -8.006792068481445312e-01
4.697014763951301575e-02 -1.817419193685054779e-02 -7.439728975296020508e-01
-2.570805251598358154e-01 4.160995408892631531e-02 -5.038487911224365234e-01
2.447309195995330811e-01 3.398525342345237732e-02 -1.353597193956375122e-01
-1.081340759992599487e-02 -1.075800210237503052e-01 -2.244277298450469971e-01
1.512024700641632080e-01 4.615661874413490295e-02 -4.839944839477539062e-01
-2.141379117965698242e-01 -5.886475741863250732e-02 -4.757497310638427734e-01
2.257534265518188477e-01 -1.501291096210479736e-01 -4.169882535934448242e-01
5.739788711071014404e-02 -2.322873845696449280e-02 -7.401434183120727539e-01
-1.129105314612388611e-01 -4.837006330490112305e-02 -2.238842695951461792e-01
2.231641113758087158e-01 -1.337794512510299683e-01 -9.616553783416748047e-02
1.107459515333175659e-01 -1.403759568929672241e-01 -2.188867181539535522e-01
1.565106213092803955e-01 8.619707077741622925e-03 -6.048157811164855957e-01
8.707586675882339478e-03 8.188845217227935791e-02 -3.855114281177520752e-01
1.631063669919967651e-01 -1.556937545537948608e-01 -3.221939802169799805e-01
1.172134429216384888e-01 6.507000327110290527e-02 -2.253014147281646729e-01
1.867393553256988525e-01 -1.338111609220504761e-01 -5.362627506256103516e-01
2.664202749729156494e-01 -1.356051266193389893e-01 -9.156602621078491211e-02
1.277554631233215332e-01 -1.395717859268188477e-01 -1.943530589342117310e-01
4.069347083568572998e-01 -8.966471254825592041e-02 -2.729835212230682373e-01
2.172955572605133057e-01 -7.683318853378295898e-02 -6.070760488510131836e-01
1.212446466088294983e-01 -1.131942719221115112e-01 -9.246626496315002441e-02
3.393207192420959473e-01 -1.309211552143096924e-01 -3.512988984584808350e-01
4.080912768840789795e-01 -1.141668707132339478e-01 -1.526410579681396484e-01
-5.697455257177352905e-02 -1.201805174350738525e-01 -5.882587432861328125e-01
6.130810081958770752e-02 -6.802383065223693848e-02 -7.362326383590698242e-01
2.255731821060180664e-01 4.102905467152595520e-02 -3.391707539558410645e-01
2.943369150161743164e-01 -1.483858674764633179e-01 -1.814795881509780884e-01
2.383771240711212158e-01 3.172684833407402039e-02 -3.791705369949340820e-01
1.361882984638214111e-01 -1.482497304677963257e-01 -2.479170411825180054e-01
-1.898342072963714600e-01 6.225910410284996033e-02 -4.052834808826446533e-01
-2.749659121036529541e-02 -2.595083042979240417e-02 -9.970900416374206543e-02
3.570342361927032471e-01 -9.204757958650588989e-02 6.694942712783813477e-03
1.551987230777740479e-01 -1.343008875846862793e-01 -5.549514293670654297e-01
-4.785070568323135376e-02 5.329797789454460144e-02 -6.746586561203002930e-01
1.942322701215744019e-01 5.219833925366401672e-02 -3.135048747062683105e-01
-1.732948422431945801e-01 -7.563839852809906006e-02 -6.925804018974304199e-01
-2.818949520587921143e-02 7.780437171459197998e-02 -3.009737730026245117e-01
1.778399199247360229e-01 5.377556011080741882e-02 -3.622680902481079102e-01
-1.111522689461708069e-01 -1.013947129249572754e-01 -6.478840112686157227e-01
3.525807708501815796e-02 7.246947288513183594e-02 -4.984951913356781006e-01
2.541655898094177246e-01 -4.980181902647018433e-02 4.953947663307189941e-02
-3.064370155334472656e-02 4.863809421658515930e-02 -1.703448146581649780e-01
3.112275898456573486e-01 -1.482911854982376099e-01 -2.807791829109191895e-01
1.747879087924957275e-01 4.725764319300651550e-02 -1.356076151132583618e-01
-7.978350669145584106e-02 6.564757227897644043e-02 -2.664034664630889893e-01
3.324752449989318848e-01 -2.986619807779788971e-02 -4.027332961559295654e-01
2.069788873195648193e-01 -1.562032997608184814e-01 -3.553365468978881836e-01
-2.104419171810150146e-01 -5.466839298605918884e-02 -4.413870871067047119e-01
-8.040351420640945435e-02 3.274766728281974792e-02 -7.462245225906372070e-01
-2.698644101619720459e-01 1.920089125633239746e-04 -7.086578607559204102e-01
-2.487108111381530762e-01 -4.305610060691833496e-02 -6.538123488426208496e-01
-1.046715304255485535e-01 1.950041577219963074e-02 -1.916413009166717529e-01
3.962787389755249023e-01 -5.515055358409881592e-02 -3.268939256668090820e-02
-5.729190260171890259e-02 8.407045900821685791e-02 -4.035737812519073486e-01
3.079578280448913574e-01 1.689277961850166321e-02 -1.746281385421752930e-01
-3.309092670679092407e-02 8.353517949581146240e-02 -4.496836066246032715e-01
-2.113263309001922607e-01 -6.171105802059173584e-02 -6.810404658317565918e-01
2.211514711380004883e-01 -1.481766849756240845e-01 -4.362609684467315674e-01
2.977216839790344238e-01 -8.806097507476806641e-02 2.918115258216857910e-02
1.440547108650207520e-01 -1.257652640342712402e-01 -5.916874408721923828e-01
3.597716093063354492e-01 -1.132193803787231445e-01 -3.667521476745605469e-02
-1.702177822589874268e-01 1.941519975662231445e-02 -2.783381938934326172e-01
2.813596427440643311e-01 -4.902224987745285034e-03 -2.832949161529541016e-03
3.988158404827117920e-01 -1.196119189262390137e-01 -2.101627141237258911e-01
3.569893538951873779e-01 -3.202071785926818848e-02 -1.032030582427978516e-02
5.799593776464462280e-02 3.527276217937469482e-03 -3.995183110237121582e-02
-1.089455857872962952e-01 6.769374012947082520e-02 -6.417441368103027344e-01
-1.750373095273971558e-02 -1.304633170366287231e-01 -3.835368454456329346e-01
-2.638300508260726929e-02 -6.796057522296905518e-02 -1.404846906661987305e-01
9.372111409902572632e-02 7.153941690921783447e-02 -2.830272018909454346e-01
-2.540784329175949097e-02 -5.326382070779800415e-02 -1.182064414024353027e-01
-2.458065152168273926e-01 -4.046631231904029846e-02 -5.136324167251586914e-01
-1.359201967716217041e-03 3.188523277640342712e-02 -7.048643827438354492e-01
-4.452686011791229248e-02 -4.774305969476699829e-03 -7.841255664825439453e-01
1.523480862379074097e-01 5.979147180914878845e-02 -2.186681628227233887e-01
3.469208180904388428e-01 -8.712643384933471680e-02 -4.216245114803314209e-01
4.080797731876373291e-01 -9.983825683593750000e-02 -2.551813721656799316e-01
3.725680410861968994e-01 -1.336279362440109253e-01 -1.950329095125198364e-01
4.057828783988952637e-01 -5.502309650182723999e-02 -5.768895149230957031e-02
2.666144967079162598e-01 -1.523649990558624268e-01 -3.382773995399475098e-01
4.089660942554473877e-02 4.927796497941017151e-02 -1.322520822286605835e-01
1.910502091050148010e-02 -1.196640133857727051e-01 -6.450886726379394531e-01
-1.837719678878784180e-01 -7.870904356241226196e-02 -6.451552510261535645e-01
1.796168386936187744e-01 -1.430997252464294434e-01 -1.679342687129974365e-01
-2.565626204013824463e-01 4.256517812609672546e-02 -6.601011753082275391e-01
1.179810315370559692e-01 -1.526665091514587402e-01 -3.452385365962982178e-01
-2.225508689880371094e-01 -6.278263777494430542e-02 -5.730414390563964844e-01
-4.548159986734390259e-02 -1.173663884401321411e-01 -6.265197396278381348e-01
-1.362278163433074951e-01 -9.842240065336227417e-02 -6.130552291870117188e-01
2.669503986835479736e-01 -8.919957280158996582e-02 -5.424381494522094727e-01
-1.679056137800216675e-02 4.671533033251762390e-02 -6.758784055709838867e-01
3.308611810207366943e-01 -1.210229098796844482e-01 -4.016346633434295654e-01
-2.781596183776855469e-01 3.071314468979835510e-02 -6.159816980361938477e-01
-2.012691199779510498e-01 -7.323583960533142090e-02 -6.186630129814147949e-01
1.564307138323783875e-02 -1.301725357770919800e-01 -5.888141393661499023e-01
3.262085914611816406e-01 8.759353309869766235e-03 -2.216960042715072632e-01
-2.303415238857269287e-01 -5.657140165567398071e-02 -6.389940977096557617e-01
1.195999681949615479e-01 -1.509093791246414185e-01 -3.041376173496246338e-01
2.778737246990203857e-01 -1.510872989892959595e-01 -2.026846259832382202e-01
1.928692162036895752e-01 3.367358818650245667e-02 -4.706865847110748291e-01
3.863478899002075195e-01 -7.621551305055618286e-02 -3.367841839790344238e-01
-5.058032274246215820e-02 -1.252240985631942749e-01 -5.350418686866760254e-01
-2.846561074256896973e-01 1.813390478491783142e-02 -6.032741665840148926e-01
-8.100797981023788452e-02 8.429481089115142822e-02 -4.452058374881744385e-01
-5.513974279165267944e-02 8.102455735206604004e-02 -3.474288284778594971e-01
-6.256591528654098511e-02 8.449679613113403320e-02 -4.381077289581298828e-01
1.261597126722335815e-02 -9.385696798563003540e-02 -7.210863828659057617e-01
2.802652418613433838e-01 2.105236798524856567e-02 -3.268308043479919434e-01
2.805203571915626526e-02 -9.697929024696350098e-02 -1.398226916790008545e-01
-9.674289077520370483e-02 -5.051772296428680420e-02 -2.035864740610122681e-01
1.404423415660858154e-01 -1.382021903991699219e-01 -5.450676679611206055e-01
1.159356832504272461e-01 -2.359019219875335693e-02 -6.939474344253540039e-01
-5.737177282571792603e-02 7.018779218196868896e-02 -2.685456871986389160e-01
-2.387490272521972656e-01 -4.382157698273658752e-02 -6.925933957099914551e-01
4.480269551277160645e-02 -9.319636225700378418e-02 -7.135210037231445312e-01
-4.162040352821350098e-02 8.234365284442901611e-02 -3.585852980613708496e-01
3.014526963233947754e-01 -2.853137999773025513e-02 2.890959382057189941e-02
5.273232609033584595e-02 7.780669629573822021e-02 -3.720502853393554688e-01
-9.265965968370437622e-02 3.469000384211540222e-02 -7.464712858200073242e-01
-1.390372812747955322e-01 -9.554160386323928833e-02 -4.476279318332672119e-01
-7.568239420652389526e-02 -6.525902450084686279e-02 -7.774282693862915039e-01
2.755516767501831055e-01 -4.293639585375785828e-02 -5.248908400535583496e-01
-1.457933336496353149e-02 -2.979467064142227173e-02 -7.833460569381713867e-01
2.651205360889434814e-01 -1.833736896514892578e-03 -1.240730285644531250e-03
1.709729433059692383e-03 -2.129037305712699890e-02 -7.729705572128295898e-01
3.376184701919555664e-01 2.857066690921783447e-03 -2.261788398027420044e-01
-4.302813857793807983e-02 2.346507459878921509e-02 -1.337050348520278931e-01
7.224855571985244751e-02 -9.240191429853439331e-02 -7.036379575729370117e-01
-1.323291659355163574e-01 5.565929785370826721e-02 -2.887446880340576172e-01
2.701289951801300049e-01 -1.827972382307052612e-02 -4.978708922863006592e-01
1.185697615146636963e-01 -1.437900513410568237e-01 -2.330525517463684082e-01
-1.805410087108612061e-01 5.347872897982597351e-02 -7.012241482734680176e-01
9.715397655963897705e-02 6.807661056518554688e-02 -4.256735444068908691e-01
1.143943518400192261e-01 4.931563511490821838e-02 -5.277518630027770996e-01
2.897920608520507812e-01 2.096067368984222412e-02 -2.878766357898712158e-01
1.655130088329315186e-01 3.892965242266654968e-02 -4.952326118946075439e-01
3.455976247787475586e-01 -6.438850611448287964e-02 -4.226364493370056152e-01
1.605840921401977539e-01 -1.497797220945358276e-01 -2.339677363634109497e-01
1.856271550059318542e-02 -8.657506108283996582e-02 -7.329818606376647949e-01
-9.038301557302474976e-02 -1.011374890804290771e-01 -3.419632315635681152e-01
5.804098024964332581e-02 7.244558632373809814e-02 -4.606894850730895996e-01
3.437084257602691650e-01 -1.416159868240356445e-01 -2.556140422821044922e-01
3.731511533260345459e-01 -7.776264846324920654e-02 -3.693519234657287598e-01
1.953586563467979431e-02 -1.353729218244552612e-01 -3.347451388835906982e-01
2.508398890495300293e-01 3.753939643502235413e-02 -2.409751117229461670e-01
-1.391263902187347412e-01 -6.250835955142974854e-02 -2.961534857749938965e-01
1.220265030860900879e-01 6.691747903823852539e-02 -2.626070976257324219e-01
-9.223707765340805054e-02 6.747774034738540649e-02 1.476124227046966553e-01
-3.970033302903175354e-02 -6.140051782131195068e-02 1.173093616962432861e-01
1.245253160595893860e-01 2.461661584675312042e-02 2.548146843910217285e-01
9.212768822908401489e-02 9.235950186848640442e-03 2.005193233489990234e-01
1.236003637313842773e-02 -4.821716807782649994e-03 3.871273994445800781e-01
8.783426135778427124e-02 -1.090027205646038055e-02 1.888151764869689941e-01
5.322148278355598450e-02 6.039162725210189819e-02 2.254314571619033813e-01
-1.196989789605140686e-01 2.245180867612361908e-02 6.828817725181579590e-02
9.968040138483047485e-02 -3.886261582374572754e-02 2.025796622037887573e-01
-6.503471732139587402e-02 -1.244111172854900360e-02 7.866494357585906982e-02
1.905729770660400391e-01 7.160324603319168091e-03 3.617816269397735596e-01
1.981794089078903198e-02 -2.813700772821903229e-02 3.960205614566802979e-01
-1.005404666066169739e-01 4.407627135515213013e-02 2.427960038185119629e-01
1.311771869659423828e-01 -4.470935463905334473e-02 2.386927455663681030e-01
4.335881024599075317e-02 -3.292460367083549500e-02 1.500171124935150146e-01
-9.918750077486038208e-02 6.429223716259002686e-02 1.341866999864578247e-01
3.681035339832305908e-02 -9.226521104574203491e-02 1.987427771091461182e-01
1.920140981674194336e-01 -6.765227019786834717e-02 3.420556485652923584e-01
-2.197054773569107056e-02 -1.678660139441490173e-02 1.011083275079727173e-01
1.036223247647285461e-01 -5.356301367282867432e-02 2.127467095851898193e-01
-8.390236645936965942e-02 5.937478691339492798e-02 1.184121817350387573e-01
9.555985778570175171e-02 -9.577103704214096069e-02 4.017897248268127441e-01
1.847911775112152100e-01 -1.425909250974655151e-02 4.534188508987426758e-01
-6.913886964321136475e-02 5.653451383113861084e-02 2.593627274036407471e-01
-2.964873611927032471e-02 -5.837259814143180847e-03 3.524193763732910156e-01
-1.317665874958038330e-01 5.639223009347915649e-02 1.457068473100662231e-01
2.146822214126586914e-02 -5.564440786838531494e-02 3.899543583393096924e-01
-1.063911393284797668e-01 5.976969003677368164e-02 1.196185946464538574e-01
7.511496543884277344e-02 6.353388726711273193e-02 2.882483303546905518e-01
2.135334908962249756e-01 -6.155069172382354736e-02 4.287242889404296875e-01
6.922007352113723755e-02 -1.045545339584350586e-01 2.497919797897338867e-01
-6.460673362016677856e-02 4.326843470335006714e-02 1.004153788089752197e-01
1.710205078125000000e-01 -7.376040518283843994e-02 4.499402046203613281e-01
2.097875177860260010e-01 -4.639014601707458496e-02 4.491150975227355957e-01
4.460859671235084534e-02 -8.539181947708129883e-02 3.832566440105438232e-01
-1.665769815444946289e-01 -2.418354153633117676e-02 1.434861719608306885e-01
6.855829060077667236e-02 3.479553759098052979e-02 1.961151063442230225e-01
1.575722396373748779e-01 -1.014859154820442200e-01 3.834431469440460205e-01
-1.248895898461341858e-01 5.660165101289749146e-02 1.200461387634277344e-01
1.646358370780944824e-01 2.885340340435504913e-02 3.658440113067626953e-01
1.048770621418952942e-01 -7.450478523969650269e-02 2.304746806621551514e-01
4.533269256353378296e-02 -9.712365269660949707e-02 3.652177453041076660e-01
3.356967866420745850e-02 5.567442625761032104e-02 1.903644055128097534e-01
1.836584508419036865e-01 -5.104811489582061768e-02 3.134664595127105713e-01
-1.378987729549407959e-01 -6.456728093326091766e-03 6.451117992401123047e-02
-1.157354190945625305e-02 -9.515552967786788940e-02 3.105483353137969971e-01
2.008542120456695557e-01 -1.614285074174404144e-02 3.504115045070648193e-01
1.774358153343200684e-01 -8.457840979099273682e-02 3.414521515369415283e-01
-1.342175602912902832e-01 8.208444342017173767e-03 6.345172226428985596e-02
-9.628450870513916016e-02 -1.402265951037406921e-02 6.873907148838043213e-02
1.553027331829071045e-01 -1.143808849155902863e-02 2.698260843753814697e-01
-7.767385989427566528e-02 2.200522832572460175e-02 2.922757565975189209e-01
-1.115499809384346008e-02 6.480332463979721069e-02 1.690358668565750122e-01
