-1.720098853111267090e-01 -1.141434460878372192e-01 7.146754115819931030e-02
-5.156307816505432129e-01 -5.779287964105606079e-02 -3.957841545343399048e-02
2.702252268791198730e-01 -1.523815244436264038e-01 -2.263019606471061707e-02
-2.789760828018188477e-01 -9.964906424283981323e-02 8.405829966068267822e-02
-6.190971732139587402e-01 8.106492459774017334e-03 8.165493607521057129e-02
3.376891016960144043e-01 -7.943626493215560913e-02 -4.777592793107032776e-02
1.752063632011413574e-02 -1.209691315889358521e-01 -7.486236840486526489e-02
-1.729591190814971924e-02 -1.398172676563262939e-01 1.199079770594835281e-02
1.009391695261001587e-01 -7.959607988595962524e-02 9.048219025135040283e-02
-7.016712427139282227e-01 9.063430130481719971e-03 6.589702516794204712e-02
-3.310464024543762207e-01 -9.598749876022338867e-02 -4.398848116397857666e-02
3.767748177051544189e-02 -2.801977843046188354e-02 3.254780173301696777e-02
-4.259660840034484863e-03 -1.205129027366638184e-01 7.386266440153121948e-02
-1.508625894784927368e-01 -4.109700024127960205e-02 1.065384745597839355e-01
-4.368468523025512695e-01 -9.165734052658081055e-02 -1.394157204777002335e-02
-3.551614880561828613e-01 -4.964223504066467285e-02 1.197893023490905762e-01
-6.350813806056976318e-02 -1.346424221992492676e-01 2.856389619410037994e-02
-1.900149285793304443e-01 -2.758534252643585205e-02 9.976694732904434204e-02
3.684374690055847168e-01 -1.508189439773559570e-01 -2.790433913469314575e-02
-4.734287410974502563e-02 -1.167411580681800842e-01 -7.187462598085403442e-02
-5.123115777969360352e-01 -7.571066170930862427e-02 7.928287237882614136e-02
-6.781206727027893066e-01 -1.768810674548149109e-02 -8.437759242951869965e-03
-7.598474621772766113e-03 -8.541268855333328247e-02 1.018356233835220337e-01
-5.326978564262390137e-01 -1.319285482168197632e-02 1.101870238780975342e-01
-4.972749948501586914e-01 -3.347890824079513550e-02 -4.760641232132911682e-02
-5.613409280776977539e-01 -7.414995133876800537e-02 3.429193980991840363e-03
4.428930580615997314e-02 -3.883909434080123901e-02 6.533481925725936890e-02
4.085478782653808594e-01 -1.432814300060272217e-01 6.003389135003089905e-03
4.565852284431457520e-01 -1.202168613672256470e-01 -5.321358889341354370e-02
6.316716969013214111e-02 -3.749626874923706055e-02 5.548794940114021301e-02
2.588785886764526367e-01 -1.360927820205688477e-01 4.406449571251869202e-02
-7.248583436012268066e-01 -1.525082811713218689e-02 7.288677617907524109e-03
-1.669762283563613892e-01 -6.405699998140335083e-03 5.441245622932910919e-03
-6.116122007369995117e-02 -9.016352891921997070e-02 -8.881936222314834595e-02
3.395303487777709961e-01 -1.478579491376876831e-01 -4.784999415278434753e-02
9.325911104679107666e-02 -1.437329947948455811e-01 2.408061176538467407e-02
-4.698492884635925293e-01 -7.570679485797882080e-02 -3.412283957004547119e-02
2.339746057987213135e-02 -1.373448669910430908e-01 3.824566304683685303e-02
-4.597033262252807617e-01 -9.307553619146347046e-02 4.057287052273750305e-02
1.807076483964920044e-01 -1.481768786907196045e-01 -3.797015920281410217e-02
3.168812394142150879e-01 -1.155477315187454224e-01 -8.177640289068222046e-02
-1.457669734954833984e-01 -1.248492896556854248e-01 -3.355228900909423828e-02
-1.919461637735366821e-01 -1.217018961906433105e-01 -2.636829018592834473e-02
-6.559755802154541016e-01 -5.845484510064125061e-02 5.301497876644134521e-02
-5.984859466552734375e-01 -1.078898459672927856e-02 -2.119821682572364807e-02
-2.726677060127258301e-02 -3.827618062496185303e-02 -5.947282910346984863e-02
1.696881204843521118e-01 -4.396099597215652466e-02 -7.011706940829753876e-03
-1.291438043117523193e-01 -2.017131075263023376e-02 7.656408101320266724e-02
1.430529505014419556e-01 -4.000270366668701172e-02 9.185868315398693085e-03
2.752542495727539062e-04 -1.401183903217315674e-01 1.911513507366180420e-02
-4.734092950820922852e-01 -6.642875820398330688e-02 -4.331594333052635193e-02
-6.687198579311370850e-02 -7.036500424146652222e-02 -8.835141360759735107e-02
-4.855811595916748047e-01 -9.450890123844146729e-03 -3.239303082227706909e-02
2.075465172529220581e-01 -7.577980309724807739e-02 6.858386844396591187e-02
3.005149960517883301e-01 -6.504131853580474854e-02 -2.066261135041713715e-03
-4.922042489051818848e-01 -7.646424323320388794e-02 8.370721340179443359e-02
2.610777020454406738e-01 -1.444715261459350586e-01 2.748054824769496918e-02
8.154326677322387695e-02 -1.110399290919303894e-01 8.341444283723831177e-02
6.393045186996459961e-02 -9.049291908740997314e-02 -9.259628504514694214e-02
1.193897277116775513e-01 -7.273816317319869995e-02 -8.376873284578323364e-02
-2.442772090435028076e-01 -5.547294765710830688e-02 -7.773955166339874268e-02
-2.696559131145477295e-01 -1.088650003075599670e-01 6.559127569198608398e-02
-4.158153533935546875e-01 -8.846063911914825439e-02 7.892204076051712036e-02
-1.106732115149497986e-01 -1.308538913726806641e-01 3.121624514460563660e-02
7.154105603694915771e-02 -5.233553051948547363e-02 7.870405912399291992e-02
3.012776374816894531e-01 -1.459446102380752563e-01 2.027659490704536438e-02
4.110595583915710449e-01 -1.010809838771820068e-01 -5.558742582798004150e-02
-4.738796353340148926e-01 -5.301636457443237305e-02 -5.077160149812698364e-02
-5.349612236022949219e-01 -2.986319363117218018e-03 1.009809523820877075e-01
2.652949094772338867e-01 -6.209132075309753418e-02 -3.322868049144744873e-02
2.834495306015014648e-01 -1.467970311641693115e-01 1.948520354926586151e-02
1.572219878435134888e-01 -5.528015643358230591e-02 5.873343721032142639e-02
1.830754727125167847e-01 -5.019044876098632812e-02 3.521551191806793213e-02
-6.564331054687500000e-01 1.280218362808227539e-02 5.990450084209442139e-02
9.525433182716369629e-03 -1.421218961477279663e-01 2.021147869527339935e-03
-1.839123517274856567e-01 -3.552109748125076294e-02 -6.686591356992721558e-02
-4.222264289855957031e-01 -9.833960980176925659e-02 7.736112456768751144e-03
-1.327693611383438110e-01 -2.043611928820610046e-02 -3.954954445362091064e-02
-5.668675303459167480e-01 -1.351294293999671936e-02 1.093588471412658691e-01
-1.467329114675521851e-01 -2.073602378368377686e-02 -4.222816973924636841e-02
2.787883877754211426e-01 -7.692919671535491943e-02 -6.347127258777618408e-02
-1.687874346971511841e-01 -7.210705429315567017e-03 4.706275463104248047e-02
-8.568784594535827637e-02 -9.619963914155960083e-02 -8.475739508867263794e-02
-3.985929489135742188e-01 9.670376777648925781e-03 4.846651852130889893e-02
-3.833932429552078247e-02 -1.376251429319381714e-01 1.975751668214797974e-02
-2.201445102691650391e-01 -1.106181889772415161e-01 7.156098634004592896e-02
-2.837761342525482178e-01 -6.294083595275878906e-02 1.173354312777519226e-01
-6.538289189338684082e-01 -5.391759052872657776e-02 7.013488560914993286e-03
-2.622263729572296143e-01 -7.033798843622207642e-03 7.856347411870956421e-02
-7.692315429449081421e-02 -1.357457190752029419e-01 9.689990431070327759e-03
3.265681862831115723e-01 -1.508564054965972900e-01 -1.576546579599380493e-03
1.937160938978195190e-01 -9.173813462257385254e-02 -8.840569853782653809e-02
4.613253474235534668e-01 -1.160650178790092468e-01 6.767948623746633530e-03
2.533857822418212891e-01 -7.888981699943542480e-02 -7.177989184856414795e-02
-5.990421026945114136e-02 -1.353863179683685303e-01 -2.295549958944320679e-02
-5.199823975563049316e-01 -8.287417143583297729e-02 5.133564025163650513e-02
3.733950853347778320e-02 -1.364521384239196777e-01 -4.997435957193374634e-02
-2.858186066150665283e-01 -2.458877861499786377e-02 1.082282513380050659e-01
-4.322348237037658691e-01 -7.852751016616821289e-02 -4.138682037591934204e-02
-2.540504038333892822e-01 -1.480062305927276611e-02 -4.105110093951225281e-02
-2.575408220291137695e-01 -8.094001561403274536e-02 1.083704084157943726e-01
-2.731873095035552979e-02 -1.350958943367004395e-01 -3.752815350890159607e-02
5.531819164752960205e-02 -1.195493340492248535e-01 7.574034482240676880e-02
-7.480915188789367676e-01 -3.352211043238639832e-02 3.911434113979339600e-02
-6.573243141174316406e-01 5.074314773082733154e-03 8.489490300416946411e-02
-7.664902508258819580e-02 -1.396802812814712524e-02 1.261310093104839325e-02
7.748025655746459961e-02 -1.460787355899810791e-01 7.164375856518745422e-04
-4.375135898590087891e-01 -5.257822573184967041e-03 9.984937310218811035e-02
6.963643431663513184e-02 -1.413916945457458496e-01 3.031267598271369934e-02
-1.268871724605560303e-01 -1.243088990449905396e-01 -4.162505641579627991e-02
1.155627220869064331e-01 -1.233264952898025513e-01 -8.078204840421676636e-02
-1.000165939331054688e-04 -1.306791156530380249e-01 -5.659843236207962036e-02
-3.951179981231689453e-02 -7.843784242868423462e-02 -9.043608605861663818e-02
-5.630198717117309570e-01 -4.588975757360458374e-02 -3.461535274982452393e-02
8.412863314151763916e-02 -3.580236062407493591e-02 -2.581093087792396545e-02
-1.251125037670135498e-01 -1.118703931570053101e-01 8.073899894952774048e-02
-3.643693774938583374e-02 -3.595791384577751160e-02 8.224192261695861816e-02
-5.179560184478759766e-01 -8.504277467727661133e-02 2.891761623322963715e-02
-3.903968930244445801e-01 -7.964496314525604248e-02 9.853944927453994751e-02
-6.955681443214416504e-01 -4.758667945861816406e-02 2.279621921479701996e-02
-7.097324728965759277e-01 4.110306501388549805e-03 7.758962363004684448e-02
2.826516032218933105e-01 -1.085874885320663452e-01 6.194170936942100525e-02
2.128504365682601929e-01 -1.462229043245315552e-01 2.390918508172035217e-02
3.826182484626770020e-01 -1.448320895433425903e-01 -5.114483833312988281e-02
-2.398805022239685059e-01 -1.184175983071327209e-01 -1.628220826387405396e-02
-2.279991507530212402e-01 -1.146925613284111023e-02 -3.151815384626388550e-02
3.802340030670166016e-01 -9.339533001184463501e-02 2.832805179059505463e-02
1.740497499704360962e-01 -1.502142846584320068e-01 -2.079093828797340393e-02
-3.765895962715148926e-01 4.920706152915954590e-03 6.884266436100006104e-02
-5.701315402984619141e-02 -5.146302655339241028e-02 1.012385785579681396e-01
-4.894126653671264648e-01 -8.893744647502899170e-02 3.961317986249923706e-02
-2.273707538843154907e-01 -4.432427883148193359e-02 1.152141094207763672e-01
9.651109576225280762e-03 -2.698487415909767151e-02 -2.245080098509788513e-02
-4.700388312339782715e-01 1.263865828514099121e-02 5.070264637470245361e-02
1.466042548418045044e-01 -1.239150464534759521e-01 -8.184266090393066406e-02
-6.235672235488891602e-01 -4.844466596841812134e-02 -1.528680231422185898e-02
1.203833967447280884e-01 -5.776613578200340271e-02 -6.795091181993484497e-02
2.057592719793319702e-01 -1.043707281351089478e-01 7.521243393421173096e-02
3.303308486938476562e-01 -7.303335517644882202e-02 -3.158341348171234131e-02
-1.933360993862152100e-01 -1.011392474174499512e-01 9.117348492145538330e-02
-4.470425844192504883e-01 6.017647683620452881e-03 7.836110144853591919e-02
-4.063388705253601074e-01 -4.432916641235351562e-03 -2.752808853983879089e-02
2.231626957654953003e-01 -1.502506732940673828e-01 6.449967157095670700e-03
1.620668619871139526e-01 -1.434929817914962769e-01 -5.201079696416854858e-02
-1.540304571390151978e-01 -1.025242060422897339e-01 -7.221022248268127441e-02
-1.205102428793907166e-01 -1.314710825681686401e-02 -1.342691574245691299e-02
-1.179596781730651855e-02 -1.363095343112945557e-01 -3.783696517348289490e-02
-5.348185300827026367e-01 -8.130562305450439453e-02 1.468140725046396255e-02
-1.730195283889770508e-01 -1.012026369571685791e-01 -7.061534374952316284e-02
-2.198119461536407471e-02 -4.143786802887916565e-02 8.643342554569244385e-02
-5.728657245635986328e-01 -3.565176948904991150e-02 -3.481587767601013184e-02
-2.274527549743652344e-01 -2.068668603897094727e-03 4.800106957554817200e-02
-1.381162256002426147e-01 -1.195840090513229370e-01 6.416448205709457397e-02
-3.908749222755432129e-01 -1.029397547245025635e-01 3.188684210181236267e-02
2.133209258317947388e-01 -1.511768102645874023e-01 -2.462341450154781342e-03
4.205480217933654785e-02 -1.403747200965881348e-01 -3.807446360588073730e-02
9.766450524330139160e-02 -1.411876976490020752e-01 -4.836879298090934753e-02
-4.550384283065795898e-01 -2.186549454927444458e-02 -4.667869955301284790e-02
2.705931067466735840e-01 -1.291982978582382202e-01 -7.878873497247695923e-02
-4.761184453964233398e-01 -7.670550048351287842e-02 8.737802505493164062e-02
3.081142902374267578e-02 -1.268300116062164307e-01 -6.852515786886215210e-02
3.101438283920288086e-03 -3.006228432059288025e-02 -3.579413890838623047e-02
-2.720287442207336426e-02 -3.104018047451972961e-02 -4.551255330443382263e-02
-6.482846736907958984e-01 -6.078169494867324829e-02 3.011776134371757507e-02
1.751127988100051880e-01 -9.469887614250183105e-02 -9.040448814630508423e-02
8.152456581592559814e-02 -1.222885772585868835e-01 -7.947044074535369873e-02
-3.518325686454772949e-01 -9.902402013540267944e-02 7.054118812084197998e-02
-1.122222393751144409e-01 -5.338784307241439819e-02 -8.052654564380645752e-02
-3.463689386844635010e-01 -7.683625072240829468e-02 1.064064130187034607e-01
-4.286599159240722656e-01 -9.092222154140472412e-02 6.874994188547134399e-02
-1.633975803852081299e-01 -1.233874261379241943e-01 4.734433814883232117e-02
2.271152585744857788e-01 -9.999728202819824219e-02 7.264363020658493042e-02
1.263370960950851440e-01 -8.893185108900070190e-02 8.790701627731323242e-02
2.285686284303665161e-01 -1.407712399959564209e-01 3.781123459339141846e-02
-2.850795984268188477e-01 -2.318865805864334106e-02 -5.467784404754638672e-02
4.819532036781311035e-01 -1.259294003248214722e-01 -6.507557816803455353e-03
-4.341705441474914551e-01 1.059265434741973877e-02 1.893140189349651337e-02
-6.821916103363037109e-01 -2.153664827346801758e-04 8.936826139688491821e-02
2.666918039321899414e-01 -1.030609235167503357e-01 -8.567353338003158569e-02
-3.132118880748748779e-01 -5.575273185968399048e-02 -7.239531725645065308e-02
1.073306649923324585e-01 -1.475141644477844238e-01 5.710786208510398865e-04
-9.684747457504272461e-02 -1.272452473640441895e-01 -4.217044636607170105e-02
3.167675733566284180e-01 -1.517419517040252686e-01 -3.084948658943176270e-02
-1.672863662242889404e-01 -6.523092836141586304e-02 -8.400243520736694336e-02
-6.169919967651367188e-01 -3.212177008390426636e-02 1.065451651811599731e-01
-3.820090889930725098e-01 -8.041059970855712891e-02 -5.179295688867568970e-02
-7.145568132400512695e-01 -4.254842177033424377e-02 6.210025399923324585e-02
1.307977586984634399e-01 -1.484898924827575684e-01 -1.953348144888877869e-02
-3.545826673507690430e-01 -5.950406193733215332e-04 -1.675749570131301880e-02
-3.751860857009887695e-01 -7.441081106662750244e-03 -3.269077464938163757e-02
-5.101577639579772949e-01 1.141353696584701538e-02 1.444062124937772751e-02
-2.774149775505065918e-01 -8.211924135684967041e-02 -6.986790150403976440e-02
-4.033058881759643555e-02 -5.124484002590179443e-02 -7.675237208604812622e-02
3.046073317527770996e-01 -8.528077602386474609e-02 -6.834997981786727905e-02
-1.555853635072708130e-01 -1.158736422657966614e-01 7.007501274347305298e-02
6.643709540367126465e-02 -5.952471122145652771e-02 -7.689150422811508179e-02
-6.370717287063598633e-01 -5.853157490491867065e-02 7.483362220227718353e-03
-7.160607576370239258e-01 -4.332847520709037781e-02 3.104631602764129639e-02
-3.270165324211120605e-01 -7.263178378343582153e-02 1.112119033932685852e-01
-1.243499070405960083e-01 -1.002785712480545044e-01 -7.815992087125778198e-02
-3.010013699531555176e-01 -1.062240079045295715e-01 -3.207838907837867737e-02
1.890339702367782593e-01 -1.348383426666259766e-01 5.068227648735046387e-02
-1.172129064798355103e-01 -2.600928768515586853e-02 8.472605794668197632e-02
4.919819533824920654e-02 -1.352237761020660400e-01 4.766682535409927368e-02
1.090367883443832397e-01 -1.335389614105224609e-01 5.418989434838294983e-02
-3.536290526390075684e-01 -4.124886542558670044e-02 -6.565091013908386230e-02
-6.231770515441894531e-01 -4.266455769538879395e-03 9.975212812423706055e-02
-2.798777818679809570e-01 -9.306513518095016479e-02 -6.015155464410781860e-02
1.507437080144882202e-01 -4.782866314053535461e-02 -4.037490114569664001e-02
1.103128045797348022e-01 -1.237854063510894775e-01 6.937725096940994263e-02
-3.352237939834594727e-01 -3.460591658949851990e-02 -6.358470767736434937e-02
3.471595644950866699e-01 -1.153203099966049194e-01 -7.823785394430160522e-02
-5.860914587974548340e-01 5.174338817596435547e-03 8.879765868186950684e-02
1.575189679861068726e-01 -1.239469349384307861e-01 6.711718440055847168e-02
4.455557465553283691e-02 -1.430014967918395996e-01 1.588673144578933716e-02
-4.426000714302062988e-01 -8.388294279575347900e-02 8.181924372911453247e-02
6.179049611091613770e-02 -4.286754131317138672e-02 6.757757812738418579e-02
-6.809476017951965332e-01 -5.105400830507278442e-02 2.025375515222549438e-02
3.028219938278198242e-02 -1.423507034778594971e-01 1.505643688142299652e-02
9.803013503551483154e-02 -1.460564583539962769e-01 -2.680738642811775208e-02
2.159050554037094116e-01 -1.313715875148773193e-01 5.430635064840316772e-02
-1.307075023651123047e-01 -1.280911266803741455e-01 -2.682125940918922424e-02
-1.896029114723205566e-01 -1.084637343883514404e-01 8.024105429649353027e-02
-1.871669292449951172e-02 -4.464853554964065552e-02 -6.782772392034530640e-02
-3.957352638244628906e-01 -9.754493832588195801e-03 -3.646633028984069824e-02
-2.400281131267547607e-01 -1.037295088171958923e-01 8.232545852661132812e-02
4.260053634643554688e-01 -1.334787458181381226e-01 -5.939864367246627808e-02
3.935808539390563965e-01 -1.381785869598388672e-01 1.982285827398300171e-02
-1.456483006477355957e-01 -1.290834099054336548e-01 2.426349371671676636e-02
2.485274821519851685e-01 -1.310932785272598267e-01 -7.742236554622650146e-02
-6.952362060546875000e-01 -3.180462867021560669e-02 8.992519229650497437e-02
-1.557836532592773438e-01 -8.805576711893081665e-03 -5.419901572167873383e-03
8.381593227386474609e-02 -3.278180211782455444e-02 -7.419680245220661163e-03
-7.397052645683288574e-01 -2.496907860040664673e-02 7.887909561395645142e-02
1.489125937223434448e-01 -6.027286872267723083e-02 -6.673177331686019897e-02
-6.552633643150329590e-01 -4.530321434140205383e-02 -6.178214214742183685e-03
-1.001792103052139282e-01 -7.708483189344406128e-02 -8.828210085630416870e-02
-8.318861573934555054e-02 -7.144397497177124023e-02 -8.828005194664001465e-02
-2.325057387351989746e-01 -1.032775044441223145e-01 -5.711033195257186890e-02
7.390372455120086670e-02 -4.699590802192687988e-02 -5.870820581912994385e-02
-5.199664831161499023e-01 -1.254837587475776672e-02 -3.279897943139076233e-02
-6.011916995048522949e-01 -3.604096174240112305e-02 1.073012202978134155e-01
-3.221310377120971680e-01 -1.047418266534805298e-01 -2.787063643336296082e-02
1.006208360195159912e-02 -7.968313992023468018e-02 1.011995598673820496e-01
9.908458590507507324e-02 -3.600427135825157166e-02 3.049198165535926819e-02
-2.869796752929687500e-01 3.163926303386688232e-03 1.579059846699237823e-02
4.531677067279815674e-02 -5.939125642180442810e-02 9.043892472982406616e-02
4.039236903190612793e-02 -7.676368206739425659e-02 9.790492057800292969e-02
-8.544456958770751953e-02 -5.641429126262664795e-02 1.070909127593040466e-01
9.226152300834655762e-02 -5.014031380414962769e-02 7.055756449699401855e-02
1.597991436719894409e-01 -1.495036184787750244e-01 -2.283135801553726196e-02
3.198792338371276855e-01 -1.200683563947677612e-01 5.123683065176010132e-02
4.723065495491027832e-01 -1.132287308573722839e-01 -4.993933252990245819e-03
-4.623588323593139648e-01 -4.431266337633132935e-02 1.176118850708007812e-01
-4.257929325103759766e-01 -9.866613149642944336e-02 2.451702207326889038e-02
9.490233659744262695e-02 -9.153901040554046631e-02 -9.247002005577087402e-02
3.698660135269165039e-01 -1.508011519908905029e-01 -1.466641854494810104e-02
-1.795782148838043213e-02 -1.181760206818580627e-01 7.690940052270889282e-02
1.301922649145126343e-01 -5.062130093574523926e-02 -5.366243422031402588e-02
-4.130232334136962891e-02 -6.870652735233306885e-02 1.056220754981040955e-01
-2.679266631603240967e-01 -1.177299246191978455e-01 4.326184280216693878e-03
-5.782920122146606445e-01 1.070716977119445801e-02 1.332975830882787704e-02
-4.360107779502868652e-01 2.138413488864898682e-03 8.677253872156143188e-02
-3.286297917366027832e-01 -2.197882905602455139e-02 1.097279042005538940e-01
-1.991664171218872070e-01 -1.228435784578323364e-01 3.602100163698196411e-02
-1.594071984291076660e-01 -2.595553174614906311e-02 -5.326198786497116089e-02
-5.786862373352050781e-01 -6.354068219661712646e-02 8.291677385568618774e-02
-3.956094384193420410e-01 -5.042849481105804443e-02 -6.313529610633850098e-02
-2.437628805637359619e-01 -1.200558245182037354e-01 2.463461831212043762e-02
-1.724244654178619385e-01 -1.276501715183258057e-01 6.059231702238321304e-03
-8.459205925464630127e-02 -2.755767107009887695e-02 7.991849631071090698e-02
2.467683702707290649e-01 -1.038257032632827759e-01 -8.748568594455718994e-02
-2.440478205680847168e-01 -7.301447540521621704e-02 1.136371567845344543e-01
-4.276165962219238281e-01 -5.064567923545837402e-02 -5.881411582231521606e-02
1.069200187921524048e-01 -3.766494989395141602e-02 -2.185977995395660400e-02
1.721073836088180542e-01 -9.462523460388183594e-02 8.144401013851165771e-02
-3.700881600379943848e-01 7.291369140148162842e-03 5.509725213050842285e-02
7.825036346912384033e-02 -1.370247602462768555e-01 4.517693817615509033e-02
-5.947294235229492188e-01 1.011692732572555542e-02 1.286016870290040970e-02
1.331312805414199829e-01 -6.675661355257034302e-02 -7.710673660039901733e-02
-5.896582603454589844e-01 -3.261006623506546021e-02 -3.139812126755714417e-02
-4.642112851142883301e-01 -1.018580049276351929e-02 1.070813015103340149e-01
2.120122313499450684e-02 -3.402332589030265808e-02 -4.200421273708343506e-02
-2.324499785900115967e-01 -2.544072642922401428e-02 -5.651497095823287964e-02
-4.346823692321777344e-01 -4.454214125871658325e-02 1.188226863741874695e-01
-1.693422943353652954e-01 -8.404042571783065796e-03 -8.798665367066860199e-03
-9.016037732362747192e-02 -3.579682484269142151e-02 9.292365610599517822e-02
-4.901727437973022461e-01 -8.366730064153671265e-03 1.060852929949760437e-01
-5.871819257736206055e-01 -4.987831413745880127e-02 -2.593892812728881836e-02
-4.427743554115295410e-01 -9.432479739189147949e-02 1.036500558257102966e-03
-2.352658212184906006e-01 -1.130573824048042297e-01 -3.748308122158050537e-02
-2.001548558473587036e-01 -1.174317151308059692e-01 -3.749258443713188171e-02
-4.971486330032348633e-01 -7.926134020090103149e-02 -1.792236417531967163e-02
-6.082919836044311523e-01 1.363141834735870361e-02 3.023194149136543274e-02
-1.938046663999557495e-01 -1.111826151609420776e-01 -5.320836603641510010e-02
-7.184224128723144531e-01 9.123526513576507568e-03 5.105256661772727966e-02
-1.094546318054199219e-01 -1.130022406578063965e-01 -6.723089516162872314e-02
2.331578284502029419e-01 -5.652415752410888672e-02 2.555010467767715454e-02
-4.980190992355346680e-01 1.011151820421218872e-02 9.117279201745986938e-03
-3.526991009712219238e-01 -2.127892524003982544e-02 -5.185148119926452637e-02
4.744681715965270996e-01 -1.360861659049987793e-01 -1.198048237711191177e-02
-4.488375782966613770e-02 -9.168336540460586548e-02 -8.937737345695495605e-02
-3.848843574523925781e-01 -2.913914248347282410e-02 1.172213628888130188e-01
-1.005125790834426880e-01 -1.312983334064483643e-01 -2.548210695385932922e-02
-3.031135201454162598e-01 7.949471473693847656e-04 -4.876296035945415497e-03
1.538891941308975220e-01 -1.465519964694976807e-01 1.958806067705154419e-02
-7.362171411514282227e-01 2.976767718791961670e-03 7.101673632860183716e-02
3.122085928916931152e-01 -1.366510987281799316e-01 -7.015376538038253784e-02
-2.627677917480468750e-01 -2.496995031833648682e-03 6.497550755739212036e-02
2.527403831481933594e-02 -1.412160396575927734e-01 -2.813490480184555054e-02
9.149014949798583984e-04 -1.408364772796630859e-01 -1.798226684331893921e-02
-5.573902726173400879e-01 2.992905676364898682e-03 -8.117807097733020782e-03
-5.500311255455017090e-01 -7.837440818548202515e-02 1.321017462760210037e-02
-2.189037501811981201e-01 -2.872386574745178223e-02 1.047443151473999023e-01
-7.879469543695449829e-02 -1.325321197509765625e-01 3.431460633873939514e-02
-7.540901005268096924e-02 -4.512032121419906616e-02 9.945375472307205200e-02
-2.770081162452697754e-01 -3.124368190765380859e-02 -6.308489292860031128e-02
4.042402505874633789e-01 -8.747055381536483765e-02 -2.235112339258193970e-02
-1.853606104850769043e-01 -1.230609714984893799e-01 4.117278009653091431e-02
-6.048992276191711426e-01 -5.464790016412734985e-02 -1.544372085481882095e-02
-2.652952075004577637e-01 -1.018092781305313110e-02 -3.253579512238502502e-02
-5.690885782241821289e-01 -7.609508186578750610e-02 2.332267537713050842e-02
-1.152478009462356567e-01 -2.768139913678169250e-02 -5.195251107215881348e-02
-3.535183668136596680e-01 -8.437809348106384277e-02 9.724973142147064209e-02
1.905057877302169800e-01 -1.508588492870330811e-01 -5.557282827794551849e-03
-5.072930455207824707e-01 1.294801384210586548e-02 5.875867977738380432e-02
-2.797872424125671387e-01 -1.141811758279800415e-01 4.210180044174194336e-02
-3.488153815269470215e-01 -1.056767702102661133e-01 4.837793111801147461e-02
4.628991484642028809e-01 -1.413643509149551392e-01 -2.493433281779289246e-02
-2.670640945434570312e-01 -1.088167056441307068e-01 -3.751248866319656372e-02
-2.059283256530761719e-01 -1.230720058083534241e-01 -1.096678990870714188e-02
-3.510664701461791992e-01 -6.211438030004501343e-02 1.162799447774887085e-01
-5.760672092437744141e-01 4.950769245624542236e-03 -2.456861548125743866e-03
2.737429141998291016e-01 -1.417762935161590576e-01 3.268171846866607666e-02
1.007946729660034180e-01 -9.376944601535797119e-02 9.041218459606170654e-02
1.963159292936325073e-01 -1.250490993261337280e-01 6.327885389328002930e-02
2.812679409980773926e-01 -6.156896054744720459e-02 -5.532382056117057800e-04
4.856228232383728027e-01 -1.309137493371963501e-01 -3.322936594486236572e-02
2.812011241912841797e-01 -1.028941720724105835e-01 -8.417401462793350220e-02
-5.045036226511001587e-02 -1.200605332851409912e-01 7.242340594530105591e-02
-1.078739762306213379e-01 -1.002543717622756958e-01 9.605716913938522339e-02
3.029232025146484375e-01 -7.357700914144515991e-02 -4.922382533550262451e-02
-4.633187055587768555e-01 -7.623941451311111450e-02 9.103636443614959717e-02
4.172616004943847656e-01 -1.470889896154403687e-01 -1.168792229145765305e-02
-2.438129782676696777e-01 -8.711101114749908447e-02 -7.162502408027648926e-02
3.772811591625213623e-02 -2.894617617130279541e-02 -1.766185462474822998e-02
-1.224200874567031860e-01 -4.122125357389450073e-02 -7.080394029617309570e-02
4.301943778991699219e-01 -9.494394809007644653e-02 -2.692529931664466858e-02
-3.519014716148376465e-01 -1.082683950662612915e-01 1.939606852829456329e-02
-1.670280545949935913e-01 -1.232629567384719849e-01 -3.099977970123291016e-02
3.873957395553588867e-01 -8.440276235342025757e-02 2.326707355678081512e-03
4.613726139068603516e-01 -1.066086664795875549e-01 -3.314006701111793518e-02
-1.371556520462036133e-02 -9.586407244205474854e-02 -8.989329636096954346e-02
1.858906596899032593e-01 -7.510380446910858154e-02 7.319833338260650635e-02
-1.469745934009552002e-01 -1.092046573758125305e-01 8.319453150033950806e-02
-2.410060614347457886e-01 -1.220219954848289490e-02 8.549753576517105103e-02
-3.016917109489440918e-01 -4.642133414745330811e-02 1.192455962300300598e-01
1.722848862409591675e-01 -5.390980094671249390e-02 -4.933322221040725708e-02
1.710484176874160767e-01 -5.036573484539985657e-02 4.234948754310607910e-02
-1.514699161052703857e-01 -1.015946045517921448e-01 9.320478141307830811e-02
2.780838310718536377e-02 -4.703057929873466492e-02 -6.587796658277511597e-02
-2.003005445003509521e-01 -9.962711483240127563e-02 -6.778481602668762207e-02
-2.136274725198745728e-01 -2.098281309008598328e-02 -4.914558678865432739e-02
-5.246013998985290527e-01 1.283895969390869141e-02 2.156513743102550507e-02
-4.437015652656555176e-01 1.143801212310791016e-02 5.239479616284370422e-02
-3.556117415428161621e-03 -5.064713209867477417e-02 -7.367312163114547729e-02
1.703912019729614258e-02 -9.964182972908020020e-02 -9.019268304109573364e-02
-3.204705417156219482e-01 -3.138154745101928711e-03 -2.055891603231430054e-02
-4.100515246391296387e-01 -1.305787637829780579e-02 -4.068516939878463745e-02
-7.231620550155639648e-01 -3.178055584430694580e-02 1.216523628681898117e-02
1.472403854131698608e-01 -1.335704475641250610e-01 -7.065591961145401001e-02
-2.281073927879333496e-01 -9.299445152282714844e-02 -6.950602680444717407e-02
-2.536943852901458740e-01 1.244090497493743896e-03 3.539178520441055298e-02
-3.679146766662597656e-01 -1.558641344308853149e-02 1.068807244300842285e-01
-5.097568631172180176e-01 -5.886652320623397827e-02 1.047009080648422241e-01
-1.065032035112380981e-01 -9.267798811197280884e-02 -8.458644151687622070e-02
-6.352357864379882812e-01 -2.266951277852058411e-02 1.058383956551551819e-01
-2.567017674446105957e-01 -8.939557522535324097e-02 -6.789172440767288208e-02
-2.133553326129913330e-01 -1.288735494017601013e-02 -3.310780599713325500e-02
-1.939682811498641968e-01 -6.279491633176803589e-02 -8.219584822654724121e-02
3.562970757484436035e-01 -9.998732060194015503e-02 4.299054667353630066e-02
3.562911748886108398e-01 -8.587922155857086182e-02 -5.341639369726181030e-02
-4.402022808790206909e-02 -1.379658132791519165e-01 -1.225183624774217606e-02
1.433944255113601685e-01 -4.025540128350257874e-02 -5.714110098779201508e-03
-5.966082811355590820e-01 1.486964523792266846e-02 4.283892363309860229e-02
-2.080643177032470703e-02 -2.442977577447891235e-02 5.118018016219139099e-02
1.356093585491180420e-02 -2.580358460545539856e-02 3.777946531772613525e-02
-1.623910963535308838e-01 -8.212819695472717285e-02 1.091521531343460083e-01
-7.521204948425292969e-01 2.714581787586212158e-03 6.167234480381011963e-02
-5.414178967475891113e-01 -5.890450626611709595e-02 -3.187913820147514343e-02
3.797119855880737305e-01 -1.182624995708465576e-01 -7.335134595632553101e-02
-2.754119038581848145e-02 -6.270840764045715332e-02 1.027581691741943359e-01
-3.580836057662963867e-01 -7.456685602664947510e-02 -6.139644235372543335e-02
-1.691287606954574585e-01 -1.906803995370864868e-02 -4.152600839734077454e-02
-6.037181615829467773e-01 3.871992230415344238e-03 -1.503731124103069305e-03
3.516346812248229980e-01 -1.516792178153991699e-01 -1.888017356395721436e-02
8.955895900726318359e-04 -1.289225667715072632e-01 5.880453810095787048e-02
-2.407848834991455078e-03 -7.040700316429138184e-02 1.018503829836845398e-01
1.697194725275039673e-01 -7.452525198459625244e-02 7.636585831642150879e-02
3.079751729965209961e-01 -6.658407300710678101e-02 -1.501914393156766891e-02
-5.853179693222045898e-01 -7.308898121118545532e-02 4.447247833013534546e-02
-6.585620343685150146e-02 -7.364529371261596680e-02 1.078319475054740906e-01
3.191886842250823975e-02 -4.927368462085723877e-02 8.412104099988937378e-02
-2.774559259414672852e-01 -1.119454801082611084e-01 -2.428588271141052246e-02
1.931864470243453979e-01 -4.719018936157226562e-02 4.315404221415519714e-03
2.272365242242813110e-01 -1.513506919145584106e-01 -2.685020491480827332e-02
-3.395193815231323242e-01 -4.815232753753662109e-02 1.199189946055412292e-01
-4.861994981765747070e-01 -2.458472922444343567e-02 1.162753701210021973e-01
3.010561466217041016e-01 -6.681275367736816406e-02 1.281899958848953247e-02
-3.282212615013122559e-01 -2.276575937867164612e-02 -5.396218597888946533e-02
-4.068567752838134766e-01 -9.945201128721237183e-02 4.487418755888938904e-02
2.996858954429626465e-01 -1.513350009918212891e-01 -3.446689620614051819e-02
-1.831777393817901611e-01 -5.810342729091644287e-03 4.674542322754859924e-02
-7.656369805335998535e-01 -1.222732663154602051e-02 7.162356376647949219e-02
-4.740993380546569824e-01 3.629773855209350586e-04 -1.770425587892532349e-02
-4.498478770256042480e-01 1.015997678041458130e-02 1.320284046232700348e-02
-1.997075378894805908e-01 -1.153175234794616699e-01 6.394115090370178223e-02
1.546873152256011963e-02 -1.304571032524108887e-01 -5.986775457859039307e-02
9.835377335548400879e-02 -1.362144201993942261e-01 -6.089512258768081665e-02
7.224953174591064453e-02 -1.441140472888946533e-01 1.741711609065532684e-02
-2.928289771080017090e-02 -1.285023391246795654e-01 -5.558650940656661987e-02
4.728801548480987549e-02 -1.435111612081527710e-01 -2.261272072792053223e-02
-7.678960263729095459e-02 -1.026742532849311829e-01 9.413518011569976807e-02
-2.750538885593414307e-01 -8.404869586229324341e-02 1.048340871930122375e-01
-1.296428591012954712e-01 -2.662542462348937988e-02 -5.163665860891342163e-02
-6.595258116722106934e-01 -3.433789312839508057e-02 -1.276001241058111191e-02
6.582182645797729492e-02 -3.131512552499771118e-02 -1.290337648242712021e-02
-1.741967499256134033e-01 -1.626582816243171692e-02 7.936513423919677734e-02
5.201986432075500488e-02 -3.256453573703765869e-02 4.520737752318382263e-02
1.323788613080978394e-01 -1.352514922618865967e-01 5.103679373860359192e-02
-6.090195178985595703e-01 -7.113132625818252563e-03 1.030549183487892151e-01
4.259808063507080078e-01 -9.600199013948440552e-02 3.431199118494987488e-03
-3.310923576354980469e-01 -5.953959003090858459e-02 -7.050932943820953369e-02
-3.844089508056640625e-01 8.625097572803497314e-03 5.123195052146911621e-02
-7.436707615852355957e-01 -1.521826907992362976e-02 1.541174761950969696e-02
-2.069248259067535400e-01 -5.992390215396881104e-03 5.907639488577842712e-02
-6.996950507164001465e-01 -4.088151454925537109e-02 7.668503373861312866e-02
1.114670187234878540e-01 -1.401108503341674805e-01 -5.380011349916458130e-02
-1.234428137540817261e-01 -1.624552905559539795e-02 -2.628963068127632141e-02
3.533357381820678711e-01 -1.222982704639434814e-01 4.343226924538612366e-02
-4.066360592842102051e-01 -5.106388777494430542e-02 1.183489337563514709e-01
-2.932834625244140625e-01 -9.707525372505187988e-03 9.014131873846054077e-02
2.319397479295730591e-01 -1.118848025798797607e-01 -8.813765645027160645e-02
-8.774682879447937012e-03 -5.353008955717086792e-02 9.542319178581237793e-02
1.417218148708343506e-02 -1.146689429879188538e-01 8.182364702224731445e-02
-5.545474886894226074e-01 -5.601558834314346313e-02 -3.061825409531593323e-02
8.666704595088958740e-02 -6.906583905220031738e-02 -8.361855894327163696e-02
-1.804863512516021729e-01 -1.076384335756301880e-01 -6.168921291828155518e-02
2.367721050977706909e-01 -1.358911395072937012e-01 -7.185553014278411865e-02
3.230760693550109863e-01 -9.579392522573471069e-02 -7.456044107675552368e-02
-1.883675158023834229e-01 -5.781576037406921387e-03 -2.088283188641071320e-03
-5.950078964233398438e-01 -7.092419266700744629e-02 2.086130157113075256e-02
1.167876571416854858e-01 -6.281828135251998901e-02 7.904448360204696655e-02
4.466888904571533203e-01 -1.055014729499816895e-01 6.126443389803171158e-03
-1.399756968021392822e-02 -2.049189805984497070e-02 1.595252752304077148e-02
-4.161890149116516113e-01 6.973594427108764648e-03 6.985986232757568359e-02
8.900320529937744141e-02 -3.295501321554183960e-02 1.588544808328151703e-02
-5.475400686264038086e-01 -4.472082108259201050e-02 1.101349815726280212e-01
-5.062444210052490234e-01 -3.686071932315826416e-02 1.165342405438423157e-01
1.670623272657394409e-01 -1.398543268442153931e-01 4.128912836313247681e-02
-2.636497020721435547e-01 -5.275600031018257141e-02 1.185203567147254944e-01
1.625814884901046753e-01 -1.477613747119903564e-01 -3.625065460801124573e-02
-2.525126039981842041e-01 -1.115585565567016602e-01 6.227455288171768188e-02
3.285407423973083496e-01 -7.186310738325119019e-02 9.164223447442054749e-03
3.643059134483337402e-01 -9.911404550075531006e-02 -6.825771927833557129e-02
3.828359842300415039e-01 -1.325879096984863281e-01 2.928969636559486389e-02
-1.005849689245223999e-01 -1.455959305167198181e-02 4.917670786380767822e-02
3.126219511032104492e-01 -7.923081517219543457e-02 -5.726435035467147827e-02
-7.503885030746459961e-02 -8.892951160669326782e-02 -8.827368170022964478e-02
-1.178428530693054199e-02 -1.201501414179801941e-01 -7.233223319053649902e-02
-2.921915650367736816e-01 -3.125570714473724365e-03 -1.714850217103958130e-02
1.203025430440902710e-01 -1.095708906650543213e-01 -8.997274935245513916e-02
-1.242958903312683105e-01 -3.796682506799697876e-02 1.006323695182800293e-01
-3.722170293331146240e-01 -7.763314992189407349e-02 1.031270474195480347e-01
3.136019706726074219e-01 -1.522820889949798584e-01 -1.221532467752695084e-02
-4.831112623214721680e-01 -8.485420048236846924e-02 -1.025957148522138596e-02
2.477570921182632446e-01 -5.617339909076690674e-02 7.239124272018671036e-03
-2.038501799106597900e-01 -4.047177731990814209e-03 1.866719685494899750e-03
3.879182934761047363e-01 -1.500225663185119629e-01 -1.807142049074172974e-02
-1.654407083988189697e-01 -3.579702600836753845e-02 -6.665064394474029541e-02
-3.077946305274963379e-01 1.145496964454650879e-03 6.487628072500228882e-02
9.145577251911163330e-02 -1.295681744813919067e-01 6.119999662041664124e-02
5.091288685798645020e-02 -1.280090808868408203e-01 -6.928536295890808105e-02
-4.860547184944152832e-01 6.562270224094390869e-03 -2.782153896987438202e-03
3.565368056297302246e-01 -1.504238694906234741e-01 -3.499736264348030090e-02
-5.842877030372619629e-01 -5.215518921613693237e-02 9.819001704454421997e-02
-4.812645316123962402e-01 1.188790798187255859e-02 6.030784174799919128e-02
-5.342855304479598999e-02 -1.374731361865997314e-01 1.008110214024782181e-02
1.537672430276870728e-01 -4.247314482927322388e-02 2.029676362872123718e-02
-3.628833889961242676e-01 -9.325909614562988281e-02 -3.935509175062179565e-02
-5.588310211896896362e-02 -1.943526044487953186e-02 4.829360544681549072e-02
-8.509247004985809326e-02 -1.316610723733901978e-02 2.383999899029731750e-02
-8.110544085502624512e-02 -2.114395424723625183e-02 6.472349166870117188e-02
-5.224758982658386230e-01 -3.302406519651412964e-02 1.159194931387901306e-01
4.833303391933441162e-02 -9.201421588659286499e-02 -9.250555932521820068e-02
-7.537505030632019043e-01 -2.208171039819717407e-02 7.398220151662826538e-02
-5.475217103958129883e-01 -3.417445346713066101e-02 -3.969734162092208862e-02
-1.915008425712585449e-01 -8.833821862936019897e-02 1.047480180859565735e-01
9.895664453506469727e-02 -4.083577543497085571e-02 -3.800369799137115479e-02
-2.565031051635742188e-01 -1.032210737466812134e-01 -5.163775384426116943e-02
4.205185770988464355e-01 -1.343934834003448486e-01 1.723292097449302673e-02
-6.782838702201843262e-01 -7.402077317237854004e-04 4.519524984061717987e-03
-7.085228562355041504e-01 7.909879088401794434e-03 3.217486664652824402e-02
-3.200129270553588867e-01 -1.046313419938087463e-01 6.394872814416885376e-02
2.890109419822692871e-01 -6.401909142732620239e-02 -2.270108088850975037e-02
-6.383042931556701660e-01 9.043112397193908691e-03 1.576049067080020905e-02
2.872005105018615723e-02 -1.055845394730567932e-01 9.001116454601287842e-02
9.954771399497985840e-02 -3.414826467633247375e-02 1.404152251780033112e-03
-7.010487914085388184e-01 -4.626670479774475098e-02 6.176316365599632263e-02
-7.255560755729675293e-01 -1.245535910129547119e-03 8.145998418331146240e-02
-1.728662848472595215e-01 -1.145260408520698547e-01 -5.202332884073257446e-02
-2.564807534217834473e-01 -1.280944049358367920e-02 8.949041366577148438e-02
-2.588934004306793213e-01 -5.695365369319915771e-02 -7.707203924655914307e-02
-5.911148786544799805e-01 -2.263559401035308838e-02 1.106773391366004944e-01
-6.980457156896591187e-02 -1.128106862306594849e-01 -7.344101369380950928e-02
2.008506804704666138e-01 -4.916235804557800293e-02 -1.539389509707689285e-02
-3.208891302347183228e-02 -1.952157542109489441e-02 3.240423277020454407e-02
-4.522681832313537598e-01 -5.205893516540527344e-02 -5.479270219802856445e-02
3.241778016090393066e-01 -7.799139618873596191e-02 -5.045647174119949341e-02
-3.231976032257080078e-01 -1.010735705494880676e-02 9.523186087608337402e-02
-3.533710241317749023e-01 -6.347484141588211060e-02 -6.705415993928909302e-02
-4.231350421905517578e-01 7.038287818431854248e-03 1.879635266959667206e-03
1.472519338130950928e-02 -5.747625231742858887e-02 9.431152790784835815e-02
4.011113047599792480e-01 -1.255834996700286865e-01 3.002924844622612000e-02
-5.372600555419921875e-01 1.616358757019042969e-03 -1.229288894683122635e-02
1.596094220876693726e-01 -8.687307685613632202e-02 -8.887534588575363159e-02
2.207912355661392212e-01 -5.728927254676818848e-02 -4.036235436797142029e-02
-9.214282035827636719e-03 -2.182620391249656677e-02 2.925505489110946655e-02
2.241770178079605103e-01 -9.367497265338897705e-02 -8.666468411684036255e-02
2.801181077957153320e-01 -6.315876543521881104e-02 1.539555285125970840e-02
-2.133852690458297729e-01 -1.189649850130081177e-02 7.893484830856323242e-02
-1.965835392475128174e-01 -2.996005117893218994e-03 2.293931879103183746e-02
-2.386302202939987183e-01 -6.545424461364746094e-03 -1.934728026390075684e-02
2.754590511322021484e-01 -1.345058232545852661e-01 4.469446092844009399e-02
1.628723740577697754e-02 -5.221933126449584961e-02 -7.371856272220611572e-02
-3.544880747795104980e-01 -8.586741983890533447e-03 -3.434547409415245056e-02
1.410367637872695923e-01 -1.173464506864547729e-01 7.465078681707382202e-02
1.534775644540786743e-01 -6.849133223295211792e-02 -7.634679973125457764e-02
1.090450137853622437e-01 -3.962523490190505981e-02 4.038621485233306885e-02
2.060966640710830688e-01 -5.999588593840599060e-02 -5.286414921283721924e-02
1.468810290098190308e-01 -1.425247043371200562e-01 3.380569815635681152e-02
2.471906393766403198e-01 -5.924763530492782593e-02 2.601272799074649811e-02
1.501922160387039185e-01 -1.091412901878356934e-01 7.971669733524322510e-02
-4.628934264183044434e-01 -8.788117766380310059e-02 -1.192832458764314651e-02
-1.109066605567932129e-02 -1.062823683023452759e-01 9.054432064294815063e-02
-5.684247612953186035e-01 9.700350463390350342e-03 7.812893390655517578e-02
-8.782695233821868896e-02 -1.106084287166595459e-01 8.484249562025070190e-02
-3.424061834812164307e-01 7.255271077156066895e-03 3.279658034443855286e-02
-4.039527177810668945e-01 -8.509298413991928101e-02 -4.041102528572082520e-02
-4.260835647583007812e-01 -6.516105681657791138e-02 -5.447890609502792358e-02
-1.722604781389236450e-01 -6.578099727630615234e-02 1.145965009927749634e-01
2.103503793478012085e-01 -4.975381493568420410e-02 -1.320576295256614685e-03
-2.208841890096664429e-01 -6.196555122733116150e-02 1.167616024613380432e-01
-3.613032102584838867e-01 3.710046410560607910e-03 -3.470406867563724518e-03
2.364499717950820923e-01 -5.726563185453414917e-02 -3.184603154659271240e-02
-4.134122729301452637e-01 -6.797286868095397949e-02 1.082829907536506653e-01
-4.729704260826110840e-01 -9.092637151479721069e-02 4.314510896801948547e-02
3.608050942420959473e-01 -8.116303384304046631e-02 1.608701050281524658e-02
2.467541545629501343e-01 -8.555428683757781982e-02 6.544577330350875854e-02
-2.810838520526885986e-01 2.010919153690338135e-03 4.962078109383583069e-02
-5.205037593841552734e-01 6.271965801715850830e-03 8.496047556400299072e-02
-3.796524703502655029e-01 2.408988773822784424e-03 -1.014938671141862869e-02
-1.596461534500122070e-01 -1.288112699985504150e-01 1.008242089301347733e-02
-5.273900032043457031e-01 -4.782296717166900635e-03 -2.321144938468933105e-02
-1.856867671012878418e-01 -1.017615944147109985e-02 -2.068785578012466431e-02
2.420035749673843384e-01 -1.513164639472961426e-01 -3.013376146554946899e-02
-5.146756768226623535e-02 -4.572445154190063477e-02 -7.181662321090698242e-02
-3.050908446311950684e-03 -7.440457493066787720e-02 -8.983415365219116211e-02
-6.755018830299377441e-01 1.059022545814514160e-02 3.025254234671592712e-02
-3.198353946208953857e-02 -1.374747455120086670e-01 -2.439925819635391235e-02
1.879456788301467896e-01 -1.299650073051452637e-01 -7.755565643310546875e-02
-6.606569290161132812e-01 -2.628966048359870911e-02 1.012159734964370728e-01
2.995526790618896484e-01 -1.264751255512237549e-01 -7.952766120433807373e-02
-6.066029071807861328e-01 1.384962350130081177e-02 6.042737886309623718e-02
-4.570457935333251953e-01 9.854026138782501221e-03 6.609893590211868286e-02
-8.146214485168457031e-02 -1.498348638415336609e-02 3.975601494312286377e-02
-4.557799100875854492e-01 -9.059090912342071533e-02 5.797875300049781799e-02
-5.800368785858154297e-01 -1.509486511349678040e-02 1.094673201441764832e-01
3.307976722717285156e-01 -7.100184261798858643e-02 -1.666265726089477539e-02
-6.311790943145751953e-01 -2.112003043293952942e-02 -2.090531215071678162e-02
-5.308327674865722656e-01 -4.791340231895446777e-02 1.103222444653511047e-01
-7.071722745895385742e-01 -4.688698053359985352e-02 4.748438671231269836e-02
-2.585625946521759033e-01 -1.035466790199279785e-03 -1.858037896454334259e-03
2.937735915184020996e-01 -1.525231003761291504e-01 -1.371472049504518509e-02
-1.174489781260490417e-01 -8.454480767250061035e-02 -8.644866943359375000e-02
-2.042270004749298096e-01 -7.542283833026885986e-02 -8.129832148551940918e-02
2.987998723983764648e-01 -9.606398642063140869e-02 -7.891654223203659058e-02
3.345376849174499512e-01 -8.994153141975402832e-02 -6.646413356065750122e-02
-9.806504100561141968e-02 -2.651998400688171387e-02 8.128526061773300171e-02
2.615278959274291992e-01 -1.361220180988311768e-01 -7.182279229164123535e-02
-2.209564745426177979e-01 -1.095242425799369812e-01 -4.952698200941085815e-02
-7.424755692481994629e-01 -3.470737114548683167e-02 5.866038054227828979e-02
-1.819015890359878540e-01 -4.934238642454147339e-02 1.135573908686637878e-01
1.238897442817687988e-02 -1.390116512775421143e-01 -3.455934301018714905e-02
1.476978212594985962e-01 -1.488199979066848755e-01 4.098875448107719421e-03
3.109593391418457031e-01 -7.262754440307617188e-02 2.630213648080825806e-02
1.836711019277572632e-01 -5.908523499965667725e-02 5.606085807085037231e-02
-1.019321978092193604e-01 -1.334626525640487671e-01 -8.294303901493549347e-03
-5.133274793624877930e-01 1.371646672487258911e-02 2.961086854338645935e-02
-1.243033036589622498e-01 -9.496174752712249756e-03 2.816504985094070435e-02
-3.414102792739868164e-01 -1.089446693658828735e-01 3.149849921464920044e-02
4.026083648204803467e-02 -1.156037896871566772e-01 -8.245760202407836914e-02
1.509572714567184448e-01 -1.052962839603424072e-01 -9.132189303636550903e-02
-2.368839383125305176e-01 -2.074107527732849121e-03 -4.685111343860626221e-05
2.802836894989013672e-02 -1.278439760208129883e-01 6.266528367996215820e-02
-3.985276222229003906e-01 4.766725003719329834e-03 7.413725554943084717e-02
-7.307971715927124023e-01 7.088027894496917725e-03 4.323606193065643311e-02
-5.465698987245559692e-02 -1.263125836849212646e-01 -5.503587424755096436e-02
1.996901184320449829e-01 -1.387743055820465088e-01 -6.595651060342788696e-02
-1.411478370428085327e-01 -6.289594620466232300e-02 1.130703911185264587e-01
3.411244750022888184e-01 -7.990710437297821045e-02 2.591727301478385925e-02
-5.074890851974487305e-01 9.763300418853759766e-03 7.401699572801589966e-02
-2.739045023918151855e-01 -1.167229264974594116e-01 2.758813276886940002e-02
2.777935862541198730e-01 -8.391528576612472534e-02 5.619148164987564087e-02
-3.181485235691070557e-01 4.497759044170379639e-03 1.125737559050321579e-02
-4.175814390182495117e-01 1.997441053390502930e-03 8.480571955442428589e-02
-5.906368494033813477e-01 1.155321300029754639e-02 7.226763665676116943e-02
3.588025569915771484e-01 -1.299714446067810059e-01 -7.267209887504577637e-02
-1.260633021593093872e-01 -1.305349618196487427e-01 2.542496845126152039e-02
1.795923262834548950e-01 -1.371322125196456909e-01 -6.744062155485153198e-02
-3.182387650012969971e-01 5.726508796215057373e-03 3.607308864593505859e-02
-2.344631552696228027e-01 -5.702078342437744141e-04 1.313694939017295837e-02
-2.111603617668151855e-01 -7.472797483205795288e-02 1.129744574427604675e-01
