-7.400565594434738159e-02 -5.250300467014312744e-02 1.362952888011932373e-01
9.041288495063781738e-02 -5.446050688624382019e-02 4.958562552928924561e-02
3.284047916531562805e-02 -4.995764046907424927e-02 4.767252877354621887e-02
3.932606801390647888e-02 -6.251040846109390259e-02 -8.001072332262992859e-03
-3.534041345119476318e-02 -5.948944017291069031e-02 8.824687451124191284e-02
4.196093976497650146e-02 -6.251417845487594604e-02 -4.419670999050140381e-02
5.408127978444099426e-02 -6.261292099952697754e-02 -5.111606419086456299e-02
1.014834195375442505e-01 -6.149206310510635376e-02 -2.888036519289016724e-02
6.068211793899536133e-02 -5.172836035490036011e-02 7.027906179428100586e-02
8.610112965106964111e-02 -6.221380084753036499e-02 -8.119966089725494385e-02
7.483156770467758179e-02 -5.314748734235763550e-02 -6.176910549402236938e-02
1.281451247632503510e-02 -4.985400289297103882e-02 4.394947364926338196e-02
-4.249272495508193970e-02 -5.418061465024948120e-02 9.730238467454910278e-03
-2.232303284108638763e-02 -5.579461902379989624e-02 -2.535199001431465149e-02
2.022412046790122986e-02 -6.219158321619033813e-02 9.837267920374870300e-03
5.592089146375656128e-03 -5.019662901759147644e-02 3.054457530379295349e-02
6.531235575675964355e-02 -6.064238026738166809e-02 3.349421173334121704e-02
6.847167015075683594e-02 -5.132051557302474976e-02 -1.447498798370361328e-02
-1.790983416140079498e-02 -5.582767724990844727e-02 1.380196660757064819e-01
4.463533312082290649e-02 -5.896161869168281555e-02 7.519249618053436279e-02
-7.958964258432388306e-02 -5.280762538313865662e-02 1.055756509304046631e-01
1.104816198348999023e-01 -5.997730046510696411e-02 -1.018571108579635620e-02
9.152807295322418213e-02 -5.222468078136444092e-02 -2.872072532773017883e-02
4.700406640768051147e-02 -5.081965401768684387e-02 -3.107506781816482544e-03
1.304053217172622681e-01 -5.518124252557754517e-02 -5.451741814613342285e-02
7.677215337753295898e-02 -6.188424676656723022e-02 -6.713822484016418457e-03
-4.286937415599822998e-02 -5.973007902503013611e-02 3.057231381535530090e-02
5.058924853801727295e-02 -6.206984445452690125e-02 9.785943664610385895e-03
2.194035053253173828e-02 -5.001381039619445801e-02 8.173091709613800049e-02
-2.373863942921161652e-02 -4.976963251829147339e-02 9.017638117074966431e-02
5.736877024173736572e-02 -5.063094571232795715e-02 1.407649740576744080e-02
-8.956564590334892273e-03 -5.051188543438911438e-02 3.117166832089424133e-02
-3.219872713088989258e-02 -5.549130588769912720e-02 1.438763439655303955e-01
-5.687934905290603638e-02 -5.160125717520713806e-02 6.761983036994934082e-02
1.735152676701545715e-03 -5.343154445290565491e-02 -3.042913228273391724e-02
-4.669633507728576660e-02 -5.963703989982604980e-02 6.185223907232284546e-02
-6.530469655990600586e-02 -5.643085017800331116e-02 4.009939730167388916e-02
9.643647819757461548e-02 -6.049607321619987488e-02 1.808322966098785400e-03
-3.310160711407661438e-03 -5.799107998609542847e-02 1.133929565548896790e-01
-2.369170449674129486e-02 -5.136424303054809570e-02 2.505623176693916321e-02
-3.596995025873184204e-02 -5.500628799200057983e-02 -4.679597914218902588e-03
-1.680421642959117889e-02 -6.059495732188224792e-02 6.513096392154693604e-02
-6.407621502876281738e-02 -5.140843987464904785e-02 9.067460149526596069e-02
8.199042081832885742e-02 -5.983603373169898987e-02 2.980622276663780212e-02
-1.198909506201744080e-01 -5.173243582248687744e-02 1.079143956303596497e-02
1.329070925712585449e-01 -1.887844875454902649e-02 3.076966851949691772e-02
-3.827578574419021606e-02 -1.100537031888961792e-01 -6.232071667909622192e-02
5.348873138427734375e-02 -1.881742849946022034e-02 -4.210161417722702026e-02
2.263593375682830811e-01 -7.623881101608276367e-02 7.140499353408813477e-02
2.175250053405761719e-01 -6.520944088697433472e-02 7.427634298801422119e-02
1.250724196434020996e-01 -1.336243301630020142e-01 -1.022914610803127289e-02
-8.902490884065628052e-02 -8.644711226224899292e-02 4.344129562377929688e-02
-7.034465670585632324e-04 -1.136016398668289185e-01 -6.892444938421249390e-02
1.540773734450340271e-02 -2.444566786289215088e-02 6.757153570652008057e-02
-9.533905237913131714e-02 -3.121482953429222107e-02 -1.718999445438385010e-02
1.646361052989959717e-01 -4.481864720582962036e-02 8.482716977596282959e-02
7.528014481067657471e-02 -2.047765627503395081e-02 -4.132210463285446167e-02
-1.272924244403839111e-01 -5.764751136302947998e-02 -2.117608487606048584e-02
1.075554937124252319e-01 -6.631467491388320923e-02 -8.473210781812667847e-02
-1.202360466122627258e-01 -8.438538759946823120e-02 -2.105478011071681976e-02
-1.272794604301452637e-02 -8.964923024177551270e-02 8.531570434570312500e-02
-8.117418736219406128e-02 -2.582509815692901611e-02 -1.566002517938613892e-02
3.091419301927089691e-02 -1.318059861660003662e-01 -2.723493054509162903e-02
1.182162612676620483e-01 -3.664831817150115967e-02 -5.785423517227172852e-02
-2.934112399816513062e-02 -2.755175903439521790e-02 5.797530710697174072e-02
1.695857644081115723e-01 -1.006131842732429504e-01 8.989756554365158081e-02
-6.144577264785766602e-02 -2.001526206731796265e-02 2.896202262490987778e-03
-3.336407244205474854e-02 -1.479542627930641174e-02 -7.562331389635801315e-03
9.999689459800720215e-02 -3.171446919441223145e-02 8.340728282928466797e-02
1.910451352596282959e-01 -7.030034810304641724e-02 -5.089075490832328796e-02
1.590205579996109009e-01 -1.306414157152175903e-01 5.478268489241600037e-03
1.079109609127044678e-01 -2.103297412395477295e-02 -2.944982796907424927e-02
1.231455579400062561e-01 -1.296302080154418945e-01 4.930624365806579590e-02
2.610131353139877319e-02 -1.341596618294715881e-02 -2.629804983735084534e-02
3.684151917695999146e-03 -7.895737141370773315e-02 9.545123577117919922e-02
4.206221178174018860e-02 -1.403677463531494141e-02 -2.781224995851516724e-02
1.192937120795249939e-01 -1.603166013956069946e-02 1.675691641867160797e-02
-2.697527408599853516e-02 -1.173251941800117493e-01 4.066900908946990967e-02
-9.758476167917251587e-02 -1.011457517743110657e-01 -1.976405829191207886e-02
2.222311198711395264e-01 -1.109094321727752686e-01 3.600258380174636841e-02
2.938416227698326111e-02 -5.174763500690460205e-02 -8.974964916706085205e-02
-2.521905303001403809e-02 -9.364920854568481445e-02 -8.553496003150939941e-02
2.328988313674926758e-01 -5.649154633283615112e-02 3.932661190629005432e-02
1.954807639122009277e-01 -5.949588492512702942e-02 -4.137163236737251282e-02
8.717527240514755249e-02 -1.363608241081237793e-01 -1.880450639873743057e-03
-1.064470410346984863e-02 -4.496526345610618591e-02 -8.381745219230651855e-02
-6.770834326744079590e-03 -2.109038457274436951e-02 -4.898597300052642822e-02
1.424120366573333740e-01 -2.581721171736717224e-02 5.789142847061157227e-02
9.117094427347183228e-02 -1.085341870784759521e-01 9.061249345541000366e-02
4.290496557950973511e-02 -1.132003217935562134e-02 -1.289988867938518524e-02
2.231867983937263489e-02 -3.109420835971832275e-02 -6.949545443058013916e-02
-6.415779888629913330e-02 -6.886328756809234619e-02 6.957718729972839355e-02
2.139277458190917969e-01 -5.249947309494018555e-02 -1.493134908378124237e-02
1.543550789356231689e-01 -2.317095547914505005e-02 3.079642727971076965e-02
2.024983242154121399e-02 -9.383360296487808228e-02 9.274627268314361572e-02
7.622453570365905762e-02 -1.102549359202384949e-01 8.755294978618621826e-02
-9.736836701631546021e-02 -6.220305711030960083e-02 -6.550294160842895508e-02
1.282746791839599609e-01 -5.274552851915359497e-02 -7.135587930679321289e-02
-5.354382097721099854e-03 -1.089606732130050659e-01 6.887249648571014404e-02
7.665432244539260864e-02 -1.228141486644744873e-01 6.768654286861419678e-02
2.452579438686370850e-01 -8.894249051809310913e-02 9.770512580871582031e-03
1.258843988180160522e-01 -1.186322718858718872e-01 7.567299157381057739e-02
1.908384263515472412e-01 -4.076839610934257507e-02 6.229507178068161011e-02
2.380267977714538574e-01 -7.733444869518280029e-02 -8.347477763891220093e-03
1.541264355182647705e-04 -1.268445849418640137e-01 2.877262234687805176e-02
1.789029389619827271e-01 -6.738949567079544067e-02 -5.704613775014877319e-02
8.182761073112487793e-02 -1.118195056915283203e-01 -7.364415377378463745e-02
4.501901566982269287e-04 -1.301620900630950928e-01 4.317004233598709106e-03
1.348660886287689209e-02 -1.237657815217971802e-01 -5.143679305911064148e-02
-3.408894687891006470e-02 -2.044910565018653870e-02 3.881010413169860840e-02
-1.490928232669830322e-02 -3.912672773003578186e-02 7.879522442817687988e-02
6.360220909118652344e-02 -4.519607126712799072e-02 -8.168406784534454346e-02
1.296175420284271240e-01 -3.178063035011291504e-02 7.748124748468399048e-02
9.495237469673156738e-02 -1.363317966461181641e-01 1.115191821008920670e-02
2.419011294841766357e-01 -6.895060092210769653e-02 6.379990372806787491e-03
-3.167794644832611084e-02 -1.650568842887878418e-02 2.466527186334133148e-02
2.288070693612098694e-02 -1.266439408063888550e-01 4.364088922739028931e-02
9.337869286537170410e-02 -3.419668972492218018e-02 -6.279543787240982056e-02
-6.996438652276992798e-02 -3.494127839803695679e-02 4.605247825384140015e-02
6.015640124678611755e-02 -3.106626868247985840e-02 8.391015231609344482e-02
-9.627804905176162720e-02 -9.789145737886428833e-02 1.517388410866260529e-02
-8.640021085739135742e-03 -8.523255586624145508e-02 -9.273165464401245117e-02
2.189492434263229370e-02 -5.712765455245971680e-02 9.939717501401901245e-02
1.062202826142311096e-01 -1.326392143964767456e-01 3.983194380998611450e-02
7.459664344787597656e-02 -2.643768861889839172e-02 7.671831548213958740e-02
1.672825813293457031e-01 -2.818447723984718323e-02 4.466811940073966980e-02
8.787766098976135254e-02 -1.728104799985885620e-02 5.232572555541992188e-02
1.725826412439346313e-03 -2.890234440565109253e-02 -6.567353755235671997e-02
8.000943809747695923e-02 -4.689572751522064209e-02 -8.021673560142517090e-02
-2.037321031093597412e-02 -1.169758141040802002e-01 -5.622626841068267822e-02
1.022493839263916016e-01 -1.141669452190399170e-01 -6.729951500892639160e-02
8.942349255084991455e-02 -6.600221991539001465e-02 1.087016612291336060e-01
1.201568171381950378e-02 -6.148031726479530334e-02 -9.442517161369323730e-02
7.388000190258026123e-02 -8.943872153759002686e-02 1.042467281222343445e-01
-3.402906656265258789e-02 -6.251912564039230347e-02 -8.998105674982070923e-02
1.527279466390609741e-01 -2.254226803779602051e-02 1.207099482417106628e-02
9.734087437391281128e-02 -4.843590408563613892e-02 -7.750244438648223877e-02
-2.912726998329162598e-02 -1.248603165149688721e-01 -1.073147729039192200e-02
7.361447811126708984e-02 -1.320447325706481934e-01 -3.297443315386772156e-02
-4.123722016811370850e-02 -1.212834492325782776e-01 -2.223482914268970490e-02
1.622378230094909668e-01 -9.488341957330703735e-02 -6.421816349029541016e-02
1.038215607404708862e-01 -1.354001015424728394e-01 2.245668135583400726e-02
-1.936851441860198975e-02 -1.264128983020782471e-01 6.933341734111309052e-03
1.981675922870635986e-01 -4.508031159639358521e-02 -1.918785274028778076e-02
-6.342137604951858521e-02 -2.397192269563674927e-02 2.561496198177337646e-02
1.125079393386840820e-01 -1.151047348976135254e-01 8.229906111955642700e-02
1.780663877725601196e-01 -9.967463463544845581e-02 -5.350098013877868652e-02
2.370491251349449158e-02 -1.040053740143775940e-01 -8.385312557220458984e-02
1.185393258929252625e-01 -2.921250462532043457e-02 -4.493400454521179199e-02
1.621861457824707031e-01 -1.235538274049758911e-01 -2.751327306032180786e-02
3.490597009658813477e-03 -1.244607940316200256e-02 -1.800883375108242035e-02
7.206675410270690918e-02 -9.990905225276947021e-02 -8.554732054471969604e-02
6.524290889501571655e-03 -4.334126412868499756e-02 8.861227333545684814e-02
-6.335006654262542725e-02 -1.010288447141647339e-01 -6.391414999961853027e-02
-7.746546715497970581e-02 -2.431165799498558044e-02 7.338542491197586060e-05
1.776275187730789185e-01 -2.896544337272644043e-02 2.087827958166599274e-02
-1.963993906974792480e-02 -1.063771396875381470e-01 -7.461763918399810791e-02
9.370710700750350952e-03 -1.247801035642623901e-01 4.262534156441688538e-02
1.585028320550918579e-01 -5.341349542140960693e-02 9.519499540328979492e-02
1.741425320506095886e-02 -3.532330319285392761e-02 8.366647362709045410e-02
1.198097765445709229e-01 -6.601396948099136353e-02 1.076335683465003967e-01
2.339484691619873047e-01 -1.049852147698402405e-01 2.622826397418975830e-02
7.045320421457290649e-02 -6.028155982494354248e-02 -9.015831351280212402e-02
-1.040012612938880920e-01 -4.765096306800842285e-02 -5.019418895244598389e-02
2.750723063945770264e-02 -1.093977689743041992e-02 -1.117061451077461243e-02
-8.647044748067855835e-02 -4.341512173414230347e-02 4.411869123578071594e-02
-6.102936714887619019e-02 -4.717304185032844543e-02 -7.492045313119888306e-02
5.313914269208908081e-03 -4.020172730088233948e-02 -8.051392436027526855e-02
1.383916735649108887e-01 -1.154661625623703003e-01 -5.510674417018890381e-02
1.062373518943786621e-01 -1.355286389589309692e-01 -5.543516483157873154e-03
-1.125659868121147156e-01 -8.612585067749023438e-02 -3.902869671583175659e-02
1.157880499958992004e-01 -9.877538681030273438e-02 -7.819476723670959473e-02
-9.388413280248641968e-02 -3.097255527973175049e-02 5.404257215559482574e-03
1.004194170236587524e-01 -1.328075230121612549e-01 -2.575960010290145874e-02
-1.058404967188835144e-01 -7.609087973833084106e-02 -5.768308043479919434e-02
6.222575530409812927e-02 -1.360025703907012939e-01 8.966936729848384857e-03
-9.855533391237258911e-02 -3.544584289193153381e-02 -3.175394982099533081e-02
1.148784160614013672e-02 -1.297376751899719238e-01 -2.834254130721092224e-02
1.042297780513763428e-01 -1.262610405683517456e-01 6.119059771299362183e-02
-6.019253283739089966e-02 -1.151832491159439087e-01 -2.875113114714622498e-02
2.284351885318756104e-01 -7.199628651142120361e-02 -1.937057636678218842e-02
2.328953444957733154e-01 -9.418750554323196411e-02 5.777559056878089905e-02
-1.143403723835945129e-01 -8.985777199268341064e-02 -4.767504986375570297e-03
1.587094739079475403e-02 -1.127450019121170044e-01 -7.309500128030776978e-02
1.072935238480567932e-01 -1.007121652364730835e-01 9.832453727722167969e-02
2.099663317203521729e-01 -9.331988543272018433e-02 7.834484428167343140e-02
2.074186205863952637e-01 -8.024723082780838013e-02 8.477810025215148926e-02
-5.363178998231887817e-02 -1.103229746222496033e-01 -5.284287407994270325e-02
9.844853729009628296e-02 -1.340116187930107117e-02 2.007920667529106140e-02
-8.000914007425308228e-02 -8.591568470001220703e-02 -7.050523906946182251e-02
3.220652788877487183e-02 -1.027085110545158386e-01 8.833966404199600220e-02
9.654065221548080444e-02 -8.020992577075958252e-02 -8.879357576370239258e-02
4.282806813716888428e-02 -1.348313987255096436e-01 -8.085183799266815186e-03
7.890924811363220215e-02 -1.152257621288299561e-02 8.223811164498329163e-03
-4.175528138875961304e-02 -1.211026683449745178e-01 7.572332397103309631e-03
4.595264047384262085e-02 -1.025599390268325806e-01 -8.542497456073760986e-02
1.977003812789916992e-01 -3.609999641776084900e-02 1.758358255028724670e-02
5.635976046323776245e-02 -1.185034662485122681e-01 7.273565232753753662e-02
-3.571913391351699829e-02 -5.736477673053741455e-02 8.214040845632553101e-02
7.827579230070114136e-02 -1.542912796139717102e-02 -2.338936179876327515e-02
1.431047171354293823e-02 -9.569422155618667603e-02 -8.972965925931930542e-02
-1.119536086916923523e-01 -7.213956117630004883e-02 2.918288111686706543e-02
3.413350135087966919e-02 -1.291346251964569092e-01 -4.011072590947151184e-02
4.642464220523834229e-03 -6.360617280006408691e-02 9.686480462551116943e-02
1.531371772289276123e-01 -2.622849121689796448e-02 -1.281410455703735352e-02
8.451128005981445312e-02 -9.785129129886627197e-02 9.998446702957153320e-02
9.415017068386077881e-02 -2.079278975725173950e-02 -3.538777306675910950e-02
-4.407123476266860962e-02 -1.755888387560844421e-02 1.704878732562065125e-02
-6.270126998424530029e-02 -8.954808861017227173e-02 6.091332435607910156e-02
2.445106506347656250e-01 -6.768719106912612915e-02 3.154402971267700195e-02
6.743691861629486084e-02 -3.160181641578674316e-02 -6.529873609542846680e-02
-5.066540837287902832e-02 -3.834611922502517700e-02 6.275430321693420410e-02
6.929054856300354004e-02 -1.299622803926467896e-01 4.803863912820816040e-02
-1.992633938789367676e-02 -1.448302716016769409e-02 -2.016980573534965515e-02
1.151563450694084167e-01 -5.402562767267227173e-02 1.035871207714080811e-01
2.060992121696472168e-01 -1.136341392993927002e-01 -1.317510195076465607e-02
8.074596524238586426e-03 -1.398405805230140686e-02 3.670934587717056274e-02
1.169445216655731201e-01 -1.641311869025230408e-02 1.038886141031980515e-03
-8.412121981382369995e-02 -1.062232553958892822e-01 7.645450532436370850e-03
2.364219427108764648e-01 -7.158761471509933472e-02 5.849406868219375610e-02
-4.381114244461059570e-02 -1.876601204276084900e-02 -2.702447772026062012e-02
4.536736011505126953e-02 -5.460642278194427490e-02 1.023586690425872803e-01
-1.099765226244926453e-01 -5.722075328230857849e-02 3.139902278780937195e-02
-1.242420151829719543e-01 -6.098373234272003174e-02 -3.481595590710639954e-02
1.752720177173614502e-01 -7.963494211435317993e-02 -6.164227426052093506e-02
1.711040735244750977e-01 -1.146569177508354187e-01 7.188243418931961060e-02
2.070038318634033203e-01 -9.992492198944091797e-02 -3.376843035221099854e-02
9.379789233207702637e-02 -1.341007947921752930e-01 3.311863914132118225e-02
3.514993190765380859e-02 -7.008245587348937988e-02 -9.610736370086669922e-02
1.951749622821807861e-01 -1.156014502048492432e-01 5.673097074031829834e-02
-4.749894887208938599e-02 -5.099570751190185547e-02 7.437809556722640991e-02
-5.217500030994415283e-03 -9.950347989797592163e-02 -8.479063212871551514e-02
5.322594940662384033e-02 -5.193671584129333496e-02 -8.808477967977523804e-02
1.552401632070541382e-01 -5.938008427619934082e-02 -6.490056961774826050e-02
-1.531209796667098999e-02 -2.607199177145957947e-02 6.124068796634674072e-02
1.104388236999511719e-01 -1.289258003234863281e-01 -3.699670359492301941e-02
9.636773169040679932e-02 -2.350002899765968323e-02 6.850668787956237793e-02
-4.441525787115097046e-02 -1.092469096183776855e-01 4.654734954237937927e-02
2.174399197101593018e-01 -4.505810141563415527e-02 2.640208788216114044e-02
4.133320599794387817e-02 -3.740122541785240173e-02 8.984845876693725586e-02
6.896938383579254150e-02 -1.201317682862281799e-01 -6.327740848064422607e-02
1.030268520116806030e-01 -8.791097998619079590e-02 1.060518398880958557e-01
6.087538599967956543e-02 -4.000259190797805786e-02 9.420205652713775635e-02
2.221249938011169434e-01 -5.831254273653030396e-02 6.304591894149780273e-02
6.656937301158905029e-02 -1.351452320814132690e-01 2.216069586575031281e-02
-4.119197279214859009e-02 -9.663850814104080200e-02 6.687945127487182617e-02
5.628047138452529907e-02 -1.097692251205444336e-01 -7.823642343282699585e-02
1.630138605833053589e-02 -1.318823993206024170e-01 1.211464032530784607e-02
-8.404753357172012329e-02 -1.079445779323577881e-01 -8.893700316548347473e-03
3.923031687736511230e-02 -2.040239050984382629e-02 6.325785070657730103e-02
5.345316603779792786e-02 -2.361164987087249756e-02 7.126479595899581909e-02
2.185047268867492676e-01 -7.146923989057540894e-02 -2.987476810812950134e-02
1.799160242080688477e-01 -3.324221819639205933e-02 5.105080828070640564e-02
1.512992382049560547e-01 -1.292325556278228760e-01 -1.528931967914104462e-02
3.834934532642364502e-02 -1.157027855515480042e-01 -7.072496414184570312e-02
1.879484951496124268e-01 -3.319814801216125488e-02 8.254487067461013794e-03
1.359335333108901978e-01 -1.247651204466819763e-01 -3.880197927355766296e-02
-2.273913472890853882e-02 -2.588101476430892944e-02 -5.682480335235595703e-02
2.448084577918052673e-02 -2.278758957982063293e-02 -5.471720919013023376e-02
7.248189300298690796e-02 -1.708107069134712219e-02 5.443523451685905457e-02
6.820920109748840332e-02 -1.243214681744575500e-02 -1.200124435126781464e-02
5.229555815458297729e-02 -1.279561519622802734e-01 5.046031996607780457e-02
-2.036235481500625610e-02 -1.739902421832084656e-02 -3.428940847516059875e-02
-1.108322367072105408e-01 -4.212028533220291138e-02 -3.056699782609939575e-02
3.936354070901870728e-02 -2.312767133116722107e-02 -5.449064075946807861e-02
1.443007290363311768e-01 -1.321414411067962646e-01 2.699760533869266510e-02
7.986768335103988647e-02 -3.684575855731964111e-02 -6.985986232757568359e-02
1.257404685020446777e-01 -9.406865388154983521e-02 1.020598560571670532e-01
1.841870546340942383e-01 -6.721632182598114014e-02 9.389870613813400269e-02
5.557409673929214478e-02 -1.267272979021072388e-02 -1.837499998509883881e-02
-1.281211972236633301e-01 -7.250294089317321777e-02 -1.535779982805252075e-02
-8.730160444974899292e-02 -6.959510594606399536e-02 5.415790528059005737e-02
7.776612043380737305e-02 -1.264365166425704956e-01 -4.978053644299507141e-02
1.888577938079833984e-01 -1.239054650068283081e-01 4.478433169424533844e-03
1.085258796811103821e-01 -1.717564836144447327e-02 4.366476461291313171e-02
1.790847629308700562e-01 -1.146689280867576599e-01 -3.557584062218666077e-02
1.808162927627563477e-01 -8.646532893180847168e-02 9.487625956535339355e-02
1.539959460496902466e-01 -1.173733398318290710e-01 -4.545535892248153687e-02
8.836559206247329712e-02 -1.426261663436889648e-02 -1.195551455020904541e-02
1.485550999641418457e-01 -3.972315043210983276e-02 8.410009741783142090e-02
-1.271867454051971436e-01 -6.110347807407379150e-02 8.799773640930652618e-04
1.902692914009094238e-01 -1.202169805765151978e-01 -1.253806427121162415e-02
4.241857677698135376e-02 -4.309294372797012329e-02 -8.235003054141998291e-02
-7.880830019712448120e-02 -5.393296480178833008e-02 -7.246709614992141724e-02
-7.202749699354171753e-02 -5.459993705153465271e-02 6.269744038581848145e-02
1.723667085170745850e-01 -1.217118725180625916e-01 5.568744987249374390e-02
1.775915026664733887e-01 -3.424330800771713257e-02 -1.424242556095123291e-02
1.661011278629302979e-01 -1.292924135923385620e-01 2.374170161783695221e-02
2.014948427677154541e-01 -4.152002558112144470e-02 5.220092087984085083e-02
1.326989978551864624e-01 -9.391971677541732788e-02 -7.589349895715713501e-02
-3.114378452301025391e-02 -7.046827673912048340e-02 8.525388687849044800e-02
2.082867622375488281e-01 -4.310702532529830933e-02 1.487242057919502258e-03
6.047658622264862061e-03 -1.870932057499885559e-02 -4.420246183872222900e-02
-5.869853496551513672e-02 -2.738947048783302307e-02 4.004383832216262817e-02
5.753735452890396118e-02 -8.989287912845611572e-02 1.022625043988227844e-01
1.286928802728652954e-01 -1.940643042325973511e-02 -6.362638901919126511e-03
8.975496888160705566e-02 -5.995548516511917114e-02 -8.651583641767501831e-02
7.124204933643341064e-02 -1.352537870407104492e-01 -1.553146913647651672e-02
1.407265961170196533e-01 -1.057307720184326172e-01 -6.538730114698410034e-02
3.073704242706298828e-02 -1.227456629276275635e-01 5.747489631175994873e-02
1.498816907405853271e-01 -7.874121516942977905e-02 -7.309567928314208984e-02
5.701601505279541016e-02 -8.779156208038330078e-02 -9.299343079328536987e-02
9.019935876131057739e-02 -4.970751702785491943e-02 1.023985296487808228e-01
2.192674577236175537e-01 -9.704666584730148315e-02 6.866540759801864624e-02
3.478332608938217163e-02 -7.752939313650131226e-02 1.030337586998939514e-01
-1.745369285345077515e-03 -1.128426566720008850e-02 -1.826749648898839951e-03
2.428110837936401367e-01 -8.511069416999816895e-02 4.984424263238906860e-02
-2.988330274820327759e-02 -1.196712106466293335e-01 -4.342574253678321838e-02
-7.158335298299789429e-02 -1.128740012645721436e-01 -1.235106028616428375e-02
-3.498653322458267212e-02 -3.662946820259094238e-02 6.844620406627655029e-02
1.257492601871490479e-01 -1.146413832902908325e-01 -6.058477610349655151e-02
1.376714408397674561e-01 -1.282104253768920898e-01 5.055553466081619263e-02
1.038871183991432190e-01 -4.492676258087158203e-02 9.823696315288543701e-02
-4.901184141635894775e-02 -1.012955754995346069e-01 -7.082367688417434692e-02
2.204398214817047119e-01 -9.979256987571716309e-02 -2.092694118618965149e-02
2.016772627830505371e-01 -8.418598771095275879e-02 -4.548235982656478882e-02
-7.758416980504989624e-02 -3.791810572147369385e-02 -5.679215490818023682e-02
7.534211128950119019e-02 -1.335627287626266479e-01 3.444819524884223938e-02
1.143019273877143860e-02 -1.168742179870605469e-01 6.263948976993560791e-02
-1.839838922023773193e-02 -6.793484091758728027e-02 -9.353119879961013794e-02
1.325676739215850830e-01 -5.323327332735061646e-02 1.008909940719604492e-01
-9.804374724626541138e-02 -3.887153416872024536e-02 2.505993843078613281e-02
2.074654102325439453e-01 -5.564774200320243835e-02 -2.705605700612068176e-02
1.263662278652191162e-01 -2.192381769418716431e-02 5.395198613405227661e-02
6.191481277346611023e-02 -1.061638444662094116e-02 1.806400902569293976e-02
-5.695269256830215454e-02 -3.128963336348533630e-02 -5.616245418787002563e-02
-6.982833892107009888e-02 -1.071649119257926941e-01 -4.705711826682090759e-02
-1.044342666864395142e-02 -5.106654763221740723e-02 8.872316777706146240e-02
-2.788878977298736572e-03 -9.918843209743499756e-02 8.139031380414962769e-02
2.336945533752441406e-01 -1.017221659421920776e-01 2.621542895212769508e-03
6.056693196296691895e-02 -6.729755550622940063e-02 1.072518080472946167e-01
4.754321649670600891e-02 -1.024119555950164795e-02 -3.960914909839630127e-04
-3.435840457677841187e-02 -2.079959586262702942e-02 -4.053309187293052673e-02
2.092183530330657959e-01 -1.169617399573326111e-01 3.389504924416542053e-02
9.356662631034851074e-04 -7.261186093091964722e-02 -9.578332304954528809e-02
1.405900418758392334e-01 -1.131437122821807861e-01 8.228339254856109619e-02
5.851823464035987854e-02 -1.251906603574752808e-01 -5.364220216870307922e-02
4.657968878746032715e-02 -1.330772638320922852e-01 -2.559121698141098022e-02
9.867139160633087158e-04 -2.725678309798240662e-02 6.874585151672363281e-02
-6.655160337686538696e-02 -8.205650746822357178e-02 -7.932053506374359131e-02
1.866875886917114258e-01 -1.245657801628112793e-01 2.826194465160369873e-02
-8.281611651182174683e-02 -1.052050590515136719e-01 -3.689351677894592285e-02
1.317116916179656982e-01 -1.056533753871917725e-01 9.243508428335189819e-02
1.356991231441497803e-01 -1.307536661624908447e-01 -1.954303309321403503e-02
4.263819009065628052e-02 -1.313130557537078857e-01 3.501714766025543213e-02
-1.847981661558151245e-02 -7.185366004705429077e-02 8.986444771289825439e-02
1.958007514476776123e-01 -9.939596801996231079e-02 -4.276006296277046204e-02
-3.594154417514801025e-01 -1.214464306831359863e-01 9.421414136886596680e-02
-6.374127268791198730e-01 2.853850126266479492e-01 1.022862177342176437e-02
-9.019538015127182007e-02 6.135977432131767273e-02 2.998231947422027588e-01
-6.571835279464721680e-01 -6.739899516105651855e-03 1.844642311334609985e-01
-4.655405879020690918e-03 -8.253104984760284424e-02 2.025586068630218506e-01
-4.279421269893646240e-01 -1.290623843669891357e-01 1.989103481173515320e-02
-3.503842353820800781e-01 1.307322084903717041e-02 2.744776904582977295e-01
4.816898703575134277e-02 2.598378062248229980e-01 -6.954900920391082764e-02
-3.761419653892517090e-01 -1.299752593040466309e-01 5.517395213246345520e-02
6.758177280426025391e-02 -1.466344296932220459e-01 -1.156522557139396667e-01
-7.202836275100708008e-01 2.554454803466796875e-01 -7.925691455602645874e-02
1.043677330017089844e-01 7.532300055027008057e-02 -2.781212031841278076e-01
-4.847686886787414551e-01 2.968226671218872070e-01 7.745042443275451660e-02
-8.900789916515350342e-02 2.392724454402923584e-01 2.128800600767135620e-01
-2.178150862455368042e-01 -6.700418889522552490e-02 2.196934074163436890e-01
-3.721571862697601318e-01 -9.768161177635192871e-02 1.481653004884719849e-01
-2.573193907737731934e-01 -1.516828387975692749e-01 -4.671602696180343628e-02
-2.169984579086303711e-01 2.994612455368041992e-01 2.119149547070264816e-03
-3.632521331310272217e-01 -1.413311809301376343e-01 -3.556129336357116699e-02
-2.154466509819030762e-01 8.001676201820373535e-02 3.044602572917938232e-01
2.292892336845397949e-02 2.528445124626159668e-01 -1.066245511174201965e-01
-1.408796012401580811e-02 -6.672716140747070312e-02 2.219678163528442383e-01
-9.921129047870635986e-02 -1.455394625663757324e-01 7.318111509084701538e-02
5.190903544425964355e-01 -3.828454762697219849e-02 -4.327538609504699707e-02
8.892264962196350098e-02 -1.369361281394958496e-01 8.649738132953643799e-02
2.663522958755493164e-01 2.226951122283935547e-01 4.016258195042610168e-02
-4.438091516494750977e-01 2.490570992231369019e-01 -1.734079569578170776e-01
-3.522245883941650391e-01 1.156547665596008301e-01 2.987254858016967773e-01
-6.864814758300781250e-01 -6.358480453491210938e-02 -1.178249344229698181e-01
-3.250308036804199219e-01 2.602413296699523926e-01 -1.582375019788742065e-01
-8.879156708717346191e-01 1.482084095478057861e-01 1.310352385044097900e-01
-6.602064371109008789e-01 1.714639663696289062e-01 -2.214286327362060547e-01
-7.948389649391174316e-01 2.318330556154251099e-01 -8.821061253547668457e-02
1.753307878971099854e-02 -4.616002738475799561e-02 -2.736503779888153076e-01
-7.285512983798980713e-02 2.879775762557983398e-01 1.174116786569356918e-02
2.450211346149444580e-01 -7.537664473056793213e-02 1.678808480501174927e-01
-3.583966195583343506e-02 -8.907200396060943604e-02 1.954444944858551025e-01
-5.930711030960083008e-01 1.501377820968627930e-01 2.574678659439086914e-01
-4.447073340415954590e-01 7.740343362092971802e-02 2.863460481166839600e-01
-8.141211867332458496e-01 7.482194155454635620e-02 -1.906751543283462524e-01
-2.560394406318664551e-01 2.199970334768295288e-01 -2.191403210163116455e-01
2.093817591667175293e-01 6.006324663758277893e-02 -2.571910321712493896e-01
-5.466318130493164062e-01 2.707269191741943359e-01 -1.122730821371078491e-01
-3.395028710365295410e-01 2.718041539192199707e-01 1.788375079631805420e-01
-2.193342894315719604e-01 2.818425297737121582e-01 -9.593415260314941406e-02
-2.012544870376586914e-02 1.894044280052185059e-01 -2.272312492132186890e-01
-9.156144857406616211e-01 1.996179074048995972e-01 5.118828266859054565e-03
-8.025230169296264648e-01 -3.096691519021987915e-02 -7.251244783401489258e-02
-6.584751605987548828e-01 7.473424077033996582e-02 2.378389239311218262e-01
-1.573730558156967163e-01 2.033234238624572754e-01 2.624161243438720703e-01
-6.757618188858032227e-01 2.201818525791168213e-01 -1.680252403020858765e-01
-6.458072662353515625e-01 1.861386597156524658e-01 -2.137489616870880127e-01
-4.986864328384399414e-01 1.139058619737625122e-01 2.810543179512023926e-01
-3.624961376190185547e-01 1.967891752719879150e-01 -2.446823269128799438e-01
-2.296264916658401489e-01 -1.207010000944137573e-01 -1.892836689949035645e-01
1.108982563018798828e-01 2.541061043739318848e-01 -4.351078718900680542e-02
2.499468624591827393e-01 2.679007127881050110e-02 -2.492653429508209229e-01
1.578299403190612793e-01 2.477961778640747070e-01 -2.143173664808273315e-02
-3.346249461174011230e-01 1.505774557590484619e-01 2.931744754314422607e-01
-6.300188302993774414e-01 2.157026678323745728e-01 2.112217694520950317e-01
2.473411560058593750e-01 -9.054031968116760254e-02 -1.857741475105285645e-01
-2.907216548919677734e-01 -3.414437174797058105e-03 2.705778777599334717e-01
-4.585544168949127197e-01 2.513399720191955566e-02 2.651541531085968018e-01
-3.882764875888824463e-01 3.038565814495086670e-01 2.850184589624404907e-02
-4.700368046760559082e-01 5.648940056562423706e-02 2.768504321575164795e-01
-3.060469031333923340e-01 2.441782504320144653e-01 2.250337898731231689e-01
4.947861433029174805e-01 -1.709941774606704712e-02 -1.117325648665428162e-01
-9.176416397094726562e-01 1.947550475597381592e-01 3.825794532895088196e-02
3.125830292701721191e-01 2.055848985910415649e-01 -2.275335043668746948e-02
1.823219656944274902e-02 1.047298610210418701e-01 2.904236614704132080e-01
-5.153281688690185547e-01 2.059550136327743530e-01 2.452591955661773682e-01
1.843567192554473877e-02 -7.409106194972991943e-02 2.112539857625961304e-01
-1.349915862083435059e-01 1.327753812074661255e-02 2.860064208507537842e-01
-2.557071745395660400e-01 -1.423360258340835571e-01 -1.213546320796012878e-01
-3.375948071479797363e-01 2.858800888061523438e-01 1.437850147485733032e-01
-1.648297309875488281e-01 2.901217937469482422e-01 1.012310683727264404e-01
-1.503991484642028809e-01 6.364499032497406006e-02 3.021943569183349609e-01
-2.649452090263366699e-01 1.610488593578338623e-01 -2.750038504600524902e-01
1.106645166873931885e-01 -1.505675315856933594e-01 -7.694420218467712402e-02
-3.915816247463226318e-01 -1.376366764307022095e-01 -4.304318502545356750e-02
-5.922247171401977539e-01 2.571769058704376221e-01 1.673635691404342651e-01
-3.708477020263671875e-01 -3.353267163038253784e-02 2.367603182792663574e-01
5.531667470932006836e-01 5.082939192652702332e-02 -1.547468826174736023e-02
-5.257597565650939941e-01 2.615299820899963379e-01 1.768982559442520142e-01
-6.326781511306762695e-01 2.763379216194152832e-01 -6.127820536494255066e-02
-2.730721235275268555e-02 1.765480041503906250e-01 -2.417313754558563232e-01
4.448727369308471680e-01 1.362612843513488770e-01 -6.977351009845733643e-02
-2.818072438240051270e-01 -1.002073585987091064e-01 1.632295250892639160e-01
-2.899686694145202637e-01 -1.304045170545578003e-01 -1.531560719013214111e-01
-6.074371933937072754e-02 -1.588770151138305664e-01 -6.688847206532955170e-03
-6.102120876312255859e-01 -5.864050984382629395e-02 1.312629729509353638e-01
-3.714787960052490234e-01 -1.047966033220291138e-01 -1.916521489620208740e-01
-7.382807731628417969e-01 2.587710022926330566e-01 -5.299598351120948792e-02
-9.053308367729187012e-01 6.104280054569244385e-02 -1.159697771072387695e-01
1.994220018386840820e-01 2.006476819515228271e-01 -1.405080854892730713e-01
-2.610278725624084473e-01 2.501254081726074219e-01 2.158178836107254028e-01
-5.271541476249694824e-01 1.629665344953536987e-01 -2.554028630256652832e-01
-4.181482791900634766e-01 1.896955221891403198e-01 -2.479549497365951538e-01
-1.858824491500854492e-02 -7.645566761493682861e-02 2.110136598348617554e-01
5.087703466415405273e-03 -8.469702303409576416e-02 -2.436038702726364136e-01
7.705631852149963379e-02 1.555488407611846924e-01 2.622834146022796631e-01
-5.879138708114624023e-01 -1.020555198192596436e-01 -5.283587053418159485e-02
-2.127007246017456055e-01 -1.019167900085449219e-02 2.713347375392913818e-01
-3.251982927322387695e-01 2.724124193191528320e-01 1.776684373617172241e-01
1.729981899261474609e-01 -3.706011921167373657e-02 2.252466529607772827e-01
-7.649903297424316406e-01 -3.278261423110961914e-02 -1.212220862507820129e-01
2.328450083732604980e-01 2.325233668088912964e-01 1.968371123075485229e-02
-3.466064333915710449e-01 3.014445304870605469e-01 7.277670502662658691e-02
-7.200632095336914062e-01 2.674047350883483887e-01 6.533694267272949219e-02
1.368481814861297607e-01 -1.512597948312759399e-01 -2.389496192336082458e-02
-8.894460201263427734e-01 2.319901809096336365e-02 -8.651965856552124023e-02
-6.239054203033447266e-01 -8.193235099315643311e-02 -1.189903020858764648e-01
-3.277239203453063965e-01 1.080704107880592346e-02 2.756862938404083252e-01
-8.663096427917480469e-01 2.015364021062850952e-01 1.037963926792144775e-01
1.548553705215454102e-01 -1.279186606407165527e-01 -1.488171517848968506e-01
2.294555306434631348e-03 8.202660083770751953e-02 -2.931299209594726562e-01
2.368728816509246826e-02 -1.316334307193756104e-01 1.120878607034683228e-01
-2.006920278072357178e-01 -1.526999175548553467e-01 -8.337152004241943359e-02
-8.760514259338378906e-01 1.751756668090820312e-01 -1.178993433713912964e-01
-7.387709617614746094e-01 -5.462273955345153809e-02 3.038814291357994080e-02
-3.767455220222473145e-01 7.216388732194900513e-02 2.938456535339355469e-01
-3.387610614299774170e-02 2.640229463577270508e-01 1.478752791881561279e-01
-7.764372229576110840e-01 -4.626800864934921265e-02 -2.387641742825508118e-02
-2.594192922115325928e-01 2.561490833759307861e-01 -1.634507775306701660e-01
-8.866313099861145020e-01 1.319177299737930298e-01 1.359662115573883057e-01
-5.191315412521362305e-01 2.616305947303771973e-01 -1.394338011741638184e-01
-6.310485005378723145e-01 2.097447216510772705e-01 -1.942157894372940063e-01
1.417381763458251953e-01 2.457085996866226196e-01 1.027521565556526184e-01
4.642435908317565918e-02 -8.992601931095123291e-02 1.881966590881347656e-01
3.475117087364196777e-01 -1.131410747766494751e-01 2.578223869204521179e-02
-2.452842593193054199e-01 3.014224171638488770e-01 1.388316135853528976e-02
2.421644032001495361e-01 2.054471373558044434e-01 1.439401954412460327e-01
3.080150485038757324e-01 5.462493747472763062e-02 2.264208942651748657e-01
-2.124020606279373169e-01 2.156377434730529785e-01 2.548730075359344482e-01
-8.744230121374130249e-02 2.849481105804443359e-01 -3.589862212538719177e-02
1.549047231674194336e-01 2.737140655517578125e-02 -2.738266587257385254e-01
-3.859410881996154785e-01 1.982602179050445557e-01 2.664807438850402832e-01
6.418034434318542480e-03 2.755057215690612793e-01 7.257499545812606812e-02
2.143726944923400879e-01 2.370924651622772217e-01 3.776891157031059265e-02
2.579292654991149902e-01 -1.032166332006454468e-01 -1.618593782186508179e-01
-5.637706518173217773e-01 6.418803334236145020e-02 -2.766759097576141357e-01
3.646299242973327637e-02 -1.413880735635757446e-01 8.172357082366943359e-02
-4.618436992168426514e-01 -6.855116784572601318e-02 1.737883687019348145e-01
-1.006033569574356079e-01 -6.431739032268524170e-02 2.272778898477554321e-01
-9.232904314994812012e-01 4.266301915049552917e-02 3.290788456797599792e-02
1.293660402297973633e-01 6.216786801815032959e-03 -2.769807577133178711e-01
-1.428821682929992676e-01 -6.978958845138549805e-04 2.787712514400482178e-01
-3.120098412036895752e-01 3.031847476959228516e-01 6.623151712119579315e-03
5.176298618316650391e-01 6.564863026142120361e-02 -8.226082473993301392e-02
2.460354864597320557e-01 8.656589686870574951e-02 2.448190599679946899e-01
1.518104970455169678e-01 7.688841968774795532e-02 -2.673808932304382324e-01
-1.537369787693023682e-01 2.950185239315032959e-01 5.653935670852661133e-02
-1.540553271770477295e-01 -7.471129298210144043e-02 2.141763418912887573e-01
2.206710278987884521e-01 2.230950146913528442e-01 -6.947484612464904785e-02
-9.956827014684677124e-02 -1.202216446399688721e-01 1.429106891155242920e-01
-1.899462044239044189e-01 2.450392991304397583e-01 2.184465229511260986e-01
6.633415818214416504e-03 -1.533327698707580566e-01 -9.746740013360977173e-02
-3.394811451435089111e-01 -1.440700143575668335e-01 -3.000972047448158264e-02
-1.512839347124099731e-01 -4.309505969285964966e-02 -2.844113111495971680e-01
2.840438485145568848e-01 2.094643563032150269e-01 -5.117274075746536255e-02
-3.835060000419616699e-01 -5.462864041328430176e-02 2.118727117776870728e-01
2.377856373786926270e-01 2.296232283115386963e-01 5.590176209807395935e-02
2.295570373535156250e-01 2.102021127939224243e-01 1.421474963426589966e-01
-3.317691683769226074e-01 3.037415146827697754e-01 4.094442725181579590e-02
-6.911611557006835938e-01 2.131071686744689941e-02 -2.274468988180160522e-01
-5.667664408683776855e-01 9.409183263778686523e-02 -2.748087942600250244e-01
-7.016084194183349609e-01 6.322011351585388184e-02 -2.381123155355453491e-01
-8.930013775825500488e-01 1.980356127023696899e-01 7.836041599512100220e-02
-6.191406250000000000e-01 6.059252470731735229e-02 2.446938604116439819e-01
6.988456845283508301e-02 -1.137148886919021606e-01 1.462195962667465210e-01
-2.266166508197784424e-01 -6.846398115158081055e-03 2.728471159934997559e-01
4.635658264160156250e-01 1.400576084852218628e-01 4.451921954751014709e-02
-2.371628582477569580e-02 -1.446768790483474731e-01 -1.380452960729598999e-01
1.248717308044433594e-05 1.791695058345794678e-01 2.615957856178283691e-01
-5.790207386016845703e-01 1.152701973915100098e-01 -2.678417563438415527e-01
1.963959932327270508e-01 9.817239642143249512e-02 2.568092346191406250e-01
-2.988047003746032715e-01 3.034399747848510742e-01 2.802499756217002869e-02
-4.929339289665222168e-01 -9.621198475360870361e-02 -1.656281203031539917e-01
-4.851169586181640625e-01 2.986282408237457275e-01 -1.276522409170866013e-02
3.371434807777404785e-01 -4.710314422845840454e-02 1.673489958047866821e-01
-7.890420556068420410e-01 -2.704628556966781616e-02 -1.082508713006973267e-01
-5.329035520553588867e-01 2.466919720172882080e-01 1.992364823818206787e-01
2.033841609954833984e-01 2.255180776119232178e-01 1.213690042495727539e-01
-8.072271943092346191e-01 -2.061998844146728516e-02 5.733282119035720825e-02
9.809967875480651855e-02 -1.293857693672180176e-01 1.062750816345214844e-01
1.498589217662811279e-01 1.767911463975906372e-01 2.271789312362670898e-01
-6.476939916610717773e-01 -8.758178353309631348e-02 -4.371044412255287170e-02
5.292089581489562988e-01 4.089745879173278809e-02 -8.187413215637207031e-02
-5.133088231086730957e-01 -9.682922065258026123e-02 9.460814297199249268e-02
-4.998174905776977539e-01 -5.250386893749237061e-03 -2.699731290340423584e-01
-7.979453206062316895e-01 -6.188258528709411621e-03 -1.415285170078277588e-01
-7.125443220138549805e-02 -1.430623084306716919e-01 8.315412700176239014e-02
5.582404732704162598e-01 2.969658002257347107e-02 6.320766173303127289e-03
-2.858756780624389648e-01 -1.463938355445861816e-01 1.626341789960861206e-02
1.283054947853088379e-01 2.317393869161605835e-01 1.551274806261062622e-01
-1.694645136594772339e-01 2.254451513290405273e-01 -2.052761465311050415e-01
2.587317526340484619e-01 -1.234898716211318970e-01 6.343466043472290039e-02
-4.078432321548461914e-01 -1.296159774065017700e-01 -1.011485308408737183e-01
-5.600605010986328125e-01 9.356097131967544556e-02 2.680964469909667969e-01
-3.510500788688659668e-01 3.018835783004760742e-01 -1.549214683473110199e-02
-2.628652453422546387e-01 -4.802601039409637451e-02 2.365044653415679932e-01
-1.663593798875808716e-01 1.202456504106521606e-01 -2.948532998561859131e-01
-4.605928361415863037e-01 2.969990074634552002e-01 -3.559023886919021606e-02
3.328238725662231445e-01 2.016806155443191528e-01 1.317303907126188278e-02
-7.274529933929443359e-01 2.582598030567169189e-01 -6.461795419454574585e-02
3.606431484222412109e-01 1.394166946411132812e-01 1.670570224523544312e-01
-6.812988519668579102e-01 2.028162479400634766e-01 -1.872854828834533691e-01
-2.444111108779907227e-01 2.986879646778106689e-01 7.646221667528152466e-02
-8.780047297477722168e-01 2.197174131870269775e-01 -1.214645151048898697e-02
4.449423551559448242e-01 2.933501824736595154e-02 1.587888896465301514e-01
-4.514197111129760742e-01 1.409670710563659668e-01 2.848939299583435059e-01
4.575774073600769043e-03 4.700303077697753906e-03 2.753070890903472900e-01
-3.014501631259918213e-01 1.238761991262435913e-01 -2.951253056526184082e-01
-6.522074341773986816e-01 2.806363105773925781e-01 -2.218210697174072266e-02
-3.718440532684326172e-01 -6.598465144634246826e-02 1.997655928134918213e-01
-6.778365969657897949e-01 2.784678637981414795e-01 4.136082157492637634e-02
4.417666792869567871e-02 -1.321859657764434814e-01 1.081383526325225830e-01
2.671908736228942871e-01 1.501219421625137329e-01 -1.813781857490539551e-01
-5.626244544982910156e-01 1.362055987119674683e-01 -2.635915875434875488e-01
5.490787029266357422e-01 4.993604496121406555e-02 3.950514271855354309e-02
-8.756600618362426758e-01 1.332618296146392822e-03 -3.275650367140769958e-02
-2.010121792554855347e-01 2.685010433197021484e-01 -1.304611563682556152e-01
-6.023263931274414062e-01 1.458109170198440552e-02 2.236361801624298096e-01
-2.002686560153961182e-01 2.490783929824829102e-01 -1.711406111717224121e-01
-3.065306544303894043e-01 3.015064597129821777e-01 -1.426952704787254333e-02
2.388408482074737549e-01 1.765477061271667480e-01 -1.606666296720504761e-01
-6.671988964080810547e-01 1.839043796062469482e-01 -2.097359895706176758e-01
-1.770860552787780762e-01 1.709564328193664551e-01 2.856532335281372070e-01
-1.746107935905456543e-01 2.439773678779602051e-01 2.184189707040786743e-01
-2.025291323661804199e-02 -1.146459281444549561e-01 -2.063634693622589111e-01
4.233857989311218262e-01 1.136854290962219238e-01 -1.287203282117843628e-01
-5.217591524124145508e-01 -5.590647459030151367e-02 1.736708730459213257e-01
4.212796688079833984e-01 7.721503823995590210e-02 1.702875494956970215e-01
4.124050140380859375e-01 -6.977413594722747803e-02 -1.264636963605880737e-01
-6.581267118453979492e-01 1.047820597887039185e-02 2.008488774299621582e-01
-1.935157924890518188e-01 1.876400262117385864e-01 -2.508866786956787109e-01
-6.830952167510986328e-01 -1.537394523620605469e-02 1.624329388141632080e-01
6.347557902336120605e-02 2.690708637237548828e-01 3.355626761913299561e-02
-3.399585485458374023e-01 2.015585601329803467e-01 2.668813467025756836e-01
-4.657904505729675293e-01 2.422113418579101562e-01 -1.821237653493881226e-01
2.709487080574035645e-02 -6.851431727409362793e-02 -2.565375864505767822e-01
-4.631934165954589844e-01 1.180685609579086304e-01 -2.857280075550079346e-01
5.083817243576049805e-02 -1.400844752788543701e-01 8.380170911550521851e-02
-4.025870561599731445e-01 -1.428272575139999390e-02 2.484544217586517334e-01
5.155991315841674805e-01 4.841313511133193970e-02 -9.658805280923843384e-02
-4.453900754451751709e-01 3.804664686322212219e-02 2.737838923931121826e-01
5.224281549453735352e-01 1.478799432516098022e-02 -9.402199834585189819e-02
-3.508188724517822266e-01 1.007331907749176025e-01 2.992952167987823486e-01
-5.299309492111206055e-01 9.920631349086761475e-02 -2.808669805526733398e-01
4.788703918457031250e-01 1.268782019615173340e-01 -3.454492986202239990e-02
-2.500512897968292236e-01 -1.143756806850433350e-01 -1.988321691751480103e-01
-7.332357168197631836e-01 2.670304775238037109e-01 4.479773715138435364e-02
-2.117157131433486938e-01 2.657240033149719238e-01 -1.386037319898605347e-01
-5.699684023857116699e-01 2.822366356849670410e-01 1.119953170418739319e-01
-4.812895953655242920e-01 -1.156538575887680054e-01 4.798441380262374878e-02
4.336929917335510254e-01 -8.808961510658264160e-02 -4.733259603381156921e-02
3.622542321681976318e-02 -5.834949016571044922e-02 2.267449498176574707e-01
3.528343439102172852e-01 -1.089298576116561890e-01 4.022892564535140991e-02
2.539894282817840576e-01 -1.365430057048797607e-01 -2.335148677229881287e-02
-5.075477361679077148e-01 1.791042089462280273e-01 -2.469565719366073608e-01
5.246829986572265625e-02 -1.446293145418167114e-01 -1.271269470453262329e-01
3.031329512596130371e-01 -9.921063482761383057e-02 -1.473950743675231934e-01
-5.960288047790527344e-01 2.719618380069732666e-01 1.333632469177246094e-01
-5.720407962799072266e-01 2.804940938949584961e-01 -7.454974949359893799e-02
-7.155725359916687012e-01 5.775002390146255493e-02 2.106008231639862061e-01
-5.005133152008056641e-01 -8.651843667030334473e-02 1.267573386430740356e-01
1.701342761516571045e-01 -1.432047337293624878e-01 -8.678513020277023315e-02
-7.259015440940856934e-01 -6.038321554660797119e-02 2.269855886697769165e-02
2.447951138019561768e-01 -1.985491812229156494e-02 2.206112295389175415e-01
-4.021979868412017822e-02 1.338368356227874756e-01 -2.764146029949188232e-01
-2.144532799720764160e-01 2.603262960910797119e-01 -1.508434265851974487e-01
7.723236083984375000e-02 -7.041315734386444092e-02 -2.483209520578384399e-01
1.029212772846221924e-01 2.587165236473083496e-01 -2.397794276475906372e-02
1.669973134994506836e-02 4.695421457290649414e-02 -2.971279919147491455e-01
4.854979515075683594e-01 -6.547424197196960449e-02 -1.221438962966203690e-02
3.610370755195617676e-01 -1.127506941556930542e-01 -4.551156610250473022e-02
-1.916951090097427368e-01 2.266977727413177490e-01 -2.058343589305877686e-01
-5.742977857589721680e-01 2.863852679729461670e-01 -4.828059673309326172e-02
-6.256341934204101562e-03 -9.994927048683166504e-02 -2.267607599496841431e-01
