-3.031060099601745605e-02 -1.341203227639198303e-02 -1.724097579717636108e-01
-4.133870601654052734e-01 5.194181576371192932e-02 7.754824124276638031e-03
1.023893058300018311e-01 4.661467857658863068e-03 -8.811788260936737061e-02
-4.766416549682617188e-01 4.627443477511405945e-02 1.169952750205993652e-01
-1.831831485033035278e-01 -3.409789130091667175e-02 3.105876781046390533e-02
-4.424291849136352539e-02 1.668979972600936890e-02 -1.491110324859619141e-01
-1.573718488216400146e-01 -3.550316020846366882e-02 -9.379420429468154907e-03
-4.607472121715545654e-01 4.751042276620864868e-02 9.932121261954307556e-03
-2.153688669204711914e-02 -4.126248508691787720e-02 6.836330890655517578e-02
-4.542045891284942627e-01 3.352979198098182678e-02 1.690516173839569092e-01
-1.535085588693618774e-01 -8.210096508264541626e-03 -1.546041369438171387e-01
2.364577353000640869e-02 1.013691723346710205e-02 7.883930206298828125e-02
-1.843096017837524414e-01 -2.703771740198135376e-02 -6.994170695543289185e-02
1.155792772769927979e-01 -3.819758445024490356e-02 -1.049372926354408264e-01
-7.663729786872863770e-02 -3.626359626650810242e-02 -8.183884620666503906e-02
-3.746698796749114990e-01 2.279119193553924561e-02 -8.851167559623718262e-02
-2.873576581478118896e-01 -7.066262420266866684e-03 -8.944957703351974487e-02
-3.957949578762054443e-01 5.126045644283294678e-02 -8.224859833717346191e-03
-3.803403675556182861e-02 1.441070996224880219e-02 1.157885044813156128e-01
-4.678827822208404541e-01 1.005136780440807343e-02 7.274289429187774658e-02
-2.781859636306762695e-01 -3.654617350548505783e-03 -1.064564138650894165e-01
-3.716798722743988037e-01 3.631410747766494751e-02 1.781338304281234741e-01
-1.140043139457702637e-01 -2.702049724757671356e-02 -1.152466237545013428e-01
-1.372670680284500122e-01 1.662570238113403320e-02 1.669251024723052979e-01
6.549179553985595703e-02 1.024305820465087891e-02 -1.042907163500785828e-01
-8.340386301279067993e-02 3.469658270478248596e-02 1.605710759758949280e-02
-4.299567639827728271e-01 4.566315189003944397e-02 1.411961168050765991e-01
-3.463898301124572754e-01 -1.318900845944881439e-02 1.017276570200920105e-01
-2.708123922348022461e-01 5.083219707012176514e-02 3.606392070651054382e-03
-1.138747781515121460e-01 -3.535924106836318970e-02 -6.306287646293640137e-02
-1.029325276613235474e-01 3.130490332841873169e-02 8.430538326501846313e-02
-4.660201072692871094e-02 -3.218550607562065125e-02 -1.198347508907318115e-01
-3.153867125511169434e-01 4.559686034917831421e-02 1.299834102392196655e-01
-4.542273879051208496e-01 9.694859385490417480e-03 2.532254531979560852e-02
-1.746523529291152954e-01 4.341494664549827576e-02 4.087361693382263184e-02
1.376162171363830566e-01 -1.127393357455730438e-02 2.546201646327972412e-02
-3.303414583206176758e-01 3.113516606390476227e-02 1.880643218755722046e-01
-4.400188475847244263e-02 -2.691170386970043182e-02 -1.415093243122100830e-01
-3.058882057666778564e-01 5.231656506657600403e-02 7.456215098500251770e-03
-2.371209561824798584e-01 4.806033521890640259e-02 5.264709889888763428e-02
-4.912497401237487793e-01 1.749897003173828125e-02 7.178182899951934814e-02
-1.474142819643020630e-01 -3.020204789936542511e-02 -7.746942341327667236e-02
-2.206926047801971436e-01 -1.108037121593952179e-02 1.846089065074920654e-01
-1.672232747077941895e-01 -3.544852137565612793e-02 4.214303195476531982e-02
-3.844790458679199219e-01 4.280028864741325378e-02 1.570123881101608276e-01
-3.370850384235382080e-01 5.274925380945205688e-02 8.189454674720764160e-04
1.099548339843750000e-01 -4.005692526698112488e-02 3.231313824653625488e-02
9.620979428291320801e-03 -2.250530570745468140e-02 -1.614504903554916382e-01
6.369784474372863770e-02 -4.594290256500244141e-02 -2.801804244518280029e-02
1.681180000305175781e-01 -1.277257502079010010e-02 -6.337890028953552246e-02
-1.150548309087753296e-01 3.640834987163543701e-02 -7.119507342576980591e-02
-8.790520578622817993e-02 -3.251427784562110901e-02 -1.002814024686813354e-01
4.517252743244171143e-02 -6.916488986462354660e-03 -1.683929115533828735e-01
-1.720485836267471313e-01 1.523830369114875793e-02 1.829072237014770508e-01
-4.034076631069183350e-01 -1.258810516446828842e-03 1.021479815244674683e-02
-4.250648319721221924e-01 5.301848798990249634e-02 7.454078644514083862e-02
-4.178311526775360107e-01 4.952180013060569763e-02 1.194057911634445190e-01
-7.592447847127914429e-02 -3.912842646241188049e-02 -5.649546533823013306e-02
-2.893094122409820557e-01 1.780883036553859711e-02 -1.290736198425292969e-01
-2.078059166669845581e-01 3.516512736678123474e-02 1.383269131183624268e-01
-1.946702450513839722e-01 -3.079090453684329987e-02 -2.408475056290626526e-02
-1.122017428278923035e-01 -3.206864744424819946e-02 1.216088384389877319e-01
-1.207634806632995605e-03 -4.135658591985702515e-02 -7.875057309865951538e-02
-7.066919654607772827e-02 4.952129442244768143e-03 1.585489660501480103e-01
-6.540694832801818848e-02 -3.166761249303817749e-02 1.258197873830795288e-01
-7.133899629116058350e-02 3.375857323408126831e-02 -3.120275214314460754e-04
-2.574981153011322021e-01 -2.145646326243877411e-02 -3.843620792031288147e-02
-1.911980211734771729e-01 -3.294862434267997742e-02 5.993373692035675049e-02
-1.995029598474502563e-01 3.822113946080207825e-02 -9.968120604753494263e-02
-1.037909090518951416e-02 -4.478128626942634583e-02 1.914764940738677979e-02
8.706501126289367676e-02 -3.607995808124542236e-02 6.545817852020263672e-02
-1.005732268095016479e-01 -3.972610458731651306e-02 -2.128879725933074951e-02
1.739796698093414307e-01 -1.805388927459716797e-02 -2.420895919203758240e-02
8.267387747764587402e-03 3.867862746119499207e-03 -1.649572104215621948e-01
5.791427195072174072e-02 1.509860716760158539e-02 -3.550916165113449097e-02
-3.702761232852935791e-01 -2.632182091474533081e-03 1.586920619010925293e-01
-3.700724244117736816e-02 2.756206132471561432e-02 -8.017516881227493286e-02
1.429064273834228516e-01 -4.057617485523223877e-02 -6.960164010524749756e-02
1.576536595821380615e-01 -1.403524726629257202e-02 -1.058569476008415222e-01
-1.016193255782127380e-01 4.464086610823869705e-03 -1.736922115087509155e-01
-6.223951280117034912e-02 1.089559495449066162e-02 1.423777788877487183e-01
-2.010972648859024048e-01 -2.134550549089908600e-02 -9.060636907815933228e-02
-4.301500916481018066e-01 6.587963551282882690e-03 1.475829780101776123e-01
4.986061155796051025e-02 -4.607418552041053772e-02 -1.962830871343612671e-02
-1.006247997283935547e-01 -3.592884168028831482e-02 -6.840401887893676758e-02
-1.426688134670257568e-01 2.955105528235435486e-02 1.265591382980346680e-01
-6.575170904397964478e-02 -3.615803644061088562e-02 1.031426936388015747e-01
-6.321539729833602905e-02 2.480605244636535645e-02 -1.233245730400085449e-01
-6.636649370193481445e-03 2.383631095290184021e-02 -7.844785600900650024e-02
-2.578272819519042969e-01 -1.733172684907913208e-02 -6.661807745695114136e-02
-2.973794043064117432e-01 -2.115609683096408844e-02 7.071056962013244629e-02
-3.074239492416381836e-01 -1.964527927339076996e-02 3.397186845541000366e-02
-2.396882027387619019e-01 -2.352118864655494690e-02 -4.204659163951873779e-02
-1.239773109555244446e-01 1.077421475201845169e-02 1.726806461811065674e-01
-4.940231144428253174e-02 -4.228372499346733093e-02 -3.757750615477561951e-02
4.555687308311462402e-02 -2.695290558040142059e-02 1.086921691894531250e-01
-3.676100969314575195e-01 5.037812516093254089e-02 1.099549457430839539e-01
-4.839223623275756836e-01 4.807902872562408447e-02 5.060245469212532043e-02
-6.510422378778457642e-02 1.953669264912605286e-02 -1.462137848138809204e-01
-3.496755361557006836e-01 3.131778677925467491e-03 1.885752677917480469e-01
-1.716381907463073730e-01 -3.278163075447082520e-02 -3.047295287251472473e-02
-2.079622000455856323e-01 3.851604461669921875e-02 1.204230561852455139e-01
5.916553735733032227e-02 -4.431514069437980652e-02 -6.388628482818603516e-02
-9.532706439495086670e-02 -1.196849904954433441e-02 -1.644638329744338989e-01
1.458596587181091309e-01 -1.458090357482433319e-02 -1.229095309972763062e-01
-1.817409694194793701e-01 -2.945961989462375641e-02 -5.354899168014526367e-02
-8.621627837419509888e-02 2.189253270626068115e-02 1.220154538750648499e-01
3.307461738586425781e-02 -4.482831433415412903e-02 -5.125683546066284180e-02
-2.425760030746459961e-03 2.464898116886615753e-02 -5.033858120441436768e-02
-3.147155344486236572e-01 3.867242485284805298e-02 -9.385309368371963501e-02
-1.596053689718246460e-01 2.668247930705547333e-02 -1.405089497566223145e-01
-2.494101971387863159e-01 4.197601601481437683e-02 -8.611430227756500244e-02
-1.440735012292861938e-01 3.514561802148818970e-02 9.509511291980743408e-02
-2.331045717000961304e-01 -1.141956076025962830e-02 -1.106253564357757568e-01
-1.906419247388839722e-01 4.390042275190353394e-02 5.781530961394309998e-02
-1.768552511930465698e-01 6.628942210227251053e-04 1.952393054962158203e-01
7.110053300857543945e-02 -2.861898578703403473e-02 -1.473336517810821533e-01
-3.947782516479492188e-02 -3.015193156898021698e-02 1.284714937210083008e-01
-4.437679350376129150e-01 3.880069823935627937e-03 7.755707949399948120e-02
-7.238276302814483643e-02 -4.206860065460205078e-02 -1.028300262987613678e-02
7.819546759128570557e-02 1.098614558577537537e-02 -2.491350099444389343e-02
-2.140194773674011230e-01 4.747922718524932861e-02 2.951677888631820679e-03
-7.861611992120742798e-02 -4.144260287284851074e-02 4.172014445066452026e-02
-2.341611683368682861e-01 4.805006831884384155e-02 -2.302515134215354919e-02
-1.957548409700393677e-01 3.579692170023918152e-02 1.284054666757583618e-01
-2.465151697397232056e-01 1.415823586285114288e-02 -1.440436244010925293e-01
-3.157789111137390137e-01 4.409791156649589539e-02 -7.304751127958297729e-02
-2.444134652614593506e-02 5.643334239721298218e-03 1.318424940109252930e-01
-9.325082600116729736e-02 -3.832840919494628906e-02 7.927465438842773438e-02
-1.823206543922424316e-01 4.506623744964599609e-02 6.356891244649887085e-04
1.540765166282653809e-03 -4.434093087911605835e-02 -4.410457238554954529e-02
-2.913021147251129150e-01 2.557998895645141602e-02 1.941118985414505005e-01
-2.468451857566833496e-03 2.320113778114318848e-02 1.785271614789962769e-02
-3.991832733154296875e-01 -5.366668570786714554e-03 7.310564815998077393e-02
-3.474583029747009277e-01 4.132695496082305908e-02 1.594742685556411743e-01
-2.637943029403686523e-01 1.904688216745853424e-02 1.995434314012527466e-01
-4.290042221546173096e-01 2.936350367963314056e-02 1.825339794158935547e-01
-8.129608631134033203e-02 3.090350888669490814e-02 6.327499449253082275e-02
-4.594438523054122925e-02 -3.943606838583946228e-02 8.181773871183395386e-02
1.475968956947326660e-01 -6.281546782702207565e-03 -7.988314330577850342e-02
-3.656041622161865234e-01 4.403275251388549805e-02 -6.130255013704299927e-02
-4.522632062435150146e-01 7.388192228972911835e-03 4.227052628993988037e-02
-3.255684673786163330e-02 -1.421654596924781799e-02 1.530777513980865479e-01
-1.049919128417968750e-01 1.457115821540355682e-02 1.565799713134765625e-01
8.186702430248260498e-02 -3.181225061416625977e-02 8.057050406932830811e-02
-2.995325028896331787e-01 -1.387523673474788666e-02 -4.582447931170463562e-02
-1.356718838214874268e-01 -3.515554964542388916e-02 9.048733860254287720e-02
2.735941112041473389e-02 4.741445183753967285e-03 9.594170004129409790e-02
-3.589187860488891602e-01 -1.220428012311458588e-02 7.887562364339828491e-02
-3.244479894638061523e-01 4.284439980983734131e-02 1.479647457599639893e-01
-1.544247567653656006e-02 2.120543830096721649e-02 -1.131896674633026123e-01
-2.580862343311309814e-01 4.929544031620025635e-02 -2.184922620654106140e-02
1.080643236637115479e-01 1.265109051018953323e-03 -1.066514253616333008e-01
-1.857157498598098755e-01 -2.292640879750251770e-02 1.522794365882873535e-01
-4.468243122100830078e-01 6.521514616906642914e-03 1.200647950172424316e-01
-2.073168754577636719e-01 -2.174342796206474304e-02 1.519740521907806396e-01
-1.241709440946578979e-01 2.578945271670818329e-02 1.313689351081848145e-01
-4.681350290775299072e-01 1.727139949798583984e-02 1.483294367790222168e-01
-4.812371134757995605e-01 4.756753146648406982e-02 1.011476814746856689e-01
-3.899661898612976074e-01 3.003984317183494568e-02 1.897496730089187622e-01
-8.854775875806808472e-02 2.901097387075424194e-02 8.620876073837280273e-02
-2.583112120628356934e-01 -2.614181488752365112e-02 3.669191151857376099e-02
-4.185005724430084229e-01 1.952289417386054993e-02 -5.430559068918228149e-02
-3.678234517574310303e-01 -8.902216330170631409e-03 1.160789802670478821e-01
-2.850251197814941406e-01 -1.631074398756027222e-02 -4.569284617900848389e-02
-2.745982706546783447e-01 -1.837992481887340546e-02 1.389347016811370850e-01
-8.671179413795471191e-02 2.292393893003463745e-02 -1.405733972787857056e-01
-2.034716308116912842e-01 4.258475080132484436e-02 8.678355067968368530e-02
-5.103927850723266602e-02 -4.346922785043716431e-02 3.939474001526832581e-03
1.548254489898681641e-01 -1.379621773958206177e-02 4.940882325172424316e-03
-1.130718290805816650e-01 -3.606414422392845154e-02 9.305569529533386230e-02
-3.391425311565399170e-01 5.065197497606277466e-02 9.861311316490173340e-02
-3.051997721195220947e-02 2.126363664865493774e-02 -1.237454712390899658e-01
8.791175484657287598e-02 -3.663580119609832764e-02 -1.188317984342575073e-01
1.212196052074432373e-01 -5.306453909724950790e-03 2.708205953240394592e-02
-9.388809651136398315e-02 3.636068850755691528e-02 3.203541040420532227e-03
1.221964359283447266e-01 -4.373290017247200012e-02 -4.124787449836730957e-02
-2.413788437843322754e-02 -4.462407901883125305e-02 2.203270792961120605e-03
9.258568286895751953e-02 3.580824006348848343e-03 2.419592626392841339e-02
-3.893169164657592773e-01 4.214802011847496033e-02 -5.845332890748977661e-02
-3.286498188972473145e-01 4.078087955713272095e-02 -8.381432294845581055e-02
-2.726010084152221680e-01 -1.330159232020378113e-02 1.663040518760681152e-01
-1.783080846071243286e-01 -1.437033712863922119e-02 -1.307180523872375488e-01
-1.656332463026046753e-01 2.295657433569431305e-02 1.633213758468627930e-01
6.330475211143493652e-03 2.281994558870792389e-02 -6.556715816259384155e-02
-2.407300770282745361e-01 4.507023096084594727e-02 9.431913495063781738e-02
-4.279138147830963135e-02 2.685291320085525513e-02 -9.464155882596969604e-02
-2.051662504673004150e-01 4.090394079685211182e-02 -8.473005145788192749e-02
-3.177004158496856689e-01 5.279987305402755737e-02 4.737947508692741394e-02
-1.778653562068939209e-01 -3.275565430521965027e-02 8.511339873075485229e-02
-1.025721505284309387e-01 -4.045765846967697144e-02 2.691774442791938782e-02
-4.463624060153961182e-01 5.235833302140235901e-02 6.203875690698623657e-02
-2.190635204315185547e-01 -2.434998936951160431e-02 1.329396814107894897e-01
-4.653239250183105469e-02 -4.039037972688674927e-02 -6.446509063243865967e-02
-4.899344146251678467e-01 4.720859974622726440e-02 8.811350911855697632e-02
-3.347881436347961426e-01 -2.523509785532951355e-03 -6.812306493520736694e-02
-4.109543263912200928e-01 5.375558137893676758e-02 5.811561644077301025e-02
-1.633485853672027588e-01 3.202646970748901367e-02 1.278676837682723999e-01
-4.234009683132171631e-01 4.121680185198783875e-02 1.604134142398834229e-01
-2.836062312126159668e-01 3.557952493429183960e-02 -1.090156659483909607e-01
1.177785098552703857e-01 -3.495112061500549316e-02 4.806772992014884949e-02
-3.259293437004089355e-01 2.999999560415744781e-04 1.900435388088226318e-01
8.871451020240783691e-02 -4.359561949968338013e-02 1.975291222333908081e-02
6.427024304866790771e-02 -4.200407490134239197e-02 4.686512798070907593e-02
-1.191063374280929565e-01 3.876507282257080078e-02 -3.790912032127380371e-02
-2.662610709667205811e-01 4.303352162241935730e-02 -8.125793188810348511e-02
-2.987970709800720215e-01 4.676768183708190918e-02 -5.914749205112457275e-02
1.593029499053955078e-02 -4.562208428978919983e-02 -2.180635556578636169e-02
-2.957285046577453613e-01 3.116749413311481476e-02 -1.160808801651000977e-01
-4.914490282535552979e-01 1.984164677560329437e-02 1.201987862586975098e-01
-3.620006740093231201e-01 -1.181168295443058014e-02 5.866995081305503845e-02
-1.571129262447357178e-01 4.285855218768119812e-02 -1.150361075997352600e-02
-4.004130065441131592e-01 -3.973042126744985580e-03 3.443519026041030884e-02
-1.192035675048828125e-01 -5.172206554561853409e-03 1.823505014181137085e-01
-1.894609481096267700e-01 -1.339208334684371948e-02 1.814467906951904297e-01
-1.064194440841674805e-01 3.786860033869743347e-02 -2.702042460441589355e-03
-2.262321859598159790e-01 -2.554329298436641693e-02 1.196555346250534058e-01
-1.484849303960800171e-01 1.686250790953636169e-02 -1.606081128120422363e-01
4.908014833927154541e-02 -4.504608735442161560e-02 -5.173783749341964722e-02
-2.123956829309463501e-01 1.999421603977680206e-02 -1.495990157127380371e-01
-3.447968959808349609e-01 4.597662389278411865e-02 -5.851231515407562256e-02
-1.666164398193359375e-01 -3.731149248778820038e-03 -1.571678519248962402e-01
-3.889561295509338379e-01 5.397016927599906921e-02 5.854478478431701660e-02
-3.122549653053283691e-01 5.279520153999328613e-02 2.227044478058815002e-02
-3.287029564380645752e-01 -1.096786186099052429e-02 1.459682881832122803e-01
-3.472200036048889160e-01 5.360333621501922607e-02 2.056951634585857391e-02
-3.178833723068237305e-01 -7.394496817141771317e-03 1.702696084976196289e-01
1.491913795471191406e-01 -2.152159437537193298e-02 3.068461827933788300e-02
-2.790091335773468018e-01 4.761501774191856384e-02 9.713072329759597778e-02
-1.356842666864395142e-01 2.420233562588691711e-02 -1.455273181200027466e-01
-2.193934470415115356e-01 -8.153696544468402863e-04 -1.423771977424621582e-01
-2.545595169067382812e-01 4.346321523189544678e-02 1.161914616823196411e-01
1.608647406101226807e-01 -1.234899833798408508e-02 -1.698031276464462280e-02
-3.851506710052490234e-01 -7.041748147457838058e-03 1.019899770617485046e-01
-1.951835900545120239e-01 1.580983586609363556e-02 -1.562519073486328125e-01
-1.952567696571350098e-01 3.099323809146881104e-02 1.500716805458068848e-01
-4.047195613384246826e-02 2.967089787125587463e-02 -5.137724429368972778e-02
-1.852296292781829834e-01 3.250068798661231995e-02 1.385430246591567993e-01
-4.575660526752471924e-01 7.277002558112144470e-03 8.647062629461288452e-02
-2.986434698104858398e-01 -5.814558826386928558e-04 -1.015909463167190552e-01
-4.749523997306823730e-01 4.130820557475090027e-02 1.417415589094161987e-01
1.081849038600921631e-01 4.185500089079141617e-03 -2.021277695894241333e-02
-1.267412453889846802e-01 -3.693611919879913330e-02 -3.253131359815597534e-02
3.537669777870178223e-03 -2.734818868339061737e-02 -1.493776440620422363e-01
-2.955280244350433350e-02 -3.335436061024665833e-02 1.154641732573509216e-01
6.144940853118896484e-02 3.167863469570875168e-04 7.870204746723175049e-02
-2.736836075782775879e-01 -2.137077972292900085e-02 1.152937337756156921e-01
-7.676436752080917358e-02 -3.901405632495880127e-02 7.871682196855545044e-02
-8.534425497055053711e-02 -2.961054630577564240e-02 -1.165925413370132446e-01
-4.505908191204071045e-01 1.472273282706737518e-02 -7.897317409515380859e-03
-4.792955219745635986e-01 1.358983665704727173e-02 9.737465530633926392e-02
2.697795629501342773e-03 2.414463646709918976e-02 -3.470156341791152954e-02
-1.832955330610275269e-01 3.592694178223609924e-02 1.198931932449340820e-01
-6.772843003273010254e-02 -2.411214821040630341e-02 1.496467590332031250e-01
1.840209960937500000e-01 -2.922121249139308929e-02 -6.543014943599700928e-02
-1.268451213836669922e-01 -2.725402452051639557e-02 -1.075683012604713440e-01
-2.513491511344909668e-01 4.875883087515830994e-02 5.866328626871109009e-02
-1.912842690944671631e-01 4.570301622152328491e-02 1.532890088856220245e-02
-5.373238772153854370e-02 3.131577745079994202e-02 6.041352637112140656e-03
-1.676355302333831787e-02 -3.649778291583061218e-02 -1.076154634356498718e-01
3.024756312370300293e-01 -9.127306193113327026e-02 -2.542996406555175781e-02
-6.342057138681411743e-02 -3.249549493193626404e-02 -7.511755451560020447e-03
2.979872524738311768e-01 -5.507813394069671631e-02 2.588649839162826538e-02
-1.130925044417381287e-01 -3.763233870267868042e-02 -1.708617247641086578e-02
1.426119953393936157e-01 -9.709885716438293457e-02 -4.422151669859886169e-02
1.670035868883132935e-01 -7.220346480607986450e-02 -8.440381288528442383e-02
1.625232547521591187e-01 -6.624627113342285156e-02 6.851318478584289551e-02
-1.077972352504730225e-03 -3.574380651116371155e-02 -3.884113952517509460e-02
-1.283057034015655518e-01 -7.877448946237564087e-02 -2.480888739228248596e-02
1.775568425655364990e-01 -4.134257882833480835e-02 -4.589994624257087708e-02
1.343660056591033936e-01 -3.443581983447074890e-02 2.567931637167930603e-02
3.361382782459259033e-01 -5.840721353888511658e-02 -9.095096029341220856e-04
3.006575107574462891e-01 -6.622304767370223999e-02 3.654631227254867554e-02
1.089420318603515625e-01 -7.579571008682250977e-02 6.688444316387176514e-02
-1.518537104129791260e-01 -6.909931451082229614e-02 -3.342552483081817627e-02
2.572296261787414551e-01 -9.458819031715393066e-02 2.161552198231220245e-03
1.090036556124687195e-01 -3.748549148440361023e-02 4.555358365178108215e-02
2.381111085414886475e-01 -8.824178576469421387e-02 3.284827619791030884e-02
1.561049520969390869e-01 -9.617461264133453369e-02 -4.881148412823677063e-02
2.208781540393829346e-01 -9.567868709564208984e-02 -4.358667507767677307e-02
8.128174394369125366e-02 -5.251646786928176880e-02 -7.659966498613357544e-02
6.502258032560348511e-02 -8.892749994993209839e-02 4.388524591922760010e-02
-1.434711366891860962e-02 -3.028357774019241333e-02 1.098352577537298203e-02
-1.360762864351272583e-02 -4.678329080343246460e-02 -6.360162049531936646e-02
2.637853100895881653e-02 -5.698374658823013306e-02 -7.835250347852706909e-02
4.807852208614349365e-03 -5.908015370368957520e-02 7.441108673810958862e-02
2.047169506549835205e-01 -3.873577713966369629e-02 -2.256754785776138306e-02
1.901130676269531250e-01 -3.676502779126167297e-02 -1.434291899204254150e-02
4.340172559022903442e-02 -8.476183563470840454e-02 5.239217728376388550e-02
-7.177492231130599976e-02 -8.738166093826293945e-02 -2.610943466424942017e-02
-1.712248623371124268e-01 -6.941789388656616211e-02 1.684033125638961792e-02
1.222154945135116577e-01 -7.172755151987075806e-02 6.963243335485458374e-02
9.906068444252014160e-04 -9.476383030414581299e-02 -1.819351315498352051e-02
1.218860670924186707e-01 -3.723911941051483154e-02 -4.145508259534835815e-02
1.858983337879180908e-01 -9.643574059009552002e-02 1.393218245357275009e-02
2.939106523990631104e-01 -9.048053622245788574e-02 4.518186673521995544e-03
2.313733994960784912e-01 -4.055249691009521484e-02 9.159596636891365051e-03
8.833408355712890625e-02 -4.407713189721107483e-02 6.277222931385040283e-02
2.323487699031829834e-01 -5.077851936221122742e-02 4.619685932993888855e-02
1.097263991832733154e-01 -4.788134247064590454e-02 -6.965144723653793335e-02
8.218292891979217529e-02 -9.841676056385040283e-02 -2.358531951904296875e-02
-2.876196801662445068e-02 -9.275849908590316772e-02 -8.087422698736190796e-03
7.841729372739791870e-02 -9.849996864795684814e-02 -7.689532358199357986e-03
-4.782288521528244019e-02 -5.315555259585380554e-02 -6.636527925729751587e-02
2.669520080089569092e-01 -9.153394401073455811e-02 1.387483160942792892e-02
4.787134006619453430e-02 -3.037887811660766602e-02 1.569630578160285950e-02
7.496711611747741699e-02 -3.955189138650894165e-02 5.531939119100570679e-02
-5.204186588525772095e-02 -3.144850954413414001e-02 1.311972644180059433e-02
1.699868142604827881e-01 -3.488505631685256958e-02 -5.806953646242618561e-03
1.266199052333831787e-01 -9.065479040145874023e-02 4.041479900479316711e-02
1.755359023809432983e-01 -9.825618565082550049e-02 3.037150017917156219e-03
5.938096344470977783e-02 -7.950156182050704956e-02 -7.883558422327041626e-02
-1.706980168819427490e-03 -4.166904836893081665e-02 -5.544028058648109436e-02
6.034346669912338257e-02 -4.344038292765617371e-02 6.363434344530105591e-02
2.756192684173583984e-01 -5.831341072916984558e-02 4.130841046571731567e-02
-9.018447250127792358e-02 -7.927353680133819580e-02 -4.652301967144012451e-02
8.664181828498840332e-02 -9.734368324279785156e-02 9.878189302980899811e-03
1.867154538631439209e-01 -3.928165137767791748e-02 3.087079897522926331e-02
3.424056768417358398e-01 -6.075853109359741211e-02 -2.274006977677345276e-02
-2.576362341642379761e-02 -6.677350401878356934e-02 -7.494735717773437500e-02
4.162326082587242126e-02 -9.113458544015884399e-02 -5.564297363162040710e-02
-2.797455340623855591e-02 -4.763693362474441528e-02 6.732046604156494141e-02
2.191903293132781982e-01 -4.056788235902786255e-02 2.038526907563209534e-02
-3.381393104791641235e-02 -8.385815471410751343e-02 4.320446774363517761e-02
4.866923391819000244e-02 -4.471302032470703125e-02 -6.458115577697753906e-02
-1.652959585189819336e-01 -5.966720730066299438e-02 -3.202628716826438904e-02
1.519365310668945312e-01 -3.417675942182540894e-02 1.396095287054777145e-02
8.384747803211212158e-02 -7.093767076730728149e-02 -8.510968089103698730e-02
1.603696942329406738e-01 -9.907361865043640137e-02 -2.799656614661216736e-02
-5.279023200273513794e-02 -6.763491034507751465e-02 -6.975037604570388794e-02
1.041918173432350159e-01 -3.768782317638397217e-02 -4.532604664564132690e-02
1.242499724030494690e-01 -3.577379137277603149e-02 3.601837530732154846e-02
3.248129487037658691e-01 -8.326918631792068481e-02 1.063331123441457748e-02
-4.103888571262359619e-02 -8.230526000261306763e-02 -5.752943083643913269e-02
1.920441687107086182e-01 -9.822793304920196533e-02 -6.353240460157394409e-04
7.544647157192230225e-02 -3.052129596471786499e-02 1.632510218769311905e-03
2.063903361558914185e-01 -4.082158580422401428e-02 2.895217388868331909e-02
5.406955629587173462e-02 -9.632323682308197021e-02 -3.479396551847457886e-02
1.260629445314407349e-01 -9.496821463108062744e-02 2.560237795114517212e-02
-2.842244505882263184e-02 -9.220103919506072998e-02 -2.287319675087928772e-02
1.385607272386550903e-01 -8.782853186130523682e-02 4.702648147940635681e-02
1.865639984607696533e-01 -8.267658948898315430e-02 -7.743113487958908081e-02
1.721197813749313354e-01 -4.117011278867721558e-02 4.263718798756599426e-02
3.574218750000000000e-01 -7.501423358917236328e-02 -2.506746351718902588e-02
-6.953979283571243286e-02 -3.638651221990585327e-02 -2.888679131865501404e-02
2.347064018249511719e-01 -8.656673878431320190e-02 -6.713372468948364258e-02
1.087447255849838257e-01 -8.762762695550918579e-02 4.835315048694610596e-02
1.558892577886581421e-01 -3.608944267034530640e-02 2.739477902650833130e-02
2.443631589412689209e-01 -9.622967243194580078e-02 -4.461926873773336411e-03
-1.622756421566009521e-01 -4.220767319202423096e-02 9.402967058122158051e-03
2.350446581840515137e-01 -4.338634386658668518e-02 2.529740333557128906e-02
4.287903383374214172e-02 -7.384528964757919312e-02 -8.141527324914932251e-02
-6.519534438848495483e-02 -7.888802140951156616e-02 4.755436256527900696e-02
1.800958812236785889e-02 -4.615949466824531555e-02 6.794408708810806274e-02
-8.752473443746566772e-02 -4.010721296072006226e-02 -3.630061820149421692e-02
-1.101046577095985413e-01 -3.634852543473243713e-02 2.568581700325012207e-02
2.403038144111633301e-01 -4.251305013895034790e-02 -2.545217052102088928e-02
-1.559912264347076416e-01 -7.429008185863494873e-02 -1.477586198598146439e-02
-1.085128262639045715e-01 -5.899631232023239136e-02 -5.593161284923553467e-02
2.359808087348937988e-01 -9.298138320446014404e-02 1.869134977459907532e-02
-6.922140717506408691e-03 -3.368930146098136902e-02 3.961019963026046753e-02
-3.150122612714767456e-02 -3.268542513251304626e-02 -2.019389346241950989e-02
-1.340719163417816162e-01 -3.800635784864425659e-02 -1.691370503976941109e-03
-1.150709465146064758e-01 -7.168491184711456299e-02 4.625039920210838318e-02
1.895669102668762207e-01 -3.933047503232955933e-02 -3.388395532965660095e-02
-1.179500743746757507e-01 -3.605866804718971252e-02 -5.843462422490119934e-04
1.157566905021667480e-02 -3.046054393053054810e-02 -8.903689682483673096e-03
-9.929349273443222046e-02 -7.769837230443954468e-02 3.950934484601020813e-02
3.623723238706588745e-02 -9.559029340744018555e-02 1.066763419657945633e-02
3.649672493338584900e-02 -9.068116545677185059e-02 3.552756085991859436e-02
8.803501725196838379e-03 -9.314251691102981567e-02 -3.829317167401313782e-02
1.592686772346496582e-02 -3.928887471556663513e-02 -5.112815648317337036e-02
-6.736040860414505005e-02 -8.831115067005157471e-02 9.376650676131248474e-03
2.847658991813659668e-01 -4.690524190664291382e-02 -7.585518993437290192e-03
2.579477429389953613e-01 -4.456053674221038818e-02 1.498203258961439133e-02
1.293011009693145752e-01 -9.950733184814453125e-02 -1.402663905173540115e-02
-1.184526905417442322e-01 -8.013743162155151367e-02 2.087865024805068970e-02
3.595478087663650513e-02 -3.260566666722297668e-02 3.484008833765983582e-02
2.553111314773559570e-01 -4.303144663572311401e-02 -1.333547104150056839e-02
1.789990216493606567e-01 -6.724869459867477417e-02 6.623560190200805664e-02
3.175180032849311829e-02 -2.990474924445152283e-02 2.657501958310604095e-03
1.039539873600006104e-01 -9.555432200431823730e-02 -4.917380958795547485e-02
-1.834483444690704346e-02 -7.647307962179183960e-02 6.067020818591117859e-02
8.824186772108078003e-02 -9.574627876281738281e-02 -4.623569548130035400e-02
-1.456064879894256592e-01 -6.727414578199386597e-02 4.064584150910377502e-02
2.553922832012176514e-01 -4.767324030399322510e-02 -4.195133224129676819e-02
1.408006548881530762e-01 -5.408915132284164429e-02 -7.675455510616302490e-02
2.744280174374580383e-02 -8.718579262495040894e-02 -6.327901780605316162e-02
1.480241715908050537e-01 -6.774168461561203003e-02 6.964174658060073853e-02
2.151840031147003174e-01 -7.304944843053817749e-02 -8.019480109214782715e-02
6.690949201583862305e-03 -8.945649862289428711e-02 -5.283133685588836670e-02
1.646485030651092529e-01 -4.596661776304244995e-02 5.525210499763488770e-02
-8.260677009820938110e-02 -8.609484881162643433e-02 1.401813607662916183e-02
1.317736208438873291e-01 -6.881607323884963989e-02 -8.578354120254516602e-02
-9.762952476739883423e-02 -3.837630897760391235e-02 4.011529684066772461e-02
2.126112580299377441e-01 -3.853864967823028564e-02 8.177779614925384521e-03
7.054780423641204834e-02 -4.722227528691291809e-02 -6.928758323192596436e-02
3.413072600960731506e-02 -9.599485248327255249e-02 -2.901059016585350037e-02
1.733682155609130859e-01 -9.926184266805648804e-02 -1.095806621015071869e-02
-7.658188790082931519e-02 -8.797631412744522095e-02 -1.325354818254709244e-02
-1.306988894939422607e-01 -3.769084811210632324e-02 1.801637932658195496e-02
3.386943042278289795e-01 -8.437582105398178101e-02 -2.585912868380546570e-02
5.322259664535522461e-02 -6.368343532085418701e-02 -8.333294093608856201e-02
1.213517785072326660e-02 -4.751980304718017578e-02 -6.722051650285720825e-02
1.931779980659484863e-01 -5.371566116809844971e-02 -7.099589705467224121e-02
-7.208000868558883667e-02 -8.303736150264739990e-02 3.422085195779800415e-02
1.124972850084304810e-02 -9.293153136968612671e-02 2.024433761835098267e-02
-4.692157357931137085e-02 -7.444684207439422607e-02 5.921111628413200378e-02
3.133619129657745361e-01 -5.312301218509674072e-02 -2.343336865305900574e-02
-1.261798441410064697e-01 -5.232115462422370911e-02 5.363770946860313416e-02
2.799036800861358643e-01 -9.214065968990325928e-02 -3.952893242239952087e-02
-1.061752960085868835e-01 -8.372082561254501343e-02 8.716044947504997253e-03
-9.818813949823379517e-02 -8.317916095256805420e-02 -2.943866327404975891e-02
2.855957671999931335e-02 -7.777222245931625366e-02 -7.715498656034469604e-02
1.044696420431137085e-01 -4.857429116964340210e-02 6.726504862308502197e-02
1.289442926645278931e-02 -8.911365270614624023e-02 3.704804927110671997e-02
-4.640022665262222290e-02 -8.762906491756439209e-02 -4.057683050632476807e-02
-1.397274434566497803e-03 -3.259081766009330750e-02 -2.459871396422386169e-02
8.844501525163650513e-02 -3.612828254699707031e-02 -4.094917327165603638e-02
1.342357099056243896e-01 -3.972916305065155029e-02 -4.861267656087875366e-02
2.090368270874023438e-01 -5.992008373141288757e-02 -7.593014091253280640e-02
-1.163792982697486877e-01 -4.437102749943733215e-02 -3.750993311405181885e-02
-1.052461788058280945e-01 -7.520397752523422241e-02 -4.795382916927337646e-02
5.508463829755783081e-02 -9.241557121276855469e-02 3.163871169090270996e-02
2.612107992172241211e-01 -5.645802989602088928e-02 -6.099322810769081116e-02
-1.876404136419296265e-02 -3.558626025915145874e-02 -3.619802370667457581e-02
3.007625639438629150e-01 -5.219569057226181030e-02 -3.200599178671836853e-02
2.131583541631698608e-02 -8.574741333723068237e-02 4.795595258474349976e-02
-3.528356552124023438e-02 -3.910170495510101318e-02 5.386770889163017273e-02
3.410760462284088135e-01 -8.234235644340515137e-02 -1.345522003248333931e-03
-4.877633601427078247e-02 -8.355079591274261475e-02 4.023865237832069397e-02
-1.315440833568572998e-01 -7.039765268564224243e-02 4.201188310980796814e-02
1.923558562994003296e-01 -9.406693279743194580e-02 -5.485712736845016479e-02
2.929793596267700195e-01 -5.539366975426673889e-02 -4.715229570865631104e-02
3.224156424403190613e-02 -3.681217133998870850e-02 5.080046877264976501e-02
1.450940519571304321e-01 -3.582146018743515015e-02 -2.978480234742164612e-02
2.770904600620269775e-01 -9.274946898221969604e-02 2.596287522464990616e-03
2.525898516178131104e-01 -4.255697131156921387e-02 1.173282507807016373e-03
-1.644655764102935791e-01 -7.321276515722274780e-02 8.675493299961090088e-04
2.788940817117691040e-02 -9.296815097332000732e-02 2.454630658030509949e-02
-5.590059608221054077e-02 -9.031865745782852173e-02 -6.240580696612596512e-03
1.412659883499145508e-03 -8.150871098041534424e-02 5.472533032298088074e-02
2.009056210517883301e-01 -9.872445464134216309e-02 -1.622015237808227539e-02
-8.153038471937179565e-02 -3.720498085021972656e-02 4.091797769069671631e-02
1.668780446052551270e-01 -8.991584181785583496e-02 4.000319540500640869e-02
-9.244009852409362793e-03 -5.587052181363105774e-02 -7.408401370048522949e-02
2.089181244373321533e-01 -7.958185672760009766e-02 5.336868762969970703e-02
8.835896104574203491e-02 -3.801951557397842407e-02 5.010411143302917480e-02
-6.118220835924148560e-02 -3.941704705357551575e-02 -4.103143885731697083e-02
-7.642427831888198853e-02 -8.001434057950973511e-02 -5.048440396785736084e-02
6.350918114185333252e-02 -3.635825589299201965e-02 -4.318224266171455383e-02
-9.373622387647628784e-02 -8.559577167034149170e-02 -1.670686341822147369e-02
1.382899135351181030e-01 -4.102651029825210571e-02 5.014393106102943420e-02
-4.488015919923782349e-02 -8.823638409376144409e-02 2.403802797198295593e-02
1.968000233173370361e-01 -4.673890396952629089e-02 -5.732611566781997681e-02
2.664869129657745361e-01 -6.613443046808242798e-02 -6.993595510721206665e-02
8.296537399291992188e-02 -9.241245687007904053e-02 3.423603624105453491e-02
2.502125501632690430e-01 -6.949196755886077881e-02 -7.471501082181930542e-02
7.330218702554702759e-02 -3.168905898928642273e-02 -1.803768798708915710e-02
-4.141891002655029297e-02 -6.242110580205917358e-02 7.004430145025253296e-02
2.175049185752868652e-01 -9.375883638858795166e-02 2.028241753578186035e-02
4.141066223382949829e-02 -7.557529956102371216e-02 6.691576540470123291e-02
2.164716124534606934e-01 -9.809789061546325684e-02 -2.240397781133651733e-02
-4.281952977180480957e-03 -9.058539569377899170e-02 2.742866054177284241e-02
-1.024056226015090942e-02 -9.282189607620239258e-02 1.213850546628236771e-02
3.134082257747650146e-01 -6.723304837942123413e-02 -5.583776906132698059e-02
1.719417572021484375e-01 -3.669011592864990234e-02 -2.543960139155387878e-02
1.997903883457183838e-01 -9.097298234701156616e-02 3.306817263364791870e-02
2.231872081756591797e-01 -7.587964832782745361e-02 5.468669906258583069e-02
2.170272469520568848e-01 -4.218748956918716431e-02 -3.666455671191215515e-02
2.036671638488769531e-01 -9.723363816738128662e-02 -3.809536248445510864e-02
-1.713363826274871826e-01 -4.475919157266616821e-02 -1.608621561899781227e-03
-4.392837733030319214e-02 -9.136311709880828857e-02 -1.366490125656127930e-02
-9.195074439048767090e-03 -7.350285351276397705e-02 -7.504543662071228027e-02
2.628762423992156982e-01 -9.545893967151641846e-02 -1.338905934244394302e-02
1.229252591729164124e-01 -8.734758198261260986e-02 -7.247472554445266724e-02
9.680562466382980347e-02 -3.386409580707550049e-02 3.327772021293640137e-02
-1.350274085998535156e-01 -7.826443016529083252e-02 1.564195752143859863e-02
2.278966605663299561e-01 -9.591191262006759644e-02 6.424280814826488495e-03
9.679386019706726074e-02 -8.714175969362258911e-02 -7.162667065858840942e-02
-6.080333143472671509e-02 -8.437585085630416870e-02 -4.566566273570060730e-02
2.005851864814758301e-01 -5.739231407642364502e-02 6.109039857983589172e-02
1.601673066616058350e-01 -9.841124713420867920e-02 3.878834657371044159e-03
1.827221363782882690e-02 -3.349256515502929688e-02 -3.094178065657615662e-02
-1.499634981155395508e-01 -5.550207570195198059e-02 -3.894600644707679749e-02
1.035097315907478333e-01 -9.854825586080551147e-02 -2.941767126321792603e-02
1.161868572235107422e-01 -3.230103477835655212e-02 -1.097279135137796402e-02
6.784503161907196045e-02 -3.344330936670303345e-02 3.611091896891593933e-02
2.124467492103576660e-01 -4.920465499162673950e-02 -5.962616577744483948e-02
1.525596380233764648e-01 -3.877520188689231873e-02 -4.199535399675369263e-02
-4.187684506177902222e-02 -9.087816625833511353e-02 7.776000536978244781e-03
3.181160986423492432e-01 -8.916398882865905762e-02 -2.037716470658779144e-02
1.052241772413253784e-02 -9.553006291389465332e-02 -8.533095940947532654e-03
-3.940242528915405273e-02 -6.251395493745803833e-02 -7.262159138917922974e-02
-5.420602113008499146e-02 -8.973522484302520752e-02 -2.298265323042869568e-02
2.868639528751373291e-01 -8.646821230649948120e-02 -5.485285818576812744e-02
1.802014112472534180e-01 -8.396291732788085938e-02 5.105522647500038147e-02
3.321628868579864502e-01 -8.639460802078247070e-02 -1.386220380663871765e-02
7.288563251495361328e-02 -9.703278541564941406e-02 -3.532232716679573059e-02
-1.938192844390869141e-01 -5.610664933919906616e-02 7.084365002810955048e-03
2.759146988391876221e-01 -5.888427793979644775e-02 -6.025907397270202637e-02
3.121458292007446289e-01 -8.410631120204925537e-02 -4.920031502842903137e-02
8.776582032442092896e-02 -6.927044689655303955e-02 7.255668193101882935e-02
1.521174609661102295e-01 -9.184560179710388184e-02 -6.339861452579498291e-02
-6.602648645639419556e-02 -5.979159474372863770e-02 -6.690887361764907837e-02
-7.186805456876754761e-02 -7.081072032451629639e-02 5.916881933808326721e-02
-9.244567900896072388e-02 -3.448309004306793213e-02 -8.721491321921348572e-03
2.019861936569213867e-01 -4.537722840905189514e-02 4.494833201169967651e-02
-9.452831000089645386e-02 -4.615560546517372131e-02 5.646914243698120117e-02
-1.629826724529266357e-01 -6.079506501555442810e-02 3.880830481648445129e-02
1.273404061794281006e-02 -2.990613132715225220e-02 7.122822105884552002e-03
-9.170324355363845825e-02 -5.589980632066726685e-02 -5.920080840587615967e-02
2.871468067169189453e-01 -6.862670928239822388e-02 -6.577407568693161011e-02
2.977243959903717041e-01 -5.028017982840538025e-02 8.953158743679523468e-03
5.486851930618286133e-02 -3.052159771323204041e-02 -8.300835266709327698e-03
2.293483912944793701e-01 -5.627607554197311401e-02 -6.839668750762939453e-02
-6.623784452676773071e-02 -3.881390392780303955e-02 4.890811070799827576e-02
-1.706475913524627686e-01 -4.975058883428573608e-02 -2.031387761235237122e-02
9.139020740985870361e-02 -4.531771689653396606e-02 -6.573081016540527344e-02
4.687472805380821228e-02 -9.743425250053405762e-02 -1.213083602488040924e-02
7.784473896026611328e-02 -7.735671848058700562e-02 6.568233668804168701e-02
-1.177479252219200134e-01 -8.261971175670623779e-02 -6.345758214592933655e-03
3.264706432819366455e-01 -5.797285586595535278e-02 1.122887339442968369e-02
6.346292793750762939e-02 -6.321497261524200439e-02 7.518703490495681763e-02
-1.403540670871734619e-01 -4.087734594941139221e-02 -1.535412948578596115e-02
1.103029996156692505e-01 -3.380507975816726685e-02 -2.645093947649002075e-02
-3.204055130481719971e-02 -3.400109335780143738e-02 3.850155696272850037e-02
-1.517056673765182495e-02 -8.479799330234527588e-02 4.465957358479499817e-02
2.323335707187652588e-01 -9.746108204126358032e-02 -1.825456693768501282e-02
-7.582428306341171265e-02 -4.551518335938453674e-02 -5.123425647616386414e-02
2.713685631752014160e-01 -4.588748514652252197e-02 -2.217089757323265076e-02
3.090567886829376221e-01 -8.307768404483795166e-02 2.020667493343353271e-02
3.188061118125915527e-01 -5.345667153596878052e-02 -2.998799551278352737e-03
-6.045330315828323364e-02 -8.603992313146591187e-02 2.745284140110015869e-02
9.013328701257705688e-02 -9.187036007642745972e-02 -6.057572737336158752e-02
1.533310413360595703e-01 -5.057941377162933350e-02 -7.102444767951965332e-02
5.198555439710617065e-02 -5.165924876928329468e-02 7.272751629352569580e-02
1.711919605731964111e-01 -9.618097543716430664e-02 1.736354827880859375e-02
2.513851523399353027e-01 -9.612460434436798096e-02 -2.585646882653236389e-02
1.532338112592697144e-01 -3.945484012365341187e-02 4.244049265980720520e-02
-9.967335313558578491e-02 -4.760431498289108276e-02 -4.858969151973724365e-02
1.202373802661895752e-01 -3.249805793166160583e-02 1.471720170229673386e-02
-2.846419811248779297e-03 -3.965898230671882629e-02 5.731869116425514221e-02
-1.495997905731201172e-01 -5.417134612798690796e-02 4.616140574216842651e-02
1.431150138378143311e-01 -9.771381318569183350e-02 1.058056484907865524e-02
1.658419072628021240e-01 -7.985500246286392212e-02 5.856780335307121277e-02
9.634338319301605225e-03 -6.186848133802413940e-02 -7.923970371484756470e-02
3.521223366260528564e-02 -6.441147625446319580e-02 7.469279319047927856e-02
2.579789161682128906e-01 -9.172277152538299561e-02 -5.015896633267402649e-02
4.589904099702835083e-02 -3.586632013320922852e-02 -4.160954803228378296e-02
1.829849332571029663e-01 -6.696597486734390259e-02 -8.293176442384719849e-02
-2.682125568389892578e-02 -3.051320835947990417e-02 3.382142633199691772e-03
2.446446195244789124e-02 -6.101995334029197693e-02 -3.879427313804626465e-01
-1.146284677088260651e-02 -5.812708288431167603e-02 -5.071800947189331055e-01
-7.903073728084564209e-02 -7.014420628547668457e-02 -4.505774080753326416e-01
-6.179507821798324585e-03 -6.092404946684837341e-02 -4.273880720138549805e-01
-1.103131659328937531e-02 -7.972297072410583496e-02 -4.820222854614257812e-01
-4.677698761224746704e-02 -6.149360910058021545e-02 -6.031957268714904785e-01
-2.833470329642295837e-02 -5.883129313588142395e-02 -5.088647007942199707e-01
-1.045737415552139282e-01 -7.525266706943511963e-02 -4.651331007480621338e-01
-3.894402831792831421e-02 -8.518154919147491455e-02 -3.990538418292999268e-01
-1.454733610153198242e-01 -6.831713020801544189e-02 -6.296800374984741211e-01
-7.713985443115234375e-02 -8.270049840211868286e-02 -5.551522970199584961e-01
1.821104437112808228e-03 -6.775671243667602539e-02 -5.433437824249267578e-01
5.918456241488456726e-02 -6.306657940149307251e-02 -3.357576131820678711e-01
-5.860547721385955811e-02 -6.045933067798614502e-02 -5.321101546287536621e-01
5.518287420272827148e-03 -7.156738638877868652e-02 -5.207021236419677734e-01
-2.999217621982097626e-02 -6.392016261816024780e-02 -5.931382179260253906e-01
-1.287240833044052124e-01 -8.577148616313934326e-02 -5.302104353904724121e-01
-8.249452710151672363e-02 -8.415722101926803589e-02 -5.421459078788757324e-01
4.694134369492530823e-02 -6.700925529003143311e-02 -3.116250932216644287e-01
3.719398751854896545e-02 -7.616272568702697754e-02 -4.207254648208618164e-01
8.628220856189727783e-02 -6.530726701021194458e-02 -3.172025680541992188e-01
-1.706973910331726074e-01 -7.406619191169738770e-02 -6.449863910675048828e-01
7.118637859821319580e-02 -6.471782922744750977e-02 -3.159750699996948242e-01
-9.115107357501983643e-02 -8.646488189697265625e-02 -4.983255565166473389e-01
-1.419355720281600952e-01 -6.930217891931533813e-02 -5.952319502830505371e-01
5.181303992867469788e-02 -7.704266160726547241e-02 -3.651235699653625488e-01
-9.827841073274612427e-03 -5.838600546121597290e-02 -5.301466584205627441e-01
-4.691817611455917358e-02 -5.927285552024841309e-02 -5.436130166053771973e-01
-1.677745953202247620e-02 -8.317510038614273071e-02 -4.397359490394592285e-01
9.009663015604019165e-03 -8.243876695632934570e-02 -3.566500842571258545e-01
-4.127893224358558655e-02 -7.729701697826385498e-02 -5.569158196449279785e-01
-7.402736693620681763e-02 -6.709679216146469116e-02 -4.669059514999389648e-01
-6.598029285669326782e-02 -8.587856590747833252e-02 -4.270513355731964111e-01
-1.136256009340286255e-01 -8.633112162351608276e-02 -5.213115811347961426e-01
-5.776795744895935059e-02 -8.106647431850433350e-02 -5.462622642517089844e-01
-1.590930074453353882e-01 -7.995226979255676270e-02 -6.542862653732299805e-01
3.090347722172737122e-02 -7.112803310155868530e-02 -4.770527482032775879e-01
4.038780927658081055e-03 -7.425048202276229858e-02 -5.059130191802978516e-01
-2.412236854434013367e-02 -6.061968952417373657e-02 -4.596053957939147949e-01
-9.790802001953125000e-02 -8.633641898632049561e-02 -5.132217407226562500e-01
-8.711361885070800781e-02 -8.551250398159027100e-02 -5.234316587448120117e-01
-7.104906439781188965e-02 -7.553692907094955444e-02 -6.104980111122131348e-01
-9.338089823722839355e-02 -8.131469786167144775e-02 -5.919322371482849121e-01
-4.308668896555900574e-02 -8.444190770387649536e-02 -3.856382966041564941e-01
-1.404671967029571533e-01 -8.518675714731216431e-02 -5.603693723678588867e-01
-9.479803591966629028e-02 -6.218124553561210632e-02 -6.081612706184387207e-01
-1.029238849878311157e-01 -7.935386151075363159e-02 -4.497505724430084229e-01
-9.213602542877197266e-02 -8.434323966503143311e-02 -4.405052661895751953e-01
-5.251999199390411377e-02 -8.585581928491592407e-02 -4.233594536781311035e-01
-1.186124086380004883e-01 -6.458288431167602539e-02 -6.152910590171813965e-01
4.228013381361961365e-02 -7.807301729917526245e-02 -3.780654072761535645e-01
-1.081276834011077881e-01 -6.361121684312820435e-02 -6.003502607345581055e-01
-3.999791666865348816e-02 -8.546543121337890625e-02 -4.171450138092041016e-01
-1.205973327159881592e-01 -8.032464236021041870e-02 -6.301429271697998047e-01
2.509331330657005310e-02 -8.106103539466857910e-02 -3.496392667293548584e-01
-1.101820021867752075e-01 -6.692996621131896973e-02 -6.690435409545898438e-01
-1.703221537172794342e-02 -7.660865038633346558e-02 -5.238553881645202637e-01
3.174747154116630554e-02 -6.503228098154067993e-02 -3.385847806930541992e-01
-1.133596710860729218e-02 -6.020943447947502136e-02 -4.461098909378051758e-01
7.770305871963500977e-02 -6.742299348115921021e-02 -2.977137565612792969e-01
1.130579411983489990e-02 -7.564398646354675293e-02 -4.812282323837280273e-01
3.463281318545341492e-02 -7.969050109386444092e-02 -3.665351271629333496e-01
9.087700396776199341e-03 -8.145411312580108643e-02 -3.318755626678466797e-01
-7.586145401000976562e-02 -6.250408291816711426e-02 -5.288465619087219238e-01
-2.615640126168727875e-02 -6.174603104591369629e-02 -4.459706544876098633e-01
-3.083941340446472168e-02 -8.187005668878555298e-02 -3.559755682945251465e-01
-3.860801458358764648e-02 -8.265060186386108398e-02 -4.944432675838470459e-01
5.238467082381248474e-02 -7.246667146682739258e-02 -4.214922487735748291e-01
5.438284948468208313e-02 -7.371446490287780762e-02 -4.047830998897552490e-01
-1.374568194150924683e-01 -6.679909676313400269e-02 -6.435126066207885742e-01
-6.179983913898468018e-02 -6.427399069070816040e-02 -4.747214019298553467e-01
-7.435013353824615479e-02 -6.761252880096435547e-02 -6.426795721054077148e-01
