6.592516601085662842e-02 -4.504774510860443115e-02 -7.089667022228240967e-02
-1.953420639038085938e-01 -6.594899296760559082e-02 -1.212972402572631836e-01
-3.104604482650756836e-01 -5.526882410049438477e-02 -2.211484313011169434e-01
-1.666970551013946533e-02 -5.920687317848205566e-02 -2.174012660980224609e-01
-1.434358358383178711e-01 -4.658550024032592773e-02 9.502248466014862061e-02
-4.946479201316833496e-02 -5.383225157856941223e-02 3.983899950981140137e-04
3.712408244609832764e-02 -4.405912384390830994e-02 -9.193152189254760742e-03
2.366052567958831787e-02 -3.192897513508796692e-02 6.161296367645263672e-02
-4.908487945795059204e-02 -2.612190321087837219e-02 -3.164746165275573730e-01
-1.822110414505004883e-01 -1.335101760923862457e-02 -1.924791634082794189e-01
-2.735878825187683105e-01 -1.610931195318698883e-02 -1.096320599317550659e-01
-3.540518283843994141e-01 -2.931260690093040466e-02 -7.119100540876388550e-02
-3.015403747558593750e-01 -4.145105183124542236e-02 7.899498939514160156e-02
2.943599224090576172e-02 -5.275901407003402710e-02 -9.701982885599136353e-02
-1.244413107633590698e-02 -5.837851762771606445e-02 -2.306967228651046753e-01
-7.645949721336364746e-02 -6.164142489433288574e-02 -8.229073882102966309e-02
-9.361401200294494629e-03 -7.819032296538352966e-03 1.088716089725494385e-02
1.040398329496383667e-01 -2.308100089430809021e-02 -7.048870623111724854e-02
-2.599050998687744141e-01 -1.424951292574405670e-02 -1.020492762327194214e-01
-2.375627458095550537e-01 -1.699573732912540436e-02 -1.825923919677734375e-01
3.443476557731628418e-02 -4.271073639392852783e-02 3.995195031166076660e-03
-1.003283262252807617e-01 -1.504425518214702606e-02 -2.460117936134338379e-01
-2.058335840702056885e-01 -6.449257582426071167e-02 -2.318858504295349121e-01
-1.444296985864639282e-01 -6.368730217218399048e-02 -6.904913485050201416e-02
-1.146425381302833557e-01 -6.522302329540252686e-02 -2.036976814270019531e-01
-1.332337409257888794e-01 -6.006998568773269653e-02 -2.988234162330627441e-01
-3.091482818126678467e-01 -2.078202366828918457e-02 -1.039523929357528687e-01
-1.318038403987884521e-01 -4.500786215066909790e-02 -3.516214191913604736e-01
-1.346577405929565430e-01 -5.425749346613883972e-02 4.272456467151641846e-02
-2.392220348119735718e-01 -2.360676415264606476e-02 1.187795549631118774e-01
-3.227927684783935547e-01 -3.603749349713325500e-02 6.772030889987945557e-02
-2.886740863323211670e-02 -5.708274245262145996e-02 -2.772939205169677734e-01
-1.787449419498443604e-01 -4.303499311208724976e-02 1.142770648002624512e-01
7.523378729820251465e-02 -4.138475283980369568e-02 -5.507691204547882080e-02
-1.129101291298866272e-01 -6.315691396594047546e-03 -1.240940541028976440e-01
7.799968123435974121e-03 -1.461213827133178711e-02 -2.263688147068023682e-01
-2.780262231826782227e-01 -1.551656238734722137e-02 -7.914657890796661377e-02
7.977561652660369873e-02 -1.898228190839290619e-02 -1.916984319686889648e-01
-2.868183255195617676e-01 -3.360483050346374512e-02 -2.504400610923767090e-01
-6.690747290849685669e-02 -6.239887326955795288e-03 -1.329571604728698730e-01
-1.480107456445693970e-01 -5.392141640186309814e-02 4.883553087711334229e-02
-1.934507638216018677e-01 -3.786011785268783569e-02 1.298668831586837769e-01
-3.284861743450164795e-01 -5.106779187917709351e-02 3.390699625015258789e-03
-1.056953221559524536e-01 -6.518167257308959961e-02 -1.779644787311553955e-01
-1.942741572856903076e-01 -3.445473313331604004e-02 -3.205196261405944824e-01
3.802642226219177246e-03 -5.763529241085052490e-02 -1.578207612037658691e-01
4.676334559917449951e-02 -1.023105159401893616e-02 -5.471533536911010742e-02
-6.485881656408309937e-02 -5.932025611400604248e-02 -2.827463746070861816e-01
-2.381957620382308960e-01 -6.069417670369148254e-02 -2.600511312484741211e-01
-3.195110857486724854e-01 -5.666063725948333740e-02 -4.534705728292465210e-02
-1.514984667301177979e-02 -1.074422709643840790e-02 5.140084028244018555e-02
-6.333297491073608398e-02 -7.049709558486938477e-03 -1.498791873455047607e-01
-2.951236814260482788e-02 -5.978778004646301270e-02 -2.336360812187194824e-01
-1.035198569297790527e-01 -1.601472683250904083e-02 1.180377900600433350e-01
2.710901200771331787e-02 -1.015554368495941162e-02 -1.515793651342391968e-01
1.111216098070144653e-01 -2.886298298835754395e-02 -9.006234258413314819e-02
-1.805864572525024414e-01 -1.883456483483314514e-02 -2.470537722110748291e-01
-1.700768321752548218e-01 -6.448123604059219360e-03 -5.410607531666755676e-02
-3.241951465606689453e-01 -5.731005966663360596e-02 -6.875032931566238403e-02
-1.395878940820693970e-02 -2.110393531620502472e-02 -2.839716076850891113e-01
-1.514218002557754517e-01 -5.814929306507110596e-02 1.108905673027038574e-02
-3.365123271942138672e-02 -5.118506029248237610e-03 -7.542151212692260742e-02
-1.141138076782226562e-01 -8.121922612190246582e-03 6.177820265293121338e-02
2.782501280307769775e-02 -5.325326323509216309e-02 -2.388350367546081543e-01
-2.659237682819366455e-01 -5.310245230793952942e-02 4.204975068569183350e-02
-8.651994168758392334e-03 -5.264024063944816589e-02 -2.976610064506530762e-01
8.777701854705810547e-02 -4.108248278498649597e-02 -8.679199963808059692e-02
2.385866641998291016e-02 -5.477981269359588623e-02 -1.299451291561126709e-01
-1.336485594511032104e-01 -5.737011134624481201e-02 1.393869519233703613e-02
-3.297652006149291992e-01 -2.301187440752983093e-02 -3.431102633476257324e-02
-1.110121384263038635e-01 -3.768460825085639954e-02 1.230279803276062012e-01
7.692575454711914062e-03 -4.852292314171791077e-02 -7.572650909423828125e-03
-2.238814830780029297e-01 -1.388093270361423492e-02 7.338596880435943604e-02
-9.146805107593536377e-02 -4.357670620083808899e-02 -3.536260426044464111e-01
-2.622895836830139160e-01 -1.337347552180290222e-02 -6.289634108543395996e-02
4.610845446586608887e-02 -1.016273163259029388e-02 -1.074423342943191528e-01
-2.229014188051223755e-01 -5.238101631402969360e-02 6.155197322368621826e-02
-2.906825244426727295e-01 -2.209899201989173889e-02 6.799429655075073242e-02
-3.229737281799316406e-03 -5.124098807573318481e-02 -2.036875486373901367e-02
-1.560546457767486572e-01 -8.909478783607482910e-03 6.141844391822814941e-02
-2.785419225692749023e-01 -6.305953860282897949e-02 -1.223596632480621338e-01
5.697706341743469238e-02 -5.012652650475502014e-02 -1.351862996816635132e-01
-4.207822680473327637e-02 -5.823867768049240112e-02 -6.230351328849792480e-02
-1.294713020324707031e-01 -8.275622501969337463e-03 6.171831488609313965e-02
-2.373017668724060059e-01 -6.412497162818908691e-02 -8.494019508361816406e-02
-1.116086244583129883e-01 -5.885662510991096497e-02 -3.059985041618347168e-01
-3.524405062198638916e-01 -4.566764086484909058e-02 -1.773108243942260742e-01
7.040753960609436035e-03 -3.260172531008720398e-02 -3.202030956745147705e-01
3.304032981395721436e-02 -1.163258217275142670e-02 -1.698812544345855713e-01
-5.224826186895370483e-02 -5.456723272800445557e-03 1.019269227981567383e-03
-1.141887754201889038e-01 -6.125675886869430542e-02 -2.843945026397705078e-01
-2.241843044757843018e-01 -2.717497199773788452e-02 -2.742708921432495117e-01
5.264146625995635986e-02 -2.854528091847896576e-02 -2.795709371566772461e-01
-2.312675118446350098e-01 -4.540967196226119995e-02 9.862785041332244873e-02
-2.848740220069885254e-01 -1.596422120928764343e-02 -6.126106530427932739e-02
-1.980347335338592529e-01 -1.992465928196907043e-02 -2.448352426290512085e-01
-1.747558712959289551e-01 -6.615614891052246094e-02 -1.977911591529846191e-01
4.287916421890258789e-02 -1.619189232587814331e-02 2.832747995853424072e-02
-2.525088787078857422e-01 -6.307600438594818115e-02 -7.237896323204040527e-02
-5.478980392217636108e-02 -4.725822806358337402e-02 5.636882781982421875e-02
-1.178254857659339905e-01 -6.468164920806884766e-02 -1.128407791256904602e-01
-9.113331139087677002e-02 -5.376615375280380249e-02 2.909415960311889648e-02
-4.191873222589492798e-02 -5.566021800041198730e-02 -2.653811872005462646e-02
-1.480333656072616577e-01 -6.122343242168426514e-03 -8.751185238361358643e-02
-3.087100386619567871e-01 -5.206698179244995117e-02 1.905217021703720093e-02
-2.172515392303466797e-01 -6.595774739980697632e-02 -1.456902325153350830e-01
-1.474905163049697876e-01 -9.492224082350730896e-03 -1.643354296684265137e-01
-1.286459565162658691e-01 -5.685020238161087036e-03 -9.455668181180953979e-02
-2.548634111881256104e-01 -6.181337684392929077e-02 -2.324563115835189819e-01
-4.050801694393157959e-02 -6.164882704615592957e-02 -1.832188069820404053e-01
-7.341008633375167847e-02 -6.367637217044830322e-02 -1.612578034400939941e-01
-2.085019201040267944e-01 -6.584697961807250977e-02 -1.235414594411849976e-01
-2.650995850563049316e-01 -2.480038627982139587e-02 -2.239964008331298828e-01
-1.749854981899261475e-01 -3.239318728446960449e-02 -3.224081993103027344e-01
-2.489985525608062744e-01 -1.290728896856307983e-02 -9.570253640413284302e-02
-8.785335719585418701e-02 -7.573790848255157471e-03 5.339838564395904541e-02
-2.449767291545867920e-01 -3.934748098254203796e-02 1.153044849634170532e-01
-2.262870967388153076e-01 -1.890700310468673706e-02 1.080366671085357666e-01
-2.024963498115539551e-01 -6.262670457363128662e-02 -4.141115397214889526e-02
-3.447211384773254395e-01 -2.935872226953506470e-02 -1.230656355619430542e-01
-3.332355916500091553e-01 -5.660670250654220581e-02 -8.471040427684783936e-02
2.466657757759094238e-02 -4.583083465695381165e-02 -6.134644150733947754e-03
-1.644633859395980835e-01 -1.104708202183246613e-02 8.246524631977081299e-02
-1.934940516948699951e-01 -6.421260535717010498e-02 -6.983004510402679443e-02
-1.982270181179046631e-01 -5.989546701312065125e-02 -2.892084121704101562e-01
-1.616069674491882324e-01 -7.409004494547843933e-03 3.220726549625396729e-02
-1.300146281719207764e-01 -4.525808990001678467e-02 9.883461892604827881e-02
-1.145914271473884583e-01 -1.682951860129833221e-02 -2.579599320888519287e-01
-2.814064323902130127e-01 -2.220863476395606995e-02 8.017219603061676025e-02
-1.884187906980514526e-01 -6.207012385129928589e-02 -3.207702934741973877e-02
-2.725844383239746094e-01 -1.714537851512432098e-02 -1.316237896680831909e-01
-7.300347089767456055e-03 -5.794514715671539307e-02 -1.210497617721557617e-01
-6.950115412473678589e-02 -6.029321253299713135e-02 -6.443378329277038574e-02
-6.630704551935195923e-02 -8.228415623307228088e-03 5.581207573413848877e-02
-9.914048016071319580e-02 -8.994866162538528442e-03 -1.783363819122314453e-01
-1.229276210069656372e-01 -6.021251901984214783e-02 -2.335166931152343750e-02
-2.987107634544372559e-01 -1.954569853842258453e-02 2.789732813835144043e-02
-1.081823259592056274e-01 -4.925378412008285522e-02 7.014136016368865967e-02
-7.522980868816375732e-02 -5.597089976072311401e-02 -1.750923693180084229e-03
3.216102719306945801e-02 -2.361191436648368835e-02 -2.754362821578979492e-01
-6.081409752368927002e-02 -6.021505594253540039e-02 -2.681610584259033203e-01
-3.098304569721221924e-02 -6.497040390968322754e-03 -1.280614882707595825e-01
-1.597426831722259521e-01 -6.337360292673110962e-02 -5.745621025562286377e-02
1.333953440189361572e-02 -2.625726908445358276e-02 -2.982242107391357422e-01
-1.546925455331802368e-01 -7.730018347501754761e-03 -1.259983777999877930e-01
-6.109917163848876953e-02 -6.287219375371932983e-02 -1.523933857679367065e-01
-7.437714934349060059e-02 -1.294879801571369171e-02 -2.293590903282165527e-01
-1.401509940624237061e-01 -1.495102420449256897e-02 -2.334318459033966064e-01
-7.996983826160430908e-02 -9.900143370032310486e-03 7.675987482070922852e-02
-2.794853448867797852e-01 -4.816858470439910889e-02 6.640085577964782715e-02
-3.879303485155105591e-02 -5.213169381022453308e-03 -8.979202061891555786e-02
1.842084527015686035e-02 -1.039162650704383850e-02 -1.662996113300323486e-01
-1.628689020872116089e-01 -5.979445576667785645e-02 -2.995781004428863525e-01
-1.773507297039031982e-01 -4.666973277926445007e-02 9.823335707187652588e-02
-1.397564262151718140e-01 -6.580352783203125000e-02 -2.037744075059890747e-01
2.861425280570983887e-02 -4.309009760618209839e-02 -3.068567216396331787e-01
-1.048578172922134399e-01 -4.946701228618621826e-03 -8.518250286579132080e-02
-1.931201815605163574e-01 -5.294843018054962158e-02 -3.250190615653991699e-01
-1.522238701581954956e-01 -1.817729882895946503e-02 1.277525126934051514e-01
2.119933068752288818e-02 -8.117010816931724548e-03 -1.067994013428688049e-01
-2.148556709289550781e-01 -6.450759619474411011e-02 -8.130046725273132324e-02
-2.461695969104766846e-01 -5.651781708002090454e-02 2.183829247951507568e-02
-1.535787284374237061e-01 -6.139676272869110107e-02 -2.867996692657470703e-01
-1.171373426914215088e-01 -6.132815778255462646e-02 -4.235108941793441772e-02
-1.951663494110107422e-01 -1.758162677288055420e-02 -2.270773947238922119e-01
-1.157176941633224487e-01 -5.061639472842216492e-03 -2.627290785312652588e-03
-7.254888117313385010e-02 -6.292973458766937256e-02 -2.265447676181793213e-01
-3.148270249366760254e-01 -2.032847888767719269e-02 -2.163117378950119019e-02
-1.043841987848281860e-01 -6.388146430253982544e-02 -1.036074534058570862e-01
-2.494188547134399414e-01 -1.203925907611846924e-02 -8.043885231018066406e-03
-2.149853408336639404e-01 -9.728256613016128540e-03 1.581915467977523804e-02
-3.327497541904449463e-01 -5.488197878003120422e-02 -1.785224080085754395e-01
-3.185296058654785156e-01 -5.925087630748748779e-02 -1.228005513548851013e-01
-1.323449462652206421e-01 -5.028579384088516235e-03 -2.933492511510848999e-02
-2.024526745080947876e-01 -6.487509608268737793e-02 -8.673483133316040039e-02
-1.333389431238174438e-01 -1.193618774414062500e-02 -2.047438025474548340e-01
-4.380367696285247803e-03 -5.693054944276809692e-02 -1.018431186676025391e-01
-6.931392848491668701e-02 -6.138358265161514282e-02 -2.576557397842407227e-01
-1.324475854635238647e-01 -6.276445463299751282e-03 2.615375816822052002e-02
-6.344335526227951050e-02 -8.165935054421424866e-03 -1.695682257413864136e-01
5.688498914241790771e-02 -4.871258139610290527e-02 -2.322216480970382690e-01
5.279541015625000000e-03 -1.073555834591388702e-02 3.263503313064575195e-02
1.109679043292999268e-02 -5.689406394958496094e-02 -1.889511942863464355e-01
6.078764796257019043e-02 -4.872409254312515259e-02 -2.192150056362152100e-01
-1.176051944494247437e-01 -6.241112574934959412e-02 -2.712554633617401123e-01
-2.744097709655761719e-01 -1.451262645423412323e-02 -2.381490916013717651e-02
-3.038156926631927490e-01 -2.073200792074203491e-02 -1.192680001258850098e-01
-6.454563885927200317e-02 -4.855094477534294128e-03 -1.137221604585647583e-02
-1.880588829517364502e-01 -7.290249690413475037e-03 -2.515739947557449341e-02
-2.756434082984924316e-01 -4.490665346384048462e-02 8.390408754348754883e-02
-3.561674058437347412e-02 -4.166746884584426880e-02 7.460999488830566406e-02
-2.130179703235626221e-01 -1.716483198106288910e-02 1.060734391212463379e-01
-1.106616482138633728e-01 -5.574138462543487549e-02 2.079677581787109375e-02
2.853319048881530762e-02 -5.106785148382186890e-02 -6.696191430091857910e-02
-2.481946647167205811e-01 -6.436742097139358521e-02 -1.897238194942474365e-01
-2.041817158460617065e-01 -1.478055119514465332e-02 -1.911351382732391357e-01
-1.846304088830947876e-01 -1.313217170536518097e-02 9.254637360572814941e-02
-2.862505316734313965e-01 -5.734008923172950745e-02 -2.405391782522201538e-01
-3.456773161888122559e-01 -5.403378605842590332e-02 -1.427152603864669800e-01
-2.759037017822265625e-01 -2.313820831477642059e-02 -1.978466212749481201e-01
2.249836921691894531e-02 -1.257584802806377411e-02 2.981887757778167725e-02
-6.595795601606369019e-02 -5.462952703237533569e-02 -3.207486569881439209e-01
1.539370417594909668e-02 -7.390540093183517456e-03 -8.628079295158386230e-02
-4.208779335021972656e-02 -2.044245228171348572e-02 -2.864682674407958984e-01
-9.656783938407897949e-02 -5.747459828853607178e-02 -4.314526915550231934e-03
-1.120352521538734436e-01 -4.631273448467254639e-03 -5.592133849859237671e-02
-8.104185760021209717e-02 -1.628131046891212463e-02 -2.588485777378082275e-01
-5.708163231611251831e-02 -3.791955858469009399e-02 1.018298119306564331e-01
-2.005391120910644531e-01 -1.050926558673381805e-02 -1.315695494413375854e-01
-7.747304439544677734e-02 -3.649924695491790771e-02 -3.484407663345336914e-01
-2.944546043872833252e-01 -3.256952762603759766e-02 -2.373217195272445679e-01
-4.175952076911926270e-02 -1.758734136819839478e-02 -2.673301994800567627e-01
3.948929905891418457e-02 -1.650220528244972229e-02 -2.212295830249786377e-01
-1.420231163501739502e-01 -2.799421921372413635e-02 -3.169462084770202637e-01
-2.567190527915954590e-01 -3.442174568772315979e-02 1.189934313297271729e-01
-2.288297414779663086e-01 -1.004333794116973877e-02 -4.186326265335083008e-02
-8.809229731559753418e-02 -1.342242024838924408e-02 1.030685305595397949e-01
-1.653172522783279419e-01 -6.145225837826728821e-03 -3.779233247041702271e-02
-2.033203691244125366e-01 -5.234146118164062500e-02 6.439894437789916992e-02
-1.301829814910888672e-01 -5.570128560066223145e-02 2.882902324199676514e-02
-2.021116763353347778e-02 -5.930978804826736450e-03 -9.993074089288711548e-02
2.757491171360015869e-02 -2.652551233768463135e-02 -2.913103103637695312e-01
-9.628272056579589844e-02 -5.157001316547393799e-03 7.021144032478332520e-03
-1.614626795053482056e-01 -1.321008242666721344e-02 -2.049060761928558350e-01
-1.050770729780197144e-01 -4.683534801006317139e-02 -3.516080975532531738e-01
-1.546663045883178711e-01 -6.630343198776245117e-02 -1.540559679269790649e-01
-1.173156797885894775e-01 -6.337276101112365723e-02 -2.564887106418609619e-01
-3.175870776176452637e-01 -2.066029049456119537e-02 -3.722356259822845459e-02
-1.139066740870475769e-01 -5.167486518621444702e-02 5.581457912921905518e-02
3.442893922328948975e-02 -1.319077052175998688e-02 -1.903795897960662842e-01
-2.597684860229492188e-01 -1.925909891724586487e-02 -1.806287467479705811e-01
5.817699432373046875e-02 -1.127807237207889557e-02 -9.079834818840026855e-02
-1.957743167877197266e-01 -1.300074532628059387e-02 8.564800024032592773e-02
-2.943442463874816895e-01 -4.549245908856391907e-02 -2.673056721687316895e-01
-2.181205898523330688e-02 -1.876902207732200623e-02 -2.715055048465728760e-01
1.272353529930114746e-02 -4.145822301506996155e-02 3.619571030139923096e-02
-7.949115335941314697e-02 -2.788737416267395020e-02 -3.253742754459381104e-01
-1.858921796083450317e-01 -3.709838911890983582e-02 -3.306317329406738281e-01
-3.490969538688659668e-02 -7.887843996286392212e-03 -1.593677699565887451e-01
-8.956990391016006470e-02 -6.446987390518188477e-02 -1.598406732082366943e-01
-5.459412932395935059e-02 -1.559422723948955536e-02 -2.532212734222412109e-01
-2.442102283239364624e-01 -6.509573757648468018e-02 -1.455592811107635498e-01
-2.537679374217987061e-01 -6.377965211868286133e-02 -9.258973598480224609e-02
8.378349244594573975e-02 -1.736984774470329285e-02 -4.335321485996246338e-02
-7.962629199028015137e-02 -6.358265131711959839e-02 -2.161261141300201416e-01
4.638987779617309570e-02 -1.122967153787612915e-02 -1.405656039714813232e-01
-1.060469299554824829e-01 -3.387710452079772949e-02 -3.427822589874267578e-01
-3.084284961223602295e-01 -5.101822316646575928e-02 -2.437061369419097900e-01
-1.741228699684143066e-01 -5.783579871058464050e-02 -3.103025853633880615e-01
-3.321706056594848633e-01 -5.548508465290069580e-02 -5.476228147745132446e-02
-7.087646424770355225e-02 -5.835280194878578186e-02 -3.353981673717498779e-02
-1.904877126216888428e-01 -1.596144028007984161e-02 -2.149818241596221924e-01
-1.089828982949256897e-01 -5.925566703081130981e-02 -1.828132569789886475e-02
-3.073440492153167725e-01 -5.947931110858917236e-02 -7.449782639741897583e-02
-2.408207654953002930e-01 -1.310226880013942719e-02 -1.189778745174407959e-01
3.640516102313995361e-02 -4.601670429110527039e-02 -2.891487777233123779e-01
-4.149398952722549438e-02 -4.808897152543067932e-03 -5.198626220226287842e-02
-2.057828605175018311e-01 -2.533624693751335144e-02 -2.761593759059906006e-01
-1.224977970123291016e-01 -2.081881090998649597e-02 -2.844994068145751953e-01
-3.558862507343292236e-01 -4.042233526706695557e-02 -1.649012267589569092e-01
9.689167141914367676e-03 -7.909305393695831299e-03 -1.561820507049560547e-02
-3.406214118003845215e-01 -5.431110039353370667e-02 -1.605864167213439941e-01
-1.244084015488624573e-01 -6.210049614310264587e-03 -1.143303290009498596e-01
-1.124334037303924561e-01 -1.276290602982044220e-02 1.026973724365234375e-01
-3.212201595306396484e-01 -3.467784821987152100e-02 -2.111889123916625977e-01
-3.245008885860443115e-01 -2.249405905604362488e-02 -7.919672131538391113e-02
4.858243465423583984e-02 -5.198267847299575806e-02 -1.745627820491790771e-01
-2.061363160610198975e-01 -3.084706887602806091e-02 -3.023529052734375000e-01
-1.522633880376815796e-01 -6.206464767456054688e-02 -3.787528723478317261e-02
-1.580654084682464600e-02 -5.710775032639503479e-03 -4.435756430029869080e-02
-2.320467680692672729e-02 -3.882560506463050842e-02 7.837456464767456055e-02
-5.923145264387130737e-02 -6.065839901566505432e-03 2.000473439693450928e-02
-3.658154606819152832e-02 -4.522165283560752869e-02 5.666562914848327637e-02
1.104667782783508301e-03 -6.773656234145164490e-03 -3.322080522775650024e-02
-1.131235659122467041e-01 -1.421153545379638672e-02 -2.355506122112274170e-01
1.116887927055358887e-01 -2.751837670803070068e-02 -1.660132706165313721e-01
9.552223980426788330e-02 -3.999407216906547546e-02 -2.041785418987274170e-01
-2.070504128932952881e-01 -5.448310077190399170e-02 4.821410775184631348e-02
-1.426945626735687256e-01 -1.203095912933349609e-02 9.650276601314544678e-02
-1.801466345787048340e-01 -1.140306517481803894e-02 7.895542681217193604e-02
-8.200730383396148682e-02 -5.953699350357055664e-03 -1.254561096429824829e-01
-4.987892508506774902e-02 -4.345184564590454102e-02 7.491494715213775635e-02
-5.715355277061462402e-02 -4.541581496596336365e-03 -6.094240024685859680e-02
5.773606896400451660e-02 -4.579915106296539307e-02 -6.055934727191925049e-02
-1.457049697637557983e-02 -6.856489926576614380e-03 -1.247748434543609619e-01
-3.333092927932739258e-01 -5.403070151805877686e-02 -3.535799682140350342e-02
2.087551355361938477e-02 -4.008555784821510315e-02 -3.173861503601074219e-01
-6.301902234554290771e-03 -5.872790515422821045e-02 -1.657552123069763184e-01
3.244528174400329590e-02 -5.160630494356155396e-02 -2.525396347045898438e-01
-1.973438113927841187e-01 -9.177254512906074524e-03 -1.060537546873092651e-01
-1.772780269384384155e-01 -7.028562948107719421e-03 -7.029683887958526611e-02
-4.836037009954452515e-02 -4.704238846898078918e-03 -4.049748927354812622e-02
-6.432078778743743896e-03 -1.908117532730102539e-02 -2.686967849731445312e-01
1.025366485118865967e-01 -3.927948698401451111e-02 -1.654656678438186646e-01
-2.115513235330581665e-01 -5.489959567785263062e-02 -3.108728528022766113e-01
-1.817951500415802002e-01 -6.643588840961456299e-02 -1.733162850141525269e-01
-2.664863169193267822e-01 -6.355431675910949707e-02 -1.074065789580345154e-01
-2.108320146799087524e-01 -2.858478575944900513e-02 -2.899248003959655762e-01
-8.486469089984893799e-02 -1.021595299243927002e-02 -1.976596117019653320e-01
-2.108754962682723999e-01 -6.148716434836387634e-02 -2.698009014129638672e-01
8.530253171920776367e-02 -4.035769775509834290e-02 -2.344479709863662720e-01
-3.374087214469909668e-01 -2.636615000665187836e-02 -1.064751446247100830e-01
2.754649519920349121e-02 -3.966448083519935608e-02 2.990651130676269531e-02
-2.758566737174987793e-01 -3.245988488197326660e-02 -2.568730115890502930e-01
7.414869964122772217e-02 -3.952690213918685913e-02 -3.788754343986511230e-02
-2.587113380432128906e-01 -5.413769185543060303e-02 -2.844017744064331055e-01
-4.107785224914550781e-02 -5.212611705064773560e-02 -3.226752877235412598e-01
-4.789526760578155518e-02 -5.230601876974105835e-02 1.352586597204208374e-02
-7.477246224880218506e-03 -5.688135325908660889e-02 -2.512970566749572754e-01
-2.504572868347167969e-01 -1.858382485806941986e-02 8.880266547203063965e-02
-2.569337487220764160e-01 -5.493870750069618225e-02 3.155946731567382812e-02
-2.056741714477539062e-02 -2.383661456406116486e-02 -3.004983365535736084e-01
-3.498926013708114624e-02 -6.086574867367744446e-02 -1.404627412557601929e-01
4.312127828598022461e-02 -1.170837320387363434e-02 -1.566769778728485107e-01
-1.040722429752349854e-01 -7.257468998432159424e-03 5.032166838645935059e-02
8.990265429019927979e-02 -3.602908179163932800e-02 -4.988924041390419006e-02
-3.597294092178344727e-01 -3.249513357877731323e-02 -1.956027746200561523e-02
-1.647117733955383301e-01 -6.460271775722503662e-03 -1.341044902801513672e-03
-6.260337680578231812e-02 -7.366221398115158081e-03 4.340048134326934814e-02
-1.735676378011703491e-01 -6.530065089464187622e-02 -9.747403115034103394e-02
-1.267588436603546143e-01 -6.542931497097015381e-02 -2.094555795192718506e-01
-1.861463934183120728e-01 -3.134132176637649536e-02 1.406617760658264160e-01
-2.837174534797668457e-01 -1.600518822669982910e-02 -2.996951341629028320e-03
-2.903509140014648438e-01 -1.723948121070861816e-02 -8.434961736202239990e-02
-1.391850411891937256e-01 -6.607766449451446533e-02 -1.820098757743835449e-01
-2.590293884277343750e-01 -4.019886255264282227e-02 1.076664775609970093e-01
-3.143354654312133789e-01 -2.107057347893714905e-02 5.532331764698028564e-03
-1.589865982532501221e-01 -6.085785105824470520e-03 -6.428576260805130005e-02
-9.874883294105529785e-02 -3.529556468129158020e-02 1.257905662059783936e-01
-1.391034126281738281e-01 -6.350940093398094177e-03 -1.058529913425445557e-01
-1.553842723369598389e-01 -1.616818271577358246e-02 -2.378302216529846191e-01
-3.458196520805358887e-01 -5.433284491300582886e-02 -8.370055258274078369e-02
-1.687716394662857056e-01 -6.564321368932723999e-02 -1.094668060541152954e-01
-2.059780359268188477e-01 -2.194401249289512634e-02 -2.545107603073120117e-01
-9.115280210971832275e-02 -6.424089521169662476e-02 -2.104036808013916016e-01
1.419438421726226807e-02 -5.433226004242897034e-02 -9.014336764812469482e-02
7.105673849582672119e-02 -1.306572183966636658e-02 -8.610484004020690918e-02
-1.804808378219604492e-01 -1.448188722133636475e-02 -2.066691517829895020e-01
-2.614222168922424316e-01 -6.425172090530395508e-02 -1.479331552982330322e-01
-2.403133213520050049e-01 -6.519132107496261597e-02 -1.656582355499267578e-01
-2.370578944683074951e-01 -2.247579023241996765e-02 -2.342542558908462524e-01
-1.616783291101455688e-01 -3.558804094791412354e-02 -3.359042406082153320e-01
-8.771409094333648682e-02 -7.199527695775032043e-03 -1.512335240840911865e-01
-1.622287780046463013e-01 -6.387181580066680908e-02 -2.559400200843811035e-01
-2.797242403030395508e-01 -1.701983250677585602e-02 3.355631232261657715e-02
-1.053870320320129395e-01 -7.824225351214408875e-03 -1.578631401062011719e-01
-1.038417145609855652e-01 -6.500552594661712646e-02 -1.531831175088882446e-01
-2.192772030830383301e-01 -6.519851833581924438e-02 -1.039238199591636658e-01
-2.597863972187042236e-01 -6.281715631484985352e-02 -2.102656811475753784e-01
-4.400132596492767334e-02 -5.938171595335006714e-02 -7.997642457485198975e-02
-5.801297724246978760e-03 -2.460986375808715820e-02 9.304417669773101807e-02
-5.271533131599426270e-02 -6.247862428426742554e-02 -1.864503026008605957e-01
-3.482013940811157227e-03 -5.810007825493812561e-02 -1.408455967903137207e-01
-1.776974946260452271e-01 -1.079198345541954041e-02 -1.613472551107406616e-01
2.036838233470916748e-02 -5.069686472415924072e-02 -4.752626642584800720e-02
-3.035033494234085083e-02 -1.563539728522300720e-02 9.074777364730834961e-02
-6.793275475502014160e-03 -5.620948970317840576e-02 -8.203962445259094238e-02
-2.918853759765625000e-01 -5.918586254119873047e-02 -2.154996097087860107e-01
5.287192761898040771e-02 -1.531391404569149017e-02 -1.945368647575378418e-01
5.424650013446807861e-02 -1.357535272836685181e-02 -1.694541424512863159e-01
-1.938576102256774902e-01 -5.754573270678520203e-02 2.199423313140869141e-02
3.952026367187500000e-03 -8.346194401383399963e-03 2.931244671344757080e-03
3.930228948593139648e-02 -2.133500576019287109e-02 -2.577000260353088379e-01
-2.146754264831542969e-01 -6.176046282052993774e-02 -3.006284683942794800e-02
-5.059297382831573486e-02 -6.056170538067817688e-02 -9.475855529308319092e-02
-2.732329070568084717e-01 -6.277199089527130127e-02 -9.241417050361633301e-02
-1.781511306762695312e-02 -4.789966344833374023e-02 2.404280006885528564e-02
2.480596303939819336e-03 -5.221076682209968567e-02 -3.855727612972259521e-02
4.510283470153808594e-04 -1.160242967307567596e-02 -1.976022124290466309e-01
-1.795748174190521240e-01 -9.590201079845428467e-03 -1.389731764793395996e-01
-9.693968296051025391e-02 -5.555155873298645020e-02 1.585837453603744507e-02
-3.325926363468170166e-01 -2.905650995671749115e-02 -1.537488251924514771e-01
-2.781537175178527832e-01 -2.538208290934562683e-02 -2.133377790451049805e-01
-1.253775656223297119e-01 -5.102048814296722412e-02 6.427672505378723145e-02
2.072070538997650146e-02 -1.634495332837104797e-02 -2.343584597110748291e-01
2.173084020614624023e-02 -5.125579610466957092e-02 -2.740721106529235840e-01
4.232612252235412598e-02 -1.545637659728527069e-02 -2.082685828208923340e-01
7.337167859077453613e-03 -1.939566247165203094e-02 -2.649748325347900391e-01
-1.599800288677215576e-01 -5.059427022933959961e-02 -3.402606248855590820e-01
-1.378218233585357666e-01 -6.038700789213180542e-02 -1.922516524791717529e-02
-9.288017451763153076e-02 -5.768768116831779480e-02 -3.103399872779846191e-01
3.636552393436431885e-02 -5.239021778106689453e-02 -1.095030680298805237e-01
-8.286117762327194214e-02 -4.432609304785728455e-03 -6.467090547084808350e-02
6.520204246044158936e-02 -4.487389326095581055e-02 -2.512363195419311523e-01
-1.118985041975975037e-01 -6.516493856906890869e-02 -1.429192423820495605e-01
8.932039141654968262e-03 -5.652610212564468384e-02 -2.194941341876983643e-01
-3.610880970954895020e-01 -4.498590156435966492e-02 -1.533061414957046509e-01
-2.166287600994110107e-02 -5.789112299680709839e-03 -2.403716742992401123e-02
-5.111485719680786133e-02 -6.239437311887741089e-02 -1.730580776929855347e-01
-2.560448646545410156e-01 -1.474398933351039886e-02 -1.218554675579071045e-01
-2.607280910015106201e-01 -6.220579892396926880e-02 -6.143048778176307678e-02
-1.911443769931793213e-01 -4.376059025526046753e-02 1.111643314361572266e-01
-9.069624543190002441e-02 -5.249055102467536926e-03 -1.034811064600944519e-01
7.707013189792633057e-02 -3.991359844803810120e-02 -2.540295720100402832e-01
5.019198358058929443e-02 -1.543427817523479462e-02 1.326660811901092529e-02
-3.324775695800781250e-01 -5.721548199653625488e-02 -1.208612397313117981e-01
-8.808805048465728760e-02 -6.364573538303375244e-02 -1.189652681350708008e-01
9.291124343872070312e-02 -4.267783463001251221e-02 -1.560519635677337646e-01
8.398181200027465820e-02 -1.547408290207386017e-02 -1.160946935415267944e-01
-6.235932558774948120e-02 -4.441044107079505920e-02 7.712896168231964111e-02
-3.413510918617248535e-01 -3.307206183671951294e-02 -1.654558032751083374e-01
-2.908251583576202393e-01 -5.969190597534179688e-02 -4.898267611861228943e-02
-2.139892131090164185e-01 -1.091322675347328186e-02 -1.200666725635528564e-01
-1.853865683078765869e-01 -8.380617946386337280e-03 2.949957549571990967e-02
-9.002753347158432007e-02 -1.243143528699874878e-02 -2.225445657968521118e-01
-2.006322145462036133e-03 -3.898715972900390625e-02 -3.313146829605102539e-01
-2.352040261030197144e-02 -3.402414172887802124e-02 -3.348837494850158691e-01
-5.891187489032745361e-02 -1.242802292108535767e-02 8.846868574619293213e-02
-1.022491082549095154e-01 -2.097007259726524353e-02 -2.894232273101806641e-01
-1.167988702654838562e-01 -6.296702474355697632e-02 -7.099216431379318237e-02
-2.403725534677505493e-01 -1.144754700362682343e-02 3.998659551143646240e-03
-3.598258495330810547e-01 -3.220421075820922852e-02 -9.390424191951751709e-02
1.051595360040664673e-01 -3.590297326445579529e-02 -1.001728102564811707e-01
-1.385840773582458496e-01 -5.850785970687866211e-02 -3.107050657272338867e-01
-6.810646504163742065e-02 -4.835137352347373962e-02 5.728341639041900635e-02
-1.076516360044479370e-01 -6.451556086540222168e-02 -2.239286601543426514e-01
-1.487801671028137207e-01 -6.597390025854110718e-02 -1.344553232192993164e-01
-1.317850947380065918e-01 -3.467391431331634521e-02 1.345987021923065186e-01
-1.759318709373474121e-01 -1.394418999552726746e-02 1.020341515541076660e-01
3.498074412345886230e-02 -9.337762370705604553e-03 -3.960802406072616577e-02
-3.151797652244567871e-01 -2.194498106837272644e-02 1.841383427381515503e-02
-2.738819122314453125e-01 -6.210973858833312988e-02 -7.490401715040206909e-02
9.280179440975189209e-02 -3.057220950722694397e-02 -2.322551608085632324e-01
1.770500838756561279e-02 -1.019000634551048279e-02 1.143784075975418091e-02
-2.173103541135787964e-01 -5.754316970705986023e-02 1.983745396137237549e-02
3.094047307968139648e-02 -1.122614927589893341e-02 4.687465727329254150e-03
-2.540662884712219238e-01 -6.434013694524765015e-02 -1.774507313966751099e-01
-1.852174103260040283e-01 -6.238590925931930542e-02 -2.709212303161621094e-01
-5.674242973327636719e-03 -1.321575790643692017e-02 -2.192032933235168457e-01
-2.314922511577606201e-01 -4.829491674900054932e-02 8.463984727859497070e-02
8.004784584045410156e-03 -9.902991354465484619e-03 2.042536437511444092e-02
1.677079498767852783e-02 -5.623922497034072876e-02 -1.619042754173278809e-01
2.607235312461853027e-02 -1.891113445162773132e-02 -2.510766386985778809e-01
-3.007244467735290527e-01 -2.234275639057159424e-02 -1.499024927616119385e-01
-3.430768251419067383e-01 -5.092002823948860168e-02 -2.059762924909591675e-02
-8.661735057830810547e-02 -4.038591682910919189e-02 1.062339246273040771e-01
-2.990797162055969238e-02 -5.430054664611816406e-02 -3.032389879226684570e-01
-6.906040012836456299e-02 -6.349644809961318970e-02 -1.781653761863708496e-01
-3.685955405235290527e-01 -3.609795123338699341e-02 -4.438232630491256714e-02
-2.385366559028625488e-01 -6.451509892940521240e-02 -2.009942531585693359e-01
3.540636599063873291e-02 -9.771812707185745239e-03 -1.278803199529647827e-01
-2.306319773197174072e-01 -1.031998172402381897e-02 -5.631039664149284363e-02
9.214758872985839844e-02 -4.157082736492156982e-02 -1.119864210486412048e-01
-1.372131407260894775e-01 -5.442224442958831787e-03 -7.286635041236877441e-02
-3.012025952339172363e-01 -1.838004216551780701e-02 -7.608816027641296387e-03
-1.083426922559738159e-01 -4.283565282821655273e-02 1.039601415395736694e-01
-1.459931433200836182e-01 -8.611772209405899048e-03 -1.506309956312179565e-01
-2.690499424934387207e-01 -4.285101220011711121e-02 -2.897253632545471191e-01
1.020437330007553101e-01 -2.021258510649204254e-02 -1.305342316627502441e-01
-2.681233286857604980e-01 -2.836456149816513062e-02 1.115300059318542480e-01
-2.348849624395370483e-01 -3.767576441168785095e-02 -3.064596056938171387e-01
-2.191188782453536987e-01 -5.812256783246994019e-02 -2.914747297763824463e-01
-1.400334537029266357e-01 -1.049566082656383514e-02 -1.833959668874740601e-01
8.373519778251647949e-02 -1.526943594217300415e-02 -1.022624522447586060e-01
-2.935902476310729980e-01 -1.838656142354011536e-02 -1.028896421194076538e-01
-2.970725297927856445e-02 -5.583571642637252808e-02 -2.907663583755493164e-01
-1.536989659070968628e-01 -6.580673903226852417e-02 -1.224470958113670349e-01
-3.615275025367736816e-02 -4.937965422868728638e-02 2.844092249870300293e-02
-3.013504296541213989e-02 -1.684505864977836609e-02 -2.596071958541870117e-01
-3.170943856239318848e-01 -5.690700560808181763e-02 -1.942699253559112549e-01
2.557975053787231445e-02 -8.060848340392112732e-03 -6.430671364068984985e-02
-1.140251755714416504e-01 -1.011272147297859192e-02 8.294245600700378418e-02
4.797679185867309570e-02 -4.962967708706855774e-02 -2.433078140020370483e-01
-2.509863674640655518e-01 -2.462407946586608887e-02 -2.370295226573944092e-01
-2.580905556678771973e-01 -1.333171315491199493e-02 -8.043811470270156860e-02
-3.549578189849853516e-01 -4.813094437122344971e-02 -2.365184575319290161e-02
8.304969966411590576e-02 -1.579122990369796753e-02 -6.484195590019226074e-02
-1.655861735343933105e-02 -8.220367133617401123e-03 -1.566404253244400024e-01
-2.365890443325042725e-01 -1.149719953536987305e-02 1.700194180011749268e-02
4.113847017288208008e-02 -5.257999897003173828e-02 -1.342502385377883911e-01
-3.071352839469909668e-03 -2.707775682210922241e-02 -3.086850643157958984e-01
-2.795927226543426514e-01 -2.006976306438446045e-02 -1.605900824069976807e-01
-2.275358736515045166e-01 -6.556840240955352783e-02 -1.753406375646591187e-01
-2.100081890821456909e-01 -6.371612846851348877e-02 -6.223025545477867126e-02
-3.336050510406494141e-01 -2.528548240661621094e-02 5.720578134059906006e-03
-1.276230067014694214e-01 -2.297794446349143982e-02 1.386795043945312500e-01
-1.005497053265571594e-01 -5.115823447704315186e-02 5.420880019664764404e-02
-2.649953365325927734e-01 -1.753305271267890930e-02 -1.514808833599090576e-01
4.719296097755432129e-02 -1.003586500883102417e-02 -7.163906097412109375e-02
-9.202091395854949951e-02 -5.738550797104835510e-03 2.253326773643493652e-02
-1.554780006408691406e-01 -5.066853016614913940e-02 7.350379228591918945e-02
7.480435073375701904e-02 -2.136798948049545288e-02 1.795589923858642578e-04
-1.823688596487045288e-01 -2.036772668361663818e-02 1.303538084030151367e-01
-1.445394903421401978e-01 -1.306388527154922485e-02 -2.123720645904541016e-01
-4.124201834201812744e-03 -5.843140929937362671e-02 -1.961609423160552979e-01
-2.293750643730163574e-02 -4.198287427425384521e-02 6.427073478698730469e-02
-1.073977947235107422e-01 -5.535943806171417236e-02 -3.271662294864654541e-01
3.769962489604949951e-02 -2.345757558941841125e-02 5.441436171531677246e-02
-9.341689199209213257e-02 -2.506151795387268066e-02 1.343974173069000244e-01
-1.321853846311569214e-01 -5.342807620763778687e-03 -4.204608500003814697e-03
-5.715236067771911621e-02 -5.573124438524246216e-02 -3.099806308746337891e-01
-2.518922686576843262e-01 -5.795409902930259705e-02 4.949256777763366699e-03
-4.433893412351608276e-02 -8.461421355605125427e-03 4.836308956146240234e-02
2.329690754413604736e-02 -5.452204495668411255e-02 -2.258427888154983521e-01
-2.270902842283248901e-01 -6.454990804195404053e-02 -2.139031141996383667e-01
8.364297449588775635e-02 -2.817962318658828735e-02 -1.051353663206100464e-02
-1.713502705097198486e-01 -6.425595283508300781e-02 -7.207724452018737793e-02
-2.448756992816925049e-01 -1.142304204404354095e-02 -4.192313551902770996e-02
-5.890335142612457275e-02 -6.222387403249740601e-02 -2.240112423896789551e-01
-1.260639727115631104e-02 -5.936200544238090515e-02 -1.779718101024627686e-01
-1.411361396312713623e-01 -2.388874255120754242e-02 -2.974478006362915039e-01
-3.107611835002899170e-01 -3.791977837681770325e-02 -2.376824170351028442e-01
-2.366600036621093750e-01 -1.163317821919918060e-02 -9.159339964389801025e-02
1.025920957326889038e-01 -2.315300703048706055e-02 -1.734428703784942627e-01
-1.479541212320327759e-01 -5.665607005357742310e-02 2.514138817787170410e-02
3.023159503936767578e-02 -4.150909557938575745e-02 1.675044745206832886e-02
-2.010451257228851318e-02 -1.026968285441398621e-02 -1.905183643102645874e-01
-1.594351828098297119e-01 -3.126776218414306641e-02 -3.241988122463226318e-01
5.808192491531372070e-02 -5.033726990222930908e-02 -1.557355523109436035e-01
-3.542307019233703613e-02 -9.228052571415901184e-03 -1.812011301517486572e-01
-1.252364516258239746e-01 -9.341346099972724915e-03 -1.742748767137527466e-01
2.120988070964813232e-02 -5.550771951675415039e-02 -1.469740718603134155e-01
-1.456557661294937134e-01 -5.634298175573348999e-02 -3.228827118873596191e-01
-1.827156543731689453e-02 -5.976451188325881958e-02 -1.958655714988708496e-01
-2.646479010581970215e-02 -4.690827056765556335e-02 3.844614326953887939e-02
-2.113029360771179199e-01 -5.992826819419860840e-02 -5.145378410816192627e-03
-6.977945566177368164e-02 -2.187458425760269165e-02 -2.970072925090789795e-01
-1.977547407150268555e-01 -6.618618965148925781e-02 -1.365419328212738037e-01
-1.633325368165969849e-01 -1.847153156995773315e-02 -2.533093392848968506e-01
-1.945522278547286987e-01 -1.528406888246536255e-02 1.036424487829208374e-01
5.255903303623199463e-02 -3.738962113857269287e-02 1.014114171266555786e-02
-2.405403554439544678e-01 -1.495312526822090149e-02 6.790149211883544922e-02
-1.362878382205963135e-01 -5.273277685046195984e-02 5.513639748096466064e-02
-1.650139242410659790e-01 -2.199598401784896851e-02 1.370722651481628418e-01
-2.556104660034179688e-01 -6.442604213953018188e-02 -1.251102089881896973e-01
-3.288408219814300537e-01 -5.756874009966850281e-02 -9.680351614952087402e-02
-2.495670914649963379e-01 -6.164758652448654175e-02 -4.251770675182342529e-02
-1.078403592109680176e-01 -5.428275093436241150e-03 -1.019084528088569641e-01
-2.423591613769531250e-01 -2.693659067153930664e-02 -2.592114806175231934e-01
-1.092317551374435425e-01 -6.466402113437652588e-02 -1.231870129704475403e-01
-1.548688709735870361e-01 -3.587305918335914612e-02 1.347305774688720703e-01
4.319599270820617676e-02 -5.186995863914489746e-02 -1.213049516081809998e-01
-2.492418140172958374e-01 -1.362644508481025696e-02 3.766340017318725586e-02
-1.732877045869827271e-01 -2.649246901273727417e-02 -2.991210818290710449e-01
-3.169180154800415039e-01 -5.812762677669525146e-02 -1.773100197315216064e-01
-5.997354537248611450e-02 -1.023060455918312073e-02 -1.987991631031036377e-01
-1.354830861091613770e-01 -1.825914345681667328e-02 -2.630204260349273682e-01
-2.215256392955780029e-01 -1.089023239910602570e-02 3.289583325386047363e-02
-1.795567274093627930e-01 -8.937790989875793457e-03 -1.257793307304382324e-01
-1.013641431927680969e-01 -6.040606647729873657e-02 -2.895593941211700439e-01
-1.800961047410964966e-02 -8.135888725519180298e-03 2.488875389099121094e-02
-2.223289012908935547e-01 -6.535854935646057129e-02 -1.952600777149200439e-01
-2.021013498306274414e-01 -1.326562650501728058e-02 -1.741063892841339111e-01
-2.475965768098831177e-01 -2.067071944475173950e-02 1.028207093477249146e-01
7.961064577102661133e-03 -1.070243120193481445e-02 -1.804459989070892334e-01
-7.599434256553649902e-02 -8.990801870822906494e-03 -1.819599270820617676e-01
-2.507998347282409668e-01 -1.207300461828708649e-02 -5.314894393086433411e-02
-1.072335913777351379e-01 -4.606201872229576111e-02 8.826661109924316406e-02
-3.108902573585510254e-01 -2.338263392448425293e-02 -1.412402242422103882e-01
-1.378073245286941528e-01 -6.474804878234863281e-02 -9.736767411231994629e-02
2.228187024593353271e-02 -1.786939986050128937e-02 5.886594951152801514e-02
-1.379387080669403076e-02 -4.182631149888038635e-02 -3.360298275947570801e-01
4.140406847000122070e-03 -7.788892835378646851e-03 -1.286842375993728638e-01
-1.831291764974594116e-01 -2.166583389043807983e-02 -2.664314508438110352e-01
-2.167028188705444336e-02 -5.339086800813674927e-02 -2.186079323291778564e-02
-2.371953576803207397e-01 -2.076226100325584412e-02 -2.203576564788818359e-01
-6.443999707698822021e-03 -3.889402002096176147e-02 6.555773317813873291e-02
-2.787587940692901611e-01 -6.306423246860504150e-02 -1.544698327779769897e-01
-3.551483154296875000e-01 -3.334581106901168823e-02 -1.292871087789535522e-01
-2.080008089542388916e-01 -8.496278896927833557e-03 -3.897392749786376953e-02
7.678388059139251709e-02 -4.557384923100471497e-02 -1.145404651761054993e-01
-1.503940820693969727e-01 -1.157602854073047638e-02 -1.918554306030273438e-01
-3.305329680442810059e-01 -3.307704254984855652e-02 -1.874567270278930664e-01
-5.892325192689895630e-02 -1.802057959139347076e-02 -2.721806764602661133e-01
-2.923195362091064453e-01 -6.198545545339584351e-02 -1.486871242523193359e-01
-1.280381977558135986e-01 -3.025137819349765778e-02 -3.289529085159301758e-01
-1.541428416967391968e-01 -6.471556425094604492e-02 -2.409169673919677734e-01
-1.439140290021896362e-01 -4.021872580051422119e-02 1.218119263648986816e-01
-1.241983398795127869e-01 -5.437294021248817444e-03 6.699241697788238525e-03
-8.104501664638519287e-02 -5.901641398668289185e-02 -2.950724363327026367e-01
-8.511789143085479736e-03 -5.954816937446594238e-03 -5.794323608279228210e-02
-1.250536590814590454e-01 -2.455990388989448547e-02 -3.052546381950378418e-01
-3.115814179182052612e-02 -1.122134923934936523e-02 6.642244756221771240e-02
-9.809198975563049316e-02 -4.437955096364021301e-03 -3.337023407220840454e-02
-1.705008298158645630e-01 -5.032276734709739685e-02 7.747724652290344238e-02
-1.751578748226165771e-01 -5.777594447135925293e-02 1.896340399980545044e-02
-2.043080925941467285e-01 -6.380955874919891357e-02 -2.445951402187347412e-01
7.886840403079986572e-02 -2.552142366766929626e-02 -2.386743128299713135e-01
-2.172638773918151855e-01 -6.598660349845886230e-02 -1.591268479824066162e-01
-1.441253572702407837e-01 -1.652065850794315338e-02 -2.458785325288772583e-01
-2.864584624767303467e-01 -6.159970164299011230e-02 -1.862999796867370605e-01
-1.666109263896942139e-02 -1.368965581059455872e-02 7.293416559696197510e-02
2.345293760299682617e-02 -8.946439251303672791e-03 -1.921097189188003540e-02
-4.245038330554962158e-02 -3.619257733225822449e-02 -3.432667255401611328e-01
8.581210672855377197e-02 -4.449186474084854126e-02 -1.778530776500701904e-01
-2.300778925418853760e-01 -2.491325512528419495e-02 -2.568527758121490479e-01
-7.154066115617752075e-02 -4.610357806086540222e-03 -7.802207022905349731e-02
-1.770228743553161621e-01 -7.576225325465202332e-03 -9.348887950181961060e-02
8.926853537559509277e-03 -9.051214903593063354e-03 -1.518663465976715088e-01
6.758099794387817383e-02 -1.925100386142730713e-02 -2.139854431152343750e-01
-5.683425068855285645e-02 -2.312327176332473755e-02 -3.032019436359405518e-01
-6.791897118091583252e-03 -1.743358932435512543e-02 8.202952146530151367e-02
4.297436773777008057e-02 -1.953127793967723846e-02 4.157376289367675781e-02
-4.732802510261535645e-03 -4.686078429222106934e-02 1.934093981981277466e-02
-2.194205224514007568e-01 -6.247035413980484009e-02 -4.228990525007247925e-02
-1.183786094188690186e-01 -5.246252566576004028e-02 -3.395965695381164551e-01
-2.692267000675201416e-01 -6.344738602638244629e-02 -1.739182174205780029e-01
-1.268133670091629028e-01 -1.735772006213665009e-02 1.253486722707748413e-01
5.629338324069976807e-02 -2.472361922264099121e-02 -2.613753676414489746e-01
-3.436869978904724121e-01 -2.675193361937999725e-02 -8.233316987752914429e-02
-2.700381875038146973e-01 -1.501539349555969238e-02 -9.287263453006744385e-02
-2.197390794754028320e-02 -6.562953814864158630e-03 4.341676831245422363e-04
-1.811864078044891357e-01 -6.388355791568756104e-02 -2.525483369827270508e-01
-3.555372357368469238e-03 -1.441724412143230438e-02 6.708356738090515137e-02
-4.596942663192749023e-02 -9.639274328947067261e-03 -1.894428879022598267e-01
-9.700489044189453125e-02 -5.983325839042663574e-02 -3.341413289308547974e-02
-4.242362827062606812e-02 -1.516672410070896149e-02 -2.482426911592483521e-01
-2.757900208234786987e-02 -6.056917831301689148e-02 -1.594959646463394165e-01
-4.603435844182968140e-02 -6.116309389472007751e-02 -1.198848783969879150e-01
-1.187725663185119629e-01 -6.236550584435462952e-02 -5.840191617608070374e-02
-1.693700850009918213e-01 -7.212873548269271851e-03 1.913045346736907959e-02
-1.113336086273193359e-01 -6.365974247455596924e-02 -9.060331434011459351e-02
-1.796616762876510620e-01 -6.624191254377365112e-02 -1.345283538103103638e-01
-1.541977375745773315e-02 -5.166248977184295654e-02 -3.093105554580688477e-01
-1.768539100885391235e-02 -5.062028020620346069e-02 1.617290079593658447e-03
3.803329169750213623e-02 -5.234543234109878540e-02 -2.271495461463928223e-01
-1.610886752605438232e-01 -4.742806032299995422e-02 9.321334958076477051e-02
-6.765572726726531982e-02 -6.245413422584533691e-02 -1.158980578184127808e-01
