-5.160779356956481934e-01 -8.034132421016693115e-03 1.551004946231842041e-01
-5.923236012458801270e-01 1.797918081283569336e-01 1.908083111047744751e-01
-7.433472275733947754e-01 2.448445260524749756e-01 9.816847741603851318e-02
-5.338752269744873047e-01 1.305211782455444336e-01 2.133069336414337158e-01
-6.578842997550964355e-01 -5.465877801179885864e-02 2.879540063440799713e-02
-1.050041198730468750e+00 1.802520155906677246e-01 1.414764821529388428e-01
-5.455365180969238281e-01 2.249032258987426758e-01 3.315456956624984741e-02
-9.798226356506347656e-01 4.247542470693588257e-02 1.396377086639404297e-01
-7.258443236351013184e-01 -2.374577522277832031e-02 1.324254125356674194e-01
-6.894502043724060059e-01 -5.322521179914474487e-02 -7.593027502298355103e-02
-9.994876384735107422e-01 1.071164309978485107e-01 1.871262788772583008e-01
-3.224302232265472412e-01 7.841552793979644775e-02 -1.377850472927093506e-01
-6.771349906921386719e-01 -3.961507230997085571e-02 -1.467874050140380859e-01
-1.000851511955261230e+00 1.284713298082351685e-02 -4.813035577535629272e-02
-4.612038135528564453e-01 2.565346658229827881e-02 1.753296405076980591e-01
-2.929990291595458984e-01 1.027657687664031982e-01 -1.901823468506336212e-02
-7.079173326492309570e-01 8.837687224149703979e-02 2.496266514062881470e-01
-5.418028235435485840e-01 -5.507241934537887573e-02 -7.471862435340881348e-02
-3.258388936519622803e-01 1.336372792720794678e-01 -4.354817420244216919e-02
-5.226161479949951172e-01 1.490863859653472900e-01 -2.242500633001327515e-01
-1.035665869712829590e+00 1.743240952491760254e-01 1.564684510231018066e-01
-4.871896505355834961e-01 8.444227278232574463e-02 -2.466060072183609009e-01
-6.764384508132934570e-01 -4.932800680398941040e-02 -1.077108532190322876e-01
-9.758840203285217285e-01 2.463363707065582275e-01 2.982087992131710052e-02
-5.540267229080200195e-01 1.961241364479064941e-01 -1.684204787015914917e-01
-6.105666160583496094e-01 -5.894463509321212769e-02 -8.062305860221385956e-03
-3.085407912731170654e-01 9.045640379190444946e-02 -1.086189225316047668e-01
-8.503594398498535156e-01 -2.896779030561447144e-02 3.960276395082473755e-02
-7.983801364898681641e-01 1.695595085620880127e-01 -2.472581863403320312e-01
-9.357237815856933594e-01 1.293148845434188843e-02 -1.496457010507583618e-01
-1.024651050567626953e+00 1.554861068725585938e-01 1.735497266054153442e-01
-9.715036749839782715e-01 1.994726955890655518e-01 1.658739149570465088e-01
-9.542099833488464355e-01 2.144345939159393311e-01 1.512379795312881470e-01
-6.912311315536499023e-01 8.532772958278656006e-02 2.486755698919296265e-01
-4.279808700084686279e-01 8.629567921161651611e-03 1.425015479326248169e-01
-1.037181735038757324e+00 2.867620438337326050e-02 -4.135394096374511719e-02
-8.346134424209594727e-01 4.561925679445266724e-02 2.119794934988021851e-01
-9.687827825546264648e-01 6.138896942138671875e-02 -1.997795104980468750e-01
-7.579351663589477539e-01 1.929993778467178345e-01 -2.238857001066207886e-01
-4.391687214374542236e-01 -1.968432962894439697e-02 -1.551469415426254272e-01
-7.875444293022155762e-01 -3.033471852540969849e-02 -1.340102255344390869e-01
-8.967164754867553711e-01 1.672586053609848022e-02 -1.851122081279754639e-01
-5.967233777046203613e-01 9.994914382696151733e-02 -2.722705006599426270e-01
-6.976180672645568848e-01 1.096335202455520630e-01 2.508135735988616943e-01
-6.055653095245361328e-01 1.113964170217514038e-01 -2.708421349525451660e-01
-4.052942097187042236e-01 1.805110275745391846e-01 -2.835632674396038055e-02
-3.004204332828521729e-01 9.394492954015731812e-02 4.517606645822525024e-02
-6.014792919158935547e-01 -3.777236491441726685e-02 1.077345758676528931e-01
-6.728445291519165039e-01 2.868044376373291016e-02 2.175916731357574463e-01
-8.474895954132080078e-01 2.014393508434295654e-01 -2.075340002775192261e-01
-9.615415334701538086e-01 2.825464308261871338e-02 1.280279755592346191e-01
-6.444448828697204590e-01 2.416540682315826416e-01 -6.946045160293579102e-02
-7.125725150108337402e-01 2.440786063671112061e-01 9.041565656661987305e-02
-7.550576925277709961e-01 -3.473407775163650513e-02 -1.361081004142761230e-01
-7.284333705902099609e-01 1.586549878120422363e-01 -2.576245367527008057e-01
-6.279882788658142090e-01 1.388432234525680542e-01 2.348424345254898071e-01
-7.473176717758178711e-01 2.351686954498291016e-01 -1.418526321649551392e-01
-3.990008234977722168e-01 1.696981191635131836e-01 -8.593428879976272583e-02
-1.054290890693664551e+00 8.744698762893676758e-02 1.354075074195861816e-01
-4.549880921840667725e-01 4.493027552962303162e-02 -2.299747765064239502e-01
-1.015338182449340820e+00 1.168191656470298767e-01 -1.996466070413589478e-01
-9.775283336639404297e-01 2.937845885753631592e-03 -3.686638176441192627e-02
-8.661475181579589844e-01 6.788428127765655518e-02 -2.503654360771179199e-01
-8.287777900695800781e-01 5.733258649706840515e-02 2.231085151433944702e-01
-7.550533413887023926e-01 8.553932607173919678e-02 2.476389259099960327e-01
-5.494750738143920898e-01 -5.323285609483718872e-02 -9.141250699758529663e-02
-5.328302979469299316e-01 2.170270383358001709e-01 6.511042267084121704e-02
-9.112746119499206543e-01 1.508513838052749634e-02 1.376815140247344971e-01
-1.082346320152282715e+00 2.159153521060943604e-01 1.303514651954174042e-02
-1.030910730361938477e+00 2.131369411945343018e-01 1.087335497140884399e-01
-9.428225755691528320e-01 2.496716976165771484e-01 4.617463797330856323e-02
-7.877460122108459473e-01 1.430720537900924683e-01 2.437610179185867310e-01
-4.640511274337768555e-01 9.300820529460906982e-02 1.979228109121322632e-01
-3.800926208496093750e-01 -2.946140617132186890e-02 -1.546772196888923645e-03
-3.103298246860504150e-01 1.529929041862487793e-02 3.590289503335952759e-02
-6.335160136222839355e-01 2.442997395992279053e-01 4.791785031557083130e-03
-4.316311776638031006e-01 -3.705426305532455444e-02 -9.697943925857543945e-02
-9.650547504425048828e-01 9.929733723402023315e-02 -2.239292562007904053e-01
-6.246402263641357422e-01 3.114283084869384766e-02 -2.592038512229919434e-01
-6.896594166755676270e-01 1.897915005683898926e-01 -2.224500328302383423e-01
-1.027732968330383301e+00 3.832819312810897827e-02 -1.092623546719551086e-01
-5.661253929138183594e-01 -4.011399298906326294e-02 9.667568653821945190e-02
-9.736499190330505371e-01 2.189856469631195068e-01 -1.403535008430480957e-01
-8.245290517807006836e-01 5.108594894409179688e-03 1.620926260948181152e-01
-4.761928915977478027e-01 1.244772672653198242e-01 -2.252521812915802002e-01
-5.510041117668151855e-01 3.782502934336662292e-02 -2.545515000820159912e-01
-5.162228345870971680e-01 5.212065950036048889e-02 2.110786437988281250e-01
-6.855312585830688477e-01 2.506625652313232422e-01 2.344856970012187958e-02
-4.515840113162994385e-01 1.586394757032394409e-01 1.433552205562591553e-01
-8.421749472618103027e-01 1.940899789333343506e-01 2.045053988695144653e-01
-3.166235387325286865e-01 1.989042758941650391e-02 -1.084197908639907837e-01
-8.692060112953186035e-01 -2.273920178413391113e-02 -9.407813847064971924e-02
-8.505087494850158691e-01 1.159338951110839844e-01 -2.640468478202819824e-01
-6.949887871742248535e-01 2.485378682613372803e-01 5.558299273252487183e-02
-7.654489278793334961e-01 2.286416590213775635e-01 -1.613524258136749268e-01
-9.138420820236206055e-01 2.139095216989517212e-01 -1.741453260183334351e-01
-5.937809348106384277e-01 1.526527553796768188e-01 -2.442376464605331421e-01
-5.480200052261352539e-01 2.227875143289566040e-01 5.440662056207656860e-02
-1.118524909019470215e+00 1.563527584075927734e-01 -9.682487696409225464e-02
-1.043554782867431641e+00 3.207503259181976318e-02 1.402202434837818146e-02
-5.640014410018920898e-01 4.398853331804275513e-02 2.185270339250564575e-01
-9.932477474212646484e-01 1.713737845420837402e-01 1.821591407060623169e-01
-6.813451647758483887e-01 -5.329238623380661011e-02 2.934719808399677277e-02
-8.738188743591308594e-01 -2.499154955148696899e-02 3.026947565376758575e-02
-1.022741317749023438e+00 1.276685595512390137e-01 -1.953807622194290161e-01
-5.241672396659851074e-01 2.210385650396347046e-01 1.262569427490234375e-02
-4.244530200958251953e-01 1.868551075458526611e-01 2.481805346906185150e-02
-1.095517516136169434e+00 1.864300668239593506e-01 8.902435749769210815e-02
-7.970135807991027832e-01 1.439065486192703247e-01 -2.641858458518981934e-01
-5.163862109184265137e-01 2.170809209346771240e-01 -5.455376207828521729e-02
-9.857945442199707031e-01 7.614485174417495728e-02 1.763913333415985107e-01
-9.184453487396240234e-01 7.555648684501647949e-03 1.153354719281196594e-01
-4.576268792152404785e-01 1.165150403976440430e-01 1.869596987962722778e-01
-7.012999653816223145e-01 -4.790770262479782104e-02 5.538991093635559082e-02
-1.089347243309020996e+00 8.655528724193572998e-02 -1.142787486314773560e-01
-1.028164029121398926e+00 9.950751811265945435e-02 1.657003611326217651e-01
-7.881387472152709961e-01 2.505320906639099121e-01 -9.041235595941543579e-02
-7.210075855255126953e-01 -4.018390923738479614e-02 8.318799734115600586e-02
-5.883048772811889648e-01 -5.807334929704666138e-02 5.679398775100708008e-03
-1.024556636810302734e+00 2.411755919456481934e-02 -5.554357171058654785e-02
-7.810360789299011230e-01 2.216232120990753174e-01 -1.777900606393814087e-01
-6.603317260742187500e-01 1.496630311012268066e-01 -2.591042220592498779e-01
-9.591602087020874023e-01 2.386312931776046753e-02 -1.533779650926589966e-01
-1.003105878829956055e+00 2.032298147678375244e-01 -1.526190638542175293e-01
-7.503854632377624512e-01 4.293433576822280884e-02 2.253449708223342896e-01
-4.408122301101684570e-01 7.658578455448150635e-02 1.876771599054336548e-01
-6.641296744346618652e-01 8.102084696292877197e-02 -2.799386978149414062e-01
-4.124158918857574463e-01 1.813243031501770020e-01 -5.522985756397247314e-02
-7.313376665115356445e-01 2.558546066284179688e-01 7.019164040684700012e-03
-8.960911631584167480e-01 1.676955223083496094e-01 -2.327165156602859497e-01
-3.040996789932250977e-01 8.286847919225692749e-02 6.378104537725448608e-02
-5.237876176834106445e-01 7.292466610670089722e-02 -2.585415244102478027e-01
-1.129067778587341309e+00 1.316617578268051147e-01 7.077293097972869873e-02
-3.830591738224029541e-01 -1.652543246746063232e-02 -1.189434975385665894e-01
-8.710563182830810547e-01 -4.502058029174804688e-03 -1.572312712669372559e-01
-9.525166153907775879e-01 2.505491673946380615e-01 -2.566485479474067688e-02
-9.361554980278015137e-01 2.467654645442962646e-01 6.979347020387649536e-02
-4.433453679084777832e-01 6.030570343136787415e-02 -2.290182262659072876e-01
-6.928354501724243164e-01 3.272720426321029663e-02 2.208831012248992920e-01
-6.471229791641235352e-01 2.453246414661407471e-01 -3.884684294462203979e-02
-1.144736886024475098e+00 1.511697322130203247e-01 -3.470522165298461914e-02
-3.915733993053436279e-01 1.140066832304000854e-01 -1.818067133426666260e-01
-3.902385830879211426e-01 1.573684215545654297e-01 8.123563975095748901e-02
-1.097897887229919434e+00 7.934777438640594482e-02 -8.728518337011337280e-02
-4.226104617118835449e-01 1.696996539831161499e-01 -1.223402097821235657e-01
-6.991937160491943359e-01 -1.925940811634063721e-02 1.478187590837478638e-01
-9.973453879356384277e-01 1.238494291901588440e-01 -2.104468941688537598e-01
-6.288629770278930664e-01 2.284575104713439941e-01 -1.215490028262138367e-01
-9.677798748016357422e-01 2.358544170856475830e-01 -9.838448464870452881e-02
-7.760610580444335938e-01 -4.408199340105056763e-02 2.331498451530933380e-02
-5.904258489608764648e-01 -3.977210074663162231e-02 1.009212434291839600e-01
-1.089692592620849609e+00 2.125473618507385254e-01 -1.105083059519529343e-02
-6.073995232582092285e-01 -2.965033799409866333e-02 -1.793780624866485596e-01
-7.691274881362915039e-01 2.094524055719375610e-01 1.866743564605712891e-01
-8.762570619583129883e-01 1.824196130037307739e-01 -2.247376441955566406e-01
-9.576879739761352539e-01 2.320861816406250000e-01 -1.165394186973571777e-01
-3.682276010513305664e-01 3.282202035188674927e-02 -1.756965070962905884e-01
-1.118299722671508789e+00 1.930398344993591309e-01 -2.429058589041233063e-02
-6.042923927307128906e-01 1.666414588689804077e-01 -2.331243455410003662e-01
-1.081703782081604004e+00 6.852664053440093994e-02 7.220526039600372314e-02
-1.138762116432189941e+00 1.089635565876960754e-01 -2.426724880933761597e-02
-4.010749757289886475e-01 4.607236012816429138e-02 -2.039423137903213501e-01
-8.169707059860229492e-01 -6.086945533752441406e-03 1.429701149463653564e-01
-9.501355290412902832e-01 1.724786162376403809e-01 1.990540027618408203e-01
-7.156778573989868164e-01 1.276258379220962524e-02 -2.394512742757797241e-01
-3.348651528358459473e-01 3.199647367000579834e-02 -1.449023634195327759e-01
-9.746087789535522461e-01 1.660399287939071655e-01 1.936113238334655762e-01
-3.179437518119812012e-01 1.282564699649810791e-01 -4.183150827884674072e-03
-5.397216081619262695e-01 -5.289467424154281616e-02 3.491128981113433838e-02
-5.745691657066345215e-01 -1.544277369976043701e-02 -2.042466551065444946e-01
-7.402819991111755371e-01 9.616746008396148682e-02 -2.798972725868225098e-01
-5.861688852310180664e-01 -1.286550611257553101e-02 1.611585617065429688e-01
-2.824611663818359375e-01 5.832061544060707092e-02 -6.696206331253051758e-02
-8.617584705352783203e-01 -2.054902911186218262e-02 -1.132411882281303406e-01
-4.785135984420776367e-01 6.341481208801269531e-02 -2.435737401247024536e-01
-7.811229228973388672e-01 1.009247153997421265e-01 2.487658411264419556e-01
-7.276452183723449707e-01 1.839723885059356689e-01 -2.336291223764419556e-01
-3.920404911041259766e-01 1.736697256565093994e-01 1.108213141560554504e-02
-6.335621476173400879e-01 1.257907748222351074e-01 2.411082535982131958e-01
-6.172909140586853027e-01 2.246663123369216919e-01 1.122724041342735291e-01
-5.874063968658447266e-01 -5.678848177194595337e-02 1.963435672223567963e-02
-6.313902735710144043e-01 2.431977689266204834e-01 -3.482360392808914185e-02
-7.863397598266601562e-01 2.546519339084625244e-01 5.918833613395690918e-02
-1.078983545303344727e+00 1.716888248920440674e-01 -1.336632966995239258e-01
-8.680933713912963867e-01 2.450296580791473389e-01 -1.087327077984809875e-01
-1.075713276863098145e+00 1.628689020872116089e-01 -1.438833028078079224e-01
-9.349818229675292969e-01 -4.711024463176727295e-03 -9.203768521547317505e-02
-1.136127948760986328e+00 1.517786532640457153e-01 -6.457831710577011108e-02
-5.102543830871582031e-01 1.610265672206878662e-02 1.837857663631439209e-01
-4.349452257156372070e-01 8.526154607534408569e-02 -2.239904105663299561e-01
-4.736025929450988770e-01 2.047779709100723267e-01 -5.059054493904113770e-02
-3.484711050987243652e-01 5.131742358207702637e-02 -1.673332154750823975e-01
-4.134085774421691895e-01 7.841943949460983276e-02 1.726182848215103149e-01
-5.582587718963623047e-01 2.160465866327285767e-01 9.738969057798385620e-02
-1.024608373641967773e+00 2.368394136428833008e-01 -1.114584505558013916e-02
-1.002409577369689941e+00 2.161573171615600586e-01 -1.291564851999282837e-01
-7.641157507896423340e-01 7.179287821054458618e-02 2.419272512197494507e-01
-4.483950138092041016e-01 1.060646325349807739e-01 1.867003142833709717e-01
-5.988090038299560547e-01 2.257541418075561523e-01 -1.116229593753814697e-01
-5.546255707740783691e-01 1.117043197154998779e-03 1.771740764379501343e-01
-7.952649593353271484e-01 -5.355037748813629150e-03 1.527828723192214966e-01
-9.954526424407958984e-01 4.334932565689086914e-02 -1.572124361991882324e-01
-5.688705444335937500e-01 2.275412678718566895e-01 5.554585903882980347e-02
-6.360675096511840820e-01 4.505841061472892761e-02 -2.680765390396118164e-01
-4.997535943984985352e-01 -3.231502324342727661e-02 -1.540050059556961060e-01
-3.509609103202819824e-01 8.784800767898559570e-02 1.230221018195152283e-01
-4.948521852493286133e-01 1.206309422850608826e-01 2.028705328702926636e-01
-7.661371827125549316e-01 1.346399635076522827e-01 -2.707674503326416016e-01
-3.499797284603118896e-01 1.371390968561172485e-01 -1.003824397921562195e-01
-7.227123379707336426e-01 1.026739105582237244e-01 2.514441609382629395e-01
-5.293826460838317871e-01 1.886920034885406494e-01 -1.698001623153686523e-01
-5.310773849487304688e-01 3.056661039590835571e-02 -2.462554723024368286e-01
-6.788527369499206543e-01 1.844115853309631348e-01 -2.278364300727844238e-01
-8.853384852409362793e-01 -6.420329213142395020e-03 1.024698764085769653e-01
-4.723046123981475830e-01 1.122403815388679504e-01 1.963602602481842041e-01
-4.083932340145111084e-01 1.474934369325637817e-01 1.226580515503883362e-01
-1.050139904022216797e+00 2.146717458963394165e-01 -9.081043303012847900e-02
-9.047016501426696777e-01 1.950448751449584961e-01 -2.041778862476348877e-01
-5.656611323356628418e-01 1.222611740231513977e-01 -2.581357955932617188e-01
-8.113386034965515137e-01 2.137455642223358154e-01 -1.921181529760360718e-01
-1.096040248870849609e+00 8.975332975387573242e-02 8.825997263193130493e-02
-8.406242132186889648e-01 -1.397937536239624023e-02 1.112006977200508118e-01
-9.081457853317260742e-01 2.502394318580627441e-01 -7.141274958848953247e-02
-8.754966855049133301e-01 1.050657182931900024e-01 2.339725941419601440e-01
-2.968407571315765381e-01 4.801865294575691223e-02 5.238021910190582275e-02
-7.707938551902770996e-01 -4.690907150506973267e-02 -4.199627041816711426e-02
-8.611798882484436035e-01 2.314402908086776733e-02 1.770506203174591064e-01
-3.445195555686950684e-01 -1.668450981378555298e-02 -1.787030324339866638e-02
-4.060769975185394287e-01 -3.266880661249160767e-02 -8.724841475486755371e-02
-3.606163263320922852e-01 -1.468845456838607788e-02 -9.579784423112869263e-02
-9.826476573944091797e-01 9.812181442975997925e-02 -2.144861817359924316e-01
-8.915358781814575195e-01 2.385843694210052490e-01 1.185466423630714417e-01
-9.258798360824584961e-01 1.452175378799438477e-01 -2.366057932376861572e-01
-9.013643264770507812e-01 2.371844649314880371e-01 -1.257095783948898315e-01
-1.033857345581054688e+00 1.826856732368469238e-01 -1.599352061748504639e-01
-1.005843162536621094e+00 2.312910258769989014e-01 8.014750480651855469e-02
-3.578639328479766846e-01 6.121834740042686462e-02 1.317899078130722046e-01
-8.279153108596801758e-01 2.230241894721984863e-01 -1.735109090805053711e-01
-5.008674860000610352e-01 -5.422493070363998413e-02 -1.433751359581947327e-02
-5.676456689834594727e-01 -4.978107661008834839e-02 6.033797562122344971e-02
-9.783564209938049316e-01 8.333240449428558350e-02 1.861440837383270264e-01
-8.036498427391052246e-01 1.702767908573150635e-01 2.286446988582611084e-01
-5.163467526435852051e-01 1.977060437202453613e-01 1.172341927886009216e-01
-5.884994268417358398e-01 7.706038653850555420e-03 -2.362851649522781372e-01
-7.430884838104248047e-01 2.565105259418487549e-01 1.377759687602519989e-02
-5.857782363891601562e-01 2.358335554599761963e-01 -2.306502312421798706e-03
-6.136149168014526367e-01 1.592610031366348267e-01 -2.429502904415130615e-01
-4.571477174758911133e-01 -3.932794183492660522e-02 -1.097395643591880798e-01
-8.284222483634948730e-01 -6.990469992160797119e-03 1.358368247747421265e-01
-3.112354576587677002e-01 2.466909587383270264e-03 -2.999826893210411072e-02
-9.504833817481994629e-01 9.049963206052780151e-02 -2.280297279357910156e-01
-8.893170356750488281e-01 3.677528351545333862e-02 -2.168620824813842773e-01
-1.006089925765991211e+00 1.891139447689056396e-01 -1.701775342226028442e-01
-4.211537539958953857e-01 1.340127885341644287e-01 -1.841638684272766113e-01
-8.607753515243530273e-01 -3.101811558008193970e-02 -2.751647680997848511e-02
-6.283665299415588379e-01 1.615664511919021606e-01 2.201333194971084595e-01
-9.224969148635864258e-01 9.432051330804824829e-02 -2.411316335201263428e-01
-2.949053645133972168e-01 2.935611456632614136e-02 -7.845736294984817505e-02
-6.981419324874877930e-01 4.610170796513557434e-02 -2.684733867645263672e-01
-5.080246925354003906e-01 1.159959360957145691e-01 -2.437212616205215454e-01
-8.392067551612854004e-01 2.186199128627777100e-01 -1.809996217489242554e-01
-8.237071037292480469e-01 2.501828372478485107e-01 8.709763735532760620e-02
-5.843912959098815918e-01 -3.551667183637619019e-02 1.126298978924751282e-01
-8.140462040901184082e-01 -2.759807556867599487e-02 -1.263708770275115967e-01
-5.153775811195373535e-01 -8.360706269741058350e-03 -2.041896432638168335e-01
-5.457071065902709961e-01 2.266302704811096191e-01 9.933717548847198486e-03
-9.701834321022033691e-01 1.412953883409500122e-01 2.042241245508193970e-01
-3.379971086978912354e-01 7.842303812503814697e-02 -1.557720452547073364e-01
-6.749683022499084473e-01 -3.381241112947463989e-02 -1.643865555524826050e-01
-1.043639659881591797e+00 3.565011918544769287e-02 3.913863003253936768e-02
-1.143143296241760254e+00 1.638972163200378418e-01 4.390403628349304199e-03
-1.135706424713134766e+00 1.762786805629730225e-01 -1.367894466966390610e-02
-9.935218095779418945e-01 1.543581485748291016e-01 -2.047106623649597168e-01
-9.109290838241577148e-01 1.319160759449005127e-01 2.259585261344909668e-01
-4.963302612304687500e-01 1.065235584974288940e-02 1.737598776817321777e-01
-9.482811093330383301e-01 5.723920091986656189e-02 -2.080077081918716431e-01
-5.586535930633544922e-01 -2.196827530860900879e-02 -1.907692402601242065e-01
-5.397711992263793945e-01 -3.148775547742843628e-02 -1.674143671989440918e-01
-1.104540824890136719e+00 1.605151295661926270e-01 1.038338616490364075e-01
-3.172004818916320801e-01 7.104389369487762451e-03 -8.319324254989624023e-02
-3.707470893859863281e-01 -2.365310490131378174e-02 1.837257109582424164e-02
-9.049488306045532227e-01 -1.971299946308135986e-02 -4.179988801479339600e-02
-1.007288217544555664e+00 1.405009627342224121e-02 -1.287356391549110413e-02
-7.099922299385070801e-01 2.342532873153686523e-01 -1.365064829587936401e-01
-5.117351412773132324e-01 1.033522039651870728e-01 -2.505132853984832764e-01
-6.172744631767272949e-01 1.461040526628494263e-01 -2.548124790191650391e-01
-6.796396374702453613e-01 2.111832201480865479e-01 -1.856676936149597168e-01
-9.868586659431457520e-01 1.443535238504409790e-01 -2.121376693248748779e-01
-9.510844945907592773e-01 2.444033622741699219e-01 -7.464884966611862183e-02
-5.426802635192871094e-01 1.849769651889801025e-01 1.611897945404052734e-01
-3.315405547618865967e-01 1.368753015995025635e-01 1.584208942949771881e-02
-9.055604934692382812e-01 -8.615545928478240967e-03 7.597369700670242310e-02
-4.097912013530731201e-01 6.274501234292984009e-02 -2.123883962631225586e-01
-3.751873075962066650e-01 1.622082442045211792e-01 3.266596049070358276e-02
-4.578836262226104736e-01 1.882507950067520142e-01 -1.093111038208007812e-01
-1.095326185226440430e+00 2.008881121873855591e-01 -6.290297955274581909e-02
-8.235135078430175781e-01 -3.850951045751571655e-02 -3.368986397981643677e-02
-4.952892363071441650e-01 6.272050738334655762e-02 -2.491448521614074707e-01
-7.821971178054809570e-01 8.692815899848937988e-03 1.811256259679794312e-01
-6.445370316505432129e-01 1.987126618623733521e-01 -1.996833980083465576e-01
-7.975632548332214355e-01 2.530461847782135010e-01 7.124558091163635254e-02
-4.662682414054870605e-01 -4.635778814554214478e-02 -8.116716146469116211e-02
-7.054604887962341309e-01 2.507149875164031982e-01 4.720456898212432861e-02
-6.668635606765747070e-01 -5.712439864873886108e-02 -7.094898261129856110e-03
-3.882746100425720215e-01 6.360183656215667725e-02 1.555180251598358154e-01
-3.956011831760406494e-01 2.741529047489166260e-02 1.425604671239852905e-01
-7.732422947883605957e-01 8.556455373764038086e-02 -2.759973406791687012e-01
-4.138293266296386719e-01 -1.679420471191406250e-02 9.119594842195510864e-02
-5.859808921813964844e-01 2.315671443939208984e-01 5.343443900346755981e-02
-3.571778237819671631e-01 9.663192182779312134e-02 -1.654288321733474731e-01
-5.842630267143249512e-01 2.856060862541198730e-02 -2.539606392383575439e-01
-1.020083308219909668e+00 2.237851768732070923e-01 -9.564059972763061523e-02
-4.347059130668640137e-01 -4.464185982942581177e-02 -2.496786043047904968e-02
-6.721229553222656250e-01 2.413779199123382568e-01 -9.311167150735855103e-02
-6.564016342163085938e-01 2.328715473413467407e-02 2.123510837554931641e-01
-1.018420338630676270e+00 3.910857439041137695e-02 9.526324272155761719e-02
-3.929248154163360596e-01 1.749514937400817871e-01 -3.322154283523559570e-03
-8.638756871223449707e-01 -2.598082274198532104e-02 3.993493318557739258e-02
-4.625444114208221436e-01 -2.999167889356613159e-02 8.938731253147125244e-02
-4.789670705795288086e-01 -2.096188813447952271e-02 -1.716019064188003540e-01
-6.520828008651733398e-01 1.222443133592605591e-01 -2.732447981834411621e-01
-7.551506757736206055e-01 -1.651565730571746826e-02 -1.856907904148101807e-01
-8.137425780296325684e-01 2.509875893592834473e-01 -8.975308388471603394e-02
-5.276155471801757812e-01 2.128128111362457275e-01 7.834322750568389893e-02
-8.696725964546203613e-01 2.096258103847503662e-01 -1.918521374464035034e-01
-4.707489311695098877e-01 1.384627819061279297e-01 -2.105232179164886475e-01
-5.414507389068603516e-01 -5.095224827527999878e-02 -1.019421964883804321e-01
-1.036013603210449219e+00 5.540427193045616150e-02 1.097176522016525269e-01
-6.152721643447875977e-01 4.864883050322532654e-02 -2.684195041656494141e-01
-1.106788158416748047e+00 1.272868067026138306e-01 1.049933061003684998e-01
-9.049215316772460938e-01 8.466958999633789062e-03 -1.638406962156295776e-01
-4.837178587913513184e-01 1.773710548877716064e-01 -1.623756587505340576e-01
-5.735419988632202148e-01 4.422052204608917236e-02 -2.615442276000976562e-01
-7.416960597038269043e-01 -5.627080798149108887e-03 -2.096973657608032227e-01
-4.352913498878479004e-01 1.431774944067001343e-01 -1.832275092601776123e-01
-4.261291325092315674e-01 1.628470122814178467e-01 1.133267506957054138e-01
-4.508714675903320312e-01 -2.115376293659210205e-03 1.396678686141967773e-01
-3.952020108699798584e-01 -3.371643275022506714e-02 -5.918903648853302002e-02
-1.092303991317749023e+00 1.144981831312179565e-01 -1.338111311197280884e-01
-4.653633236885070801e-01 1.699425280094146729e-01 1.357586532831192017e-01
-5.461049675941467285e-01 1.937577128410339355e-01 1.471584439277648926e-01
-8.176813125610351562e-01 -3.905607014894485474e-02 -4.695790261030197144e-02
-6.957694292068481445e-01 -4.634060710668563843e-02 -1.153505146503448486e-01
-6.402033567428588867e-01 7.475751638412475586e-02 2.428086251020431519e-01
-9.574807882308959961e-01 7.991902530193328857e-03 -1.126457974314689636e-01
-4.413539469242095947e-01 -1.611607521772384644e-02 1.105614379048347473e-01
-6.093415617942810059e-01 -5.815505236387252808e-02 5.736801773309707642e-03
-8.264144659042358398e-01 -2.536199241876602173e-02 8.239406347274780273e-02
-1.057656049728393555e+00 5.249397084116935730e-02 -9.921907633543014526e-02
-4.442878067493438721e-01 1.726418137550354004e-01 -1.388917863368988037e-01
-8.080182671546936035e-01 -1.574390381574630737e-02 -1.662209630012512207e-01
-1.000035524368286133e+00 2.192977666854858398e-01 1.183474287390708923e-01
-9.981055855751037598e-01 1.810321509838104248e-01 1.726562082767486572e-01
-5.215646028518676758e-01 -7.482916116714477539e-04 1.671748161315917969e-01
-8.853580951690673828e-01 2.254592776298522949e-01 1.516087204217910767e-01
-3.592993617057800293e-01 1.574816107749938965e-01 -1.892223022878170013e-02
-6.893857717514038086e-01 -3.443566709756851196e-02 1.115482971072196960e-01
-8.912881016731262207e-01 6.309592723846435547e-02 -2.389251738786697388e-01
-4.499132037162780762e-01 -3.120415657758712769e-02 -1.329091936349868774e-01
-5.429042577743530273e-01 2.533413469791412354e-02 2.006956487894058228e-01
-8.172639608383178711e-01 1.352733075618743896e-01 2.435592263936996460e-01
-3.151331841945648193e-01 3.319537639617919922e-02 7.141249626874923706e-02
-6.763194799423217773e-01 2.471508383750915527e-01 4.921205341815948486e-02
-9.267410039901733398e-01 1.110305339097976685e-01 -2.421401441097259521e-01
-4.625937342643737793e-01 7.928386330604553223e-03 1.581555455923080444e-01
-7.320601344108581543e-01 2.559873163700103760e-01 -1.142907328903675079e-02
-9.052473902702331543e-01 2.533807158470153809e-01 4.858104139566421509e-02
-9.227414131164550781e-01 1.808638423681259155e-01 2.015094310045242310e-01
-8.775331974029541016e-01 2.582788169384002686e-01 4.127571359276771545e-03
-1.018671751022338867e+00 1.719703674316406250e-01 1.685179322957992554e-01
-7.997625470161437988e-01 2.359508872032165527e-01 1.350165158510208130e-01
-5.854259729385375977e-01 -5.777517706155776978e-02 -6.329703330993652344e-02
-7.735642194747924805e-01 1.601807922124862671e-01 2.362554520368576050e-01
-8.081901669502258301e-01 2.566505968570709229e-01 -5.370755493640899658e-02
-3.084979653358459473e-01 2.723005414009094238e-02 5.376371741294860840e-02
-4.832211434841156006e-01 3.824292495846748352e-02 1.929354518651962280e-01
-1.123572349548339844e+00 1.634161770343780518e-01 7.291789352893829346e-02
-2.820807397365570068e-01 4.315646365284919739e-02 -5.503672361373901367e-02
-6.049716472625732422e-01 1.992253661155700684e-01 1.664108186960220337e-01
-4.156286716461181641e-01 1.625156402587890625e-02 -1.936541944742202759e-01
-1.093013763427734375e+00 1.612815260887145996e-01 1.168976202607154846e-01
-8.351267576217651367e-01 -1.505914330482482910e-02 -1.528572291135787964e-01
-9.929108619689941406e-01 2.384081184864044189e-01 6.277907639741897583e-02
-6.648324728012084961e-01 1.739849746227264404e-01 -2.378689348697662354e-01
-3.040249645709991455e-01 4.000564664602279663e-02 5.997259914875030518e-02
-6.730962395668029785e-01 2.168371379375457764e-01 1.569834947586059570e-01
-5.644294023513793945e-01 1.842764616012573242e-01 -1.957951933145523071e-01
-6.117118597030639648e-01 2.279591560363769531e-01 -1.123371571302413940e-01
-7.014795541763305664e-01 -1.143121719360351562e-02 1.629760861396789551e-01
-3.426399827003479004e-01 1.438085883855819702e-01 2.275783382356166840e-02
-8.417813777923583984e-01 -3.124963492155075073e-02 -7.937334477901458740e-02
-4.539685249328613281e-01 -3.833118826150894165e-02 5.581205338239669800e-02
-9.186689853668212891e-01 -1.614435017108917236e-02 -3.683783859014511108e-02
-3.974153995513916016e-01 1.738671362400054932e-01 3.157152980566024780e-02
-9.955010414123535156e-01 2.035745680332183838e-01 1.488960087299346924e-01
-3.596723377704620361e-01 1.566179692745208740e-01 8.119745180010795593e-03
-5.216689109802246094e-01 9.329263865947723389e-02 -2.564021050930023193e-01
-9.934179782867431641e-01 1.892869919538497925e-02 -1.001189947128295898e-01
-6.679929494857788086e-01 1.935913264751434326e-01 -2.133439481258392334e-01
-1.089807152748107910e+00 6.141062453389167786e-02 -5.054557323455810547e-02
-5.124439597129821777e-01 2.014239132404327393e-01 1.032378375530242920e-01
-6.056572198867797852e-01 -1.800185441970825195e-02 1.538335531949996948e-01
-3.192047774791717529e-01 1.143009364604949951e-01 5.416654050350189209e-02
-9.319320917129516602e-01 1.793816685676574707e-03 -1.222897991538047791e-01
-7.369063496589660645e-01 2.225123345851898193e-01 1.599895209074020386e-01
-5.599869489669799805e-01 3.322835266590118408e-02 2.105713635683059692e-01
-1.069552183151245117e+00 2.171224653720855713e-01 4.819613695144653320e-02
-3.947766721248626709e-01 -2.444892376661300659e-02 -1.074881553649902344e-01
-8.337646722793579102e-01 1.819907724857330322e-01 -2.322925925254821777e-01
-4.792188107967376709e-01 1.293566673994064331e-01 1.905371397733688354e-01
-5.402960777282714844e-01 -5.763117223978042603e-02 -2.607796713709831238e-02
-8.753524422645568848e-01 -5.216166377067565918e-03 1.133740767836570740e-01
-4.250213503837585449e-01 1.393431723117828369e-01 1.479610800743103027e-01
-1.054190158843994141e+00 2.276250123977661133e-01 1.030678488314151764e-02
-4.555029869079589844e-01 -4.805188626050949097e-02 -1.150379795581102371e-02
-9.001556038856506348e-01 -5.569644272327423096e-03 9.255853295326232910e-02
-4.813824295997619629e-01 2.092697620391845703e-01 -5.871013738214969635e-03
-7.372018098831176758e-01 1.590763926506042480e-01 2.364739924669265747e-01
-6.242147684097290039e-01 5.601629614830017090e-03 -2.361927479505538940e-01
-4.922851622104644775e-01 -5.353242903947830200e-02 -2.743799984455108643e-02
-4.851323366165161133e-01 -4.661097377538681030e-02 4.027060419321060181e-02
-1.066965460777282715e+00 5.038477480411529541e-02 -7.272207736968994141e-02
-8.833580017089843750e-01 -1.565035432577133179e-02 -1.110147386789321899e-01
-8.182010650634765625e-01 -9.663239121437072754e-03 -1.755599677562713623e-01
-5.480007529258728027e-01 9.369131922721862793e-02 2.282447814941406250e-01
-5.409178733825683594e-01 -4.337880760431289673e-02 8.011922240257263184e-02
-9.813153743743896484e-01 1.870726048946380615e-01 -1.853809654712677002e-01
-4.027837812900543213e-01 -9.771682322025299072e-03 -1.512039750814437866e-01
-3.867875039577484131e-01 1.340906918048858643e-01 1.202823594212532043e-01
-5.637737512588500977e-01 -5.803907662630081177e-02 -3.080361522734165192e-03
-7.073550224304199219e-01 2.173400819301605225e-01 1.648834347724914551e-01
-7.184107303619384766e-01 1.808763146400451660e-01 2.178937345743179321e-01
-1.015463113784790039e+00 5.993920564651489258e-02 -1.635859757661819458e-01
-7.861719131469726562e-01 2.589717507362365723e-01 -1.104781031608581543e-02
-6.858732700347900391e-01 2.307204902172088623e-01 1.270535737276077271e-01
-6.244275569915771484e-01 -2.081100642681121826e-02 -1.975852251052856445e-01
-5.788731575012207031e-01 -3.833218663930892944e-02 -1.559667885303497314e-01
-1.071684122085571289e+00 1.224105060100555420e-01 -1.576606184244155884e-01
-3.060964643955230713e-01 5.336777493357658386e-02 -1.186769008636474609e-01
-4.377104043960571289e-01 -5.778595805168151855e-04 -1.863658130168914795e-01
-3.749896287918090820e-01 -9.009122848510742188e-03 -1.289768069982528687e-01
-4.411761462688446045e-01 3.234407305717468262e-02 1.716292798519134521e-01
-6.825421452522277832e-01 1.985241472721099854e-01 1.912769675254821777e-01
-6.344372034072875977e-01 8.845956623554229736e-02 -2.783005833625793457e-01
-1.024899601936340332e+00 2.100334167480468750e-01 -1.256570667028427124e-01
-6.770920157432556152e-01 1.028400138020515442e-01 2.497985512018203735e-01
-1.007701754570007324e+00 2.243901193141937256e-01 -1.048267930746078491e-01
-3.416146934032440186e-01 1.123702451586723328e-01 9.459943324327468872e-02
-6.388444900512695312e-01 2.189635932445526123e-01 -1.553276181221008301e-01
-4.801776111125946045e-01 1.927456408739089966e-01 -1.204825118184089661e-01
-8.096267580986022949e-01 -2.588280290365219116e-02 9.205055236816406250e-02
-5.075108408927917480e-01 1.916154921054840088e-01 1.251021772623062134e-01
-8.903739452362060547e-01 -1.989095658063888550e-02 3.846284747123718262e-02
-7.023987174034118652e-01 2.112005650997161865e-01 -1.902856081724166870e-01
-8.096389174461364746e-01 8.913643658161163330e-02 -2.711470127105712891e-01
-8.221024870872497559e-01 1.674141734838485718e-01 -2.466629594564437866e-01
-5.625611543655395508e-01 7.532005757093429565e-02 2.304489016532897949e-01
-1.038534164428710938e+00 4.933538287878036499e-02 9.398262947797775269e-02
-1.056801915168762207e+00 6.684502214193344116e-02 1.057907342910766602e-01
-9.904999732971191406e-01 1.923607289791107178e-01 -1.747418791055679321e-01
-6.308571100234985352e-01 2.139201462268829346e-01 -1.646584868431091309e-01
-4.747251868247985840e-01 5.487075820565223694e-02 1.980991512537002563e-01
-7.344997525215148926e-01 2.293735146522521973e-01 1.440585255622863770e-01
-4.283234477043151855e-01 1.905133128166198730e-01 -1.520904153585433960e-02
-4.063397049903869629e-01 5.207042023539543152e-02 1.638897657394409180e-01
-6.606402397155761719e-01 1.990793645381927490e-01 1.852780133485794067e-01
-1.077081561088562012e+00 8.333571255207061768e-02 -1.272354573011398315e-01
-5.832424759864807129e-01 1.079544350504875183e-01 2.355686575174331665e-01
-2.865875363349914551e-01 9.272583574056625366e-02 -1.320148631930351257e-02
-6.827532052993774414e-01 7.810090482234954834e-02 -2.800053358078002930e-01
-7.746894359588623047e-01 -8.130222558975219727e-03 -1.961218416690826416e-01
-4.965180456638336182e-01 3.419446945190429688e-02 1.948186308145523071e-01
-2.927179932594299316e-01 1.011401861906051636e-01 -3.311686217784881592e-03
-9.819152951240539551e-01 4.055343568325042725e-03 -2.119236811995506287e-02
-5.369520187377929688e-01 -5.680838972330093384e-02 -4.961852915585041046e-03
-9.477829337120056152e-01 2.504884302616119385e-01 3.243388980627059937e-02
-6.546178460121154785e-01 1.806305050849914551e-01 2.078379392623901367e-01
-1.044742703437805176e+00 2.262530922889709473e-01 -5.433602631092071533e-02
-1.036187648773193359e+00 1.249497309327125549e-01 -1.864478737115859985e-01
-1.040061593055725098e+00 2.038590312004089355e-01 -1.252833753824234009e-01
-7.816925644874572754e-01 -2.440363913774490356e-02 -1.560512930154800415e-01
-4.504649639129638672e-01 1.893761456012725830e-01 -9.451954811811447144e-02
-1.126470804214477539e+00 1.455151140689849854e-01 -8.845456689596176147e-02
-4.031349718570709229e-01 9.564965963363647461e-03 1.289361864328384399e-01
-5.974734425544738770e-01 2.377659380435943604e-01 -2.573805302381515503e-02
-5.190771222114562988e-01 2.072907090187072754e-01 -1.112846285104751587e-01
-8.079569935798645020e-01 2.235527336597442627e-01 1.632892638444900513e-01
-4.898096323013305664e-01 3.320362418889999390e-02 -2.368562817573547363e-01
-3.568871021270751953e-01 1.078159585595130920e-01 1.172408983111381531e-01
-8.415700197219848633e-01 1.718752086162567139e-02 1.757186204195022583e-01
-6.904796957969665527e-01 2.513622045516967773e-01 -3.127390146255493164e-02
-6.495473980903625488e-01 -1.599155366420745850e-03 1.823140680789947510e-01
-9.592980146408081055e-01 1.425403356552124023e-02 -1.300878524780273438e-01
-6.106038689613342285e-01 2.404435276985168457e-01 -1.766394078731536865e-02
-8.436335325241088867e-01 2.322323918342590332e-01 -1.511853784322738647e-01
-7.057029008865356445e-01 6.265877932310104370e-02 -2.756825685501098633e-01
-5.802218914031982422e-01 1.975055932998657227e-01 1.584047973155975342e-01
-6.268530488014221191e-01 6.789910048246383667e-02 -2.756379842758178711e-01
-9.274786114692687988e-01 1.947665512561798096e-01 -1.978106796741485596e-01
-3.566356003284454346e-01 -2.074779570102691650e-02 -5.520333349704742432e-02
-2.897722423076629639e-01 6.527887284755706787e-02 4.103947430849075317e-02
-4.930477738380432129e-01 -3.567635267972946167e-02 -1.422277987003326416e-01
-7.426095604896545410e-01 2.261469066143035889e-01 -1.649291962385177612e-01
-7.504767179489135742e-01 2.461028993129730225e-01 -1.039530187845230103e-01
-4.564096331596374512e-01 1.943749785423278809e-01 -8.141200244426727295e-02
-7.264782190322875977e-01 -6.682470440864562988e-03 1.677705198526382446e-01
-1.010946273803710938e+00 6.719447672367095947e-02 1.504051834344863892e-01
-4.215269386768341064e-01 -3.982355445623397827e-02 8.899169042706489563e-03
-8.701964020729064941e-01 7.424332201480865479e-02 2.236502021551132202e-01
-8.363011479377746582e-01 2.549862563610076904e-01 -6.584075838327407837e-02
-6.007657051086425781e-01 -5.265999585390090942e-02 -1.029658690094947815e-01
-1.015900850296020508e+00 1.962921321392059326e-01 -1.550592929124832153e-01
-8.477078080177307129e-01 5.518450960516929626e-02 -2.484492063522338867e-01
-4.763133525848388672e-01 -3.604748100042343140e-02 -1.333317309617996216e-01
-8.703390955924987793e-01 5.188480019569396973e-03 1.414396464824676514e-01
-1.079133033752441406e+00 1.968585550785064697e-01 -9.852390736341476440e-02
-9.154296517372131348e-01 1.644923239946365356e-01 2.144828140735626221e-01
-8.840769529342651367e-01 1.403051912784576416e-01 -2.506277263164520264e-01
-6.404936313629150391e-01 2.088797688484191895e-01 1.622181087732315063e-01
-4.442057013511657715e-01 -9.149171411991119385e-03 1.251692622900009155e-01
-7.796538472175598145e-01 7.015663385391235352e-02 -2.711356282234191895e-01
-8.186772465705871582e-01 6.193253770470619202e-02 -2.601225972175598145e-01
-1.080850124359130859e+00 7.587018609046936035e-02 -1.111744567751884460e-01
-1.052656650543212891e+00 1.577115952968597412e-01 -1.663958281278610229e-01
-7.790514826774597168e-01 2.587535381317138672e-01 2.221256494522094727e-03
-9.605611562728881836e-01 2.251857519149780273e-01 -1.332010030746459961e-01
-8.043541908264160156e-01 1.227157562971115112e-01 -2.708907127380371094e-01
-3.674707710742950439e-01 -2.518121153116226196e-02 -2.845820970833301544e-03
-2.951671779155731201e-01 8.002327382564544678e-02 4.727852344512939453e-02
-6.176862716674804688e-01 2.328779101371765137e-01 -9.541898220777511597e-02
-6.221740245819091797e-01 -5.733944475650787354e-03 1.755200624465942383e-01
-6.339541077613830566e-01 1.077748462557792664e-01 2.449522763490676880e-01
-4.976737499237060547e-01 -5.292303115129470825e-02 -5.908266454935073853e-02
-6.136751770973205566e-01 -8.264258503913879395e-04 -2.281406670808792114e-01
-7.312321662902832031e-01 3.813154995441436768e-03 -2.259680479764938354e-01
-6.251795887947082520e-01 5.627989768981933594e-03 1.914884746074676514e-01
-9.157883524894714355e-01 1.172089055180549622e-01 -2.460412681102752686e-01
-8.547677993774414062e-01 2.566626369953155518e-01 -4.923776537179946899e-02
-6.085439920425415039e-01 -1.232703775167465210e-02 -2.117795944213867188e-01
-4.512937366962432861e-01 5.513131618499755859e-03 1.502477824687957764e-01
-3.721909523010253906e-01 1.627071946859359741e-01 -4.911688715219497681e-02
-7.847262620925903320e-01 2.584934830665588379e-01 -2.440957725048065186e-02
-7.223521471023559570e-01 1.371306627988815308e-01 -2.707474827766418457e-01
-3.773313760757446289e-01 1.668459177017211914e-01 2.961067482829093933e-03
-3.197237551212310791e-01 3.187656402587890625e-04 -6.508433073759078979e-02
-6.570419073104858398e-01 2.370077371597290039e-01 9.148550033569335938e-02
-7.682144641876220703e-01 -1.626643538475036621e-02 1.382815390825271606e-01
-7.272155284881591797e-01 -3.860502690076828003e-02 -1.347068548202514648e-01
-8.489460945129394531e-01 2.589461505413055420e-01 -2.160129696130752563e-02
-1.067117452621459961e+00 2.216005027294158936e-01 -2.877719327807426453e-02
-8.600866198539733887e-01 1.570531725883483887e-02 -2.026121020317077637e-01
-5.255221128463745117e-01 1.251658797264099121e-02 1.842400580644607544e-01
-7.198826074600219727e-01 -5.114405602216720581e-02 2.042090333998203278e-02
-7.960585951805114746e-01 -3.329239040613174438e-02 7.146079838275909424e-02
-2.900623381137847900e-01 2.843558788299560547e-02 8.879920467734336853e-03
-5.121130943298339844e-01 7.916269451379776001e-02 2.170955091714859009e-01
-5.108963847160339355e-01 1.043212413787841797e-02 -2.253916114568710327e-01
-5.522258281707763672e-01 1.305590271949768066e-01 -2.497174590826034546e-01
-5.162658691406250000e-01 9.314939379692077637e-04 -2.165096402168273926e-01
-6.740176677703857422e-01 1.698419153690338135e-01 2.221748232841491699e-01
-8.738697171211242676e-01 2.516420781612396240e-01 -7.788605242967605591e-02
-4.942673742771148682e-01 2.118329405784606934e-01 -4.391871020197868347e-02
-5.087733864784240723e-01 1.998941898345947266e-01 -1.264722198247909546e-01
-9.332538247108459473e-01 2.022321224212646484e-01 -1.861221641302108765e-01
-6.169888377189636230e-01 3.662752360105514526e-02 2.214392870664596558e-01
-6.239061951637268066e-01 1.025889366865158081e-01 -2.757051289081573486e-01
-9.165297746658325195e-01 1.603117585182189941e-02 -1.711468398571014404e-01
-8.794043064117431641e-01 1.602793931961059570e-01 2.250681966543197632e-01
-6.450343132019042969e-01 2.156547009944915771e-01 1.498150527477264404e-01
-8.457198143005371094e-01 8.824295550584793091e-02 -2.634716928005218506e-01
-8.901083469390869141e-01 -1.698523759841918945e-03 -1.506049931049346924e-01
-6.432920098304748535e-01 2.116975188255310059e-01 -1.742781996726989746e-01
-5.732883810997009277e-01 5.846139043569564819e-02 -2.667646706104278564e-01
-6.520615816116333008e-01 -5.803563445806503296e-02 -4.038381576538085938e-02
-9.715905189514160156e-01 2.265783548355102539e-01 -1.237955540418624878e-01
-6.258317828178405762e-01 2.104977071285247803e-01 1.532599031925201416e-01
-3.305857777595520020e-01 1.009392961859703064e-01 -1.318988353013992310e-01
-6.670561432838439941e-01 2.479377686977386475e-01 -4.054113104939460754e-02
-3.423273861408233643e-01 1.018781810998916626e-01 -1.456715762615203857e-01
-1.026490688323974609e+00 2.301531434059143066e-01 -6.411722302436828613e-02
-7.305086851119995117e-01 2.099119424819946289e-01 -1.966345459222793579e-01
-1.042623043060302734e+00 7.379355281591415405e-02 1.312635689973831177e-01
-6.994193792343139648e-01 -5.337738245725631714e-02 -6.661758571863174438e-02
-3.493689000606536865e-01 -1.581955701112747192e-02 -6.807545572519302368e-02
-6.031300425529479980e-01 -4.461855441331863403e-02 8.557933568954467773e-02
-6.207284927368164062e-01 -3.234376758337020874e-02 1.231863126158714294e-01
-3.330717980861663818e-01 4.423556104302406311e-02 1.020344868302345276e-01
-3.939380347728729248e-01 6.839506328105926514e-03 1.191022172570228577e-01
-3.329226076602935791e-01 1.404085904359817505e-01 -2.267953753471374512e-02
-4.607927203178405762e-01 1.782925128936767578e-01 1.148879006505012512e-01
-1.013342857360839844e+00 4.171248897910118103e-02 1.072911247611045837e-01
-1.043687820434570312e+00 8.950749784708023071e-02 -1.681957691907882690e-01
-4.161010682582855225e-01 -2.984540909528732300e-02 -1.108818128705024719e-01
-1.137217044830322266e+00 1.180262789130210876e-01 3.939753025770187378e-02
-8.916066288948059082e-01 1.881471574306488037e-01 2.027465552091598511e-01
-3.980252146720886230e-01 7.310229539871215820e-02 1.629851013422012329e-01
-9.450262784957885742e-01 1.224558502435684204e-01 -2.349857687950134277e-01
-1.086163759231567383e+00 5.700143054127693176e-02 -3.815054148435592651e-02
-3.975284099578857422e-01 9.612357616424560547e-02 -1.981571465730667114e-01
-8.742351531982421875e-01 3.606048226356506348e-02 -2.226146757602691650e-01
-6.555659770965576172e-01 -3.864897042512893677e-02 1.038077771663665771e-01
-6.370100378990173340e-01 2.274242639541625977e-01 1.149079278111457825e-01
-7.857732176780700684e-01 -1.121626794338226318e-02 -1.861483007669448853e-01
-7.019650936126708984e-01 2.486241459846496582e-01 -7.030433416366577148e-02
-6.784195303916931152e-01 1.191504150629043579e-01 2.483982890844345093e-01
-6.929574608802795410e-01 2.501403391361236572e-01 4.020737856626510620e-02
-8.540780544281005859e-01 2.508458495140075684e-01 -8.682802319526672363e-02
-7.522361874580383301e-01 5.550090223550796509e-02 2.342309802770614624e-01
-4.623383283615112305e-01 -8.597724139690399170e-03 1.348536759614944458e-01
-6.329724788665771484e-01 -2.005219459533691406e-02 1.508967578411102295e-01
-7.763323783874511719e-01 2.320703566074371338e-01 -1.535318344831466675e-01
-5.319727659225463867e-01 1.488731503486633301e-01 1.999029964208602905e-01
-4.689685702323913574e-01 -2.468036115169525146e-02 -1.596179902553558350e-01
-4.434604644775390625e-01 1.646448075771331787e-01 1.266683191061019897e-01
-9.775168299674987793e-01 2.473197579383850098e-01 5.148559808731079102e-03
-6.452578306198120117e-01 6.798011064529418945e-02 -2.769253253936767578e-01
-7.815551161766052246e-01 -1.859268546104431152e-02 1.278493553400039673e-01
-5.803043246269226074e-01 2.338102459907531738e-01 -3.639090061187744141e-02
-7.253407239913940430e-01 2.585411816835403442e-02 -2.514339387416839600e-01
-6.911438107490539551e-01 1.432752609252929688e-01 -2.662524282932281494e-01
-8.111461400985717773e-01 6.893400847911834717e-02 2.341040819883346558e-01
-8.644230365753173828e-01 1.670263409614562988e-01 2.240609973669052124e-01
-3.485784530639648438e-01 1.497799605131149292e-01 -4.146485030651092529e-02
-3.610692322254180908e-01 1.575028896331787109e-01 -3.948062658309936523e-02
-8.918529152870178223e-01 2.538165748119354248e-01 -5.693040043115615845e-02
