3.968860507011413574e-01 -7.902921736240386963e-02 3.699305653572082520e-02
7.491618394851684570e-02 1.496984511613845825e-01 -7.987732067704200745e-03
8.892951607704162598e-01 -4.584122076630592346e-02 7.777515053749084473e-02
-1.856846809387207031e-01 1.257818639278411865e-01 4.784475266933441162e-02
8.271000981330871582e-01 -1.133661568164825439e-01 -3.863949328660964966e-02
4.991074204444885254e-01 5.904984194785356522e-03 -7.825508713722229004e-02
2.608164548873901367e-01 2.781425230205059052e-02 9.246090054512023926e-02
9.127174615859985352e-01 1.222099550068378448e-02 4.472665488719940186e-02
6.165797710418701172e-01 8.572940528392791748e-02 3.042114153504371643e-02
1.620501577854156494e-01 7.384255528450012207e-02 8.901650458574295044e-02
1.626580953598022461e-02 3.005055710673332214e-03 4.630739986896514893e-02
5.980193614959716797e-01 -1.065288931131362915e-01 -3.335290402173995972e-02
4.876486063003540039e-01 4.138993471860885620e-02 9.479838609695434570e-02
5.652204155921936035e-01 8.667136728763580322e-02 5.465085059404373169e-02
4.805784821510314941e-01 -8.454312384128570557e-02 4.668277502059936523e-02
7.866811752319335938e-01 -1.254176050424575806e-01 -1.794180832803249359e-02
4.154679477214813232e-01 4.960328340530395508e-02 9.517445415258407593e-02
-2.169640660285949707e-01 1.153111904859542847e-01 4.398934543132781982e-02
4.937661886215209961e-01 1.072546094655990601e-01 1.584507338702678680e-02
4.882540404796600342e-01 -7.122337818145751953e-03 9.518691897392272949e-02
5.326669216156005859e-01 -6.942948698997497559e-02 -6.520713865756988525e-02
3.853053748607635498e-01 1.226268261671066284e-01 2.841270342469215393e-02
-3.317156434059143066e-02 1.465274542570114136e-01 4.790404438972473145e-02
6.625896692276000977e-01 5.839912965893745422e-02 6.772834062576293945e-02
6.641334295272827148e-02 3.284102678298950195e-02 -7.069794088602066040e-02
-4.254782199859619141e-02 1.580869257450103760e-01 2.019946277141571045e-02
1.575216650962829590e-01 -1.843880116939544678e-02 5.897083878517150879e-02
7.167202234268188477e-02 1.500254496932029724e-02 -6.646705418825149536e-02
-6.341388821601867676e-02 7.950915396213531494e-02 -6.096895784139633179e-02
8.223494291305541992e-01 -3.376253321766853333e-02 8.406536281108856201e-02
3.439525365829467773e-01 -8.999431505799293518e-03 8.799214661121368408e-02
1.066496849060058594e+00 -6.236064806580543518e-02 -1.663093827664852142e-02
3.351063132286071777e-01 3.437547013163566589e-02 -7.873437553644180298e-02
5.525752902030944824e-01 4.613567143678665161e-02 8.983381092548370361e-02
5.101419687271118164e-01 8.346126973628997803e-02 7.089165598154067993e-02
-5.041724443435668945e-02 1.582072228193283081e-01 6.752371788024902344e-03
4.410626888275146484e-01 -3.585591912269592285e-03 9.464848786592483521e-02
4.408057630062103271e-01 -3.683751076459884644e-02 8.274763822555541992e-02
-1.190929412841796875e-01 3.317205607891082764e-02 3.460619971156120300e-02
1.900680363178253174e-01 1.093380749225616455e-01 -5.080066621303558350e-02
7.072598338127136230e-01 6.831013411283493042e-02 1.441366225481033325e-02
-4.658997058868408203e-02 4.375387728214263916e-02 6.208746135234832764e-02
1.993192285299301147e-01 -3.826845809817314148e-02 4.722610116004943848e-02
8.010296821594238281e-01 -7.983662188053131104e-02 7.330399006605148315e-02
-1.663855910301208496e-01 8.913668990135192871e-02 5.406846851110458374e-02
6.173481941223144531e-01 -1.160493344068527222e-01 4.874048754572868347e-03
2.629300951957702637e-02 1.563689708709716797e-01 1.182004343718290329e-02
7.391320466995239258e-01 -9.075729176402091980e-03 -6.283275783061981201e-02
1.511181890964508057e-01 3.418429940938949585e-02 -7.652092725038528442e-02
6.483267545700073242e-01 -1.098030060529708862e-01 -3.485511988401412964e-02
9.562208056449890137e-01 -6.820186972618103027e-02 6.826943904161453247e-02
2.466686218976974487e-01 1.004875600337982178e-01 -5.368833988904953003e-02
1.038330554962158203e+00 -9.681873023509979248e-02 4.739796370267868042e-02
5.849777460098266602e-01 2.987020090222358704e-02 9.271597862243652344e-02
5.681679844856262207e-01 3.816731274127960205e-02 9.147184342145919800e-02
6.825993061065673828e-01 3.110872022807598114e-02 -5.116538703441619873e-02
6.840313076972961426e-01 -6.624788045883178711e-02 7.955812662839889526e-02
4.409680366516113281e-01 1.038675904273986816e-01 5.868253856897354126e-02
3.602868020534515381e-01 -8.327777683734893799e-02 1.027975510805845261e-02
6.985917091369628906e-01 6.714984774589538574e-02 4.130224138498306274e-02
7.070043087005615234e-01 -3.598825260996818542e-02 -7.048800587654113770e-02
5.212566256523132324e-02 1.235625445842742920e-01 -4.576592147350311279e-02
3.572939038276672363e-01 9.212192893028259277e-02 -4.991474002599716187e-02
9.817311167716979980e-02 -6.940016523003578186e-03 5.691239237785339355e-02
7.227957248687744141e-01 6.524564232677221298e-03 8.796181529760360718e-02
3.260443806648254395e-01 -6.253045797348022461e-02 -4.940318316221237183e-02
5.340170264244079590e-01 6.925092637538909912e-02 -4.548100382089614868e-02
-2.244021296501159668e-01 1.170006543397903442e-01 -3.206381946802139282e-02
1.721173822879791260e-01 -5.059916153550148010e-02 -1.913783513009548187e-02
1.999713629484176636e-01 -5.623276159167289734e-02 -1.759825460612773895e-02
6.644896864891052246e-01 -2.659280225634574890e-02 9.212841838598251343e-02
1.026459932327270508e-01 9.470546245574951172e-02 -6.305237859487533569e-02
5.509575605392456055e-01 -6.850548088550567627e-02 -6.645549088716506958e-02
3.395571410655975342e-01 1.198481768369674683e-01 -1.802741549909114838e-02
3.485464751720428467e-01 1.142570674419403076e-01 6.105091422796249390e-02
5.446129441261291504e-01 2.485583163797855377e-02 -7.075554877519607544e-02
-2.453576326370239258e-01 1.285678595304489136e-01 -2.120390906929969788e-02
4.601410925388336182e-01 9.087923169136047363e-02 7.115719467401504517e-02
5.358898639678955078e-01 1.764390058815479279e-02 9.666970372200012207e-02
8.698097467422485352e-01 -4.247893020510673523e-02 -5.462013930082321167e-02
7.530170679092407227e-01 -1.267657577991485596e-01 -1.073215156793594360e-03
-6.126624345779418945e-02 1.246923580765724182e-03 -3.340352326631546021e-03
-9.924328327178955078e-02 1.230219285935163498e-02 1.629339531064033508e-03
4.443478584289550781e-02 4.402387887239456177e-02 -7.027453184127807617e-02
-2.357184886932373047e-02 1.292152255773544312e-01 -4.195239394903182983e-02
6.762391328811645508e-01 -1.214278489351272583e-01 1.783426851034164429e-03
6.744518280029296875e-01 -1.133426427841186523e-01 -3.186999261379241943e-02
9.184706211090087891e-02 5.258398503065109253e-02 -7.350164651870727539e-02
9.742493629455566406e-01 -1.210489869117736816e-01 3.315881267189979553e-02
5.238825082778930664e-01 -4.015538096427917480e-02 -7.624036073684692383e-02
2.752093672752380371e-01 -3.684128075838088989e-02 6.394165754318237305e-02
1.739717274904251099e-01 -3.914405778050422668e-02 -4.460361599922180176e-02
6.084507703781127930e-01 -7.737600803375244141e-02 -6.335937231779098511e-02
-1.287242770195007324e-01 3.532369434833526611e-02 -3.661112487316131592e-02
1.076522171497344971e-01 -2.465889230370521545e-02 3.953496366739273071e-02
5.410191416740417480e-01 3.701140731573104858e-02 9.342936426401138306e-02
-1.222624182701110840e-01 1.487436741590499878e-01 3.957197070121765137e-02
8.662542700767517090e-01 3.053118102252483368e-02 3.041107393801212311e-02
4.331684112548828125e-01 1.078402996063232422e-01 -1.618879847228527069e-02
5.146453976631164551e-01 1.040208786725997925e-01 2.244435250759124756e-02
9.243888854980468750e-01 -4.500243440270423889e-02 -4.661463946104049683e-02
-1.093360185623168945e-01 1.508579701185226440e-01 -1.542483456432819366e-02
5.879510641098022461e-01 8.098086714744567871e-02 5.743093788623809814e-02
6.676957607269287109e-01 1.281663496047258377e-02 9.107395261526107788e-02
3.823776543140411377e-01 1.160455197095870972e-01 -1.414597220718860626e-02
5.277425646781921387e-01 9.873139858245849609e-02 4.139123857021331787e-02
2.279292792081832886e-01 -5.832928046584129333e-02 2.091740444302558899e-02
7.915369272232055664e-01 -1.254475712776184082e-01 2.212837338447570801e-02
3.926371335983276367e-01 -8.028592169284820557e-02 -3.804025053977966309e-02
8.555986881256103516e-01 2.277886867523193359e-02 -1.574627868831157684e-02
4.448530972003936768e-01 1.128790974617004395e-01 3.648383170366287231e-02
8.622117042541503906e-01 3.174542635679244995e-02 1.118525955826044083e-02
8.430328369140625000e-01 -8.075913786888122559e-02 7.200096547603607178e-02
6.395641565322875977e-01 -1.040477901697158813e-01 4.382939636707305908e-02
8.109956979751586914e-01 -8.579237759113311768e-02 -5.674354732036590576e-02
-1.322826743125915527e-01 7.664509117603302002e-02 -5.280213803052902222e-02
2.047308236360549927e-01 7.601325213909149170e-02 -6.954734772443771362e-02
3.888448774814605713e-01 -8.730457723140716553e-02 -1.782841794192790985e-02
3.709977865219116211e-01 6.786702573299407959e-02 9.155524522066116333e-02
-1.474270820617675781e-01 1.468301564455032349e-01 -1.917878165841102600e-02
3.796389698982238770e-01 -7.877230644226074219e-02 3.255554661154747009e-02
7.177109718322753906e-01 6.189711391925811768e-02 4.463104158639907837e-02
1.050504922866821289e+00 -5.423784628510475159e-02 4.952910542488098145e-02
1.617999970912933350e-01 1.150504350662231445e-01 -4.789853096008300781e-02
-4.939717054367065430e-02 6.806670129299163818e-02 -6.287822872400283813e-02
7.123182415962219238e-01 5.668748170137405396e-02 -1.735957898199558258e-02
4.230653643608093262e-01 1.514104008674621582e-02 -7.968050241470336914e-02
-1.875391006469726562e-01 9.503881633281707764e-02 -4.364009201526641846e-02
1.069368600845336914e+00 -1.161595582962036133e-01 1.932287216186523438e-02
9.550330042839050293e-01 -1.012195460498332977e-02 -1.856845058500766754e-02
6.925653219223022461e-01 2.875722013413906097e-03 9.107492864131927490e-02
-2.334068417549133301e-01 1.132752597332000732e-01 3.995920717716217041e-02
1.005318522453308105e+00 -1.215387433767318726e-01 -1.394928060472011566e-02
5.169432759284973145e-01 -1.021165996789932251e-01 -2.422335930168628693e-02
3.037512898445129395e-01 6.100764870643615723e-02 -7.222519814968109131e-02
1.442862749099731445e-01 1.353511512279510498e-01 -2.659075520932674408e-02
7.972093224525451660e-01 -9.052935987710952759e-03 -5.498743802309036255e-02
6.405783891677856445e-01 6.498238444328308105e-02 6.548035889863967896e-02
7.326521873474121094e-01 4.656052589416503906e-02 6.380113959312438965e-02
7.800078392028808594e-01 -1.384307816624641418e-02 8.649905771017074585e-02
1.006513476371765137e+00 -1.175620034337043762e-02 1.971216686069965363e-02
9.583210349082946777e-01 -5.912357941269874573e-02 -4.350778460502624512e-02
3.978590667247772217e-01 -1.332199573516845703e-02 -7.994914054870605469e-02
4.308736920356750488e-01 -5.627014860510826111e-02 6.925556063652038574e-02
6.510522365570068359e-01 -4.129277542233467102e-02 -7.349800318479537964e-02
8.952129483222961426e-01 -1.307004392147064209e-01 1.223647408187389374e-02
5.962137579917907715e-01 7.134245336055755615e-02 6.793861091136932373e-02
6.464446783065795898e-01 -6.042042002081871033e-02 -7.035616040229797363e-02
5.561114549636840820e-01 2.426486276090145111e-02 9.529882669448852539e-02
7.469531297683715820e-01 -9.071296453475952148e-02 -5.671081691980361938e-02
7.915011644363403320e-01 4.093359410762786865e-02 -1.301162131130695343e-02
5.501614809036254883e-01 8.895064890384674072e-02 5.519533902406692505e-02
7.483259439468383789e-01 4.563610628247261047e-02 6.058648973703384399e-02
3.980678021907806396e-01 6.868309527635574341e-02 9.030462056398391724e-02
5.142152309417724609e-02 1.198890805244445801e-01 7.166485488414764404e-02
2.117606550455093384e-01 1.142751276493072510e-01 -4.476083815097808838e-02
3.969601392745971680e-01 1.165387630462646484e-01 4.598379135131835938e-02
3.958542346954345703e-01 -8.566124737262725830e-02 2.161610126495361328e-02
4.231708049774169922e-01 1.063299179077148438e-02 9.652110934257507324e-02
3.229713439941406250e-01 1.182109415531158447e-01 -2.468509785830974579e-02
3.719107806682586670e-01 1.214206665754318237e-01 4.158353805541992188e-02
3.148660063743591309e-02 6.322488188743591309e-02 -6.952637434005737305e-02
3.386399745941162109e-01 5.719012394547462463e-02 9.466459602117538452e-02
-1.844372749328613281e-01 1.541707366704940796e-01 6.547075696289539337e-03
6.380099058151245117e-02 6.657673418521881104e-02 -7.084013521671295166e-02
4.780246913433074951e-01 -5.197045579552650452e-02 -7.161826640367507935e-02
5.461143255233764648e-01 -8.215942978858947754e-02 -5.719535797834396362e-02
5.024811625480651855e-01 6.003780663013458252e-02 -5.722476541996002197e-02
2.510800361633300781e-01 4.984498769044876099e-02 -7.682032883167266846e-02
2.740825414657592773e-01 1.673864200711250305e-02 9.104298055171966553e-02
8.698180913925170898e-01 9.442873299121856689e-03 -2.726781927049160004e-02
5.174672603607177734e-01 9.420105814933776855e-02 -1.689790189266204834e-02
3.106240034103393555e-01 6.782718002796173096e-02 9.262295812368392944e-02
2.344651967287063599e-01 2.297236770391464233e-02 -7.933257520198822021e-02
2.920128107070922852e-01 -2.450034022331237793e-02 -7.256611436605453491e-02
1.544295549392700195e-01 6.013807281851768494e-02 -7.446123659610748291e-02
-2.344289422035217285e-01 6.161580234766006470e-02 -7.859790697693824768e-03
-8.701321482658386230e-02 6.940777599811553955e-02 6.451955437660217285e-02
8.185759782791137695e-01 1.361830439418554306e-02 7.218898832798004150e-02
-1.667250394821166992e-01 5.597953498363494873e-02 3.905132412910461426e-02
-9.462219476699829102e-02 1.330105960369110107e-01 5.630932003259658813e-02
6.161675453186035156e-01 3.252579271793365479e-02 8.972468227148056030e-02
2.583633065223693848e-01 -4.589841887354850769e-02 -5.503143370151519775e-02
-3.339979052543640137e-02 1.537447869777679443e-01 -9.411239996552467346e-03
7.203869819641113281e-01 2.744825929403305054e-02 -4.714588075876235962e-02
4.471235871315002441e-01 8.131058514118194580e-02 -4.790179431438446045e-02
-8.066514134407043457e-02 6.897622253745794296e-03 1.366873271763324738e-03
9.702253937721252441e-01 -1.123375818133354187e-02 4.988442361354827881e-02
7.195720076560974121e-02 -2.513898164033889771e-02 -3.181834518909454346e-02
5.678091645240783691e-01 2.018540166318416595e-03 -7.529158890247344971e-02
1.125544011592864990e-01 2.507880702614784241e-02 7.857982069253921509e-02
5.705940723419189453e-01 1.899232342839241028e-02 9.544500708580017090e-02
-8.447051048278808594e-03 7.870802283287048340e-02 -6.523170322179794312e-02
6.818225979804992676e-02 6.397195905447006226e-02 8.309264481067657471e-02
6.901267766952514648e-01 -1.161633282899856567e-01 2.953775040805339813e-02
8.340675830841064453e-01 -9.855185449123382568e-02 -4.969307780265808105e-02
2.262924611568450928e-01 1.732652820646762848e-02 8.761964738368988037e-02
2.169960886240005493e-01 -6.041624024510383606e-02 -1.029724627733230591e-02
5.213138461112976074e-02 7.631206512451171875e-02 8.224388211965560913e-02
7.875082492828369141e-01 -1.285816282033920288e-01 3.371488768607378006e-03
3.415645360946655273e-01 9.425844252109527588e-02 -4.985486716032028198e-02
6.841037273406982422e-01 1.426082942634820938e-02 -6.050785630941390991e-02
8.121122121810913086e-01 2.906953543424606323e-02 -2.317280508577823639e-02
1.028119802474975586e+00 -8.345197141170501709e-02 5.461176484823226929e-02
7.772961258888244629e-02 1.356455534696578979e-01 5.994404107332229614e-02
1.680889725685119629e-02 -1.785477250814437866e-02 -1.461642608046531677e-02
8.465708494186401367e-01 -8.101033046841621399e-03 -4.605348408222198486e-02
4.497891664505004883e-01 -5.903594568371772766e-02 6.918446719646453857e-02
7.135198116302490234e-01 -7.920618355274200439e-02 7.294922322034835815e-02
-5.984219908714294434e-02 9.975591674447059631e-03 -3.362064808607101440e-02
1.290777325630187988e-02 5.353818088769912720e-02 -6.828843057155609131e-02
-9.861236810684204102e-02 1.584404408931732178e-01 9.253257885575294495e-03
2.645991444587707520e-01 1.338711231946945190e-01 4.151237756013870239e-02
9.603398442268371582e-01 -1.021638959646224976e-01 5.377664417028427124e-02
2.477942705154418945e-01 9.678660333156585693e-02 8.324867486953735352e-02
7.262595891952514648e-01 -2.665099129080772400e-02 -6.815738976001739502e-02
-1.123792529106140137e-01 1.581306457519531250e-01 1.542085688561201096e-02
2.076606154441833496e-01 3.593073040246963501e-02 9.044044464826583862e-02
6.077538728713989258e-01 5.212802067399024963e-02 8.159495145082473755e-02
9.036363959312438965e-01 -1.081937402486801147e-01 -3.946946561336517334e-02
2.362145334482192993e-01 6.983771920204162598e-02 9.175178408622741699e-02
5.638147592544555664e-01 -6.398698687553405762e-02 7.564111799001693726e-02
9.524430036544799805e-01 -1.268058717250823975e-01 2.384154126048088074e-02
8.166142106056213379e-01 -1.295641511678695679e-01 -3.629837185144424438e-03
6.720319986343383789e-01 -1.101654618978500366e-01 3.851180896162986755e-02
1.180869340896606445e-02 4.786224290728569031e-02 7.342987507581710815e-02
7.455679178237915039e-01 6.026521325111389160e-02 1.620739698410034180e-02
5.018357038497924805e-01 9.517407417297363281e-02 -1.991082169115543365e-02
-1.748496890068054199e-01 7.146337628364562988e-02 4.627055674791336060e-02
1.034920930862426758e+00 -1.005382239818572998e-01 -2.565931715071201324e-02
6.212230920791625977e-01 7.108418643474578857e-02 6.269174069166183472e-02
2.879454195499420166e-01 -4.827247932553291321e-02 -5.758531391620635986e-02
4.646934270858764648e-01 -9.742602705955505371e-02 1.339888013899326324e-02
2.228177934885025024e-01 1.349701136350631714e-01 4.839418828487396240e-02
5.899721384048461914e-01 -3.972723335027694702e-02 8.869905769824981689e-02
9.991415739059448242e-01 -1.062442511320114136e-01 4.692227393388748169e-02
-1.198031306266784668e-01 6.672215461730957031e-02 5.745901167392730713e-02
2.786309123039245605e-01 1.111343204975128174e-01 -4.091756790876388550e-02
1.016813755035400391e+00 -6.150280311703681946e-02 -3.165085613727569580e-02
5.123482942581176758e-01 -7.834132015705108643e-02 -5.775891989469528198e-02
-2.190159559249877930e-01 1.482323259115219116e-01 1.965867727994918823e-02
1.206741333007812500e-01 -2.614665031433105469e-02 -4.680619388818740845e-02
-2.178988456726074219e-01 6.829760223627090454e-02 -2.931722067296504974e-02
2.807193398475646973e-01 -5.740344151854515076e-02 -4.655748605728149414e-02
-2.409893274307250977e-01 1.407089382410049438e-01 2.420702949166297913e-02
4.087258279323577881e-01 -8.697526529431343079e-03 9.204018115997314453e-02
2.984341979026794434e-01 -8.687833324074745178e-04 -7.932422310113906860e-02
9.758301377296447754e-01 -3.447694331407546997e-02 -3.126432001590728760e-02
-2.687114477157592773e-02 5.547046288847923279e-02 7.017403841018676758e-02
8.438250422477722168e-02 1.396071761846542358e-01 -2.650038339197635651e-02
4.397853314876556396e-01 -8.062338829040527344e-02 4.442819952964782715e-02
9.007515311241149902e-01 -6.466336548328399658e-02 -5.262628942728042603e-02
-1.232708096504211426e-01 9.838482737541198730e-02 6.253130733966827393e-02
5.937314033508300781e-01 -3.879081457853317261e-03 -7.471119612455368042e-02
3.076016604900360107e-01 -7.619595527648925781e-02 9.448081254959106445e-05
-1.709985733032226562e-02 1.491385400295257568e-01 -1.824709214270114899e-02
4.905514121055603027e-01 -2.281924709677696228e-02 9.129845350980758667e-02
9.847989082336425781e-01 -1.213021576404571533e-02 -7.254019379615783691e-03
3.908212482929229736e-01 -4.173617810010910034e-03 9.243647009134292603e-02
5.115647912025451660e-01 -9.514507651329040527e-02 -3.820952773094177246e-02
9.754858016967773438e-01 -2.913655713200569153e-03 5.752225406467914581e-03
1.300117373466491699e-02 2.180401422083377838e-02 6.121556460857391357e-02
1.655381917953491211e-01 -1.665938459336757660e-02 -6.327107548713684082e-02
5.482544898986816406e-01 -9.945985674858093262e-02 3.580595552921295166e-02
-1.516090035438537598e-01 1.318474411964416504e-01 -3.416944295167922974e-02
7.709777355194091797e-01 9.595897048711776733e-03 -4.984878003597259521e-02
4.074557721614837646e-01 1.120241284370422363e-01 -1.526166126132011414e-02
-1.551654338836669922e-01 3.038786351680755615e-02 4.912426229566335678e-03
-2.656114101409912109e-01 1.381415873765945435e-01 1.379520259797573090e-02
9.166344404220581055e-01 -1.299285441637039185e-01 -7.558561861515045166e-03
-1.771671772003173828e-01 1.438042223453521729e-01 -1.987722516059875488e-02
7.349991798400878906e-02 9.835901856422424316e-02 -6.143626570701599121e-02
-8.171471953392028809e-02 1.550028622150421143e-01 3.178553283214569092e-02
8.063517212867736816e-01 -1.181258261203765869e-01 3.903975337743759155e-02
4.279157519340515137e-02 1.534556150436401367e-01 3.156234323978424072e-02
4.952698945999145508e-03 7.900884747505187988e-02 7.802581042051315308e-02
1.921806335449218750e-01 9.186616539955139160e-02 -6.242946535348892212e-02
-6.459552049636840820e-02 1.548760980367660522e-01 -7.569288834929466248e-03
-2.254357933998107910e-01 6.338621675968170166e-02 1.904854178428649902e-02
5.983495116233825684e-01 -1.063190698623657227e-01 3.291162848472595215e-02
6.716516017913818359e-01 7.124274224042892456e-02 -4.559150896966457367e-03
1.372009813785552979e-01 1.298742741346359253e-01 6.372717022895812988e-02
4.059506058692932129e-01 1.200859844684600830e-01 1.311227772384881973e-02
-1.433179974555969238e-01 7.341054081916809082e-02 5.483996868133544922e-02
8.580765128135681152e-01 -1.121255606412887573e-01 -3.897283226251602173e-02
5.359199047088623047e-01 -5.516104772686958313e-02 -7.198289036750793457e-02
-4.417425394058227539e-02 1.132319271564483643e-01 6.929978728294372559e-02
5.816073417663574219e-01 7.424714416265487671e-02 -3.050197474658489227e-02
5.270699262619018555e-01 -1.064549237489700317e-01 -9.026695042848587036e-03
1.111293435096740723e+00 -1.014118343591690063e-01 8.140155114233493805e-03
8.581069707870483398e-01 -1.266473680734634399e-01 2.529729716479778290e-02
1.037585258483886719e+00 -7.735118269920349121e-02 -2.894094772636890411e-02
3.236567080020904541e-01 -3.952208161354064941e-02 6.895171105861663818e-02
5.466917157173156738e-01 7.612027227878570557e-02 7.208959758281707764e-02
5.629826188087463379e-01 -3.260725364089012146e-02 -7.706883549690246582e-02
3.287032544612884521e-01 1.256791204214096069e-01 4.453064501285552979e-02
7.333521246910095215e-01 5.033042654395103455e-02 -2.009604498744010925e-02
4.354287683963775635e-01 1.116460412740707397e-01 4.492830485105514526e-02
2.932592034339904785e-01 -5.798416212201118469e-02 4.415901750326156616e-02
6.995702981948852539e-01 3.911226987838745117e-02 7.685314863920211792e-02
9.354308843612670898e-01 -7.052555680274963379e-02 7.000330090522766113e-02
1.322075724601745605e-01 1.391035914421081543e-01 5.285546183586120605e-02
3.122949898242950439e-01 1.061952412128448486e-01 -4.197159409523010254e-02
-7.668256759643554688e-03 1.429222226142883301e-01 5.268338322639465332e-02
9.300389289855957031e-01 -1.300286203622817993e-01 1.477337535470724106e-02
1.267677247524261475e-01 1.415997445583343506e-01 -1.830069720745086670e-02
9.377408027648925781e-02 -2.902286872267723083e-02 -3.384218364953994751e-02
-3.287971019744873047e-02 9.264118969440460205e-02 -6.070005893707275391e-02
2.738747000694274902e-02 4.115609824657440186e-02 -6.837960332632064819e-02
8.085665702819824219e-01 -1.050915867090225220e-01 5.519641190767288208e-02
-9.908127784729003906e-02 1.624363102018833160e-02 1.745934411883354187e-02
-2.745085954666137695e-02 4.745635017752647400e-02 -6.340178847312927246e-02
-9.333235025405883789e-02 3.999853506684303284e-02 -4.995515942573547363e-02
2.113639563322067261e-01 -5.292592570185661316e-02 -3.381374478340148926e-02
1.741081476211547852e-01 5.822760611772537231e-02 -7.506545633077621460e-02
4.111114144325256348e-01 4.515668749809265137e-02 -7.280867546796798706e-02
9.235727787017822266e-02 2.267034724354743958e-03 -6.360010802745819092e-02
7.970418930053710938e-01 -2.987643331289291382e-02 8.602557331323623657e-02
5.032684206962585449e-01 2.698556706309318542e-02 -7.316226512193679810e-02
5.715024471282958984e-01 -6.099525466561317444e-02 -7.034719735383987427e-02
4.765245318412780762e-01 1.097687482833862305e-01 2.658834122121334076e-02
5.793772935867309570e-01 -7.553932070732116699e-02 6.840983033180236816e-02
3.512662649154663086e-01 -2.438551560044288635e-02 8.173590898513793945e-02
1.450443267822265625e-02 1.556122601032257080e-01 1.878137234598398209e-03
1.427939832210540771e-01 1.453500837087631226e-01 3.916282951831817627e-02
1.233040392398834229e-01 -1.375992223620414734e-02 -5.866354703903198242e-02
1.071641206741333008e+00 -8.777740597724914551e-02 4.388619959354400635e-02
9.393346905708312988e-01 -1.109352856874465942e-01 -3.433689475059509277e-02
5.372159481048583984e-01 -3.042920306324958801e-02 9.043686091899871826e-02
1.109992265701293945e+00 -8.853173255920410156e-02 -2.236739732325077057e-03
8.187200427055358887e-01 -5.462212488055229187e-02 8.190609514713287354e-02
3.282052576541900635e-01 7.031093817204236984e-03 -8.076385408639907837e-02
6.334348917007446289e-01 3.408828377723693848e-02 8.764454722404479980e-02
1.037644147872924805e+00 -4.266229271888732910e-02 4.888919740915298462e-02
4.286472797393798828e-01 9.551087021827697754e-02 7.098878920078277588e-02
3.061593174934387207e-01 -5.516350641846656799e-02 -5.397187173366546631e-02
1.209926009178161621e-01 5.969205498695373535e-02 8.703634142875671387e-02
-4.971113801002502441e-02 1.325860917568206787e-01 5.995261669158935547e-02
9.753018617630004883e-02 1.472354680299758911e-01 -1.061688177287578583e-02
4.940220713615417480e-01 -9.578388929367065430e-02 -3.332535922527313232e-02
-1.022382974624633789e-01 1.458321213722229004e-01 4.502799361944198608e-02
1.021270513534545898e+00 -1.221782118082046509e-01 2.361210994422435760e-02
2.340894192457199097e-01 1.247920244932174683e-01 6.237509101629257202e-02
2.730872631072998047e-01 -3.453302383422851562e-02 -6.575128436088562012e-02
2.575383186340332031e-01 7.650937139987945557e-02 -6.759020686149597168e-02
2.832892835140228271e-01 -6.790740787982940674e-02 -2.841333858668804169e-02
-2.329362034797668457e-01 7.818825542926788330e-02 3.012310341000556946e-02
-2.822040915489196777e-01 9.714472293853759766e-02 1.494251005351543427e-02
-5.312740802764892578e-03 2.193911001086235046e-02 5.746465176343917847e-02
-1.550315022468566895e-01 5.259761959314346313e-02 -4.121120274066925049e-02
6.809834241867065430e-01 -1.299452036619186401e-03 -6.684514880180358887e-02
5.814942717552185059e-01 -1.117950677871704102e-01 -1.305588148534297943e-02
3.725264966487884521e-01 3.504326194524765015e-02 -7.759818434715270996e-02
3.560737967491149902e-01 -3.384772315621376038e-02 -7.310298830270767212e-02
3.146485388278961182e-01 -4.465303197503089905e-02 -6.383700668811798096e-02
1.817674636840820312e-01 1.114946156740188599e-01 7.667842507362365723e-02
2.465947419404983521e-01 5.200321599841117859e-02 9.360210597515106201e-02
9.364494681358337402e-02 -1.866348460316658020e-02 -4.828603565692901611e-02
6.885772347450256348e-01 -1.665555499494075775e-02 9.234523773193359375e-02
5.098363161087036133e-01 -3.237198665738105774e-02 -7.774155586957931519e-02
6.122263669967651367e-01 -1.123404949903488159e-01 -2.275589108467102051e-02
2.792505621910095215e-01 1.281226724386215210e-01 -1.605246029794216156e-02
-1.088153719902038574e-01 1.037515252828598022e-01 -5.205097794532775879e-02
6.260305047035217285e-01 -2.694158256053924561e-02 -7.506681233644485474e-02
6.631069183349609375e-01 5.774661153554916382e-02 -3.092625550925731659e-02
-1.935926079750061035e-01 7.208184152841567993e-02 4.100714623928070068e-02
5.527350902557373047e-01 5.114783532917499542e-03 9.664043784141540527e-02
5.347768664360046387e-01 9.538935124874114990e-02 -7.749045267701148987e-03
1.975461393594741821e-01 -5.595457181334495544e-02 8.447363972663879395e-03
2.603292763233184814e-01 7.600934803485870361e-02 9.071996808052062988e-02
9.079140424728393555e-02 1.529421508312225342e-01 1.402965746819972992e-02
9.996253252029418945e-02 1.384903788566589355e-01 -2.669875882565975189e-02
-1.164785027503967285e-02 -8.740093559026718140e-03 1.497444324195384979e-02
1.734584569931030273e-02 -1.795232668519020081e-02 6.570643745362758636e-03
-2.394264936447143555e-01 1.411979496479034424e-01 -9.807966649532318115e-03
3.312259912490844727e-01 -8.006955683231353760e-02 -2.985849045217037201e-03
-6.881356239318847656e-04 1.397727876901626587e-01 -3.119700588285923004e-02
2.901434302330017090e-01 -4.037968814373016357e-02 6.325711309909820557e-02
1.608611941337585449e-01 -4.624903574585914612e-02 1.875284686684608459e-02
1.640364378690719604e-01 1.099602133035659790e-01 7.786174863576889038e-02
7.343639135360717773e-01 -1.051981300115585327e-01 5.173877626657485962e-02
2.461418360471725464e-01 1.334639787673950195e-01 4.702953249216079712e-02
9.396222233772277832e-01 -5.395940318703651428e-02 7.179068028926849365e-02
5.732420682907104492e-01 7.209059596061706543e-02 7.145459204912185669e-02
1.021067500114440918e+00 -1.851855590939521790e-02 2.826514840126037598e-02
-1.327704787254333496e-01 2.270032837986946106e-02 2.696420066058635712e-03
4.344296753406524658e-01 6.828431040048599243e-02 -5.939981341361999512e-02
9.138971567153930664e-03 1.500346958637237549e-01 4.252021759748458862e-02
-2.060906291007995605e-01 5.138880759477615356e-02 1.246765069663524628e-02
-1.062059402465820312e-02 1.066277734935283661e-03 -4.053535312414169312e-02
2.873265743255615234e-02 1.099708527326583862e-01 7.515034079551696777e-02
6.185345649719238281e-01 8.014844357967376709e-02 4.852049797773361206e-02
1.066066741943359375e+00 -1.094435900449752808e-01 -1.193124242126941681e-02
4.156178236007690430e-01 -8.292056620121002197e-02 3.481893241405487061e-02
6.070058345794677734e-01 -1.201532036066055298e-02 -7.507153600454330444e-02
-6.363773345947265625e-02 6.599950790405273438e-02 6.747354567050933838e-02
3.313929140567779541e-01 7.813592255115509033e-02 -6.240522861480712891e-02
4.255784749984741211e-01 -9.388570487499237061e-02 -6.256519816815853119e-03
3.577403426170349121e-01 1.305174734443426132e-02 9.478259086608886719e-02
8.711686730384826660e-01 -8.240190148353576660e-02 -5.358424037694931030e-02
-2.572160959243774414e-01 7.280325889587402344e-02 2.267637290060520172e-03
1.799318194389343262e-02 1.023820489645004272e-01 -5.904283374547958374e-02
7.620875835418701172e-01 3.227417171001434326e-02 -3.403495997190475464e-02
-1.550337672233581543e-02 6.933457683771848679e-03 4.103434830904006958e-02
3.022316396236419678e-01 1.311962008476257324e-01 -2.318518236279487610e-04
5.644955039024353027e-01 7.324664294719696045e-02 -3.563205152750015259e-02
-1.490190625190734863e-02 5.670619755983352661e-02 -6.592455506324768066e-02
-2.638733386993408203e-02 2.103998884558677673e-02 5.181985348463058472e-02
2.650771737098693848e-01 -6.785897910594940186e-02 1.000910345464944839e-02
-1.618057489395141602e-01 1.005410104990005493e-01 -4.697506129741668701e-02
3.144169449806213379e-01 1.316388249397277832e-01 2.750258892774581909e-02
3.260615468025207520e-02 1.461734920740127563e-01 -2.039767242968082428e-02
4.879811406135559082e-02 8.578306436538696289e-02 -6.600399315357208252e-02
4.216182827949523926e-01 -9.103389084339141846e-02 -2.143775112926959991e-02
4.425210058689117432e-01 -3.236702457070350647e-02 -7.711190730333328247e-02
3.600619733333587646e-01 -6.518685817718505859e-02 -5.226855725049972534e-02
-8.445614576339721680e-02 1.467180550098419189e-01 -2.276303805410861969e-02
3.343283534049987793e-01 -6.991630792617797852e-02 3.599024564027786255e-02
8.614609241485595703e-01 -1.307309716939926147e-01 8.969908580183982849e-03
8.265148401260375977e-01 -1.145939528942108154e-02 8.121965080499649048e-02
1.025000333786010742e+00 -3.417870774865150452e-02 4.825494438409805298e-02
1.083933591842651367e+00 -6.302727758884429932e-02 3.961075842380523682e-02
3.469161987304687500e-01 6.084787100553512573e-02 -7.022779434919357300e-02
1.638183146715164185e-01 8.600340783596038818e-02 -6.619837135076522827e-02
4.951091706752777100e-01 -6.357327103614807129e-02 -6.670767813920974731e-02
8.429405093193054199e-02 1.238887608051300049e-01 6.970033049583435059e-02
2.416765689849853516e-01 -6.460024416446685791e-02 -1.267623156309127808e-02
-2.584660053253173828e-02 1.115691214799880981e-01 7.123740762472152710e-02
9.913399815559387207e-01 -4.533833637833595276e-02 -3.255093842744827271e-02
7.166467905044555664e-01 4.677010327577590942e-02 -3.002520091831684113e-02
-1.115608215332031250e-01 2.433706633746623993e-02 -3.084136359393596649e-02
1.023692190647125244e-01 1.254324465990066528e-01 6.851475685834884644e-02
1.020776748657226562e+00 -1.000789999961853027e-01 4.838989675045013428e-02
1.110220670700073242e+00 -7.248400151729583740e-02 2.711087092757225037e-02
-1.041175723075866699e-01 3.831434994935989380e-02 4.479685425758361816e-02
-4.723811149597167969e-02 1.884088665246963501e-02 4.404394328594207764e-02
5.013662576675415039e-01 1.655626669526100159e-02 9.731169044971466064e-02
-4.925176501274108887e-02 2.227629534900188446e-03 1.804976724088191986e-02
6.507266759872436523e-01 5.005948990583419800e-02 -4.187230020761489868e-02
9.333770275115966797e-01 -1.089486330747604370e-01 5.010759830474853516e-02
7.921192049980163574e-02 5.152736976742744446e-02 8.242660760879516602e-02
5.979657769203186035e-01 -5.451861396431922913e-02 8.278331160545349121e-02
1.074435114860534668e-01 9.779636748135089874e-03 -6.873904913663864136e-02
-1.954314112663269043e-01 1.098703593015670776e-01 4.934320598840713501e-02
4.807403683662414551e-02 -1.838396117091178894e-02 -3.405006974935531616e-02
3.410103321075439453e-01 -6.167404726147651672e-02 4.999944567680358887e-02
7.603784799575805664e-01 5.024777352809906006e-02 4.930024594068527222e-02
8.820188045501708984e-02 -2.306073158979415894e-02 3.532537072896957397e-02
5.387437343597412109e-01 -9.574060142040252686e-02 -4.178697615861892700e-02
1.001440525054931641e+00 -8.689160645008087158e-02 5.758497864007949829e-02
1.078185081481933594e+00 -1.146869808435440063e-01 1.814180985093116760e-03
3.155809044837951660e-01 5.114648491144180298e-02 -7.514885067939758301e-02
4.462799131870269775e-01 1.668636500835418701e-02 -7.869325578212738037e-02
-1.582008600234985352e-02 9.754495322704315186e-02 7.509525120258331299e-02
9.554261565208435059e-01 -1.379606500267982483e-02 5.741582065820693970e-02
5.781450867652893066e-01 -5.898877605795860291e-02 7.953134924173355103e-02
3.257660269737243652e-01 1.154330074787139893e-01 6.291955709457397461e-02
9.410328865051269531e-01 -6.094206497073173523e-02 -4.667814075946807861e-02
7.511988878250122070e-01 -4.432993382215499878e-02 8.681826293468475342e-02
-9.875106811523437500e-02 6.403101235628128052e-02 -5.655205994844436646e-02
2.357572317123413086e-02 1.298136711120605469e-01 6.486772745847702026e-02
5.714185237884521484e-01 5.563655868172645569e-02 -5.100281536579132080e-02
9.454609155654907227e-01 -9.344719350337982178e-02 6.036534160375595093e-02
3.028288483619689941e-02 1.425148248672485352e-01 5.317514389753341675e-02
-1.524354219436645508e-01 4.073864221572875977e-02 2.944598905742168427e-02
4.802983701229095459e-01 -1.585301198065280914e-02 -7.975211739540100098e-02
4.008948206901550293e-01 -4.340765625238418579e-02 -7.167136669158935547e-02
4.719034731388092041e-01 7.801982760429382324e-02 -4.727004468441009521e-02
-1.235250234603881836e-01 1.216651946306228638e-01 -4.315694421529769897e-02
3.593176007270812988e-01 3.334944695234298706e-02 9.669241309165954590e-02
-2.261480689048767090e-01 1.489019095897674561e-01 5.680710077285766602e-03
5.574557781219482422e-01 -9.131850302219390869e-02 5.003432184457778931e-02
7.973065376281738281e-01 3.071094676852226257e-02 6.352657824754714966e-02
5.704210996627807617e-01 -1.041984707117080688e-01 -3.286896646022796631e-02
2.011743783950805664e-01 -3.714269399642944336e-02 -5.308946222066879272e-02
-1.824348568916320801e-01 8.506055176258087158e-02 4.949118196964263916e-02
5.475101470947265625e-01 -5.323583260178565979e-02 8.105018734931945801e-02
8.377794027328491211e-01 -3.156368434429168701e-02 8.271279186010360718e-02
4.303401708602905273e-01 1.139724999666213989e-01 -1.277642324566841125e-03
-2.780874967575073242e-01 1.221169084310531616e-01 -1.319157704710960388e-02
5.030442476272583008e-01 3.390296548604965210e-02 9.570554643869400024e-02
3.787697851657867432e-01 -3.976075723767280579e-02 -7.197991013526916504e-02
3.811128437519073486e-01 5.606354027986526489e-02 9.448090940713882446e-02
-1.608535647392272949e-01 1.473536491394042969e-01 3.628645837306976318e-02
9.865456223487854004e-01 -9.571941196918487549e-02 5.532812327146530151e-02
8.899589776992797852e-01 -3.641073405742645264e-02 -5.010966211557388306e-02
2.801211476325988770e-01 -6.569804251194000244e-02 2.592018246650695801e-02
7.597184777259826660e-01 -9.689667820930480957e-02 6.130485981702804565e-02
6.565250158309936523e-01 -3.986741229891777039e-02 8.940246701240539551e-02
8.529940843582153320e-01 -1.300574392080307007e-01 -6.998687982559204102e-03
5.870120525360107422e-01 -1.119802594184875488e-01 1.244252175092697144e-02
3.764680027961730957e-01 -8.212877810001373291e-02 -2.927060611546039581e-02
5.099635124206542969e-01 -3.304316475987434387e-02 8.849935233592987061e-02
5.094477534294128418e-02 4.984841868281364441e-02 7.901017367839813232e-02
-2.418082356452941895e-01 8.098557591438293457e-02 -2.672124840319156647e-02
2.136893570423126221e-01 1.298757493495941162e-01 -2.552404068410396576e-02
4.126741588115692139e-01 6.119757518172264099e-02 -6.556974351406097412e-02
7.716444730758666992e-01 -6.457766890525817871e-02 8.049684017896652222e-02
5.397092103958129883e-01 9.940488636493682861e-02 1.163143850862979889e-02
-1.318022608757019043e-02 1.210982948541641235e-01 6.844225525856018066e-02
2.940441370010375977e-01 8.983285725116729736e-02 8.527246117591857910e-02
9.165011048316955566e-01 -2.666112035512924194e-02 -4.144065082073211670e-02
7.720271944999694824e-01 -1.169678866863250732e-01 -3.372535109519958496e-02
7.528815269470214844e-01 5.821152031421661377e-02 2.959406748414039612e-02
9.910614490509033203e-01 -4.326034709811210632e-02 6.218691915273666382e-02
9.256602525711059570e-01 -8.403864502906799316e-02 6.638407707214355469e-02
3.404690921306610107e-01 1.112124770879745483e-01 -3.178109228610992432e-02
8.119802474975585938e-01 1.558662392199039459e-02 -3.720682859420776367e-02
7.669788599014282227e-01 5.469195917248725891e-02 9.613019414246082306e-03
7.663583755493164062e-01 -1.201344877481460571e-01 3.203606605529785156e-02
4.067595899105072021e-01 7.634039223194122314e-02 -5.681334435939788818e-02
1.916310787200927734e-01 1.214593499898910522e-01 -3.926716744899749756e-02
4.327182471752166748e-01 9.198303520679473877e-02 -3.950310498476028442e-02
-1.449972391128540039e-01 8.904899656772613525e-02 5.828421562910079956e-02
5.795680880546569824e-01 -8.279977738857269287e-02 -5.875845253467559814e-02
6.054087877273559570e-01 -3.210386633872985840e-02 -7.587965577840805054e-02
3.568527102470397949e-02 3.766172379255294800e-02 7.320024073123931885e-02
8.539216518402099609e-01 -3.840158879756927490e-02 -5.600751936435699463e-02
6.666256189346313477e-01 -9.995539486408233643e-02 -4.877143353223800659e-02
1.745330840349197388e-01 1.465751528739929199e-01 1.442512404173612595e-02
5.646451115608215332e-01 -1.091225445270538330e-01 -1.776430569589138031e-02
1.085368394851684570e+00 -8.207845687866210938e-02 -1.456880569458007812e-02
7.379305362701416016e-01 -3.173033148050308228e-02 8.925475925207138062e-02
9.521430730819702148e-01 -4.035192355513572693e-02 -3.973235934972763062e-02
5.273038148880004883e-01 8.597680926322937012e-02 6.504388153553009033e-02
1.369252800941467285e-01 -4.252157732844352722e-02 -2.320983074605464935e-02
4.172537922859191895e-01 7.273824512958526611e-02 8.764541149139404297e-02
-4.192745685577392578e-02 2.259803563356399536e-02 -5.127384513616561890e-02
4.848025441169738770e-01 6.986665725708007812e-02 8.419273793697357178e-02
9.426825046539306641e-01 -8.715309202671051025e-02 -4.486084729433059692e-02
4.401489198207855225e-01 6.393136084079742432e-02 9.013155847787857056e-02
5.460175871849060059e-01 9.546969830989837646e-02 4.210840165615081787e-02
1.517231762409210205e-01 1.475103497505187988e-01 4.864765331149101257e-03
3.213125467300415039e-01 9.143339097499847412e-02 -5.423766374588012695e-02
3.543684780597686768e-01 -1.014245115220546722e-02 -7.957075536251068115e-02
3.030883669853210449e-01 8.697390556335449219e-02 -5.898404866456985474e-02
5.821083784103393555e-01 -4.278808832168579102e-02 -7.531768828630447388e-02
8.427605628967285156e-01 -1.222991943359375000e-01 3.388266265392303467e-02
1.303972303867340088e-01 3.888896480202674866e-02 8.476983755826950073e-02
4.286879301071166992e-02 -7.881890982389450073e-03 -4.652120172977447510e-02
7.799525260925292969e-01 2.054790034890174866e-02 7.509789615869522095e-02
3.450067043304443359e-01 -6.503425538539886475e-02 -4.990950226783752441e-02
1.567308306694030762e-01 1.297278404235839844e-01 6.287779659032821655e-02
-1.562910676002502441e-01 8.408676087856292725e-02 -4.928226023912429810e-02
8.583962917327880859e-04 1.574179977178573608e-01 1.478993892669677734e-02
4.470994472503662109e-01 1.143658906221389771e-01 1.566902175545692444e-02
3.948665261268615723e-01 -3.074438497424125671e-02 8.227182179689407349e-02
8.787082433700561523e-01 -2.585525065660476685e-02 -4.842992871999740601e-02
7.246922254562377930e-01 -5.933852866291999817e-02 8.294631540775299072e-02
6.584030389785766602e-01 -6.862133741378784180e-02 7.757930457592010498e-02
1.528956294059753418e-01 -5.007978528738021851e-03 -6.785973161458969116e-02
7.862391471862792969e-01 -2.728522568941116333e-02 -6.216711550951004028e-02
6.247998476028442383e-01 -1.029683500528335571e-01 -4.236821830272674561e-02
4.660351872444152832e-01 -9.708425402641296387e-02 -2.055400051176548004e-02
-1.456493735313415527e-01 4.108378291130065918e-02 -3.578080236911773682e-02
1.086072564125061035e+00 -5.375311151146888733e-02 3.066752105951309204e-04
9.339345693588256836e-01 -5.037771537899971008e-03 5.714747309684753418e-02
6.305476427078247070e-01 -7.860907912254333496e-02 -6.314501166343688965e-02
9.916911721229553223e-01 -7.013481110334396362e-03 2.629319950938224792e-02
3.960061371326446533e-01 9.322343766689300537e-02 7.677865773439407349e-02
1.083401441574096680e+00 -4.623567685484886169e-02 1.432004757225513458e-02
1.062303304672241211e+00 -3.507215157151222229e-02 1.584678515791893005e-02
7.371274232864379883e-01 -6.735785305500030518e-02 -6.582742184400558472e-02
2.995350658893585205e-01 -1.401340961456298828e-02 8.203862607479095459e-02
6.664944887161254883e-01 -8.334740996360778809e-02 -6.101845949888229370e-02
5.247552990913391113e-01 5.836110934615135193e-02 -5.557712912559509277e-02
1.856499463319778442e-01 1.087308116257190704e-02 8.141164481639862061e-02
3.886565566062927246e-02 2.593344822525978088e-02 -6.616831570863723755e-02
4.682541787624359131e-01 1.039914637804031372e-01 -1.303810998797416687e-02
5.853083729743957520e-01 -5.490481853485107422e-03 9.571111202239990234e-02
-2.585208415985107422e-01 1.226033419370651245e-01 3.040562383830547333e-02
6.122465729713439941e-01 8.149187266826629639e-02 -7.972611114382743835e-03
3.291620314121246338e-01 -7.193554937839508057e-02 -3.605946898460388184e-02
7.589908242225646973e-01 2.054454758763313293e-02 7.852034270763397217e-02
4.469373822212219238e-01 -9.606739878654479980e-02 7.868998683989048004e-03
-6.143087148666381836e-02 1.468354910612106323e-01 4.652356356382369995e-02
5.259190797805786133e-01 -4.454750567674636841e-02 8.430679142475128174e-02
4.356654286384582520e-01 -6.145379319787025452e-02 -6.409867852926254272e-02
-2.961787581443786621e-02 8.090424537658691406e-02 7.440736144781112671e-02
8.379409313201904297e-01 3.389333933591842651e-02 -3.484138287603855133e-03
6.126406192779541016e-01 9.993132203817367554e-03 -6.990573555231094360e-02
4.278537631034851074e-02 1.785806007683277130e-02 6.442601978778839111e-02
7.447758913040161133e-01 -3.759386390447616577e-02 -6.768977642059326172e-02
2.407346218824386597e-01 -5.821900442242622375e-02 -3.392793238162994385e-02
7.361881732940673828e-01 -1.176056414842605591e-01 3.349778056144714355e-02
8.911927938461303711e-01 -1.168618947267532349e-01 4.292028397321701050e-02
6.556388139724731445e-01 8.785890415310859680e-03 -6.611657887697219849e-02
1.336139738559722900e-01 4.066440463066101074e-02 -7.580047845840454102e-02
-2.671279907226562500e-01 9.473221004009246826e-02 2.386084571480751038e-02
4.810983538627624512e-01 9.031882509589195251e-03 9.716793894767761230e-02
-8.034983277320861816e-02 1.353035420179367065e-01 -3.568437695503234863e-02
3.582351803779602051e-01 5.242887511849403381e-02 9.537018090486526489e-02
7.590269446372985840e-01 1.891076564788818359e-02 -4.599136114120483398e-02
4.097630977630615234e-01 3.183032572269439697e-02 9.725813567638397217e-02
1.109643578529357910e+00 -7.320319116115570068e-02 1.434630248695611954e-03
7.069206237792968750e-02 1.540558487176895142e-01 1.136051863431930542e-02
4.018001854419708252e-01 -4.661164060235023499e-02 7.326125353574752808e-02
5.567086935043334961e-01 -4.996637627482414246e-02 -7.387485355138778687e-02
1.400924623012542725e-01 -2.206401526927947998e-02 -5.518415570259094238e-02
-2.267387509346008301e-01 1.021404862403869629e-01 -3.496177494525909424e-02
7.970539331436157227e-01 -1.351462490856647491e-02 8.486765623092651367e-02
-2.034271955490112305e-01 4.845691099762916565e-02 -1.053988188505172729e-02
1.117936253547668457e+00 -7.468432188034057617e-02 1.417234912514686584e-02
-8.506989479064941406e-02 1.109710186719894409e-01 -5.113196372985839844e-02
7.442161440849304199e-02 -1.323711313307285309e-02 -4.913509637117385864e-02
6.219323873519897461e-01 -9.016890823841094971e-02 -5.521764606237411499e-02
4.741170704364776611e-01 6.319206953048706055e-02 -5.844389647245407104e-02
3.441551029682159424e-01 -2.469950541853904724e-02 -7.575614005327224731e-02
4.240548014640808105e-01 -1.174733228981494904e-02 -8.032146841287612915e-02
4.637252390384674072e-01 5.294410884380340576e-02 9.277883172035217285e-02
7.845506668090820312e-01 3.169108554720878601e-02 -2.858039550483226776e-02
7.629048824310302734e-01 -1.264900900423526764e-02 -6.106784939765930176e-02
2.690735161304473877e-01 1.602955535054206848e-02 -8.002487570047378540e-02
5.824132561683654785e-01 -9.434844553470611572e-02 -4.862767457962036133e-02
-2.076170444488525391e-01 8.417518436908721924e-02 -3.887005150318145752e-02
5.325269103050231934e-01 4.117554053664207458e-02 -6.490445137023925781e-02
8.179164528846740723e-01 -1.231169104576110840e-01 -2.531513012945652008e-02
1.822137832641601562e-02 -1.086867973208427429e-02 2.769527956843376160e-02
2.948669791221618652e-01 1.275313943624496460e-01 -1.338387839496135712e-02
2.195631861686706543e-01 8.683158457279205322e-02 -6.404611468315124512e-02
9.658492207527160645e-01 -4.437827318906784058e-02 6.735455989837646484e-02
9.529549479484558105e-01 -1.174517422914505005e-01 -2.712191455066204071e-02
2.669311463832855225e-01 9.564732015132904053e-02 8.328382670879364014e-02
8.599631786346435547e-01 -1.114292144775390625e-01 4.939125478267669678e-02
-1.139754056930541992e-01 1.149090826511383057e-01 6.174340099096298218e-02
9.896910190582275391e-01 -7.595789432525634766e-02 -3.907217830419540405e-02
9.260330796241760254e-01 -6.842914223670959473e-02 -4.925400763750076294e-02
8.329788446426391602e-01 -1.279141008853912354e-01 1.951450668275356293e-02
4.300107955932617188e-01 5.545790866017341614e-02 -6.709737330675125122e-02
-1.039288043975830078e-01 7.843811810016632080e-02 6.374274939298629761e-02
