-6.008346378803253174e-02 2.959316372871398926e-01 1.199723687022924423e-03
3.932097852230072021e-01 1.571213901042938232e-01 1.974446773529052734e-01
1.908249557018280029e-01 1.472966521978378296e-01 -2.819014787673950195e-01
-2.864569425582885742e-01 3.030879497528076172e-01 5.268847569823265076e-02
-3.811720907688140869e-01 -1.338399052619934082e-01 -1.649487018585205078e-02
3.745072782039642334e-01 1.624967753887176514e-01 1.976809799671173096e-01
2.690398395061492920e-01 2.073573470115661621e-01 -2.016973793506622314e-01
3.119023442268371582e-01 -1.244527697563171387e-01 1.955905109643936157e-01
4.208208024501800537e-01 -1.491448283195495605e-02 -2.494036406278610229e-01
3.314508199691772461e-01 4.849086329340934753e-02 2.855517268180847168e-01
-9.753506183624267578e-01 2.899483218789100647e-02 -1.170494407415390015e-02
6.712574958801269531e-01 1.058453023433685303e-01 -1.300797611474990845e-01
-3.897082805633544922e-02 -1.043728291988372803e-01 -1.976320147514343262e-01
1.754605472087860107e-01 5.392786115407943726e-02 3.112932741641998291e-01
5.506410598754882812e-01 1.799812614917755127e-01 -7.613615691661834717e-02
4.241805374622344971e-01 1.742108166217803955e-01 -1.894032210111618042e-01
-5.270305871963500977e-01 2.857558727264404297e-01 1.138140559196472168e-01
1.348059773445129395e-01 1.011661142110824585e-01 3.029273152351379395e-01
-9.244649112224578857e-02 -1.591343283653259277e-01 1.037698462605476379e-01
-2.025701403617858887e-01 3.010192811489105225e-01 -8.827933669090270996e-02
-5.378531217575073242e-01 4.707925766706466675e-02 2.987236678600311279e-01
5.518567562103271484e-02 -1.687891781330108643e-01 7.138045877218246460e-02
-7.156128883361816406e-01 -6.103380024433135986e-02 -5.643717572093009949e-02
-8.235187530517578125e-01 1.433473527431488037e-01 -2.089796811342239380e-01
-3.963839709758758545e-01 1.227530837059020996e-01 -3.049612343311309814e-01
-7.998239994049072266e-01 3.942425549030303955e-02 2.209274917840957642e-01
4.263490736484527588e-01 -1.480013430118560791e-01 9.969013929367065430e-02
-1.962664574384689331e-01 -1.596400141716003418e-02 3.158861100673675537e-01
4.521392285823822021e-01 -5.583329498767852783e-02 -2.151930928230285645e-01
-1.776002347469329834e-03 -1.405176073312759399e-01 1.845139861106872559e-01
-3.206335604190826416e-01 9.579982608556747437e-02 3.233334720134735107e-01
4.578984081745147705e-01 -1.502181589603424072e-01 -1.548619568347930908e-02
-4.595583677291870117e-01 4.893541336059570312e-03 2.972598969936370850e-01
-5.187038183212280273e-01 -1.129241436719894409e-01 -8.245585486292839050e-03
-6.101726293563842773e-01 1.237029880285263062e-01 2.840848565101623535e-01
7.737747430801391602e-01 -3.139177709817886353e-02 -7.578171044588088989e-02
-7.636387348175048828e-01 9.478833526372909546e-02 2.507061064243316650e-01
-3.408247828483581543e-01 3.064418137073516846e-01 -7.612378150224685669e-02
2.383346855640411377e-02 1.553906872868537903e-02 3.252893388271331787e-01
-5.075656771659851074e-01 9.514102339744567871e-02 -2.896935045719146729e-01
6.705199480056762695e-01 2.118454501032829285e-02 1.735361665487289429e-01
-1.932050883769989014e-01 1.388727873563766479e-02 3.268421590328216553e-01
6.285398006439208984e-01 1.877389848232269287e-02 1.956228017807006836e-01
-4.953532218933105469e-01 -1.007356345653533936e-01 -9.013956040143966675e-02
7.759356498718261719e-02 2.524213492870330811e-01 1.382912695407867432e-01
-1.840950846672058105e-01 7.905022799968719482e-02 3.301209509372711182e-01
-1.606911867856979370e-01 2.867307066917419434e-01 -1.426052600145339966e-01
1.356925070285797119e-02 -3.951752185821533203e-02 3.066909015178680420e-01
-2.719565629959106445e-01 1.708436310291290283e-01 2.904749810695648193e-01
-6.665753126144409180e-01 6.234953925013542175e-02 2.742039263248443604e-01
-1.478441059589385986e-01 1.278559863567352295e-01 3.143887817859649658e-01
-8.696187734603881836e-01 7.220383733510971069e-03 -9.923853725194931030e-02
-2.566515207290649414e-01 -1.392202675342559814e-01 -7.171788811683654785e-02
2.792327105998992920e-02 -1.188577562570571899e-01 -1.764184087514877319e-01
-2.815308868885040283e-01 1.935624480247497559e-01 2.717647552490234375e-01
-6.877524852752685547e-01 1.797870844602584839e-01 -2.405166774988174438e-01
-2.755060791969299316e-01 -1.447881609201431274e-01 9.904997795820236206e-02
5.272119045257568359e-01 1.361803114414215088e-01 -1.883103698492050171e-01
-7.292319536209106445e-01 7.301111519336700439e-02 -2.307384163141250610e-01
3.554763197898864746e-01 1.977460682392120361e-01 1.485812067985534668e-01
-4.331566393375396729e-02 2.736121416091918945e-02 3.296129107475280762e-01
-8.017408847808837891e-02 2.552483677864074707e-01 -2.061787545680999756e-01
-2.177543491125106812e-01 2.995575964450836182e-01 5.914633348584175110e-02
-5.345804691314697266e-01 2.798547148704528809e-01 1.292510926723480225e-01
4.834843575954437256e-01 -1.054023206233978271e-01 -1.457167714834213257e-01
-2.597593665122985840e-01 5.335444957017898560e-02 -3.109707236289978027e-01
-4.803473949432373047e-01 3.066327869892120361e-01 2.277068234980106354e-02
5.743099749088287354e-02 1.277958005666732788e-01 -3.078873455524444580e-01
-6.078807711601257324e-01 -1.508825272321701050e-02 2.495231777429580688e-01
-5.818293094635009766e-01 1.759552955627441406e-01 -2.651146650314331055e-01
-4.750595390796661377e-01 2.991337776184082031e-01 -1.062260195612907410e-01
6.887118816375732422e-01 1.237528026103973389e-01 -7.121951133012771606e-02
-9.657654762268066406e-01 2.826479822397232056e-02 -3.271196782588958740e-02
2.672151327133178711e-01 2.183589637279510498e-01 -1.826193928718566895e-01
2.808471620082855225e-01 -1.141207218170166016e-01 2.173387557268142700e-01
3.486467003822326660e-01 1.919599771499633789e-01 -1.956436485052108765e-01
4.830568134784698486e-01 1.857775077223777771e-02 -2.457780390977859497e-01
3.674463927745819092e-01 -3.850266337394714355e-02 2.680846154689788818e-01
-2.830870747566223145e-01 3.050189018249511719e-01 -8.001904189586639404e-02
-5.440207719802856445e-01 -1.051366329193115234e-01 -3.208784013986587524e-02
4.301560819149017334e-01 -1.554057002067565918e-01 1.175271626561880112e-02
-3.776992261409759521e-01 3.098998665809631348e-01 -3.028656821697950363e-03
3.079486489295959473e-01 9.412091225385665894e-02 2.750029563903808594e-01
3.375895321369171143e-02 -1.512475609779357910e-01 -9.790461510419845581e-02
-4.269874095916748047e-01 1.952795833349227905e-01 2.657249867916107178e-01
-3.026034533977508545e-01 -1.434263736009597778e-01 -1.939014717936515808e-02
4.302954971790313721e-01 9.912289679050445557e-03 -2.568358778953552246e-01
-7.570679187774658203e-01 -5.979533493518829346e-02 5.038261041045188904e-02
1.825616359710693359e-01 1.444733589887619019e-01 2.685718238353729248e-01
-2.939158678054809570e-01 2.776201367378234863e-01 1.456463336944580078e-01
-3.064743876457214355e-01 5.242268741130828857e-02 3.272207379341125488e-01
-6.282069683074951172e-01 2.937684357166290283e-01 -8.262218534946441650e-02
-4.316522777080535889e-01 7.660089433193206787e-02 3.167026638984680176e-01
-7.721824645996093750e-01 6.376311182975769043e-02 -2.110314518213272095e-01
1.646366417407989502e-01 2.533248960971832275e-01 9.918994456529617310e-02
-1.008645415306091309e+00 5.722960084676742554e-02 7.524564862251281738e-02
-6.939445734024047852e-01 2.879988402128219604e-02 -2.162483781576156616e-01
-6.465967893600463867e-01 2.632764875888824463e-01 -1.657913923263549805e-01
-5.879375934600830078e-01 1.087906956672668457e-01 -2.760217487812042236e-01
5.660845041275024414e-01 1.062595099210739136e-01 -1.968851685523986816e-01
1.153607070446014404e-01 1.023342907428741455e-01 -3.092127740383148193e-01
-3.316195607185363770e-01 1.745210736989974976e-01 2.868855297565460205e-01
9.794490039348602295e-02 -1.436123400926589966e-01 1.792588829994201660e-01
-5.402216315269470215e-01 1.264177560806274414e-01 -2.848982214927673340e-01
-8.775496482849121094e-01 1.420230269432067871e-01 -1.864405125379562378e-01
1.284249126911163330e-02 -3.004523366689682007e-02 -2.808422148227691650e-01
-7.897714376449584961e-01 1.743364930152893066e-01 2.184108942747116089e-01
-3.223092555999755859e-01 -9.363934397697448730e-02 2.285932898521423340e-01
-6.455662250518798828e-01 2.519550919532775879e-01 1.678546220064163208e-01
-2.883977293968200684e-01 1.293559819459915161e-01 -3.126388192176818848e-01
6.456440687179565430e-01 -1.010443866252899170e-01 -7.223088294267654419e-02
-5.481321215629577637e-01 3.055185079574584961e-01 -7.080128882080316544e-03
4.025885164737701416e-01 1.060251295566558838e-01 -2.567099630832672119e-01
-4.642745852470397949e-01 1.485442668199539185e-01 -2.925446629524230957e-01
-7.078298330307006836e-01 1.083742752671241760e-01 -2.468012124300003052e-01
1.970213949680328369e-01 -1.635727286338806152e-01 -4.756304994225502014e-02
-8.895324468612670898e-01 2.518891692161560059e-01 -5.921301245689392090e-02
3.330578207969665527e-01 1.410768330097198486e-01 2.352626025676727295e-01
2.179140448570251465e-01 2.001915872097015381e-01 -2.281631231307983398e-01
-5.538854598999023438e-01 6.102025136351585388e-02 2.983643114566802979e-01
5.942173004150390625e-01 -1.167041063308715820e-01 -6.670382618904113770e-02
1.236551254987716675e-01 -1.692211478948593140e-01 -1.171864010393619537e-02
-3.340581655502319336e-01 3.066034913063049316e-01 3.455243259668350220e-02
2.990219593048095703e-01 1.867172122001647949e-01 -2.212689667940139771e-01
-1.068994164466857910e+00 1.384550780057907104e-01 1.775209791958332062e-02
-3.453712165355682373e-02 -8.698594570159912109e-02 2.691019475460052490e-01
-2.691021561622619629e-01 1.344553828239440918e-01 3.121893107891082764e-01
4.105498492717742920e-01 2.218922972679138184e-01 1.932589709758758545e-02
7.161365747451782227e-01 -6.842626631259918213e-02 1.022324413061141968e-01
5.417257547378540039e-01 6.735172867774963379e-02 -2.261708825826644897e-01
-6.084292531013488770e-01 2.147812247276306152e-01 2.261756658554077148e-01
-9.171621799468994141e-01 -2.212144434452056885e-03 1.310746651142835617e-03
-5.804790258407592773e-01 9.607228636741638184e-02 2.944114804267883301e-01
-9.062677621841430664e-03 2.912601828575134277e-01 8.308272808790206909e-04
-1.258961260318756104e-01 -3.813688457012176514e-02 -2.700895071029663086e-01
-5.814187526702880859e-01 2.037126570940017700e-01 2.416846156120300293e-01
-2.127370834350585938e-01 -5.106702446937561035e-04 -2.910836637020111084e-01
-9.180676937103271484e-02 -1.371749937534332275e-01 -1.241787672042846680e-01
-3.015513420104980469e-01 1.045014262199401855e-01 3.221996128559112549e-01
-8.464748859405517578e-01 -2.930048853158950806e-02 6.517282128334045410e-02
3.607777059078216553e-01 2.058346867561340332e-01 1.279739886522293091e-01
6.724722385406494141e-01 1.049917489290237427e-01 1.086195111274719238e-01
3.998319804668426514e-01 -1.427916288375854492e-01 -8.470573276281356812e-02
-8.308589458465576172e-01 -1.545902341604232788e-02 1.368941813707351685e-01
-1.006440639495849609e+00 4.882601648569107056e-02 -1.075038313865661621e-02
1.700762212276458740e-01 1.322076618671417236e-01 -2.930363714694976807e-01
-8.794411420822143555e-01 2.032801061868667603e-01 1.585091501474380493e-01
-3.632712960243225098e-01 -1.184228211641311646e-01 1.638398915529251099e-01
5.244582891464233398e-01 -1.390716284513473511e-01 -2.732770517468452454e-02
1.204136759042739868e-01 2.441797703504562378e-01 -1.826773136854171753e-01
-3.197358846664428711e-01 2.892012298107147217e-01 1.144224032759666443e-01
2.479272782802581787e-01 -3.248371928930282593e-02 -2.667753398418426514e-01
-5.447439551353454590e-01 -1.034659594297409058e-01 1.062432378530502319e-01
-8.169354200363159180e-01 2.734032869338989258e-01 1.464113406836986542e-02
-2.953038215637207031e-01 3.347551822662353516e-02 -3.009952008724212646e-01
-9.972186088562011719e-01 5.354648828506469727e-02 -4.716566577553749084e-02
-9.998730421066284180e-01 2.135309576988220215e-01 3.062278963625431061e-02
4.702876508235931396e-02 1.421324759721755981e-01 2.915538251399993896e-01
-1.246821433305740356e-01 -8.021663129329681396e-02 -2.254918515682220459e-01
-7.420367002487182617e-01 -1.944860070943832397e-02 1.905378550291061401e-01
-2.023470103740692139e-01 -1.469516605138778687e-01 -6.062956899404525757e-02
6.532214879989624023e-01 1.445067226886749268e-01 2.391998469829559326e-02
7.001953125000000000e-01 2.617855742573738098e-02 -1.577629745006561279e-01
-6.081026792526245117e-02 -1.315159350633621216e-01 2.003813385963439941e-01
-7.134939432144165039e-01 7.963427156209945679e-02 -2.383097559213638306e-01
-6.171194314956665039e-01 -6.907895207405090332e-02 -1.091412231326103210e-01
-9.188473224639892578e-01 1.236461326479911804e-01 1.873532086610794067e-01
-4.526835978031158447e-01 -1.155129075050354004e-01 -6.181524693965911865e-02
4.702252447605133057e-01 2.009149193763732910e-01 -9.398663043975830078e-02
-4.245926141738891602e-01 1.186504960060119629e-04 -2.638779580593109131e-01
-1.037018060684204102e+00 7.561088353395462036e-02 -1.466692052781581879e-02
1.090151220560073853e-01 -8.731544017791748047e-02 -2.248968034982681274e-01
2.077127099037170410e-01 9.021863341331481934e-02 2.964067757129669189e-01
-4.268591105937957764e-01 -6.746874749660491943e-02 2.422657012939453125e-01
-6.875311136245727539e-01 2.824202775955200195e-01 -1.024767160415649414e-01
-3.908416628837585449e-01 -1.228788644075393677e-01 -7.067621499300003052e-02
-7.259882688522338867e-01 1.582342833280563354e-01 -2.382402867078781128e-01
1.175572127103805542e-01 2.760189771652221680e-01 -5.573130771517753601e-02
4.839176237583160400e-01 -1.442456990480422974e-01 7.824978232383728027e-02
-2.354039996862411499e-01 1.568832397460937500e-01 -3.067300319671630859e-01
-5.214008092880249023e-01 -4.443058371543884277e-02 -1.950472593307495117e-01
9.013238549232482910e-02 2.791215181350708008e-01 1.541001535952091217e-02
8.788356184959411621e-02 1.468202769756317139e-01 -2.968362271785736084e-01
2.025256156921386719e-01 2.068711072206497192e-01 1.914220601320266724e-01
-7.939869165420532227e-01 -4.375617951154708862e-02 8.817724138498306274e-02
-5.624551773071289062e-01 -1.057127267122268677e-01 6.258813291788101196e-02
4.169368445873260498e-01 -1.383107751607894897e-01 -9.302573651075363159e-02
2.903139293193817139e-01 2.325949221849441528e-01 -1.359638571739196777e-01
-7.832471132278442383e-01 2.053145170211791992e-01 1.943117529153823853e-01
3.977226316928863525e-01 3.516443073749542236e-02 2.725486159324645996e-01
-5.851321220397949219e-01 -9.478303790092468262e-02 1.086036041378974915e-01
-7.579817771911621094e-01 6.035635620355606079e-02 2.466350793838500977e-01
-3.983434289693832397e-02 -8.466105163097381592e-02 -2.259755581617355347e-01
-2.610492706298828125e-01 -1.256783008575439453e-01 -1.164121329784393311e-01
-4.481821060180664062e-01 1.068727672100067139e-02 -2.670197188854217529e-01
2.693932354450225830e-01 2.529664039611816406e-01 -2.527671400457620621e-03
-9.197682142257690430e-02 1.424052268266677856e-01 -3.116279542446136475e-01
-3.417755067348480225e-01 2.190748602151870728e-01 -2.634948790073394775e-01
4.937115013599395752e-01 1.159345209598541260e-01 2.024267464876174927e-01
4.799023568630218506e-01 -1.330999433994293213e-01 -8.357447385787963867e-02
7.672472000122070312e-01 5.269544199109077454e-02 -9.060554951429367065e-02
-4.034144580364227295e-01 1.788024976849555969e-02 -2.793135344982147217e-01
-9.064134359359741211e-01 2.499036341905593872e-01 -4.224053397774696350e-02
-4.922745823860168457e-01 -1.101493984460830688e-01 -5.588710308074951172e-02
6.759108304977416992e-01 -7.839687168598175049e-02 1.213934049010276794e-01
9.521353244781494141e-02 1.224557459354400635e-01 -3.060556054115295410e-01
-9.546449184417724609e-01 1.363625228404998779e-01 1.647977977991104126e-01
6.090974807739257812e-01 1.640271544456481934e-01 8.463941514492034912e-03
-5.235784649848937988e-01 2.007858008146286011e-01 2.520744502544403076e-01
1.968127191066741943e-01 1.237110719084739685e-01 2.808434367179870605e-01
1.612136662006378174e-01 2.657082080841064453e-01 -9.069747477769851685e-02
3.011614382266998291e-01 -1.138185709714889526e-01 -1.721711009740829468e-01
-1.605651080608367920e-01 1.422553062438964844e-01 -3.127992749214172363e-01
1.739942729473114014e-01 1.636060476303100586e-01 2.533390223979949951e-01
-6.301774978637695312e-01 -1.221373677253723145e-03 -2.111145406961441040e-01
2.244409918785095215e-02 -1.548196226358413696e-01 -8.405376225709915161e-02
2.651616930961608887e-02 8.493990451097488403e-02 3.206285536289215088e-01
-4.556173086166381836e-01 1.307462453842163086e-01 -2.971207201480865479e-01
-6.510722637176513672e-01 -8.003725111484527588e-02 -4.487319290637969971e-02
-3.835579007863998413e-02 -1.386543065309524536e-01 1.862414926290512085e-01
-3.762067556381225586e-01 2.082944959402084351e-01 2.558596730232238770e-01
-7.840022444725036621e-02 2.980602979660034180e-01 -2.628948166966438293e-02
-5.097187757492065430e-01 7.684326171875000000e-02 -2.859833836555480957e-01
-1.781970262527465820e-01 2.150987982749938965e-01 2.455984055995941162e-01
4.319439828395843506e-01 2.187141329050064087e-01 -3.124015405774116516e-02
-2.032895386219024658e-01 -1.240976303815841675e-01 -1.360219419002532959e-01
-6.310621500015258789e-01 1.321023106575012207e-01 -2.666054666042327881e-01
7.377769052982330322e-02 2.071586251258850098e-01 -2.513182759284973145e-01
2.583942711353302002e-01 2.505781054496765137e-01 -8.529434353113174438e-02
-9.743872284889221191e-02 -4.324094951152801514e-02 -2.673537433147430420e-01
3.162238299846649170e-01 2.098324596881866455e-01 1.421203315258026123e-01
-1.596916913986206055e-01 7.894549518823623657e-03 -2.994452118873596191e-01
-9.554249048233032227e-01 1.530627608299255371e-01 -1.424343883991241455e-01
-5.957770347595214844e-01 2.537770867347717285e-01 -1.939544677734375000e-01
-1.332751959562301636e-01 -1.266092360019683838e-01 -1.439519524574279785e-01
-9.483042359352111816e-02 -4.042659699916839600e-02 3.064304888248443604e-01
-1.170665472745895386e-01 2.514581382274627686e-01 1.844780147075653076e-01
-2.748394012451171875e-02 1.747608780860900879e-01 2.745449244976043701e-01
-2.155708968639373779e-01 -1.111484169960021973e-01 2.196048200130462646e-01
7.478381693363189697e-02 2.758762240409851074e-01 5.497872829437255859e-02
-1.231220886111259460e-01 2.045508474111557007e-01 2.537992894649505615e-01
-1.771635413169860840e-01 -1.437830030918121338e-01 1.472118794918060303e-01
5.117847919464111328e-01 -1.257080435752868652e-01 1.292021423578262329e-01
-4.242892563343048096e-01 -6.366506218910217285e-02 -1.957696974277496338e-01
-8.155241012573242188e-01 2.646376490592956543e-01 -8.506469428539276123e-02
5.076444149017333984e-02 2.845553159713745117e-01 6.248125806450843811e-03
-4.073705971240997314e-01 1.568198800086975098e-01 2.948729395866394043e-01
1.792100965976715088e-01 2.632955610752105713e-01 -8.874921500682830811e-02
-6.860387325286865234e-01 1.536831557750701904e-01 -2.501184940338134766e-01
-4.250593483448028564e-01 1.147827208042144775e-01 -3.023133277893066406e-01
-7.286692857742309570e-01 -4.542796313762664795e-02 1.511310189962387085e-01
4.414618909358978271e-01 2.070258557796478271e-01 6.238454952836036682e-02
7.254132032394409180e-01 -1.891145110130310059e-02 1.366099566221237183e-01
-3.909899890422821045e-01 8.389841765165328979e-02 3.202161788940429688e-01
-2.086685746908187866e-01 -8.366918563842773438e-02 -2.107080817222595215e-01
-1.505674123764038086e-01 -4.768567532300949097e-02 2.995571196079254150e-01
-8.643858432769775391e-01 5.375865846872329712e-02 -1.620815098285675049e-01
5.448999404907226562e-01 1.573068499565124512e-01 1.169240549206733704e-01
3.423944711685180664e-01 1.173601523041725159e-01 -2.669495344161987305e-01
-5.417305231094360352e-01 2.987238168716430664e-01 -9.231942892074584961e-02
3.417987823486328125e-01 1.274134218692779541e-01 2.447593957185745239e-01
-2.466605305671691895e-01 2.299423515796661377e-01 2.301624268293380737e-01
2.141332626342773438e-01 2.585601806640625000e-01 3.847942501306533813e-02
-1.062924265861511230e-01 2.618153095245361328e-01 1.613907665014266968e-01
4.622198641300201416e-02 8.738947659730911255e-02 3.181921541690826416e-01
5.980856418609619141e-01 -1.260237395763397217e-01 5.409839749336242676e-02
-9.901076555252075195e-01 1.618605852127075195e-01 -1.143806576728820801e-01
-7.474273443222045898e-04 1.330300271511077881e-01 -3.105568587779998779e-01
5.404274463653564453e-01 1.084336116909980774e-01 -2.071630656719207764e-01
5.208138227462768555e-01 5.726212263107299805e-02 -2.355634123086929321e-01
-3.064900636672973633e-03 1.207338720560073853e-01 3.093093037605285645e-01
-7.219453901052474976e-02 1.601445078849792480e-01 2.907198071479797363e-01
-5.761744976043701172e-01 1.150658279657363892e-01 2.921434640884399414e-01
-9.902064800262451172e-01 8.865416049957275391e-02 -1.022592559456825256e-01
-1.445422470569610596e-01 -1.199956834316253662e-01 2.140561640262603760e-01
-4.069199264049530029e-01 -1.202668696641921997e-01 1.368487626314163208e-01
1.929606497287750244e-01 2.662786245346069336e-01 -2.946983650326728821e-02
5.256808996200561523e-01 -1.416962891817092896e-01 -5.540037527680397034e-04
2.909540235996246338e-01 -1.603128612041473389e-01 9.995312988758087158e-02
-5.439504981040954590e-01 -8.961088955402374268e-03 -2.294355928897857666e-01
2.567472159862518311e-01 -1.646925956010818481e-01 -2.864870429039001465e-02
3.406531214714050293e-01 -1.277809143066406250e-01 -1.391709595918655396e-01
-2.821565270423889160e-01 2.488778978586196899e-01 -2.306323051452636719e-01
6.403281688690185547e-01 1.174082159996032715e-01 -1.399837583303451538e-01
-2.274783849716186523e-01 -7.894958555698394775e-02 -2.146079540252685547e-01
-1.037925779819488525e-01 -5.849584937095642090e-02 2.934980690479278564e-01
1.943967044353485107e-01 2.166753113269805908e-01 1.770281940698623657e-01
-6.130465120077133179e-02 -1.482792496681213379e-01 -9.549517929553985596e-02
3.770044744014739990e-01 1.899870485067367554e-01 1.533201634883880615e-01
8.742570877075195312e-02 -1.574923992156982422e-01 1.378126144409179688e-01
-9.073851257562637329e-02 2.713246047496795654e-01 -1.735925078392028809e-01
1.042829602956771851e-01 2.431943416595458984e-01 1.519520133733749390e-01
3.112527728080749512e-02 2.488199770450592041e-01 -1.975104957818984985e-01
-5.812499523162841797e-01 -3.295032680034637451e-02 2.400967478752136230e-01
-4.507224261760711670e-01 2.632620036602020264e-01 1.751311570405960083e-01
1.615855097770690918e-01 -8.304318785667419434e-02 2.671678960323333740e-01
-9.383599758148193359e-01 1.508164107799530029e-01 -1.535009741783142090e-01
5.234253406524658203e-01 1.907970607280731201e-01 2.591455541551113129e-02
2.466990649700164795e-01 1.317491233348846436e-01 -2.803780734539031982e-01
-3.660621494054794312e-02 1.577215492725372314e-01 2.894605696201324463e-01
-1.015158295631408691e+00 1.322070509195327759e-01 -9.749933332204818726e-02
-9.945719242095947266e-01 6.526380032300949097e-02 -7.235936075448989868e-02
-3.237711191177368164e-01 2.642469108104705811e-01 1.763885766267776489e-01
3.081267774105072021e-01 2.214635908603668213e-01 1.178948059678077698e-01
-5.380504131317138672e-01 -1.018920987844467163e-01 -5.536894127726554871e-02
-4.132971167564392090e-01 -2.379973232746124268e-02 2.878662049770355225e-01
4.632122814655303955e-01 2.040911763906478882e-01 4.921274259686470032e-02
-4.605986773967742920e-01 2.144548743963241577e-01 2.445454895496368408e-01
7.802251577377319336e-01 -1.304686069488525391e-03 8.965365588665008545e-02
-3.614968657493591309e-01 2.560554742813110352e-01 -2.186743617057800293e-01
-2.764390707015991211e-01 3.051675558090209961e-01 3.642352670431137085e-02
-1.525259017944335938e-01 1.489945799112319946e-01 3.030063807964324951e-01
3.840214312076568604e-01 -1.141467690467834473e-01 1.967449486255645752e-01
-9.740573167800903320e-02 1.956197768449783325e-01 -2.815145254135131836e-01
-3.357327878475189209e-01 -1.417812705039978027e-01 6.185066699981689453e-02
-7.476673126220703125e-01 2.847475111484527588e-01 1.978572085499763489e-02
7.596818208694458008e-01 -5.175355076789855957e-02 7.843425869941711426e-02
1.858929991722106934e-01 -1.658852249383926392e-01 9.308218210935592651e-02
-1.007194519042968750e-01 2.993051409721374512e-01 -1.367786433547735214e-03
6.607733964920043945e-01 1.214287653565406799e-01 8.974305540323257446e-02
-3.642863333225250244e-01 -1.336034238338470459e-01 -3.515504300594329834e-02
-8.348532915115356445e-01 2.257632166147232056e-01 1.492434144020080566e-01
-7.882472276687622070e-01 -6.042942404747009277e-04 1.906380653381347656e-01
1.702729463577270508e-01 -5.284570902585983276e-02 -2.580637931823730469e-01
3.308176398277282715e-01 2.240447402000427246e-01 9.598774462938308716e-02
-3.458845019340515137e-01 -7.308939099311828613e-02 -2.009825259447097778e-01
-1.011086463928222656e+00 1.399480998516082764e-01 1.220324262976646423e-01
7.912242412567138672e-02 -9.939374029636383057e-02 2.545485794544219971e-01
3.264049887657165527e-01 1.261440962553024292e-01 -2.662715017795562744e-01
-4.567971229553222656e-01 -3.386370092630386353e-02 2.716823816299438477e-01
5.278964042663574219e-01 2.156769856810569763e-02 -2.331594973802566528e-01
-7.407243251800537109e-01 -6.464731693267822266e-02 1.481899619102478027e-02
-4.786889851093292236e-01 -3.498040139675140381e-03 2.893159985542297363e-01
7.747803926467895508e-01 5.853360891342163086e-02 -7.300299406051635742e-02
-7.257831096649169922e-01 1.141226068139076233e-01 -2.421814203262329102e-01
-1.321846842765808105e-01 2.271399199962615967e-01 -2.529129683971405029e-01
1.012557148933410645e-01 -1.494449824094772339e-01 -1.069979146122932434e-01
2.285706996917724609e-01 2.288020402193069458e-01 -1.768288463354110718e-01
-1.435204744338989258e-01 3.867457807064056396e-02 -3.130106329917907715e-01
-1.721111685037612915e-02 -3.946875780820846558e-02 3.073311150074005127e-01
-6.442695856094360352e-01 -5.570988357067108154e-02 1.816346347332000732e-01
-6.715400218963623047e-01 1.470056548714637756e-02 2.527337372303009033e-01
-4.822375625371932983e-02 2.580828070640563965e-01 -1.954176127910614014e-01
2.379594445228576660e-01 2.358068227767944336e-01 -1.559164077043533325e-01
-6.659393310546875000e-01 2.440020442008972168e-01 1.765195578336715698e-01
8.368062973022460938e-02 2.476219385862350464e-01 -1.863955557346343994e-01
1.732179224491119385e-01 -1.683446317911148071e-01 7.645952701568603516e-02
7.910150289535522461e-01 4.441460222005844116e-02 -6.099030375480651855e-02
-6.577837467193603516e-01 -2.486750483512878418e-02 2.221179008483886719e-01
3.460228443145751953e-01 1.773149147629737854e-02 -2.759024202823638916e-01
-8.861323595046997070e-01 1.497494429349899292e-02 1.464104205369949341e-01
2.804812788963317871e-02 -1.352518796920776367e-01 1.978200376033782959e-01
-1.659690141677856445e-01 -1.558981537818908691e-01 -2.570355497300624847e-02
-9.232501983642578125e-01 1.686238348484039307e-01 1.676669865846633911e-01
2.684439718723297119e-02 -5.215885490179061890e-02 2.986692190170288086e-01
-7.248266935348510742e-01 -3.813436627388000488e-02 1.693366765975952148e-01
-9.788815975189208984e-01 3.992526233196258545e-02 -4.443196207284927368e-02
-6.411190330982208252e-02 2.930941283702850342e-01 -8.103907853364944458e-02
-5.026302933692932129e-01 2.265357673168182373e-01 2.269026190042495728e-01
-4.420863091945648193e-01 2.526137828826904297e-01 1.946961283683776855e-01
-9.027843475341796875e-01 -9.458057582378387451e-03 3.786857053637504578e-02
-8.177728652954101562e-01 8.192531019449234009e-02 2.304825037717819214e-01
5.008939504623413086e-01 2.003598362207412720e-01 -2.845326066017150879e-02
-2.398765385150909424e-01 -1.364651471376419067e-01 -8.911442756652832031e-02
3.845228254795074463e-01 -1.560676693916320801e-01 -3.129665926098823547e-02
-2.649003267288208008e-01 2.835911884903907776e-02 3.267119824886322021e-01
4.170348346233367920e-01 -1.514538675546646118e-01 -4.021448269486427307e-02
-5.289670228958129883e-01 8.082609623670578003e-02 -2.834246754646301270e-01
-3.782922327518463135e-01 6.754775345325469971e-02 -3.031388819217681885e-01
-9.046305418014526367e-01 1.764148175716400146e-01 -1.630788445472717285e-01
4.784570038318634033e-01 1.828027889132499695e-02 2.521083950996398926e-01
2.858283519744873047e-01 -9.655560553073883057e-02 2.389284521341323853e-01
-6.979545354843139648e-01 1.236636117100715637e-01 2.656088471412658691e-01
-2.839976549148559570e-01 2.845188081264495850e-01 1.264664083719253540e-01
-3.360435366630554199e-01 3.020827472209930420e-01 6.379153579473495483e-02
-5.511901378631591797e-01 3.041014373302459717e-01 -4.958054050803184509e-02
-6.708823442459106445e-01 1.118214055895805359e-02 -2.092075049877166748e-01
1.537786424160003662e-01 1.966407150030136108e-01 2.198424488306045532e-01
6.612476110458374023e-01 -8.345264196395874023e-02 -1.002172306180000305e-01
-3.951855301856994629e-01 -1.311124563217163086e-01 9.016358107328414917e-02
-3.241215944290161133e-01 -1.405958533287048340e-01 -2.173266001045703888e-02
-1.405269056558609009e-01 2.190354168415069580e-01 2.378300428390502930e-01
1.392339468002319336e-01 -1.524784117937088013e-01 1.536658406257629395e-01
-9.797587394714355469e-01 5.591266974806785583e-02 1.157735437154769897e-01
-1.590914428234100342e-01 -1.217900514602661133e-01 -1.504830420017242432e-01
-3.482838571071624756e-01 -1.060915738344192505e-01 -1.393201351165771484e-01
-3.512213230133056641e-01 -5.635911226272583008e-02 -2.226252406835556030e-01
-3.112002313137054443e-01 3.018820285797119141e-01 -1.022105216979980469e-01
-1.050856634974479675e-01 -1.576365977525711060e-01 -4.321468248963356018e-02
6.400890350341796875e-01 -3.389976918697357178e-02 1.820570677518844604e-01
-5.803496241569519043e-01 -7.655102014541625977e-02 1.711393445730209351e-01
4.789409339427947998e-01 -9.132276475429534912e-02 -1.689865440130233765e-01
6.535562276840209961e-01 -8.633705973625183105e-02 1.251748055219650269e-01
-7.105208635330200195e-01 -7.165297865867614746e-04 -1.813395917415618896e-01
4.065284132957458496e-02 -1.590640991926193237e-01 1.296055018901824951e-01
-4.885189831256866455e-01 1.880645453929901123e-01 -2.734785377979278564e-01
-6.305669546127319336e-01 2.980677485466003418e-01 2.153283357620239258e-02
-4.218436181545257568e-01 2.645662054419517517e-02 3.114027678966522217e-01
4.178510010242462158e-01 -1.441901326179504395e-01 1.190003976225852966e-01
1.622032225131988525e-01 2.431673556566238403e-01 -1.703256666660308838e-01
6.478888988494873047e-01 7.281073182821273804e-02 1.623932719230651855e-01
3.527154922485351562e-01 2.344311028718948364e-01 -6.699156761169433594e-02
2.700855433940887451e-01 -1.630232483148574829e-01 9.122164547443389893e-02
4.966904819011688232e-01 1.285731345415115356e-01 1.881271004676818848e-01
-2.650500535964965820e-01 -7.952626049518585205e-02 2.586376070976257324e-01
-2.051612883806228638e-01 -3.446903824806213379e-02 -2.667856216430664062e-01
6.429229676723480225e-02 2.612802088260650635e-01 -1.592533588409423828e-01
-4.829415380954742432e-01 -8.341044187545776367e-02 -1.415797024965286255e-01
4.297575056552886963e-01 -4.770833253860473633e-02 2.494649738073348999e-01
-7.349849939346313477e-01 2.492073327302932739e-01 1.482056379318237305e-01
-1.760973036289215088e-01 2.652023434638977051e-01 1.641489416360855103e-01
5.900728702545166016e-01 -8.448921144008636475e-02 -1.383869051933288574e-01
-6.058008670806884766e-01 -5.423311144113540649e-02 2.025521695613861084e-01
-1.162443310022354126e-01 -1.500448584556579590e-01 1.401868760585784912e-01
-4.756249785423278809e-01 2.659651041030883789e-01 1.678848415613174438e-01
-3.188021779060363770e-01 2.435399740934371948e-01 2.123369127511978149e-01
5.407083034515380859e-01 8.860622346401214600e-02 2.051236033439636230e-01
-8.351959288120269775e-02 1.915171742439270020e-01 2.642164230346679688e-01
-7.175780534744262695e-01 5.456094443798065186e-02 2.578355967998504639e-01
-9.129189252853393555e-01 1.207244396209716797e-01 -1.684704124927520752e-01
-2.662099301815032959e-01 4.279956221580505371e-03 -2.890612185001373291e-01
-3.612209558486938477e-01 2.798578739166259766e-01 -1.744869649410247803e-01
-8.147896528244018555e-01 1.659922301769256592e-01 -2.070136070251464844e-01
-6.840316206216812134e-02 -1.206453740596771240e-01 -1.658576577901840210e-01
-1.526599079370498657e-01 -3.792830556631088257e-02 -2.683795690536499023e-01
2.487909793853759766e-01 1.374415308237075806e-02 -2.891834676265716553e-01
7.531403303146362305e-01 -7.405570149421691895e-02 1.157824322581291199e-02
8.118394017219543457e-02 -3.732271492481231689e-02 -2.745499610900878906e-01
-8.720488846302032471e-02 -9.067919850349426270e-02 -2.146025747060775757e-01
3.217112720012664795e-01 -1.581228375434875488e-01 1.004674881696701050e-01
-3.895730078220367432e-01 2.656742930412292480e-01 -2.016604840755462646e-01
-1.706604659557342529e-01 2.732302844524383545e-01 -1.811505556106567383e-01
2.727915048599243164e-01 -2.633564174175262451e-03 -2.800287008285522461e-01
-6.243185997009277344e-01 -5.117714405059814453e-02 1.994184404611587524e-01
-5.288847684860229492e-01 2.696438431739807129e-01 -1.794836074113845825e-01
-3.292482346296310425e-02 1.909081041812896729e-01 2.594532668590545654e-01
3.125667870044708252e-01 -1.600380241870880127e-02 2.866280078887939453e-01
-1.023769378662109375e+00 1.790605783462524414e-01 7.869737595319747925e-02
-9.754119813442230225e-02 -1.644546538591384888e-01 3.596475720405578613e-02
-9.033201932907104492e-01 1.891262829303741455e-02 1.377435028553009033e-01
-1.052239060401916504e+00 1.004631072282791138e-01 -2.735569700598716736e-02
5.928759574890136719e-01 -6.220987439155578613e-02 -1.651191711425781250e-01
2.745091915130615234e-02 -1.153717041015625000e-01 2.335703819990158081e-01
-4.486612379550933838e-01 1.861460506916046143e-01 2.718491852283477783e-01
2.474811673164367676e-01 -1.518623828887939453e-01 1.437645554542541504e-01
6.243805587291717529e-02 2.747431397438049316e-01 -1.128953695297241211e-01
3.350168466567993164e-02 2.749609351158142090e-01 -1.262400597333908081e-01
-9.426347017288208008e-01 1.689327657222747803e-01 -1.450277566909790039e-01
-8.568820953369140625e-01 2.020299583673477173e-01 1.702260375022888184e-01
-2.470625191926956177e-02 -7.784964144229888916e-02 -2.351603657007217407e-01
8.082991838455200195e-01 3.451183438301086426e-04 -4.398249834775924683e-02
-7.721539735794067383e-01 2.796457409858703613e-01 -5.221372470259666443e-02
-6.820046901702880859e-01 2.102652788162231445e-01 -2.228019088506698608e-01
-1.242232024669647217e-01 -1.164782792329788208e-01 2.229583561420440674e-01
-7.010703086853027344e-01 2.770212590694427490e-01 -1.141793355345726013e-01
1.870466470718383789e-01 2.546511292457580566e-01 8.116924017667770386e-02
3.598335683345794678e-01 1.053170487284660339e-02 2.819716036319732666e-01
8.035203218460083008e-01 4.476603120565414429e-02 -1.876561902463436127e-02
-1.132539063692092896e-01 -8.421987295150756836e-03 -2.924711406230926514e-01
-5.395826101303100586e-01 2.866565585136413574e-01 -1.377961784601211548e-01
4.061906039714813232e-01 -5.210600793361663818e-02 -2.284032553434371948e-01
-1.761878132820129395e-01 4.813420027494430542e-02 -3.145052194595336914e-01
-4.924695491790771484e-01 4.046216607093811035e-02 3.048963248729705811e-01
-6.704419851303100586e-01 2.596279978752136230e-01 1.471895575523376465e-01
7.995724678039550781e-01 -1.669746637344360352e-02 5.513582751154899597e-02
-8.135334253311157227e-01 1.856787502765655518e-01 -1.985971331596374512e-01
4.888798892498016357e-01 6.170412525534629822e-02 2.394891530275344849e-01
5.819945335388183594e-01 -1.156967282295227051e-01 1.130529195070266724e-01
4.552960693836212158e-01 -1.429691165685653687e-02 2.555650472640991211e-01
1.559257209300994873e-01 -5.321680009365081787e-02 2.906568050384521484e-01
3.587712943553924561e-01 9.140317142009735107e-02 -2.729834020137786865e-01
-6.594601869583129883e-01 1.869289278984069824e-01 -2.437688559293746948e-01
-5.432848632335662842e-02 1.407223343849182129e-01 3.024655282497406006e-01
-4.630064666271209717e-01 3.090162277221679688e-01 -2.603260427713394165e-02
-6.240873336791992188e-01 2.520426362752914429e-02 2.722980976104736328e-01
-8.017617464065551758e-01 2.536885738372802734e-01 1.113098710775375366e-01
1.969692111015319824e-01 -1.596449315547943115e-01 -6.691560149192810059e-02
-7.466069459915161133e-01 2.861636877059936523e-01 -1.703166402876377106e-03
-3.677548170089721680e-01 2.929083108901977539e-01 1.034084409475326538e-01
4.890328645706176758e-02 2.705038487911224365e-01 9.360108524560928345e-02
3.546855449676513672e-01 2.248101234436035156e-01 7.460794597864151001e-02
5.144119262695312500e-01 -8.878919482231140137e-02 -1.615594029426574707e-01
3.986972570419311523e-02 2.380054891109466553e-01 -2.151802927255630493e-01
1.439317762851715088e-01 7.288582623004913330e-02 -3.094904720783233643e-01
-5.108456313610076904e-02 -1.510618776082992554e-01 1.492096483707427979e-01
3.860357701778411865e-01 2.150084674358367920e-01 -1.240493208169937134e-01
6.784538030624389648e-01 1.289163231849670410e-01 4.433154687285423279e-02
5.200515985488891602e-01 1.566396653652191162e-01 -1.649259030818939209e-01
6.190062761306762695e-01 -6.921944022178649902e-02 1.676191538572311401e-01
4.443506896495819092e-01 1.868958473205566406e-01 1.218986362218856812e-01
1.133251786231994629e-01 -3.487480431795120239e-02 3.041194975376129150e-01
-6.543580293655395508e-01 -6.741690635681152344e-02 -8.896247297525405884e-02
7.054764032363891602e-01 1.223630011081695557e-01 -2.670110389590263367e-02
5.496872663497924805e-01 -1.327229440212249756e-01 -3.880085051059722900e-02
3.745490014553070068e-01 1.269952654838562012e-01 -2.533396482467651367e-01
-4.968221783638000488e-01 -9.835162758827209473e-02 1.593756824731826782e-01
-2.041981816291809082e-01 8.507912606000900269e-02 -3.194072842597961426e-01
-5.740880966186523438e-01 -1.042283475399017334e-01 1.886259950697422028e-02
-6.465117931365966797e-01 2.101276516914367676e-01 -2.314141392707824707e-01
-7.014313936233520508e-01 2.308592945337295532e-01 1.872687041759490967e-01
-8.400793075561523438e-01 2.416864484548568726e-01 -1.273267418146133423e-01
4.763277471065521240e-01 1.887661516666412354e-01 -1.291464120149612427e-01
-2.206726670265197754e-01 2.543167471885681152e-01 -2.210296839475631714e-01
7.616226673126220703e-01 6.764403730630874634e-02 -8.142300695180892944e-02
-1.061188220977783203e+00 1.064915582537651062e-01 -6.928257178515195847e-03
-9.807360172271728516e-01 3.364426642656326294e-02 6.427311152219772339e-02
-4.517025947570800781e-01 -1.236738115549087524e-01 -1.406330056488513947e-02
-7.245377302169799805e-01 -1.351892203092575073e-02 -1.581553816795349121e-01
-8.964875936508178711e-01 3.163954615592956543e-02 1.608314663171768188e-01
-7.101000547409057617e-01 2.631658911705017090e-01 -1.455058008432388306e-01
-4.924662411212921143e-02 2.136843204498291016e-01 -2.608162760734558105e-01
5.569562911987304688e-01 -6.132973730564117432e-02 2.016273587942123413e-01
-5.221942663192749023e-01 7.961533963680267334e-03 2.871435880661010742e-01
-6.993132829666137695e-01 -7.551579177379608154e-02 5.183341354131698608e-02
-1.770748496055603027e-01 2.097076028585433960e-01 -2.731275260448455811e-01
5.901459455490112305e-01 1.720157563686370850e-01 -2.267434075474739075e-02
6.299633979797363281e-01 8.647445589303970337e-02 -1.775260865688323975e-01
1.671022176742553711e-01 9.911845624446868896e-02 2.991300523281097412e-01
2.375430464744567871e-01 2.589447498321533203e-01 -3.221784532070159912e-02
-4.402723312377929688e-01 2.721681594848632812e-01 1.575401872396469116e-01
-9.601297378540039062e-01 3.039870038628578186e-02 9.476257860660552979e-02
-1.560021489858627319e-01 -1.505121290683746338e-01 1.268703937530517578e-01
-8.725041896104812622e-02 2.899680435657501221e-01 -1.104329228401184082e-01
3.346132934093475342e-01 -6.471619009971618652e-02 2.593623697757720947e-01
-7.433426380157470703e-01 2.719945907592773438e-01 8.927706629037857056e-02
4.440084993839263916e-01 1.917371302843093872e-01 -1.458234935998916626e-01
-2.682542502880096436e-01 2.020505815744400024e-01 -2.801378369331359863e-01
7.501423358917236328e-03 9.352330118417739868e-02 -3.183994889259338379e-01
-2.293918430805206299e-01 3.026842176914215088e-01 4.263881221413612366e-02
-4.307712018489837646e-01 -4.509850591421127319e-02 2.667578160762786865e-01
-1.019921541213989258e+00 5.694393813610076904e-02 3.893141075968742371e-02
-2.328231036663055420e-01 1.763429790735244751e-01 -2.975583076477050781e-01
-9.834438562393188477e-01 2.092794030904769897e-01 7.420179992914199829e-02
9.974959492683410645e-02 -1.658183187246322632e-01 -3.804523870348930359e-02
3.704165518283843994e-01 2.150586545467376709e-01 -1.355687677860260010e-01
3.865334093570709229e-01 -6.275878846645355225e-02 -2.229053825139999390e-01
-2.267719358205795288e-01 2.486741244792938232e-01 2.007109522819519043e-01
4.870087802410125732e-01 1.201693862676620483e-01 -2.208062112331390381e-01
2.532607316970825195e-01 9.364470094442367554e-02 -2.929358482360839844e-01
-4.219126999378204346e-01 -4.362409561872482300e-02 -2.229001373052597046e-01
7.890090346336364746e-02 1.803442835807800293e-01 2.544045448303222656e-01
-3.133706450462341309e-01 -1.383738666772842407e-01 1.117267906665802002e-01
8.104890584945678711e-01 -4.920825362205505371e-03 3.582606464624404907e-02
-7.352473735809326172e-01 -6.395019590854644775e-02 -1.164241880178451538e-02
-1.631335169076919556e-01 1.604823023080825806e-02 3.282459378242492676e-01
-5.056614875793457031e-01 -1.443983614444732666e-02 2.766802012920379639e-01
-1.016157627105712891e+00 1.685923039913177490e-01 9.996688365936279297e-02
-5.860209465026855469e-01 -1.007749885320663452e-01 6.487115472555160522e-02
-9.490699768066406250e-01 1.765843480825424194e-01 1.468133628368377686e-01
3.937654793262481689e-01 2.037224620580673218e-01 -1.501547247171401978e-01
-9.297601878643035889e-03 3.420566022396087646e-02 -3.128530681133270264e-01
4.322725832462310791e-01 1.175387501716613770e-01 2.245069295167922974e-01
3.548154234886169434e-01 2.148198485374450684e-01 1.080572903156280518e-01
-8.452758789062500000e-01 4.809112101793289185e-02 2.052592635154724121e-01
-7.112860679626464844e-01 4.126272350549697876e-02 -2.193548679351806641e-01
6.294360160827636719e-01 3.435080870985984802e-02 -1.952815353870391846e-01
3.317383229732513428e-01 -1.600025892257690430e-01 8.542755991220474243e-02
-6.423963308334350586e-01 -3.110585361719131470e-02 -1.699198186397552490e-01
-3.919295966625213623e-02 -1.640602797269821167e-01 -2.367786504328250885e-02
-4.852493107318878174e-01 2.080964893102645874e-01 -2.606533765792846680e-01
-6.310784816741943359e-01 2.287801057100296021e-01 2.056321650743484497e-01
-5.026871562004089355e-01 5.390075594186782837e-02 -2.799325883388519287e-01
5.620822906494140625e-01 1.625308096408843994e-01 -1.220311075448989868e-01
-8.936252593994140625e-01 8.154112845659255981e-03 1.273114383220672607e-01
6.449782848358154297e-01 -1.073480844497680664e-01 -5.260003730654716492e-02
1.416805684566497803e-01 1.314989328384399414e-01 2.852901220321655273e-01
-6.703420877456665039e-01 1.951908767223358154e-01 2.334525585174560547e-01
1.134592890739440918e-01 -1.166555136442184448e-01 2.301256060600280762e-01
-8.112200498580932617e-01 1.353161036968231201e-02 1.942723691463470459e-01
2.990836799144744873e-01 -1.594721227884292603e-01 -4.832435399293899536e-02
-3.164789080619812012e-02 2.350872755050659180e-01 2.003539204597473145e-01
-2.860151231288909912e-02 2.279740422964096069e-01 -2.414674162864685059e-01
-4.243112206459045410e-01 -1.244334578514099121e-01 -3.904345259070396423e-02
9.234200417995452881e-02 -3.559602797031402588e-02 3.051989972591400146e-01
-3.797280490398406982e-01 -4.161585867404937744e-02 -2.342313975095748901e-01
-8.567613363265991211e-01 2.480305582284927368e-01 -1.030776724219322205e-01
8.023666143417358398e-01 -3.305370360612869263e-02 1.793269254267215729e-02
-4.973163604736328125e-01 -1.159270703792572021e-01 8.227308839559555054e-02
-9.257873296737670898e-01 2.391934394836425781e-03 5.595981702208518982e-02
4.864622652530670166e-01 1.984695196151733398e-01 4.517104104161262512e-02
-4.256459176540374756e-01 3.061851263046264648e-01 3.763340786099433899e-02
-4.199346303939819336e-01 5.503370240330696106e-02 -2.940233945846557617e-01
1.757800281047821045e-01 -1.700643599033355713e-01 5.589345097541809082e-02
-5.465544015169143677e-02 2.899205088615417480e-01 5.239374563097953796e-02
-6.735289096832275391e-01 2.781308293342590332e-01 -1.226172745227813721e-01
3.914225995540618896e-01 -2.723699808120727539e-02 -2.487542480230331421e-01
6.209291219711303711e-01 1.578945517539978027e-01 2.271011471748352051e-02
-1.050199389457702637e+00 1.261598914861679077e-01 7.740556448698043823e-02
4.018582403659820557e-01 1.738813072443008423e-01 -1.998667865991592407e-01
5.450127124786376953e-01 2.349870279431343079e-02 -2.278718650341033936e-01
6.460757255554199219e-01 1.834886148571968079e-02 -1.869626641273498535e-01
6.610633134841918945e-01 -7.317602634429931641e-02 -1.174677312374114990e-01
6.636314392089843750e-01 1.428543925285339355e-01 -2.308471500873565674e-02
-6.853976249694824219e-01 -7.113054394721984863e-02 1.088256612420082092e-01
4.905078709125518799e-01 1.905946433544158936e-01 -1.107649132609367371e-01
-1.321465969085693359e-01 2.405776679515838623e-01 2.056477516889572144e-01
2.864991426467895508e-01 2.475340217351913452e-01 -6.962205469608306885e-02
-2.390759587287902832e-01 -4.876846820116043091e-02 -2.493659704923629761e-01
6.717638969421386719e-01 -6.262691318988800049e-02 1.441622823476791382e-01
-9.875042438507080078e-01 1.750016957521438599e-01 1.207093149423599243e-01
-6.887096166610717773e-01 2.257035225629806519e-01 -2.069660127162933350e-01
6.864929199218750000e-01 8.346056193113327026e-02 -1.424981057643890381e-01
-2.018007040023803711e-01 2.032077908515930176e-01 -2.792916595935821533e-01
-8.810156583786010742e-01 -1.821715384721755981e-02 4.232389852404594421e-02
2.123128473758697510e-01 -1.660858094692230225e-01 8.685557544231414795e-02
-3.049151897430419922e-01 -2.121727168560028076e-02 -2.662691473960876465e-01
-9.034638404846191406e-01 1.932978928089141846e-01 -1.528090685606002808e-01
-6.842513084411621094e-01 2.876544594764709473e-01 -8.210403472185134888e-02
-3.651636838912963867e-02 2.838051319122314453e-01 7.576717436313629150e-02
-1.398231834173202515e-01 3.024094104766845703e-01 -3.157940879464149475e-02
-3.498335182666778564e-01 -1.386205106973648071e-01 7.853171974420547485e-02
2.819777727127075195e-01 -1.650362014770507812e-01 -1.641800999641418457e-02
8.151549100875854492e-01 -5.122266709804534912e-03 1.507109217345714569e-02
-8.252441883087158203e-02 -1.227592676877975464e-01 2.158291339874267578e-01
2.643162906169891357e-01 2.409866899251937866e-01 -1.248193085193634033e-01
4.725803434848785400e-02 -6.431005895137786865e-02 2.894131243228912354e-01
4.285447299480438232e-01 -2.054070681333541870e-02 2.608754038810729980e-01
-5.669108629226684570e-01 4.840098321437835693e-03 -2.356905043125152588e-01
2.027693986892700195e-01 2.019518241286277771e-02 -2.963472604751586914e-01
5.026242733001708984e-01 -5.404987931251525879e-02 -2.035954594612121582e-01
-5.534132122993469238e-01 2.826469838619232178e-01 1.183946207165718079e-01
7.782574892044067383e-01 7.202097773551940918e-02 1.555875316262245178e-02
-7.370228767395019531e-01 -5.027355253696441650e-02 1.314969807863235474e-01
-2.683752775192260742e-02 2.475282251834869385e-01 -2.115374356508255005e-01
-6.736605167388916016e-01 2.713558077812194824e-01 1.191825643181800842e-01
1.566437184810638428e-01 2.544535696506500244e-01 -1.415287703275680542e-01
-2.291119098663330078e-01 9.925040602684020996e-02 -3.186482489109039307e-01
