3.286130726337432861e-02 -2.491530030965805054e-03 4.207298904657363892e-02
1.817878484725952148e-01 -3.981333225965499878e-02 -1.223635077476501465e-01
7.168777287006378174e-02 -3.394486010074615479e-02 2.781085968017578125e-01
1.042538881301879883e-02 -1.427481696009635925e-02 -3.248699754476547241e-02
1.408265084028244019e-01 8.168090134859085083e-03 -5.912532098591327667e-03
1.661092638969421387e-01 5.346383899450302124e-03 1.152845844626426697e-02
4.227063804864883423e-02 -3.436536714434623718e-02 -1.521189808845520020e-01
9.023038297891616821e-02 8.735502138733863831e-03 -2.559830993413925171e-02
6.937059760093688965e-02 -1.864224672317504883e-03 -3.185747861862182617e-01
1.480826735496520996e-01 7.022079080343246460e-03 -1.675774306058883667e-01
1.347030997276306152e-01 -4.079019650816917419e-02 2.904064655303955078e-01
3.065329790115356445e-02 -6.862524896860122681e-04 -1.022486090660095215e-01
1.668621152639389038e-01 -3.457365557551383972e-02 3.132873773574829102e-01
3.337980806827545166e-02 -3.110803663730621338e-05 -1.249327510595321655e-01
1.879971325397491455e-01 1.870339736342430115e-03 -6.902176141738891602e-02
1.409491896629333496e-01 8.689619600772857666e-03 -7.566268742084503174e-02
8.716109395027160645e-02 3.786409273743629456e-03 -2.820634245872497559e-01
1.408626139163970947e-02 -2.213096991181373596e-02 5.211303010582923889e-02
1.389319598674774170e-01 7.449818775057792664e-03 3.707637265324592590e-02
1.893888115882873535e-01 -3.242011368274688721e-02 2.766412496566772461e-01
1.298839896917343140e-01 -7.970738224685192108e-03 2.962601780891418457e-01
2.161175012588500977e-01 -8.487015962600708008e-03 -7.307429611682891846e-02
1.573367118835449219e-01 -8.558900095522403717e-03 2.817366421222686768e-01
1.323373019695281982e-01 -4.099660366773605347e-02 -1.990377008914947510e-01
8.906891196966171265e-02 -4.207988083362579346e-02 -1.576557904481887817e-01
1.704406738281250000e-02 -2.777555212378501892e-02 -3.819497674703598022e-02
2.010625004768371582e-01 -1.829318702220916748e-03 -7.105073332786560059e-02
2.080422639846801758e-01 -2.024520188570022583e-02 2.261076569557189941e-01
7.003295421600341797e-02 -3.909879177808761597e-02 2.223083823919296265e-01
4.938028007745742798e-02 -3.502979874610900879e-02 -1.745905727148056030e-01
2.437518537044525146e-02 -2.206396870315074921e-02 1.451476514339447021e-01
1.858337372541427612e-01 -3.111918643116950989e-02 2.922579050064086914e-01
8.888766914606094360e-02 -3.323368728160858154e-03 2.335333526134490967e-01
1.748195290565490723e-02 -7.606633938848972321e-03 -1.220928579568862915e-01
9.095726907253265381e-02 -1.258002407848834991e-02 3.090108931064605713e-01
1.941870152950286865e-01 -3.712648153305053711e-02 -1.185939162969589233e-01
1.398504674434661865e-01 7.365494966506958008e-04 1.934994906187057495e-01
9.059776365756988525e-02 -4.591258615255355835e-02 -4.418634250760078430e-02
3.863185644149780273e-02 -3.734823316335678101e-02 4.428189620375633240e-02
1.161812990903854370e-01 2.975203096866607666e-05 -3.340861499309539795e-01
6.590230762958526611e-02 1.976706087589263916e-03 -2.697481513023376465e-01
1.174794286489486694e-01 9.330958127975463867e-03 -1.424044519662857056e-01
1.923934221267700195e-01 -1.125660911202430725e-02 2.308606952428817749e-01
1.519072800874710083e-02 -2.380842342972755432e-02 -1.088264286518096924e-01
3.768768906593322754e-02 -7.437312044203281403e-03 1.445374637842178345e-01
8.581988513469696045e-02 -4.599883407354354858e-02 -1.264471281319856644e-02
1.665156334638595581e-01 5.906753242015838623e-03 -7.838679850101470947e-02
3.319904208183288574e-02 -6.290308199822902679e-03 -2.410239428281784058e-01
1.188327446579933167e-01 -5.770165473222732544e-03 2.778545022010803223e-01
9.797956049442291260e-02 -2.221899107098579407e-03 -3.507375717163085938e-01
1.198373138904571533e-01 7.440855726599693298e-03 -2.189952135086059570e-01
1.676402091979980469e-01 -4.516719654202461243e-02 1.598781794309616089e-01
1.227158084511756897e-01 -2.213030867278575897e-02 -3.689542412757873535e-01
1.129386201500892639e-01 -3.133561089634895325e-02 -3.164426982402801514e-01
1.951951384544372559e-01 -4.933401942253112793e-04 2.326338738203048706e-02
2.183133959770202637e-01 -3.169083967804908752e-02 1.254435330629348755e-01
1.172760128974914551e-01 -3.868488967418670654e-02 -2.376812249422073364e-01
1.039031371474266052e-01 -3.337128087878227234e-02 -2.959824502468109131e-01
1.712451875209808350e-01 5.029944702982902527e-03 -9.747794270515441895e-02
3.236714750528335571e-02 -3.334738314151763916e-02 -1.042410731315612793e-01
1.215328648686408997e-01 -3.303211927413940430e-02 3.455876410007476807e-01
9.025028347969055176e-02 8.534321561455726624e-03 -1.242301799356937408e-02
1.051342561841011047e-01 4.099350422620773315e-03 -2.891113460063934326e-01
1.526933014392852783e-01 -3.587964177131652832e-02 -2.482040077447891235e-01
1.811125278472900391e-01 -6.848257966339588165e-03 2.203623652458190918e-01
1.945095360279083252e-01 -4.184290766716003418e-02 5.766553804278373718e-02
3.346966952085494995e-02 -2.734547294676303864e-02 -2.070685625076293945e-01
1.597879528999328613e-01 -4.496581479907035828e-02 -7.079125195741653442e-02
6.253337860107421875e-02 -1.134340371936559677e-02 2.547681331634521484e-01
1.284467577934265137e-01 5.134684965014457703e-03 -2.612575888633728027e-01
1.439370810985565186e-01 8.415289223194122314e-03 -5.442015826702117920e-02
5.826189741492271423e-02 -4.233410954475402832e-02 3.585327044129371643e-02
8.140867203474044800e-02 -4.571505635976791382e-02 8.356955647468566895e-02
5.668144673109054565e-02 -3.839336708188056946e-02 -1.402712017297744751e-01
3.665824234485626221e-02 -2.344563230872154236e-02 -2.528014481067657471e-01
9.878883510828018188e-02 -2.742046304047107697e-02 -3.410946726799011230e-01
1.287397444248199463e-01 3.271326422691345215e-03 -2.902343869209289551e-01
2.001564800739288330e-01 -2.277688309550285339e-02 2.619937956333160400e-01
4.912027716636657715e-02 -4.035537317395210266e-02 2.191062271595001221e-02
3.229379653930664062e-02 -4.129745066165924072e-04 -3.583698347210884094e-02
7.963307201862335205e-02 -4.428988695144653320e-02 -6.874547898769378662e-02
3.299666941165924072e-02 -3.542976453900337219e-02 -2.935334108769893646e-02
1.845364272594451904e-01 2.348611131310462952e-03 -1.012180596590042114e-01
2.240805178880691528e-01 -2.603101171553134918e-02 -5.615716427564620972e-02
7.825084030628204346e-02 -4.405295848846435547e-02 1.492339372634887695e-01
1.088029071688652039e-01 -2.933630719780921936e-03 2.463124990463256836e-01
9.151408821344375610e-02 8.139140903949737549e-03 1.178786717355251312e-02
9.186317026615142822e-02 9.029520675539970398e-03 -4.259398579597473145e-02
8.817069232463836670e-02 3.603043034672737122e-03 1.323080956935882568e-01
9.301169216632843018e-02 7.638145238161087036e-03 3.576371818780899048e-02
1.359236240386962891e-01 -4.754172265529632568e-02 -2.428883314132690430e-02
7.819285988807678223e-02 5.251623690128326416e-03 7.455249130725860596e-02
1.683096140623092651e-01 1.961059868335723877e-03 -2.212903648614883423e-01
1.137954071164131165e-01 -4.823731631040573120e-02 7.077118754386901855e-02
1.217388659715652466e-01 -4.975352436304092407e-03 -3.649097979068756104e-01
1.983790397644042969e-01 -8.383573032915592194e-03 1.786660850048065186e-01
6.521453708410263062e-02 -4.140686988830566406e-02 1.589715182781219482e-01
2.252089679241180420e-01 -2.573870122432708740e-02 -4.276368021965026855e-02
1.735421866178512573e-01 -3.024201467633247375e-02 -2.642362415790557861e-01
1.145059615373611450e-01 -4.281150177121162415e-03 2.626565694808959961e-01
1.572795510292053223e-01 -4.375562816858291626e-02 2.270696610212326050e-01
1.536420136690139771e-01 7.482673972845077515e-03 -4.479748755693435669e-02
1.829026639461517334e-01 -2.845053747296333313e-02 -2.544549703598022461e-01
4.275198280811309814e-02 -3.001358732581138611e-02 -2.183741629123687744e-01
1.735844165086746216e-01 1.387968659400939941e-04 1.377072483301162720e-01
6.201078370213508606e-02 2.625297755002975464e-03 8.652509748935699463e-02
1.416575163602828979e-01 6.745681166648864746e-03 5.744008347392082214e-02
2.197246700525283813e-01 -2.458803355693817139e-02 -1.129175275564193726e-01
1.997040808200836182e-01 -1.065402757376432419e-02 -2.257204949855804443e-01
1.792063862085342407e-01 -4.046189039945602417e-02 2.292937487363815308e-01
1.182466074824333191e-01 -1.494776643812656403e-02 3.387385904788970947e-01
1.098983064293861389e-01 -4.757946729660034180e-02 1.250985413789749146e-01
1.141595840454101562e-01 9.158328175544738770e-04 1.992192417383193970e-01
5.782600492238998413e-02 5.841307342052459717e-03 -9.693099558353424072e-02
1.840476840734481812e-01 -4.168507456779479980e-02 -6.782630831003189087e-02
1.618339121341705322e-02 -7.730056531727313995e-03 -4.340168088674545288e-02
1.286013722419738770e-01 1.870388165116310120e-03 1.831116080284118652e-01
4.322821646928787231e-02 -2.797381952404975891e-02 -2.413570284843444824e-01
1.366754323244094849e-01 8.763315156102180481e-03 -3.340066596865653992e-02
2.059115171432495117e-01 -4.258298315107822418e-03 4.609050974249839783e-02
7.309069484472274780e-02 -4.057066142559051514e-02 -1.523602008819580078e-01
6.497792899608612061e-02 5.278376862406730652e-03 -1.987712234258651733e-01
1.986434459686279297e-01 -4.563606344163417816e-03 1.170532405376434326e-01
2.063199132680892944e-02 -1.002319529652595520e-02 6.891351938247680664e-02
2.124952971935272217e-01 -1.825846731662750244e-02 1.967525333166122437e-01
1.018565371632575989e-01 -4.610658437013626099e-02 1.686088591814041138e-01
1.299616992473602295e-01 8.572457358241081238e-03 4.539912566542625427e-03
5.885021761059761047e-02 -2.448585629463195801e-02 -3.099297583103179932e-01
1.081989407539367676e-01 9.543750435113906860e-03 -1.287678182125091553e-01
1.006954461336135864e-01 -3.775475174188613892e-02 -2.440832704305648804e-01
1.234338060021400452e-01 9.168082848191261292e-03 -2.053791284561157227e-02
7.149720191955566406e-02 7.388312369585037231e-03 -4.135804623365402222e-02
6.964673101902008057e-02 -3.140907734632492065e-03 1.989704966545104980e-01
3.217075765132904053e-02 -3.534652292728424072e-02 1.114067807793617249e-02
4.095802456140518188e-02 -4.229110665619373322e-03 1.205947250127792358e-01
9.753261506557464600e-02 3.686148673295974731e-03 1.430206745862960815e-01
1.106482446193695068e-01 -9.484551846981048584e-04 2.235890328884124756e-01
1.271076798439025879e-01 -4.686570540070533752e-02 -6.179876625537872314e-02
1.228895783424377441e-01 -4.818569868803024292e-02 1.133489236235618591e-02
1.451971679925918579e-01 4.363996908068656921e-03 -2.469322383403778076e-01
6.604155898094177246e-02 -3.253550082445144653e-02 -2.585718035697937012e-01
4.064842313528060913e-02 -3.732270747423171997e-02 8.341974020004272461e-02
1.655369102954864502e-01 -2.943121269345283508e-02 3.352562487125396729e-01
1.160745918750762939e-01 9.672215208411216736e-03 -6.270903348922729492e-02
5.310162156820297241e-02 -3.643820434808731079e-02 1.921116858720779419e-01
2.075110375881195068e-01 -8.932219818234443665e-03 -1.695851534605026245e-01
1.979982852935791016e-01 -3.340575844049453735e-02 -1.564720869064331055e-01
5.439304560422897339e-02 -3.205974400043487549e-02 -2.344041466712951660e-01
1.133539304137229919e-01 9.699547663331031799e-03 -1.065083146095275879e-01
6.013255566358566284e-02 -2.127453312277793884e-02 2.838876843452453613e-01
7.856419682502746582e-02 8.305462077260017395e-03 -1.146652549505233765e-01
2.111864686012268066e-01 -2.694417349994182587e-02 2.140305489301681519e-01
1.825694143772125244e-01 -3.465624898672103882e-02 -1.982957124710083008e-01
3.683289885520935059e-02 -2.998890355229377747e-02 1.797732114791870117e-01
3.781727701425552368e-02 -3.721192106604576111e-02 2.907795459032058716e-02
9.291595220565795898e-02 -4.313959181308746338e-02 -1.406004130840301514e-01
9.954497218132019043e-02 -3.669042885303497314e-02 -2.570104598999023438e-01
4.143267869949340820e-02 -3.186715394258499146e-02 -1.890546977519989014e-01
2.076949924230575562e-02 -2.509054727852344513e-02 1.064616888761520386e-01
5.577780306339263916e-02 -3.984630852937698364e-02 -9.727555513381958008e-02
1.420984268188476562e-01 -4.804889112710952759e-02 3.031810000538825989e-02
1.210534870624542236e-01 9.469814598560333252e-03 -4.360074177384376526e-02
2.232594490051269531e-01 -1.249897200614213943e-02 -2.766689285635948181e-02
5.038066208362579346e-02 4.064500331878662109e-03 -3.003256954252719879e-02
1.308609545230865479e-01 9.228153154253959656e-03 -5.559841170907020569e-02
1.872626692056655884e-02 -2.241240255534648895e-02 -1.616607159376144409e-01
8.177088946104049683e-02 7.170077413320541382e-03 2.405973896384239197e-02
3.158070147037506104e-02 -3.194257989525794983e-02 1.238373070955276489e-01
1.096286252140998840e-01 -3.568356484174728394e-02 3.254924118518829346e-01
1.666027158498764038e-01 -3.823163919150829315e-03 2.182851433753967285e-01
1.046396121382713318e-01 -3.251065686345100403e-02 3.378530144691467285e-01
1.778931468725204468e-01 -1.741471327841281891e-02 3.045180737972259521e-01
2.230137884616851807e-01 -1.249041222035884857e-02 3.095160424709320068e-02
1.322296559810638428e-01 -4.502955079078674316e-02 -1.167134493589401245e-01
1.319362372159957886e-01 -4.621997848153114319e-02 -8.226765692234039307e-02
1.874354779720306396e-01 9.373407810926437378e-04 -1.344791501760482788e-01
1.156163662672042847e-01 9.163225069642066956e-03 -1.557104289531707764e-01
1.626958549022674561e-01 -4.674567282199859619e-02 9.134596586227416992e-02
1.819590628147125244e-01 -4.428570717573165894e-02 4.772223532199859619e-02
1.480310857295989990e-01 -4.348513856530189514e-02 2.453546226024627686e-01
1.010108590126037598e-01 -3.898658975958824158e-02 2.907040715217590332e-01
2.026628553867340088e-01 -3.351390361785888672e-02 -1.322163492441177368e-01
1.710099428892135620e-01 -1.560788601636886597e-03 1.759248226881027222e-01
1.495380103588104248e-01 -4.441729933023452759e-02 -1.110749542713165283e-01
9.914816170930862427e-02 6.963167339563369751e-03 -2.325998693704605103e-01
7.630895078182220459e-02 4.425123333930969238e-03 -2.538577318191528320e-01
1.016974896192550659e-01 5.433203652501106262e-03 1.105400174856185913e-01
3.519384562969207764e-02 -2.147461473941802979e-02 2.024144828319549561e-01
1.304531246423721313e-01 -4.456233233213424683e-02 -1.295189261436462402e-01
1.617651283740997314e-01 6.216343492269515991e-03 -8.454075083136558533e-03
1.068041399121284485e-01 -4.071945697069168091e-02 -2.037231326103210449e-01
1.789479553699493408e-01 -3.489963710308074951e-03 -2.561837434768676758e-01
1.441390514373779297e-01 -8.965593762695789337e-03 2.976329922676086426e-01
6.596099585294723511e-02 -4.305779933929443359e-02 -4.015183448791503906e-02
1.748450845479965210e-01 -3.912480175495147705e-02 -1.583886593580245972e-01
8.195373415946960449e-02 -2.003186196088790894e-02 3.242108225822448730e-01
1.324567496776580811e-01 6.766408681869506836e-03 7.311309874057769775e-02
1.498727798461914062e-01 3.351598978042602539e-03 1.325127035379409790e-01
1.596083045005798340e-01 -6.680608727037906647e-03 2.617789506912231445e-01
1.106039658188819885e-01 -4.706703126430511475e-02 1.528206616640090942e-01
1.720293164253234863e-01 -3.992804139852523804e-02 2.567233443260192871e-01
9.061304479837417603e-02 -3.231027349829673767e-02 3.226936757564544678e-01
1.103362217545509338e-01 -4.414537176489830017e-02 -1.379219293594360352e-01
2.800832688808441162e-02 -9.300740435719490051e-03 1.135773956775665283e-01
1.672068238258361816e-01 -1.559554692357778549e-02 -3.333608508110046387e-01
2.095678448677062988e-02 -3.029147535562515259e-02 -2.506139129400253296e-02
8.927816897630691528e-02 -1.970881596207618713e-03 2.185728996992111206e-01
9.332852065563201904e-02 -4.476577788591384888e-02 -9.708571434020996094e-02
7.604107260704040527e-02 -4.522272944450378418e-02 5.034411326050758362e-02
1.343432664871215820e-01 5.488781258463859558e-03 1.064169108867645264e-01
1.492324471473693848e-01 -4.733118414878845215e-02 -2.435375936329364777e-03
1.881250888109207153e-01 -4.215866327285766602e-02 1.474202424287796021e-01
1.238742321729660034e-01 -4.197438806295394897e-02 -1.855440586805343628e-01
8.376757055521011353e-02 8.411237969994544983e-03 -1.467602401971817017e-01
1.811396330595016479e-01 1.706121489405632019e-03 6.337206065654754639e-02
1.182650849223136902e-01 3.780292347073554993e-03 1.518715918064117432e-01
2.244217991828918457e-01 -1.447023451328277588e-02 -5.032417178153991699e-02
2.000260353088378906e-01 -2.398256212472915649e-03 -1.157617866992950439e-01
5.209463089704513550e-02 -2.930857986211776733e-02 2.482571303844451904e-01
1.329074800014495850e-02 -1.605359651148319244e-02 -1.388626247644424438e-01
3.062883019447326660e-02 -3.346589207649230957e-02 -8.218389749526977539e-02
2.045528590679168701e-01 -4.576007835566997528e-03 7.206113636493682861e-02
1.741085946559906006e-02 -1.017966959625482559e-02 3.912014514207839966e-02
2.114436775445938110e-01 -7.680541835725307465e-03 8.352625370025634766e-02
2.266052663326263428e-01 -2.647326327860355377e-02 6.261719763278961182e-02
1.586842834949493408e-01 -1.259095501154661179e-02 3.092003464698791504e-01
4.262736439704895020e-02 -3.526608645915985107e-02 1.519217789173126221e-01
1.348280012607574463e-01 1.579539850354194641e-03 -3.044415414333343506e-01
9.567195177078247070e-02 -4.628106951713562012e-02 1.423630863428115845e-01
1.527528464794158936e-01 -1.846937462687492371e-03 2.159064412117004395e-01
7.142601907253265381e-02 7.527753710746765137e-03 -5.628940835595130920e-02
1.096570491790771484e-01 -2.519144117832183838e-02 3.568131625652313232e-01
9.888333082199096680e-02 2.546174451708793640e-03 1.648309379816055298e-01
1.184014007449150085e-01 5.454754456877708435e-03 1.167322099208831787e-01
1.217682808637619019e-01 -3.946556895971298218e-02 3.029210269451141357e-01
4.731659591197967529e-02 -1.079548150300979614e-03 -2.509577870368957520e-01
1.452556848526000977e-01 -3.218424692749977112e-02 -2.938080132007598877e-01
1.181045323610305786e-01 -4.321640729904174805e-02 2.549436986446380615e-01
6.851952522993087769e-02 -4.371172562241554260e-02 9.478966891765594482e-02
2.000086605548858643e-01 -4.009838029742240906e-02 1.183190569281578064e-02
1.207038387656211853e-01 9.462170302867889404e-03 -1.244318187236785889e-01
1.269822567701339722e-01 6.201110780239105225e-03 -2.418497949838638306e-01
1.246737986803054810e-01 -3.945168107748031616e-02 -2.260655313730239868e-01
1.907910704612731934e-01 -1.369043998420238495e-02 -2.708975970745086670e-01
1.473886072635650635e-01 -4.674880206584930420e-02 1.648104339838027954e-01
1.701867878437042236e-01 -5.648835562169551849e-03 2.327893227338790894e-01
4.035139828920364380e-02 1.524686813354492188e-03 -1.526385247707366943e-01
1.471491158008575439e-01 -4.575410112738609314e-02 -7.726207375526428223e-02
1.699038743972778320e-01 -4.330113530158996582e-02 2.055987417697906494e-01
9.426664561033248901e-02 -4.437219724059104919e-02 1.979977488517761230e-01
1.627485752105712891e-01 -3.854968771338462830e-02 2.895625233650207520e-01
7.475771009922027588e-02 -1.622269488871097565e-02 3.024790585041046143e-01
7.677108049392700195e-02 -8.882116526365280151e-03 -3.636376857757568359e-01
1.765287816524505615e-01 1.387652009725570679e-03 9.772659838199615479e-02
1.370356082916259766e-01 8.570475503802299500e-03 -1.358121782541275024e-01
2.232318371534347534e-01 -3.036178462207317352e-02 4.036570712924003601e-02
1.622583866119384766e-01 4.639944061636924744e-03 6.357710063457489014e-02
1.119194775819778442e-01 -4.115630686283111572e-02 2.787097394466400146e-01
1.057560741901397705e-01 -3.745485097169876099e-03 -3.618081808090209961e-01
2.109761536121368408e-01 -2.647412568330764771e-02 -1.593524217605590820e-01
2.119993120431900024e-01 -5.737855099141597748e-03 -3.706859424710273743e-02
1.575278639793395996e-01 -4.726684093475341797e-02 7.421495020389556885e-02
8.965094387531280518e-02 7.607001811265945435e-03 -2.022143453359603882e-01
7.081142067909240723e-02 5.703212693333625793e-03 3.683727979660034180e-02
1.378194242715835571e-01 -2.378291450440883636e-02 3.607157468795776367e-01
6.532225012779235840e-02 -4.039669409394264221e-02 -1.295496076345443726e-01
1.605187952518463135e-01 -4.586237668991088867e-02 -3.467189893126487732e-02
1.730926632881164551e-01 3.579348325729370117e-03 4.633197933435440063e-02
1.946793794631958008e-01 -2.882581204175949097e-02 -2.149455249309539795e-01
1.487712115049362183e-01 7.795546203851699829e-03 -2.528402209281921387e-02
6.426116079092025757e-02 6.026191636919975281e-03 -1.092281658202409744e-02
2.128635942935943604e-01 -7.736032828688621521e-03 -1.039275377988815308e-01
1.093276962637901306e-01 6.886128336191177368e-03 7.855932414531707764e-02
2.054573148488998413e-01 -3.815091028809547424e-02 1.188175380229949951e-01
1.565769016742706299e-01 -3.418364003300666809e-02 -2.606905698776245117e-01
1.927436441183090210e-01 -4.036466777324676514e-02 -5.275728926062583923e-02
5.008726567029953003e-02 -7.848414592444896698e-03 1.953457295894622803e-01
1.787558197975158691e-01 -4.478379338979721069e-02 8.625023066997528076e-02
7.935085892677307129e-02 4.506498575210571289e-03 9.594139456748962402e-02
1.329846382141113281e-01 -3.742010518908500671e-02 3.216372430324554443e-01
1.045758500695228577e-01 9.300436824560165405e-03 -1.466269493103027344e-01
1.650793850421905518e-01 -3.653418272733688354e-02 -2.193870395421981812e-01
8.119447529315948486e-02 -3.792751953005790710e-02 2.668426632881164551e-01
2.738860994577407837e-02 -1.826005056500434875e-03 -6.614839285612106323e-02
2.113138884305953979e-01 -5.852611735463142395e-03 2.487499639391899109e-02
1.263967156410217285e-01 9.476788341999053955e-03 -8.695195615291595459e-02
8.580181002616882324e-02 -4.629109799861907959e-02 1.778481341898441315e-02
1.990204155445098877e-01 -1.507831737399101257e-03 -9.346368908882141113e-02
1.871101409196853638e-01 7.431209087371826172e-05 7.627379894256591797e-02
5.814896151423454285e-02 -6.329119205474853516e-04 1.343393921852111816e-01
1.275495886802673340e-01 -1.297859475016593933e-03 2.290649712085723877e-01
1.008298248052597046e-01 -4.243650287389755249e-02 -1.671903133392333984e-01
1.589241772890090942e-01 -4.082779586315155029e-02 -1.684894710779190063e-01
6.354872882366180420e-02 5.501711741089820862e-03 -1.841440051794052124e-01
1.527838706970214844e-01 7.453136146068572998e-03 -1.112364232540130615e-01
2.202371060848236084e-01 -1.503952965140342712e-02 1.197257786989212036e-01
1.189599931240081787e-01 -4.269466549158096313e-02 -1.723082065582275391e-01
1.698365807533264160e-01 -2.891445159912109375e-02 -2.819014191627502441e-01
8.556234836578369141e-02 6.065407767891883850e-03 -2.375852763652801514e-01
9.999980777502059937e-02 -4.702913016080856323e-02 -1.907641626894474030e-02
1.499828696250915527e-02 -1.060333289206027985e-02 1.349509134888648987e-02
8.138000220060348511e-02 7.853154093027114868e-04 -3.125699758529663086e-01
1.950166523456573486e-01 -4.154396802186965942e-02 2.684342488646507263e-02
5.020765215158462524e-02 2.335002645850181580e-03 -2.046420276165008545e-01
1.027899980545043945e-02 -1.584294065833091736e-02 -1.425079163163900375e-02
1.036049500107765198e-01 4.926715046167373657e-03 1.234398633241653442e-01
1.650769263505935669e-01 -2.642986364662647247e-02 -3.063925802707672119e-01
1.558376699686050415e-01 -4.718441516160964966e-02 1.096615195274353027e-01
2.223054170608520508e-01 -3.058363497257232666e-02 3.370059654116630554e-03
3.416996449232101440e-02 -3.433794528245925903e-02 1.014477163553237915e-01
1.892544627189636230e-01 -3.488297760486602783e-02 2.608307301998138428e-01
2.271745204925537109e-01 -2.618883550167083740e-02 2.875565364956855774e-02
4.156638681888580322e-02 1.804713159799575806e-03 -1.330335717648267746e-02
6.609842181205749512e-02 -4.251740872859954834e-02 1.306443363428115845e-01
1.660370826721191406e-01 -4.621348902583122253e-02 1.899462193250656128e-02
4.243633151054382324e-02 2.776786684989929199e-03 -7.396581768989562988e-02
8.928102254867553711e-02 -1.005126070231199265e-02 2.919618487358093262e-01
2.111450135707855225e-01 -5.458193831145763397e-03 2.403665333986282349e-03
8.434164524078369141e-02 -4.618270322680473328e-02 6.545445322990417480e-02
2.182623147964477539e-01 -3.345306590199470520e-02 7.007050514221191406e-02
9.787186980247497559e-03 -1.779153198003768921e-02 -5.939626693725585938e-02
1.940318346023559570e-01 -3.909780085086822510e-02 -7.866634428501129150e-02
9.010204672813415527e-02 -3.984714299440383911e-02 -2.017245143651962280e-01
1.801442950963973999e-01 -3.927564620971679688e-02 -1.386403441429138184e-01
1.322389990091323853e-01 -3.358563780784606934e-02 -2.917256057262420654e-01
1.538761854171752930e-01 7.523810490965843201e-03 -6.260393559932708740e-02
6.419304758310317993e-02 -4.252059012651443481e-02 -5.321108177304267883e-02
3.910227119922637939e-02 -1.795821636915206909e-02 -2.855876684188842773e-01
5.707026273012161255e-02 -2.654010243713855743e-02 -2.926695644855499268e-01
1.944885402917861938e-01 2.888180315494537354e-04 -5.284496769309043884e-02
1.173614636063575745e-01 2.589529380202293396e-03 1.732770949602127075e-01
1.117162257432937622e-01 -4.357390105724334717e-02 -1.519015580415725708e-01
2.104815840721130371e-01 -3.097414225339889526e-02 -1.196110397577285767e-01
1.352438181638717651e-01 -4.469842091202735901e-02 2.320476770401000977e-01
6.121548265218734741e-02 -7.502770982682704926e-03 -3.356146216392517090e-01
1.415168941020965576e-01 -4.806246981024742126e-02 9.981170296669006348e-02
9.847397357225418091e-02 -4.738968983292579651e-02 8.039757609367370605e-02
2.082894444465637207e-01 -4.321160726249217987e-03 -5.681261792778968811e-02
5.391034483909606934e-02 4.443481564521789551e-03 -1.610850244760513306e-01
1.311751008033752441e-01 -4.843290895223617554e-02 5.359883233904838562e-02
9.332882612943649292e-02 -4.657094925642013550e-02 1.163458079099655151e-01
5.554191768169403076e-02 -1.198761165142059326e-04 1.167769283056259155e-01
2.235095798969268799e-01 -1.626496016979217529e-02 9.752494096755981445e-02
1.821759939193725586e-01 -4.134082049131393433e-02 -8.658598363399505615e-02
8.160482347011566162e-02 -4.040594026446342468e-02 -1.769729107618331909e-01
1.901400685310363770e-01 -4.210935533046722412e-02 1.313258558511734009e-01
1.561506837606430054e-02 -8.438783697783946991e-03 -1.021849960088729858e-01
1.546036601066589355e-01 -4.462155327200889587e-02 2.135902941226959229e-01
1.737110465764999390e-01 4.195079207420349121e-03 -1.258827745914459229e-01
2.013205289840698242e-01 -3.849434107542037964e-02 1.528095752000808716e-01
1.357786804437637329e-01 -4.776680096983909607e-02 1.360232681035995483e-01
1.624397039413452148e-01 -2.447556518018245697e-02 -3.207718431949615479e-01
6.982597708702087402e-02 -5.994341336190700531e-03 2.292753309011459351e-01
1.399790495634078979e-01 -5.137715488672256470e-04 2.118079513311386108e-01
6.953609734773635864e-02 -3.917163610458374023e-02 -1.707302331924438477e-01
6.950922310352325439e-02 7.447594776749610901e-03 -8.358116447925567627e-02
1.447667181491851807e-01 -4.803476482629776001e-02 8.266112208366394043e-02
1.548443883657455444e-01 -4.162370413541793823e-02 2.656720280647277832e-01
1.851990818977355957e-01 2.553384751081466675e-03 -3.980640321969985962e-02
1.696703732013702393e-01 -7.418456487357616425e-03 2.523624897003173828e-01
1.557689458131790161e-01 -4.544106125831604004e-02 1.901619285345077515e-01
4.825259000062942505e-02 3.065802156925201416e-04 -2.349213659763336182e-01
1.052876710891723633e-01 -1.049047242850065231e-02 3.091282248497009277e-01
1.258953660726547241e-01 -2.967201173305511475e-02 -3.272397220134735107e-01
2.003342807292938232e-01 -1.134303119033575058e-02 2.027834355831146240e-01
2.122797369956970215e-01 -1.876850426197052002e-02 -1.809055656194686890e-01
1.120056658983230591e-01 8.843718096613883972e-03 -1.745688915252685547e-01
9.187335520982742310e-02 -4.546866938471794128e-02 1.596495807170867920e-01
3.351621329784393311e-02 -9.132180362939834595e-03 -2.596402764320373535e-01
1.432508826255798340e-01 -3.568163514137268066e-02 -2.617054879665374756e-01
1.188902333378791809e-01 7.562965154647827148e-03 5.851760134100914001e-02
1.032361239194869995e-01 -4.146533459424972534e-02 -1.881909519433975220e-01
2.066197991371154785e-01 -3.563302755355834961e-02 -7.059783488512039185e-02
1.741230189800262451e-01 -4.394963383674621582e-02 -4.731045663356781006e-02
1.372411251068115234e-01 -2.453907392919063568e-02 -3.509169816970825195e-01
1.129081994295120239e-01 -4.822586849331855774e-02 5.792475864291191101e-02
6.361192464828491211e-02 -2.193963155150413513e-03 1.728191077709197998e-01
1.439048200845718384e-01 -4.769172519445419312e-02 1.250348985195159912e-01
1.087594628334045410e-01 -4.600615054368972778e-02 -8.394317328929901123e-02
1.493254005908966064e-01 -3.006888553500175476e-03 2.349969297647476196e-01
1.662692278623580933e-01 -4.170811921358108521e-02 -1.348496675491333008e-01
8.439777791500091553e-02 -3.636406362056732178e-02 -2.452511787414550781e-01
1.134847700595855713e-01 -4.588070139288902283e-02 1.967370808124542236e-01
9.265458583831787109e-02 -4.535360634326934814e-02 -7.518237829208374023e-02
1.391363590955734253e-01 -4.616855084896087646e-02 1.951379776000976562e-01
6.862577795982360840e-02 -2.047021314501762390e-02 -3.459970355033874512e-01
3.062726557254791260e-02 -1.675889641046524048e-02 1.743830144405364990e-01
1.752070933580398560e-01 -3.326053917407989502e-02 -2.334852814674377441e-01
1.619562953710556030e-01 2.769203856587409973e-03 1.170067936182022095e-01
7.158670574426651001e-02 -3.534743189811706543e-02 -2.364299744367599487e-01
1.458264887332916260e-01 -4.368676990270614624e-02 -1.346275806427001953e-01
7.383498549461364746e-02 -1.111582666635513306e-02 2.761826515197753906e-01
1.520081460475921631e-01 1.187708228826522827e-03 1.706605404615402222e-01
1.998440027236938477e-01 -3.819691389799118042e-02 1.713050603866577148e-01
9.521691501140594482e-02 8.862389251589775085e-03 -1.589738279581069946e-01
2.754779905080795288e-02 -2.176532708108425140e-02 -2.228921204805374146e-01
3.023122251033782959e-02 -3.153090178966522217e-02 -1.273948997259140015e-01
1.145193427801132202e-01 6.361123174428939819e-03 9.438428282737731934e-02
1.834761202335357666e-01 2.356609329581260681e-03 1.569492183625698090e-02
1.395563632249832153e-01 -3.070258349180221558e-02 -3.112631142139434814e-01
7.278783619403839111e-02 -4.246892780065536499e-02 1.695697009563446045e-01
9.646118432283401489e-02 9.468346834182739258e-03 -9.648345410823822021e-02
8.941116183996200562e-02 -4.673788696527481079e-02 5.059003457427024841e-02
5.060968548059463501e-02 -3.709844499826431274e-02 1.692418158054351807e-01
2.251375913619995117e-01 -2.004634588956832886e-02 -7.495911419391632080e-02
1.174814924597740173e-01 -4.770512133836746216e-02 -1.954973116517066956e-02
2.964694797992706299e-02 -3.216205164790153503e-03 -1.805481016635894775e-01
1.986952573060989380e-01 -1.005956903100013733e-03 -1.038523390889167786e-02
6.958243250846862793e-02 5.255641415715217590e-03 -2.175103574991226196e-01
1.661606878042221069e-01 -4.564568027853965759e-02 1.468068659305572510e-01
3.135249018669128418e-02 -2.885403856635093689e-02 -1.782974451780319214e-01
2.283599972724914551e-01 -2.116537280380725861e-02 -8.448311127722263336e-03
1.367993056774139404e-01 2.890216186642646790e-03 1.597867459058761597e-01
6.771662831306457520e-02 -4.258123040199279785e-02 -7.433573156595230103e-02
1.156865358352661133e-01 8.137216791510581970e-03 3.846956416964530945e-02
2.105157822370529175e-02 -2.725637704133987427e-02 8.923090994358062744e-02
4.908218234777450562e-02 -3.903932869434356689e-02 -7.593829929828643799e-02
8.374869823455810547e-02 -3.404539078474044800e-02 3.027151226997375488e-01
9.043744206428527832e-02 -7.874865084886550903e-03 -3.732185065746307373e-01
1.732313334941864014e-01 -2.984330058097839355e-04 -2.390900254249572754e-01
5.349332094192504883e-02 -4.087318480014801025e-02 -3.468384221196174622e-02
1.440844237804412842e-01 -4.631505906581878662e-02 -6.389122456312179565e-02
5.882920324802398682e-02 -4.214332252740859985e-02 -1.938715390861034393e-02
1.530768722295761108e-01 -4.752478003501892090e-02 3.992801532149314880e-02
4.417435824871063232e-02 -3.872018307447433472e-02 6.745018064975738525e-02
7.571849226951599121e-02 2.071345224976539612e-03 -2.892881929874420166e-01
4.758504778146743774e-02 -3.994556516408920288e-02 5.033332854509353638e-03
1.825691759586334229e-01 -4.422299563884735107e-02 6.775060296058654785e-02
5.081500858068466187e-02 2.390226349234580994e-03 4.034173861145973206e-02
1.164643615484237671e-01 -4.549356549978256226e-02 -1.060817688703536987e-01
2.863182127475738525e-02 -1.831393875181674957e-02 -2.433220744132995605e-01
9.801673889160156250e-02 -2.203828096389770508e-02 -3.681490719318389893e-01
4.165226221084594727e-02 1.517243683338165283e-03 -4.364550113677978516e-05
1.276094913482666016e-01 -3.758773207664489746e-02 -2.502419650554656982e-01
9.622395783662796021e-02 -1.848242618143558502e-02 3.380181491374969482e-01
1.865837872028350830e-01 -4.157543182373046875e-02 1.757804751396179199e-01
4.479006677865982056e-02 -3.703869879245758057e-02 -1.067123711109161377e-01
1.977249979972839355e-01 -4.099643975496292114e-02 8.199229836463928223e-02
2.154283225536346436e-01 -1.723081991076469421e-02 1.741697341203689575e-01
1.817239969968795776e-01 2.745183184742927551e-03 -1.157860606908798218e-01
1.782757043838500977e-01 -4.116611182689666748e-02 -1.074283272027969360e-01
9.828837215900421143e-02 6.846431642770767212e-04 1.934386044740676880e-01
1.610302627086639404e-01 5.076372995972633362e-03 -1.777284741401672363e-01
1.691252738237380981e-01 -4.603622853755950928e-02 3.799455985426902771e-02
6.899468600749969482e-02 6.876749917864799500e-03 -2.485233359038829803e-02
8.936633914709091187e-02 5.798369646072387695e-03 8.527627587318420410e-02
3.130172193050384521e-02 -3.260267898440361023e-03 -1.947777122259140015e-01
1.655517965555191040e-01 -4.276130348443984985e-04 -2.658722698688507080e-01
9.240763634443283081e-02 -5.422525107860565186e-03 2.587748169898986816e-01
6.208153441548347473e-02 -3.613924607634544373e-03 1.864307075738906860e-01
1.274825930595397949e-01 -4.845766723155975342e-02 6.950186192989349365e-02
7.037037611007690430e-02 -4.434123635292053223e-02 1.027654483914375305e-02
8.722567558288574219e-02 -4.021904245018959045e-02 2.537925541400909424e-01
1.111429184675216675e-02 -2.060777880251407623e-02 -7.865935564041137695e-02
1.063326299190521240e-01 1.729046925902366638e-03 -3.189745843410491943e-01
1.865540742874145508e-01 -3.786213323473930359e-02 2.404702901840209961e-01
2.246975600719451904e-01 -1.433110702782869339e-02 4.396744072437286377e-02
1.973758935928344727e-01 -4.000833258032798767e-02 -2.630003727972507477e-02
2.009774297475814819e-01 -4.016404598951339722e-02 4.530425742268562317e-02
1.273975968360900879e-01 4.298187792301177979e-03 1.391437351703643799e-01
1.999033391475677490e-01 -3.677866607904434204e-02 -9.375594556331634521e-02
7.588534057140350342e-02 -7.416779175400733948e-03 2.531910240650177002e-01
2.732522785663604736e-02 -2.680432051420211792e-03 -1.158826332539319992e-02
5.339758843183517456e-02 4.826080054044723511e-03 -1.328769475221633911e-01
5.600415915250778198e-02 -4.178219288587570190e-02 5.538421496748924255e-02
2.122794091701507568e-02 -2.977965585887432098e-02 -6.469568610191345215e-02
2.022474408149719238e-01 -4.227350465953350067e-03 -1.412118673324584961e-01
8.144021034240722656e-02 7.802510634064674377e-03 -1.719528585672378540e-01
1.033571213483810425e-01 -4.342385008931159973e-02 2.355049550533294678e-01
1.748919188976287842e-01 -3.766126185655593872e-02 -1.810471713542938232e-01
1.926981508731842041e-01 5.680266767740249634e-04 -8.110132813453674316e-02
1.018706113100051880e-01 -4.456428065896034241e-02 2.103878557682037354e-01
7.957665622234344482e-02 -4.334342107176780701e-02 -1.015811264514923096e-01
4.225140810012817383e-02 -3.569101914763450623e-02 -1.238685846328735352e-01
8.114570379257202148e-02 -7.108777761459350586e-03 -1.795551925897598267e-02
-5.036699771881103516e-01 -4.683421924710273743e-02 3.634819388389587402e-02
-3.882683813571929932e-02 1.671396195888519287e-03 -6.853991746902465820e-02
6.294679641723632812e-02 -4.787375032901763916e-02 -8.447572588920593262e-02
-2.238667309284210205e-01 -4.541571438312530518e-02 7.405793666839599609e-02
-1.146005392074584961e-01 2.179075032472610474e-03 1.707904972136020660e-02
8.662757277488708496e-02 -5.648944154381752014e-02 -6.299041211605072021e-02
-8.297936618328094482e-02 -8.980791270732879639e-02 7.774562109261751175e-03
-1.988285928964614868e-01 -8.415864408016204834e-02 -5.459585040807723999e-02
-3.916048705577850342e-01 -2.598002366721630096e-02 6.279090791940689087e-02
-3.870292901992797852e-01 -4.686047509312629700e-02 -2.385697700083255768e-02
-8.154591917991638184e-02 -1.150283962488174438e-02 3.157180175185203552e-02
-3.252688348293304443e-01 -7.637487351894378662e-02 8.835896849632263184e-02
-4.919349849224090576e-01 -9.699094295501708984e-02 1.749534904956817627e-02
-1.580178439617156982e-01 -4.340355843305587769e-02 -7.706995308399200439e-02
-2.897914648056030273e-01 -9.922418743371963501e-03 -1.718234457075595856e-02
-1.115624308586120605e-01 8.573275059461593628e-03 -3.421751782298088074e-03
-2.945560812950134277e-01 -9.553356468677520752e-02 7.129196822643280029e-02
-2.640799283981323242e-01 -5.555730685591697693e-02 8.167587220668792725e-02
-4.243561625480651855e-01 -2.860289253294467926e-02 5.881038680672645569e-02
-1.011845096945762634e-01 -9.850867092609405518e-03 3.338927775621414185e-02
8.516901731491088867e-02 -4.917689412832260132e-02 -7.810401916503906250e-02
-3.713603019714355469e-01 -6.391590088605880737e-02 -3.260004147887229919e-02
-2.633493542671203613e-01 -2.914220094680786133e-03 2.407843619585037231e-02
-4.383257031440734863e-01 -7.068108767271041870e-02 -1.232307683676481247e-02
-4.548115730285644531e-01 -8.320504426956176758e-02 -4.321938380599021912e-03
-4.853151142597198486e-01 -5.328475311398506165e-02 8.612765371799468994e-02
-2.202051132917404175e-01 -3.711742162704467773e-02 -6.483635306358337402e-02
-7.237616181373596191e-02 1.038840040564537048e-02 -1.401620730757713318e-02
4.959490895271301270e-02 6.963629275560379028e-03 -3.148316964507102966e-02
-3.788412213325500488e-01 -1.132731884717941284e-01 1.409651618450880051e-02
4.163131117820739746e-02 9.373974055051803589e-03 -4.720367118716239929e-02
-3.982528746128082275e-01 -5.794516205787658691e-02 9.411820769309997559e-02
-2.506103515625000000e-01 -5.378380417823791504e-02 -6.094594672322273254e-02
-5.588028430938720703e-01 -8.244712650775909424e-02 4.427792504429817200e-02
-1.119719445705413818e-02 -7.468640059232711792e-02 -6.170363351702690125e-02
-3.373202681541442871e-01 -1.094853505492210388e-02 1.439286768436431885e-02
1.375598907470703125e-01 -3.707844763994216919e-02 -5.397107824683189392e-02
-5.008399486541748047e-02 -2.256814390420913696e-02 -8.740018308162689209e-02
-3.385548293590545654e-01 -7.981039583683013916e-02 -3.654353320598602295e-02
-4.214270412921905518e-01 -3.956113383173942566e-02 -4.819354508072137833e-03
-3.893122076988220215e-03 2.822019159793853760e-04 -7.462610304355621338e-02
-6.552700698375701904e-02 -8.832788467407226562e-02 -4.085826501250267029e-02
-6.281369924545288086e-02 -7.988731563091278076e-02 1.837754435837268829e-02
-4.866013526916503906e-01 -3.955859690904617310e-02 5.078594759106636047e-02
-3.036427497863769531e-01 -2.939708530902862549e-02 -3.945850953459739685e-02
-4.698761999607086182e-01 -3.701096028089523315e-02 3.128314018249511719e-02
-1.864688843488693237e-01 -5.710160732269287109e-02 6.849604845046997070e-02
-4.161314666271209717e-02 1.161954924464225769e-02 -3.295998275279998779e-02
-1.383367031812667847e-01 -2.783643454313278198e-02 5.348952114582061768e-02
-2.099921405315399170e-01 9.253844618797302246e-04 -2.360714226961135864e-02
-3.407557904720306396e-01 -1.246651634573936462e-02 3.658027574419975281e-02
-2.129683047533035278e-01 -3.817445412278175354e-02 7.009810209274291992e-02
-4.283976554870605469e-01 -7.592804729938507080e-02 9.768426418304443359e-02
-8.428664505481719971e-02 -8.689030259847640991e-02 -4.989016056060791016e-02
1.239002346992492676e-01 -2.956166863441467285e-03 -6.495578587055206299e-02
-1.198256090283393860e-01 -2.485616132616996765e-02 4.854567721486091614e-02
-3.872119486331939697e-01 -5.135912075638771057e-02 9.103183448314666748e-02
-6.043450534343719482e-02 9.371679276227951050e-03 -4.605498164892196655e-02
1.167883276939392090e-01 -4.505001381039619446e-02 -4.015324264764785767e-02
-3.016782999038696289e-01 -7.165167480707168579e-03 7.466343231499195099e-05
-2.817110717296600342e-01 -4.039390012621879578e-02 7.925729453563690186e-02
-5.352937579154968262e-01 -1.014436632394790649e-01 7.809975743293762207e-02
-1.201141551136970520e-01 -1.059619337320327759e-02 -6.950202584266662598e-02
-7.182218134403228760e-02 -2.132092602550983429e-02 -8.437050879001617432e-02
1.394669711589813232e-01 -3.151181340217590332e-02 -7.266348600387573242e-02
-1.882451772689819336e-01 -7.467518746852874756e-02 -6.346665322780609131e-02
-5.533703565597534180e-01 -9.251311421394348145e-02 8.290992677211761475e-02
1.235320866107940674e-01 -1.519575715065002441e-02 -3.292247280478477478e-02
9.424677491188049316e-02 -2.116336300969123840e-02 -1.481639407575130463e-02
-3.601628541946411133e-01 -1.603168994188308716e-02 4.320723190903663635e-02
-4.537977278232574463e-02 -5.391817539930343628e-03 1.796157285571098328e-02
-3.069491684436798096e-02 9.408954530954360962e-03 -1.454517617821693420e-02
-3.030520975589752197e-01 -1.054128780961036682e-01 -1.559084467589855194e-02
-3.496034741401672363e-01 -4.475701227784156799e-02 8.627468347549438477e-02
-4.369034469127655029e-01 -4.018432646989822388e-02 1.918985857628285885e-03
-2.030542492866516113e-01 -1.048268079757690430e-01 2.635986171662807465e-02
-2.996986210346221924e-01 -1.129940599203109741e-01 7.958053611218929291e-03
-1.355652511119842529e-01 7.510792464017868042e-03 5.405624397099018097e-04
-4.087315201759338379e-01 -2.936917729675769806e-02 6.604486703872680664e-02
-7.215596735477447510e-02 -2.096544951200485229e-03 1.879087276756763458e-02
-2.567374706268310547e-01 -7.880080491304397583e-02 -5.196476727724075317e-02
-2.077181786298751831e-01 3.466177731752395630e-03 6.918035913258790970e-03
-3.024023175239562988e-01 -8.627219498157501221e-02 8.039566874504089355e-02
-4.311257302761077881e-01 -5.903182178735733032e-02 9.480236470699310303e-02
-5.264602303504943848e-01 -1.043447032570838928e-01 4.558432474732398987e-02
-1.521483063697814941e-02 5.459032952785491943e-03 -6.140217185020446777e-03
-1.683263480663299561e-02 -1.246593892574310303e-03 -7.540699839591979980e-02
-3.493220508098602295e-01 -1.244819909334182739e-02 2.546461299061775208e-02
-4.390830397605895996e-01 -1.128098517656326294e-01 6.426140666007995605e-02
-2.699817717075347900e-01 -2.642448991537094116e-03 -2.531767822802066803e-04
-1.953516453504562378e-01 -1.068115606904029846e-01 4.739641677588224411e-03
-2.833211421966552734e-01 -1.015255451202392578e-01 6.116595491766929626e-02
-4.738126099109649658e-01 -1.059176772832870483e-01 8.011007308959960938e-02
-1.411631703376770020e-01 -8.106789737939834595e-02 -6.128704920411109924e-02
-2.964351773262023926e-01 -4.274218529462814331e-02 -4.892449080944061279e-02
-3.575501441955566406e-01 -8.386595547199249268e-02 -3.025741130113601685e-02
9.419530630111694336e-02 -6.069634109735488892e-03 -2.503153495490550995e-02
1.173525452613830566e-01 -1.651696115732192993e-02 -8.474780619144439697e-02
-2.813494801521301270e-01 -2.949149906635284424e-02 7.192571461200714111e-02
-4.029713273048400879e-01 -4.353187233209609985e-02 -1.605815999209880829e-02
-2.020897716283798218e-01 -1.251104474067687988e-02 4.870545491576194763e-02
-2.674033641815185547e-01 -1.064592450857162476e-01 4.731003567576408386e-02
-3.262422680854797363e-01 -1.628197357058525085e-02 -1.396330073475837708e-02
-3.870868086814880371e-01 -2.299110405147075653e-02 4.642373882234096527e-03
-1.953044533729553223e-01 -1.998059079051017761e-02 -6.137191876769065857e-02
-2.581164240837097168e-02 -3.153948485851287842e-02 -9.134039282798767090e-02
9.101393818855285645e-02 -5.458878353238105774e-02 -3.358148410916328430e-02
1.119484901428222656e-01 -2.297435328364372253e-02 -2.333855815231800079e-02
-2.480244487524032593e-01 -1.090425401926040649e-01 3.166277334094047546e-02
-4.571387767791748047e-01 -3.288327902555465698e-02 3.451034799218177795e-02
6.718358397483825684e-02 -3.591842204332351685e-02 -2.370294649153947830e-03
-3.614092469215393066e-01 -2.020556852221488953e-02 -4.152783658355474472e-03
-3.609303832054138184e-01 -4.275330528616905212e-02 -3.034391626715660095e-02
-5.007526874542236328e-01 -4.624406993389129639e-02 6.874470412731170654e-02
-3.891531825065612793e-01 -1.107009351253509521e-01 6.572186946868896484e-02
-5.026091337203979492e-01 -7.384517788887023926e-02 9.587754309177398682e-02
-1.644752323627471924e-01 -2.104712277650833130e-02 -6.886246800422668457e-02
-4.475686550140380859e-01 -3.490324318408966064e-02 6.653289496898651123e-02
-5.767370760440826416e-02 1.286387443542480469e-03 1.082945521920919418e-02
5.551168322563171387e-02 -6.727883219718933105e-02 -4.381579905748367310e-02
6.953456997871398926e-02 -1.252529025077819824e-02 -8.865123987197875977e-02
-6.267315149307250977e-02 -5.898315459489822388e-02 3.697365149855613708e-02
-3.515857458114624023e-01 -6.357507407665252686e-02 9.253975749015808105e-02
-1.788373142480850220e-01 -2.240896783769130707e-02 5.627464875578880310e-02
-2.649408876895904541e-01 -6.693257391452789307e-02 -5.608376860618591309e-02
-1.185490638017654419e-01 -5.987462401390075684e-02 -7.846483588218688965e-02
-4.814426004886627197e-01 -9.302093088626861572e-02 1.018125563859939575e-02
-2.357476800680160522e-01 -6.365139782428741455e-02 7.700432837009429932e-02
-3.161171972751617432e-01 -3.704474121332168579e-02 -4.094475507736206055e-02
-3.667683303356170654e-01 -1.514156907796859741e-02 2.884662710130214691e-02
-1.323406994342803955e-01 -1.668227463960647583e-02 4.493429884314537048e-02
-2.836498320102691650e-01 -1.458758115768432617e-02 -2.918716520071029663e-02
-3.293681740760803223e-01 -4.929231479763984680e-02 8.728776872158050537e-02
-2.232940942049026489e-01 -1.029075384140014648e-01 -2.463036216795444489e-02
-1.510996967554092407e-01 -4.308211803436279297e-02 6.097007915377616882e-02
-2.344977259635925293e-01 1.424513757228851318e-03 -1.332185463979840279e-03
-3.619298338890075684e-01 -1.160318404436111450e-01 2.989737689495086670e-02
-1.347622871398925781e-01 -5.419149622321128845e-02 5.768566206097602844e-02
-9.632354229688644409e-02 -4.790576547384262085e-02 4.904982075095176697e-02
-2.305070161819458008e-01 -2.418518625199794769e-02 -5.596104264259338379e-02
-2.110066413879394531e-01 -9.826895594596862793e-02 4.584682732820510864e-02
-2.572989761829376221e-01 -2.685874700546264648e-03 -1.135958172380924225e-02
-1.072233915328979492e-02 -6.462931632995605469e-02 -7.676944136619567871e-02
-4.864968359470367432e-01 -1.102875024080276489e-01 6.880593299865722656e-02
-1.303601861000061035e-01 -9.975187480449676514e-02 -3.209084738045930862e-03
-1.215712726116180420e-01 -2.772844396531581879e-02 -7.979981601238250732e-02
-3.009164631366729736e-01 -2.608247660100460052e-02 6.946323812007904053e-02
6.219446659088134766e-02 1.613248139619827271e-03 -2.259675413370132446e-02
-1.017573475837707520e-02 -8.147868514060974121e-02 -2.581478282809257507e-02
-3.157788515090942383e-01 -7.773708552122116089e-03 2.064610272645950317e-02
2.804321050643920898e-02 -6.443534791469573975e-02 -7.129773497581481934e-02
1.506271362304687500e-01 -1.896714046597480774e-02 -6.062157079577445984e-02
