6.244184374809265137e-01 9.822070598602294922e-03 1.398906260728836060e-01
3.729989528656005859e-01 2.326780259609222412e-01 1.166575215756893158e-02
-9.497889876365661621e-01 2.916159927845001221e-01 -4.174779728055000305e-02
-8.216210603713989258e-01 1.612445712089538574e-01 -2.151873260736465454e-01
5.822255611419677734e-01 8.209867775440216064e-02 -1.526585966348648071e-01
-6.057422757148742676e-01 2.646965682506561279e-01 -2.212928980588912964e-01
-1.040570974349975586e+00 5.225891619920730591e-02 3.299337625503540039e-02
4.712861776351928711e-02 -5.108036845922470093e-02 2.601573765277862549e-01
1.791422516107559204e-01 1.845738142728805542e-01 1.882681250572204590e-01
-2.575460076332092285e-01 -1.595718562602996826e-01 9.716641902923583984e-02
1.904058307409286499e-01 2.592023015022277832e-01 -1.477650105953216553e-01
3.591256141662597656e-01 -7.247029989957809448e-02 2.123733758926391602e-01
-9.052192568778991699e-01 2.158442884683609009e-02 -1.058694869279861450e-01
-3.906229436397552490e-01 3.170430958271026611e-01 -1.706794500350952148e-01
-6.213755905628204346e-02 1.774933934211730957e-01 -2.740997076034545898e-01
-4.646894931793212891e-01 5.583424866199493408e-02 2.686956226825714111e-01
5.591370463371276855e-01 -9.585366398096084595e-02 -9.002556651830673218e-02
1.722202748060226440e-01 2.089987993240356445e-01 -2.208856493234634399e-01
-3.706852495670318604e-01 3.372527062892913818e-01 -1.154468134045600891e-01
4.566791653633117676e-01 6.573846936225891113e-02 1.929445862770080566e-01
6.737806797027587891e-01 4.987299069762229919e-02 -1.043732687830924988e-01
5.602359175682067871e-01 1.691690832376480103e-01 -6.302343681454658508e-03
1.808875352144241333e-01 -1.960863173007965088e-02 -2.362975627183914185e-01
7.373492121696472168e-01 3.552467003464698792e-02 -9.710352867841720581e-03
-4.673396348953247070e-01 8.732443302869796753e-02 -2.695885300636291504e-01
-8.935918211936950684e-01 2.972685396671295166e-01 -9.406898170709609985e-02
-6.711700558662414551e-01 -8.027332276105880737e-02 1.158298254013061523e-01
4.054521918296813965e-01 2.143322229385375977e-01 -1.099222376942634583e-01
1.805606633424758911e-01 -3.713150322437286377e-02 -2.262160331010818481e-01
-3.468433022499084473e-01 1.489520519971847534e-01 -2.844853401184082031e-01
-2.321465313434600830e-01 -1.294319629669189453e-01 -1.146018803119659424e-01
-2.206084877252578735e-01 -1.630727946758270264e-01 9.822419285774230957e-02
3.894739151000976562e-01 2.247889637947082520e-01 2.636021375656127930e-02
-2.255290746688842773e-01 5.992032214999198914e-02 2.822223603725433350e-01
-1.073484182357788086e+00 8.043015003204345703e-02 -2.198839746415615082e-02
4.656130075454711914e-01 1.840381026268005371e-01 7.222016900777816772e-02
-9.014863371849060059e-01 8.319483697414398193e-02 1.743523031473159790e-01
-8.993921279907226562e-01 1.171052902936935425e-01 1.792665719985961914e-01
-6.553949713706970215e-01 3.390485346317291260e-01 -1.775714941322803497e-02
-3.256360590457916260e-01 -1.561577022075653076e-01 6.424922496080398560e-02
3.306651115417480469e-01 2.179541289806365967e-01 9.049666672945022583e-02
-4.846196174621582031e-01 2.591511011123657227e-01 -2.371674478054046631e-01
-1.003817915916442871e+00 1.349797695875167847e-01 -1.395432054996490479e-01
-9.346337318420410156e-01 2.072208523750305176e-01 1.375727057456970215e-01
-4.008398056030273438e-01 2.153541147708892822e-02 -2.510020732879638672e-01
-3.499048054218292236e-01 -8.469114452600479126e-02 2.201085537672042847e-01
7.417359352111816406e-01 -1.614226400852203369e-02 8.200251497328281403e-03
-1.029486656188964844e+00 6.789345294237136841e-02 -6.923774629831314087e-02
5.517399907112121582e-01 -8.511719852685928345e-02 -1.077744662761688232e-01
3.458045721054077148e-01 -1.749327033758163452e-02 -2.146376967430114746e-01
-6.739024072885513306e-02 3.965636342763900757e-02 -2.745223939418792725e-01
-5.721827149391174316e-01 7.303072512149810791e-02 2.560377120971679688e-01
-2.443290650844573975e-01 2.089096605777740479e-01 -2.707929909229278564e-01
4.206389188766479492e-01 2.178685069084167480e-01 1.449953764677047729e-02
-7.268428206443786621e-01 1.006533354520797729e-01 -2.291664928197860718e-01
-7.793897986412048340e-01 -5.276652425527572632e-02 1.010339334607124329e-01
-5.795225501060485840e-01 1.188007742166519165e-02 2.427084296941757202e-01
-7.985181212425231934e-01 -3.331005573272705078e-03 -1.317671239376068115e-01
-1.082885935902595520e-01 -1.755470037460327148e-01 8.771465159952640533e-03
-6.712892651557922363e-01 2.059189975261688232e-01 -2.420942485332489014e-01
2.199681252241134644e-01 -4.533990472555160522e-02 -2.169251143932342529e-01
-3.461476266384124756e-01 -1.537618339061737061e-01 6.107735633850097656e-02
-4.300936460494995117e-01 -1.210567429661750793e-01 -7.684639841318130493e-02
-4.196096062660217285e-01 -1.184464916586875916e-01 -8.759175240993499756e-02
-6.723179668188095093e-02 2.569008767604827881e-01 -2.232814729213714600e-01
-2.013279497623443604e-01 2.737089991569519043e-01 -2.213891744613647461e-01
4.841878414154052734e-01 -7.081907242536544800e-02 -1.471525281667709351e-01
-8.225790858268737793e-01 2.862691879272460938e-01 8.859103918075561523e-02
3.054812550544738770e-03 1.030104607343673706e-02 2.770202457904815674e-01
-1.508357375860214233e-01 3.297698795795440674e-01 -1.148218475282192230e-02
-7.157481312751770020e-01 2.655625939369201660e-01 1.443113684654235840e-01
6.991337537765502930e-01 -9.839743375778198242e-03 -8.121424168348312378e-02
6.632226109504699707e-01 -7.339421659708023071e-02 -5.261440575122833252e-02
-3.344751000404357910e-01 9.002245962619781494e-03 2.736252248287200928e-01
6.242836713790893555e-01 8.200468868017196655e-02 -1.272009611129760742e-01
-3.603364825248718262e-01 3.320772051811218262e-01 -1.328105181455612183e-01
4.658302664756774902e-02 -1.518707573413848877e-01 -9.811791032552719116e-02
-1.843663007020950317e-01 2.792769670486450195e-01 -2.132272273302078247e-01
4.229075312614440918e-01 -9.286031872034072876e-02 1.841410845518112183e-01
4.411647319793701172e-01 5.387911200523376465e-02 -2.111044228076934814e-01
-7.982381582260131836e-01 2.267591953277587891e-01 -2.077995687723159790e-01
-1.267418563365936279e-01 2.529639005661010742e-01 1.688856184482574463e-01
-1.501372903585433960e-01 -1.250264942646026611e-01 2.000230997800827026e-01
-7.622033953666687012e-01 1.252742111682891846e-01 -2.269112914800643921e-01
-5.347794294357299805e-02 3.201416432857513428e-01 -2.157402224838733673e-02
-2.350144088268280029e-02 1.619245857000350952e-02 2.787817418575286865e-01
-1.884582489728927612e-01 3.325352668762207031e-01 -6.542505230754613876e-03
-7.392264008522033691e-01 -4.420582205057144165e-02 -9.792368859052658081e-02
-3.897439837455749512e-01 3.255229890346527100e-01 6.695614010095596313e-02
2.277453094720840454e-01 1.256972849369049072e-01 2.223752290010452271e-01
-5.792794823646545410e-01 2.597348690032958984e-01 -2.282996922731399536e-01
-2.050461769104003906e-01 -8.128445595502853394e-02 -1.891029626131057739e-01
-4.513700604438781738e-01 -7.877952605485916138e-02 -1.509653925895690918e-01
-5.473056435585021973e-02 -1.655399203300476074e-01 1.321553736925125122e-01
-2.212675660848617554e-01 -1.595989465713500977e-01 -3.488460183143615723e-02
4.491362571716308594e-01 -3.395885229110717773e-02 2.048044055700302124e-01
2.362441569566726685e-01 6.965427100658416748e-02 2.450699955224990845e-01
-2.776907682418823242e-01 2.812312543392181396e-01 -2.184989303350448608e-01
-4.508506059646606445e-01 7.149603217840194702e-02 2.703334093093872070e-01
-9.367731213569641113e-01 -6.482325494289398193e-03 1.665709353983402252e-02
2.044395059347152710e-01 -1.542927324771881104e-01 -8.564243465662002563e-02
5.673832297325134277e-01 -3.725526481866836548e-02 1.635340154170989990e-01
-5.438567996025085449e-01 2.843226790428161621e-01 1.422254294157028198e-01
2.042406350374221802e-01 -9.054490178823471069e-02 2.265616357326507568e-01
-1.595313847064971924e-02 3.655201569199562073e-02 -2.721933424472808838e-01
-1.016717195510864258e+00 2.610563337802886963e-01 -6.833466142416000366e-02
6.366413831710815430e-01 -9.779912978410720825e-02 6.709722429513931274e-02
8.157198131084442139e-02 -2.243373543024063110e-02 -2.421635389328002930e-01
7.160387635231018066e-01 -2.081932127475738525e-02 6.831472367048263550e-02
-9.538944959640502930e-01 2.643191516399383545e-01 6.652827560901641846e-02
-3.593124747276306152e-01 3.441331684589385986e-01 -2.230139076709747314e-02
4.357175230979919434e-01 2.112212181091308594e-01 2.303057163953781128e-02
-2.945844531059265137e-01 3.003988564014434814e-01 1.156138852238655090e-01
-8.011068701744079590e-01 -5.337521433830261230e-04 1.697326898574829102e-01
6.672765612602233887e-01 9.429698437452316284e-02 4.829991981387138367e-02
2.142682224512100220e-01 2.462465763092041016e-01 -1.619877815246582031e-01
3.320645093917846680e-01 2.039525955915451050e-01 1.148164048790931702e-01
-2.750192582607269287e-02 1.222269982099533081e-02 -2.635143399238586426e-01
7.974688708782196045e-02 1.864028871059417725e-01 2.068130373954772949e-01
6.091515719890594482e-02 2.244599536061286926e-02 2.736738920211791992e-01
-9.953539073467254639e-02 1.393636167049407959e-01 -2.852765619754791260e-01
5.961133241653442383e-01 7.471968233585357666e-02 1.285107433795928955e-01
-6.655812859535217285e-01 2.260043919086456299e-01 -2.357543706893920898e-01
-8.038393259048461914e-01 1.671607494354248047e-01 1.977226734161376953e-01
-4.436601400375366211e-01 2.457448542118072510e-01 1.918396353721618652e-01
3.399451971054077148e-01 8.960822224617004395e-02 2.158449888229370117e-01
-5.398717522621154785e-02 1.351441144943237305e-01 -2.834212183952331543e-01
-9.771263599395751953e-01 2.717345356941223145e-01 3.318693488836288452e-02
-1.066877961158752441e+00 2.363188862800598145e-01 -5.001338571310043335e-02
-8.409711122512817383e-01 1.362569928169250488e-01 -2.071838974952697754e-01
-2.663435339927673340e-01 2.441528737545013428e-01 1.913880407810211182e-01
-1.407501399517059326e-01 2.972148656845092773e-01 -1.807180196046829224e-01
3.660006821155548096e-02 -6.725289672613143921e-02 -2.118576914072036743e-01
3.135696649551391602e-01 1.467159390449523926e-01 -2.252038717269897461e-01
-1.015894889831542969e+00 1.024184972047805786e-01 -1.161302700638771057e-01
5.247032642364501953e-02 -1.826435327529907227e-01 5.584057793021202087e-02
1.814441531896591187e-01 -5.141196399927139282e-02 2.493175268173217773e-01
2.772380709648132324e-01 -1.725742816925048828e-01 8.355495333671569824e-02
-6.150829195976257324e-01 2.757227420806884766e-01 1.469562798738479614e-01
3.957596421241760254e-01 -1.629638969898223877e-01 4.586478695273399353e-03
4.124572873115539551e-01 1.992230117321014404e-02 -2.140428721904754639e-01
-2.166848182678222656e-01 2.793061137199401855e-01 -2.163741439580917358e-01
-1.259077936410903931e-01 3.356663882732391357e-02 -2.727843523025512695e-01
-4.966108202934265137e-01 3.200252354145050049e-01 8.154927194118499756e-02
1.522226482629776001e-01 9.477590024471282959e-02 2.503046095371246338e-01
-2.477121353149414062e-02 3.138704001903533936e-01 1.946766162291169167e-03
-2.033114433288574219e-01 -4.727057367563247681e-02 -2.224366068840026855e-01
-3.471065163612365723e-01 3.213607966899871826e-01 7.488805055618286133e-02
-8.582418560981750488e-01 9.086206555366516113e-03 -1.172180920839309692e-01
-6.811513304710388184e-01 2.617738842964172363e-01 1.545410156250000000e-01
-3.214118480682373047e-01 1.819797456264495850e-01 2.426310032606124878e-01
4.328411817550659180e-01 -1.550346612930297852e-01 -1.262652967125177383e-02
6.783513426780700684e-01 -2.745352685451507568e-03 -1.009386554360389709e-01
4.413396120071411133e-01 2.011762261390686035e-01 5.104105919599533081e-02
3.759832382202148438e-01 2.227624952793121338e-01 -1.134670004248619080e-01
-2.230890691280364990e-01 2.100886404514312744e-01 -2.697211802005767822e-01
-7.717796564102172852e-01 3.212863802909851074e-01 2.014334686100482941e-02
-7.011911869049072266e-01 1.956758201122283936e-01 -2.393874377012252808e-01
-4.172804951667785645e-01 2.372636795043945312e-01 2.004980742931365967e-01
-3.830599188804626465e-01 3.105664998292922974e-02 2.738885283470153809e-01
4.579676389694213867e-01 3.417338803410530090e-02 -2.048340886831283569e-01
-1.727081388235092163e-01 -4.561705142259597778e-02 -2.258027642965316772e-01
-1.291386336088180542e-01 3.044688105583190918e-01 -1.642369478940963745e-01
-2.104759216308593750e-01 3.077198565006256104e-02 2.823941111564636230e-01
-7.095009833574295044e-02 2.578030228614807129e-01 1.541416794061660767e-01
5.355940759181976318e-02 -1.713136434555053711e-01 -4.506238177418708801e-02
-1.054700732231140137e+00 6.083425134420394897e-02 1.618819311261177063e-02
4.286509156227111816e-01 7.413396984338760376e-02 -2.139417529106140137e-01
-6.618100404739379883e-01 3.347098231315612793e-01 1.012548152357339859e-02
-3.400133848190307617e-01 1.503829509019851685e-01 2.585809230804443359e-01
5.015150904655456543e-01 -1.465614438056945801e-01 2.762884646654129028e-02
-1.046839356422424316e-02 -1.355317831039428711e-01 -1.280234903097152710e-01
-8.654062151908874512e-01 -3.203408420085906982e-02 6.273812800645828247e-02
6.842860579490661621e-01 9.358001500368118286e-02 1.797418668866157532e-02
-3.083809614181518555e-01 -8.132223039865493774e-02 -1.761530041694641113e-01
-4.243201017379760742e-01 -3.697478771209716797e-02 2.455012500286102295e-01
-8.040887117385864258e-01 -4.381572455167770386e-02 1.021291464567184448e-01
-2.119299471378326416e-01 -1.063256189227104187e-01 -1.564640849828720093e-01
5.689819157123565674e-02 1.166734993457794189e-01 -2.767397761344909668e-01
-1.948657333850860596e-01 8.753075450658798218e-02 -2.860624492168426514e-01
-3.414124846458435059e-01 1.247578337788581848e-01 -2.851697802543640137e-01
3.632037639617919922e-01 -1.425878703594207764e-01 -8.122899383306503296e-02
-3.691081702709197998e-02 4.193932563066482544e-02 -2.745046615600585938e-01
-1.205016896128654480e-01 6.022830307483673096e-02 2.813853025436401367e-01
-9.118084311485290527e-01 2.156623601913452148e-01 -1.768694072961807251e-01
-7.305830717086791992e-03 2.620136141777038574e-01 1.353213638067245483e-01
-7.033527493476867676e-01 -8.000587671995162964e-02 8.664369583129882812e-02
-6.952008605003356934e-01 1.857160031795501709e-02 2.190606445074081421e-01
1.339771002531051636e-01 3.530221059918403625e-02 2.660848796367645264e-01
-1.264278143644332886e-01 -1.731337308883666992e-01 8.324684947729110718e-02
4.089043140411376953e-01 2.042878568172454834e-01 7.005018740892410278e-02
-1.018901824951171875e+00 2.219310700893402100e-01 -1.200739517807960510e-01
4.924511909484863281e-02 5.440445989370346069e-02 -2.735120654106140137e-01
-7.048492431640625000e-01 -7.584840804338455200e-02 -4.123331606388092041e-02
-5.499495267868041992e-01 -7.289826124906539917e-02 -1.309794634580612183e-01
-2.749796807765960693e-01 2.267936468124389648e-01 -2.624529898166656494e-01
-3.375291824340820312e-03 3.231503441929817200e-02 2.780883312225341797e-01
-8.025524616241455078e-01 1.504910886287689209e-01 2.034251689910888672e-01
1.030620783567428589e-01 2.972796559333801270e-01 -2.355432324111461639e-02
2.783627510070800781e-01 8.486847579479217529e-02 2.318629175424575806e-01
4.977115988731384277e-02 -1.675731241703033447e-01 1.332347840070724487e-01
4.222956299781799316e-01 3.154569864273071289e-02 2.131354361772537231e-01
-6.455183625221252441e-01 2.730357348918914795e-01 1.465040445327758789e-01
-5.325003862380981445e-01 -1.242410913109779358e-01 5.196385830640792847e-02
-4.985832571983337402e-01 3.459208011627197266e-01 -2.480569854378700256e-02
8.473898470401763916e-02 -1.181585565209388733e-01 -1.553056538105010986e-01
-1.010438084602355957e+00 1.921204626560211182e-01 -1.385011374950408936e-01
4.933701157569885254e-01 7.853477448225021362e-02 1.739594191312789917e-01
-4.833026528358459473e-01 4.488724842667579651e-02 -2.522934079170227051e-01
2.968434691429138184e-01 2.075887918472290039e-01 1.244961172342300415e-01
-3.238969445228576660e-01 3.188538551330566406e-01 7.902447134256362915e-02
-7.418349385261535645e-01 5.403710156679153442e-02 2.194857448339462280e-01
2.522994875907897949e-01 -1.351673007011413574e-01 -1.170917525887489319e-01
-9.504548907279968262e-01 1.918045282363891602e-01 1.406580954790115356e-01
5.845000743865966797e-01 -9.027106314897537231e-02 1.225430667400360107e-01
1.724465042352676392e-01 -1.811967194080352783e-01 1.749421469867229462e-02
-7.866874933242797852e-01 -5.298865586519241333e-02 -3.934254869818687439e-02
-1.974248141050338745e-01 1.320670247077941895e-01 -2.883282601833343506e-01
-3.159308731555938721e-01 2.667128741741180420e-01 1.679197847843170166e-01
-6.319047510623931885e-02 -6.578437238931655884e-02 -2.130123823881149292e-01
-8.959400653839111328e-01 3.214844688773155212e-02 1.512451469898223877e-01
-6.689603924751281738e-01 -3.308118134737014771e-02 1.912076026201248169e-01
-1.351599395275115967e-02 -1.066130623221397400e-01 -1.705781519412994385e-01
-2.370705008506774902e-01 3.369597792625427246e-01 -1.275524590164422989e-02
-6.062037944793701172e-01 -3.965090215206146240e-02 2.049558460712432861e-01
-4.005909264087677002e-01 4.755489155650138855e-02 2.741640508174896240e-01
-3.493696451187133789e-01 2.716528773307800293e-01 -2.306082099676132202e-01
-3.699818253517150879e-01 -1.410622000694274902e-01 -4.117354005575180054e-02
5.234305262565612793e-01 1.138271540403366089e-01 -1.669546663761138916e-01
4.860961437225341797e-02 2.185279726982116699e-01 1.812105327844619751e-01
-9.465104341506958008e-01 1.057725921273231506e-01 -1.575090289115905762e-01
-5.329633355140686035e-01 -9.010208398103713989e-02 -1.062671020627021790e-01
-4.678845405578613281e-01 -5.347187072038650513e-02 2.265950441360473633e-01
5.065369606018066406e-02 -1.439897716045379639e-01 1.816346645355224609e-01
-3.845706582069396973e-01 9.393282979726791382e-02 2.732369601726531982e-01
-1.772888451814651489e-01 1.968286782503128052e-01 -2.738076448440551758e-01
-4.482660293579101562e-01 3.136265575885772705e-01 -1.768337488174438477e-01
-5.956864356994628906e-02 2.743374109268188477e-01 -2.010967284440994263e-01
2.406551986932754517e-01 2.684320211410522461e-01 -7.486131042242050171e-02
-6.657724976539611816e-01 3.098222911357879639e-01 -1.592928767204284668e-01
5.571544170379638672e-01 -2.842930704355239868e-02 -1.527771949768066406e-01
-1.467649638652801514e-01 2.823024690151214600e-01 1.290451735258102417e-01
1.556545048952102661e-01 -1.708813607692718506e-01 -4.396132752299308777e-02
-8.368238210678100586e-01 2.807313203811645508e-01 -1.537745893001556396e-01
1.889836937189102173e-01 -1.043641939759254456e-01 2.178816348314285278e-01
1.524654179811477661e-01 -1.066616848111152649e-01 2.194497585296630859e-01
4.093588590621948242e-01 2.236758768558502197e-01 7.475526072084903717e-04
-2.174015641212463379e-01 3.147854804992675781e-01 7.377605885267257690e-02
-8.115432262420654297e-01 2.444785833358764648e-01 1.458866596221923828e-01
1.470948010683059692e-01 2.720909714698791504e-01 6.142938137054443359e-02
6.023814082145690918e-01 1.460800170898437500e-01 1.340883038938045502e-02
1.072463244199752808e-01 -1.590667366981506348e-01 -8.121771365404129028e-02
-2.195871621370315552e-01 -8.421189337968826294e-02 -1.842521876096725464e-01
-6.319345235824584961e-01 3.073161244392395020e-01 9.560105204582214355e-02
-2.184516638517379761e-01 3.258991241455078125e-01 -1.287659406661987305e-01
-7.992824912071228027e-01 6.556572020053863525e-02 2.060594558715820312e-01
9.568735957145690918e-03 3.057200014591217041e-01 2.141591534018516541e-02
1.100100129842758179e-01 6.731807440519332886e-02 -2.707233726978302002e-01
3.749835491180419922e-01 -1.673083007335662842e-01 3.214628249406814575e-02
3.916872739791870117e-01 1.271672099828720093e-01 1.781908273696899414e-01
5.609567463397979736e-02 2.926359176635742188e-01 4.613656550645828247e-02
-2.121591717004776001e-01 1.720285117626190186e-01 2.465378344058990479e-01
-4.898113012313842773e-01 2.187479138374328613e-01 2.131922990083694458e-01
-1.132840365171432495e-01 2.857471406459808350e-01 -1.945288479328155518e-01
-5.179899930953979492e-01 -7.330229133367538452e-02 -1.406305581331253052e-01
-9.347707033157348633e-01 2.538540363311767578e-01 9.267999231815338135e-02
-6.159627437591552734e-01 1.514614969491958618e-01 -2.585152685642242432e-01
-9.701505899429321289e-01 2.625645697116851807e-01 -1.108727976679801941e-01
-1.008577197790145874e-01 2.016367912292480469e-01 2.184291630983352661e-01
-5.308132171630859375e-01 -5.652423948049545288e-02 2.098328173160552979e-01
-9.439576864242553711e-01 1.164257228374481201e-01 1.615360528230667114e-01
-9.384912848472595215e-01 6.799628585577011108e-02 -1.369910687208175659e-01
6.842392086982727051e-01 1.630727946758270264e-02 9.914832562208175659e-02
-3.176926374435424805e-01 2.230874001979827881e-01 2.130664885044097900e-01
1.319852620363235474e-01 2.916418612003326416e-01 -1.660539768636226654e-02
4.916619062423706055e-01 1.622669100761413574e-01 -1.415272653102874756e-01
-3.350166380405426025e-01 3.441635370254516602e-01 -4.781691730022430420e-02
-4.910143613815307617e-01 -6.405613571405410767e-02 2.123053967952728271e-01
3.962601423263549805e-01 3.747227787971496582e-02 -2.212550491094589233e-01
5.011538267135620117e-01 9.751087427139282227e-02 -1.843416690826416016e-01
-6.741004586219787598e-01 -8.844786137342453003e-02 8.396742492914199829e-02
-2.345708906650543213e-01 1.929550319910049438e-01 2.339721024036407471e-01
2.776845097541809082e-01 -3.951057791709899902e-02 -2.135187238454818726e-01
-2.735159695148468018e-01 1.795482635498046875e-01 2.437086999416351318e-01
1.545195430517196655e-01 2.880847156047821045e-01 -5.838494002819061279e-02
-9.783678054809570312e-01 2.238698005676269531e-01 -1.431947946548461914e-01
-8.040371537208557129e-01 2.064416557550430298e-01 -2.138198167085647583e-01
6.430537104606628418e-01 1.171754002571105957e-01 -6.935702264308929443e-02
-5.279012322425842285e-01 1.401552557945251465e-01 -2.702538073062896729e-01
4.292218089103698730e-01 2.057689428329467773e-01 -1.105150729417800903e-01
-2.550929784774780273e-02 3.107704222202301025e-01 -1.080534085631370544e-01
-4.438266754150390625e-01 3.428297638893127441e-01 -9.378527849912643433e-02
-1.016577124595642090e+00 5.714653059840202332e-02 -6.639933586120605469e-02
-9.496215730905532837e-02 2.914350032806396484e-01 -1.818365603685379028e-01
-1.915581077337265015e-01 2.527378499507904053e-01 -2.408940047025680542e-01
2.891502380371093750e-01 -7.587347179651260376e-02 -1.846373379230499268e-01
-3.833553493022918701e-01 3.149043321609497070e-01 9.255158156156539917e-02
-3.173892796039581299e-01 3.097368776798248291e-01 9.920529276132583618e-02
-2.753880023956298828e-01 2.158596813678741455e-01 2.180611640214920044e-01
-6.440631747245788574e-01 -1.231384277343750000e-02 -1.791000664234161377e-01
-1.689042747020721436e-01 1.786190867424011230e-01 -2.798396348953247070e-01
5.344490408897399902e-01 -1.273653507232666016e-01 9.260254353284835815e-02
-9.283837080001831055e-01 1.845288872718811035e-01 1.529994457960128784e-01
-2.561908960342407227e-01 3.272031843662261963e-01 4.421245679259300232e-02
-1.068148374557495117e+00 2.129807770252227783e-01 5.230714380741119385e-02
-9.177846908569335938e-01 1.588525921106338501e-01 1.666196882724761963e-01
4.457615613937377930e-01 -1.571526527404785156e-01 3.157161921262741089e-02
1.571226119995117188e-02 -9.097192436456680298e-02 2.389848679304122925e-01
-5.198534131050109863e-01 3.326650857925415039e-01 4.562354460358619690e-02
2.395415753126144409e-01 -1.058846041560173035e-01 2.104901373386383057e-01
4.165008664131164551e-01 -1.223763152956962585e-01 -1.040307208895683289e-01
-8.362108469009399414e-01 -4.235496371984481812e-02 -1.504718977957963943e-02
-6.519267559051513672e-01 5.650361627340316772e-02 2.407842427492141724e-01
-4.251353442668914795e-01 4.385332390666007996e-02 2.716917395591735840e-01
1.926394551992416382e-01 2.653868794441223145e-01 -1.315522789955139160e-01
-1.013473153114318848e+00 1.401775777339935303e-01 1.268538981676101685e-01
-2.468769699335098267e-01 3.334935009479522705e-01 1.509760133922100067e-02
1.439083069562911987e-01 -2.021286636590957642e-02 -2.392443120479583740e-01
-2.891671657562255859e-01 3.354616165161132812e-01 -1.090394109487533569e-01
5.948849916458129883e-01 -1.150927320122718811e-01 6.948204338550567627e-02
2.441449016332626343e-01 -1.765732169151306152e-01 1.759442267939448357e-03
-9.324897825717926025e-02 -2.843452990055084229e-02 2.720508575439453125e-01
2.966894507408142090e-01 -9.645774960517883301e-03 -2.265631556510925293e-01
-5.319687128067016602e-01 1.564962416887283325e-01 -2.696340680122375488e-01
-8.127072453498840332e-01 -4.911655932664871216e-02 -2.080740965902805328e-02
-1.003957033157348633e+00 2.773674950003623962e-02 2.544408291578292847e-02
-7.499107122421264648e-01 1.212340742349624634e-01 2.215847969055175781e-01
-5.204480886459350586e-02 -1.749596595764160156e-01 9.661057591438293457e-02
1.634503453969955444e-01 5.862377583980560303e-03 2.631188333034515381e-01
-4.068735241889953613e-02 -1.741837859153747559e-01 -2.290870063006877899e-02
5.693897008895874023e-01 1.046610027551651001e-01 -1.482605040073394775e-01
1.534812897443771362e-01 2.422835230827331543e-01 -1.907207369804382324e-01
-7.116943597793579102e-04 -1.476723551750183105e-01 -1.054901108145713806e-01
-7.619596719741821289e-01 1.809423416852951050e-01 2.013740837574005127e-01
5.093716382980346680e-01 1.911542713642120361e-01 -3.905206173658370972e-02
-5.574528872966766357e-02 3.089106380939483643e-01 4.354605078697204590e-02
-3.208498358726501465e-01 1.430814862251281738e-01 -2.858881354331970215e-01
8.588112890720367432e-02 2.589672207832336426e-01 -1.879760622978210449e-01
9.790490567684173584e-02 -1.449205875396728516e-01 1.788093894720077515e-01
-3.379026651382446289e-01 2.088017463684082031e-01 -2.709766626358032227e-01
1.184545904397964478e-01 2.801900804042816162e-01 -1.332394182682037354e-01
-1.034847378730773926e+00 9.336438030004501343e-02 1.023578569293022156e-01
-1.063169717788696289e+00 2.024777084589004517e-01 -9.711778163909912109e-02
-2.780397236347198486e-01 -9.307221323251724243e-02 2.223531007766723633e-01
-4.407644271850585938e-01 -1.301127076148986816e-01 -4.308804869651794434e-02
-5.398232340812683105e-01 3.205477297306060791e-01 -1.584952622652053833e-01
4.273340702056884766e-01 -1.018443927168846130e-01 -1.303046494722366333e-01
9.553417563438415527e-03 2.789075970649719238e-01 -1.780143380165100098e-01
8.339388668537139893e-02 -1.694763302803039551e-01 1.275572329759597778e-01
-7.029815316200256348e-01 -3.289207816123962402e-02 -1.340669691562652588e-01
4.269331693649291992e-02 1.974708735942840576e-01 2.033213376998901367e-01
-2.572481036186218262e-01 3.024411201477050781e-01 1.078352928161621094e-01
-1.275739669799804688e-01 -5.155476182699203491e-02 2.624523043632507324e-01
-8.192451596260070801e-01 1.791521906852722168e-01 1.889962553977966309e-01
-1.970723569393157959e-01 3.301755785942077637e-01 1.330640539526939392e-02
-4.741595387458801270e-01 2.590116262435913086e-01 1.771168559789657593e-01
-1.376245021820068359e-01 3.301441371440887451e-01 -3.376721963286399841e-02
-4.739652872085571289e-01 3.272634148597717285e-01 6.386122107505798340e-02
6.062871813774108887e-01 9.814459085464477539e-02 1.016838923096656799e-01
-7.415688037872314453e-01 -7.118508964776992798e-02 7.664274424314498901e-02
-6.164019703865051270e-01 -7.900164276361465454e-02 1.511591970920562744e-01
-4.599233865737915039e-01 1.853945255279541016e-01 -2.725546956062316895e-01
-4.564629793167114258e-01 -1.373681724071502686e-01 6.045477092266082764e-02
-6.094266772270202637e-01 -8.991498500108718872e-02 1.321010291576385498e-01
7.512931525707244873e-02 1.463217437267303467e-01 -2.697822749614715576e-01
-4.723165035247802734e-01 -8.422722667455673218e-02 -1.370666176080703735e-01
-4.647489786148071289e-01 2.634887993335723877e-01 -2.350053489208221436e-01
-7.198641300201416016e-01 3.339617550373077393e-01 -2.467153966426849365e-02
4.675972461700439453e-01 1.766903847455978394e-01 8.535464107990264893e-02
-1.778251826763153076e-01 2.937664091587066650e-01 1.134854108095169067e-01
9.587456285953521729e-02 1.606172323226928711e-01 2.241138666868209839e-01
-2.678914666175842285e-01 -1.040965989232063293e-01 -1.516394615173339844e-01
9.029488265514373779e-02 -1.698404848575592041e-01 -5.070652440190315247e-02
-8.767365217208862305e-01 3.712157905101776123e-02 -1.404386311769485474e-01
-1.326039433479309082e-01 -7.792785763740539551e-04 2.791174352169036865e-01
-4.375769495964050293e-01 -1.410214304924011230e-01 5.083815380930900574e-02
-7.014679312705993652e-01 2.625997960567474365e-01 -2.075995802879333496e-01
1.498371213674545288e-01 2.548824846744537354e-01 1.009781658649444580e-01
-5.674452781677246094e-01 3.250184953212738037e-01 -1.456256657838821411e-01
-2.244598269462585449e-01 3.295643031597137451e-01 2.648052573204040527e-02
-7.128000855445861816e-01 -8.329450339078903198e-02 4.334691911935806274e-02
-4.884074330329895020e-01 2.889015078544616699e-01 1.387502104043960571e-01
3.120537400245666504e-01 2.534984350204467773e-01 -3.220937028527259827e-02
1.637963801622390747e-01 -9.494449943304061890e-02 2.276932746171951294e-01
-5.816670060157775879e-01 1.764430403709411621e-01 2.316536754369735718e-01
-8.111187219619750977e-01 2.734099626541137695e-01 -1.709686070680618286e-01
2.237397581338882446e-01 8.049249649047851562e-03 2.553026378154754639e-01
1.916207224130630493e-01 6.330291181802749634e-02 2.540201842784881592e-01
3.217806220054626465e-01 -1.329663693904876709e-01 1.673499494791030884e-01
3.619804978370666504e-01 -8.361408859491348267e-02 -1.652087569236755371e-01
-1.385737061500549316e-01 2.293326146900653839e-02 8.957183361053466797e-01
-1.767942607402801514e-01 2.186831831932067871e-02 8.828083276748657227e-01
-1.151176393032073975e-01 2.847061306238174438e-02 7.078213691711425781e-01
-1.543124020099639893e-01 4.819198697805404663e-02 8.343786001205444336e-01
-1.665281504392623901e-01 9.624006226658821106e-03 7.600408196449279785e-01
-1.146446391940116882e-01 4.429472237825393677e-02 8.813439607620239258e-01
-5.036504194140434265e-02 -1.083358936011791229e-02 6.652497053146362305e-01
-1.662417054176330566e-01 5.299835465848445892e-03 7.930417060852050781e-01
-9.052192419767379761e-02 4.308219254016876221e-02 7.716594934463500977e-01
-1.566158086061477661e-01 1.543227024376392365e-02 7.332823276519775391e-01
-7.112768292427062988e-02 2.764382958412170410e-02 6.923282742500305176e-01
-1.205626502633094788e-01 2.600984461605548859e-02 8.925265073776245117e-01
-1.526579260826110840e-01 1.734313555061817169e-02 8.835721015930175781e-01
-8.768184483051300049e-02 -3.940312191843986511e-03 7.893705368041992188e-01
-7.522325217723846436e-02 2.254137024283409119e-02 6.753019094467163086e-01
-1.002478972077369690e-01 -8.877415210008621216e-03 7.636260390281677246e-01
-1.019533500075340271e-01 -1.107290573418140411e-02 7.389112710952758789e-01
-5.957683548331260681e-02 2.435159124433994293e-02 8.224998712539672852e-01
-9.232637286186218262e-02 4.019339010119438171e-02 8.610420227050781250e-01
-4.654208943247795105e-02 -1.024648360908031464e-02 6.947976350784301758e-01
-1.899511218070983887e-01 2.824673429131507874e-02 8.291583061218261719e-01
-3.134664148092269897e-02 1.681949011981487274e-02 6.847062110900878906e-01
-1.666115820407867432e-01 1.538382843136787415e-02 8.703908920288085938e-01
-9.152354300022125244e-02 4.489049315452575684e-02 8.345797061920166016e-01
-1.012491360306739807e-01 -1.123541593551635742e-02 6.974362730979919434e-01
-8.881902694702148438e-02 -1.686252653598785400e-04 8.068432211875915527e-01
-9.347662329673767090e-02 4.001714661717414856e-02 7.476494312286376953e-01
-1.114271953701972961e-01 4.727510735392570496e-03 8.377510309219360352e-01
-1.578439027070999146e-01 9.114843793213367462e-03 8.505370616912841797e-01
-1.831282973289489746e-01 1.612095162272453308e-02 8.377529978752136230e-01
-3.437955677509307861e-02 -5.807315930724143982e-03 6.603934764862060547e-01
-8.331513404846191406e-02 1.966323889791965485e-02 8.527325987815856934e-01
-1.360363960266113281e-01 4.919213801622390747e-02 8.245530724525451660e-01
-1.840910613536834717e-01 1.698820479214191437e-02 8.139951229095458984e-01
-5.053929612040519714e-02 3.267185389995574951e-02 7.752619385719299316e-01
-1.459423452615737915e-01 2.319581247866153717e-02 7.257049083709716797e-01
-1.793902069330215454e-01 4.139136523008346558e-02 8.385097980499267578e-01
-1.034029796719551086e-01 3.339017182588577271e-02 7.177376151084899902e-01
-1.157082319259643555e-01 3.659717738628387451e-02 7.359242439270019531e-01
-4.148831963539123535e-02 4.108425229787826538e-03 7.624292373657226562e-01
-4.929032921791076660e-02 2.118925750255584717e-02 6.777034401893615723e-01
-2.257233858108520508e-02 4.389297217130661011e-03 7.016132473945617676e-01
-1.630512475967407227e-01 5.106044933199882507e-03 8.146569132804870605e-01
-1.144964322447776794e-01 -7.775217294692993164e-03 7.693738937377929688e-01
-9.902971982955932617e-02 4.523086547851562500e-02 7.857567667961120605e-01
-1.254800409078598022e-01 -4.327144473791122437e-03 7.921749353408813477e-01
-1.415225565433502197e-01 4.683858901262283325e-02 8.961786031723022461e-01
-1.441378891468048096e-01 3.873911499977111816e-02 9.107564687728881836e-01
-9.831506013870239258e-02 4.681897908449172974e-02 8.131094574928283691e-01
-6.820878386497497559e-02 2.910274267196655273e-02 8.364950418472290039e-01
-1.425729095935821533e-01 -3.073096275329589844e-03 7.776930332183837891e-01
-1.296326220035552979e-01 3.406409174203872681e-03 8.356495499610900879e-01
-2.917831391096115112e-02 -4.297483712434768677e-03 6.819611787796020508e-01
-1.222258508205413818e-01 4.600769281387329102e-02 7.892872691154479980e-01
-1.014506295323371887e-01 -6.350010633468627930e-03 7.820944190025329590e-01
-4.634010046720504761e-02 2.513518184423446655e-02 6.975977420806884766e-01
-1.720438301563262939e-01 2.591033466160297394e-02 7.725200653076171875e-01
-1.746300905942916870e-01 1.277116686105728149e-02 7.799043059349060059e-01
-1.352962851524353027e-01 1.608769409358501434e-02 7.024071216583251953e-01
-1.729638576507568359e-01 4.171479493379592896e-02 8.234510421752929688e-01
-8.701394498348236084e-02 2.560179308056831360e-02 6.862811446189880371e-01
-3.067568689584732056e-02 1.918211765587329865e-02 7.466869354248046875e-01
-6.880178302526473999e-02 -1.263573579490184784e-02 7.102367281913757324e-01
-1.324919760227203369e-01 2.777861803770065308e-02 7.202703952789306641e-01
-7.677345722913742065e-02 4.215884953737258911e-02 8.014377951622009277e-01
-1.103707104921340942e-01 4.729852825403213501e-02 8.011845350265502930e-01
-1.025342568755149841e-01 1.089586503803730011e-02 8.522096872329711914e-01
-1.277467459440231323e-01 7.321507669985294342e-03 8.514732122421264648e-01
-1.074805706739425659e-01 2.540156431496143341e-02 6.946039199829101562e-01
-1.148642450571060181e-01 2.475749701261520386e-03 6.735662221908569336e-01
-5.630268529057502747e-02 3.058514744043350220e-02 7.150166630744934082e-01
-6.477162241935729980e-02 -1.082486845552921295e-02 7.263470292091369629e-01
-4.778166115283966064e-02 3.138536959886550903e-02 7.440312504768371582e-01
-1.432326734066009521e-01 5.030874535441398621e-02 8.494455218315124512e-01
-3.848660737276077271e-02 2.044223062694072723e-02 7.752017974853515625e-01
-1.645742505788803101e-01 4.032443091273307800e-02 8.006017208099365234e-01
-4.457207024097442627e-02 1.576268114149570465e-02 7.897124290466308594e-01
-3.653109073638916016e-02 -2.632588148117065430e-03 7.269165515899658203e-01
-1.317334175109863281e-01 4.986318573355674744e-02 8.687438368797302246e-01
-1.622849851846694946e-01 4.885902255773544312e-02 8.691104054450988770e-01
-9.691047668457031250e-02 1.069957483559846878e-02 6.607466936111450195e-01
-8.999708294868469238e-02 3.102085366845130920e-02 7.051208019256591797e-01
-1.219569370150566101e-01 4.058253020048141479e-02 8.961177468299865723e-01
-3.417590260505676270e-02 3.377433866262435913e-03 7.441018819808959961e-01
-1.227439194917678833e-01 4.107415303587913513e-02 7.599104642868041992e-01
-7.125812023878097534e-02 3.876332566142082214e-02 8.194935321807861328e-01
-9.035703539848327637e-02 -1.830467954277992249e-03 6.525443792343139648e-01
-4.075885564088821411e-02 1.553894951939582825e-03 6.428348422050476074e-01
-1.246213316917419434e-01 -4.647301509976387024e-03 7.011367082595825195e-01
-9.808728098869323730e-02 -6.582571193575859070e-03 6.671226024627685547e-01
-1.574697792530059814e-01 4.536335542798042297e-02 8.164958357810974121e-01
-1.501061916351318359e-01 3.455623984336853027e-03 8.261526823043823242e-01
-7.230973988771438599e-02 3.964803740382194519e-02 7.631654739379882812e-01
-7.421699166297912598e-02 3.543968498706817627e-02 7.277888059616088867e-01
-6.502650678157806396e-02 3.859806805849075317e-02 7.880262136459350586e-01
-1.539500504732131958e-01 5.323570221662521362e-04 7.626148462295532227e-01
-1.310039460659027100e-01 1.169335749000310898e-02 8.666451573371887207e-01
-1.156728342175483704e-01 1.269320398569107056e-02 8.643757700920104980e-01
-1.461684852838516235e-01 4.392170533537864685e-02 7.934819459915161133e-01
-7.124254107475280762e-02 1.585693843662738800e-02 6.582969427108764648e-01
-1.100765988230705261e-01 4.326490312814712524e-02 7.675476074218750000e-01
-1.484549790620803833e-01 6.198235787451267242e-03 7.216281294822692871e-01
-5.888234451413154602e-02 -7.738508284091949463e-03 6.461750268936157227e-01
-3.070811182260513306e-02 1.220111828297376633e-02 6.693431735038757324e-01
-1.590202152729034424e-01 4.661720618605613708e-02 8.993813991546630859e-01
-1.480926275253295898e-01 3.304184600710868835e-02 7.514764666557312012e-01
7.766377925872802734e-02 -2.775584720075130463e-02 -4.900237619876861572e-01
7.719734311103820801e-02 -6.617102771997451782e-02 -1.914270073175430298e-01
1.607104837894439697e-01 2.683095633983612061e-03 -5.079414844512939453e-01
-4.137024283409118652e-03 -3.778376430273056030e-02 -4.128588140010833740e-01
1.926150619983673096e-01 -5.333980172872543335e-02 -2.742813527584075928e-01
1.366510838270187378e-01 -5.117006599903106689e-02 -2.148634493350982666e-01
2.558880299329757690e-02 -5.331678688526153564e-02 -3.626389205455780029e-01
1.939922571182250977e-01 -6.042212620377540588e-02 -1.711882203817367554e-01
2.284313738346099854e-01 -1.418757438659667969e-02 -3.712429106235504150e-01
1.823681443929672241e-01 6.057992577552795410e-03 -5.255734920501708984e-01
4.706091433763504028e-02 -4.896362870931625366e-02 -2.843707203865051270e-01
6.645793467760086060e-02 -2.111430838704109192e-02 -4.184431433677673340e-01
2.088388949632644653e-01 4.353225231170654297e-03 -5.028622150421142578e-01
1.101344227790832520e-01 -5.436521768569946289e-02 -2.147812545299530029e-01
1.523606479167938232e-02 -3.799946978688240051e-02 -3.744588196277618408e-01
1.447458118200302124e-01 -9.910732507705688477e-03 -4.296314418315887451e-01
1.667361259460449219e-01 -1.011292450129985809e-02 -5.297728180885314941e-01
8.756178617477416992e-02 -3.593929857015609741e-02 -3.171811997890472412e-01
1.842251867055892944e-01 -1.148141734302043915e-02 -5.124553442001342773e-01
5.920905619859695435e-02 -6.740046292543411255e-02 -2.025234699249267578e-01
9.060941636562347412e-02 -5.556368827819824219e-02 -3.317324519157409668e-01
2.105416953563690186e-01 -1.148478314280509949e-02 -3.909684419631958008e-01
8.180685341358184814e-02 -1.763859950006008148e-02 -5.347068309783935547e-01
2.332601845264434814e-01 -2.653599716722965240e-02 -3.971605002880096436e-01
1.993659585714340210e-01 -3.710957244038581848e-03 -4.440742731094360352e-01
9.898491948843002319e-02 -4.820686578750610352e-02 -3.724659085273742676e-01
1.516385376453399658e-01 -2.164501324295997620e-02 -4.862054586410522461e-01
8.237987756729125977e-02 -9.736478328704833984e-03 -4.781797826290130615e-01
1.495963633060455322e-01 -2.090618014335632324e-03 -4.790220856666564941e-01
1.091341376304626465e-01 -6.233716383576393127e-03 -4.789093434810638428e-01
2.308183014392852783e-01 -1.107030734419822693e-02 -4.754084646701812744e-01
2.009204328060150146e-01 -3.177345171570777893e-02 -2.818245887756347656e-01
7.920439541339874268e-02 -1.072832383215427399e-02 -5.621917843818664551e-01
1.164332702755928040e-01 -3.492701798677444458e-02 -4.379413425922393799e-01
1.037850826978683472e-01 -6.668375432491302490e-02 -2.485400438308715820e-01
1.218328624963760376e-02 -4.822453483939170837e-02 -3.257679045200347900e-01
1.514672785997390747e-01 -2.519359439611434937e-02 -4.688524305820465088e-01
9.175886213779449463e-02 -3.859420493245124817e-02 -4.296675920486450195e-01
4.621117562055587769e-02 -2.166564017534255981e-02 -5.227100849151611328e-01
1.060540229082107544e-02 -3.493247181177139282e-02 -3.987922966480255127e-01
1.992499828338623047e-02 -1.883756369352340698e-02 -5.172371268272399902e-01
2.703065872192382812e-01 -1.369584724307060242e-02 -3.937441110610961914e-01
1.707999110221862793e-01 -1.685026101768016815e-02 -4.971648752689361572e-01
2.181740999221801758e-01 -2.441076003015041351e-02 -4.233125448226928711e-01
2.093251049518585205e-01 -1.449526287615299225e-02 -3.732749819755554199e-01
1.889735311269760132e-01 -2.546576038002967834e-02 -4.421773850917816162e-01
1.167485341429710388e-01 4.618994891643524170e-03 -5.627809166908264160e-01
2.444403618574142456e-01 -2.910513989627361298e-02 -2.906693220138549805e-01
3.832566738128662109e-02 -4.739165678620338440e-02 -3.968485891819000244e-01
2.566393315792083740e-01 -1.705259084701538086e-02 -3.564206361770629883e-01
2.339636385440826416e-01 -2.434399351477622986e-02 -3.142553269863128662e-01
2.590409815311431885e-01 -2.371761575341224670e-02 -3.798799216747283936e-01
6.176020205020904541e-02 -6.535784900188446045e-02 -2.765310108661651611e-01
2.027895152568817139e-01 -3.602926060557365417e-02 -3.735952675342559814e-01
4.471137374639511108e-02 -5.778855457901954651e-02 -2.478786259889602661e-01
2.438829243183135986e-01 -3.579044714570045471e-02 -3.309477567672729492e-01
6.140650063753128052e-02 -6.254434585571289062e-02 -2.969630360603332520e-01
9.479834139347076416e-02 -2.736680768430233002e-02 -4.860281944274902344e-01
4.455195367336273193e-02 -2.011297643184661865e-02 -4.475724101066589355e-01
7.634645700454711914e-02 -3.088943287730216980e-02 -4.751367866992950439e-01
1.324454993009567261e-01 -2.242993563413619995e-02 -4.929909110069274902e-01
4.343265295028686523e-02 -6.546194851398468018e-02 -2.786354422569274902e-01
1.949017792940139771e-01 7.651779800653457642e-03 -5.397457480430603027e-01
1.900643110275268555e-03 -3.082746267318725586e-02 -4.442914724349975586e-01
1.682923734188079834e-01 -5.407980084419250488e-02 -2.917099893093109131e-01
7.369197160005569458e-02 -4.027665406465530396e-02 -3.050195872783660889e-01
2.627786397933959961e-01 -2.876571007072925568e-02 -2.997624874114990234e-01
8.170893043279647827e-02 -2.208142727613449097e-02 -5.152934193611145020e-01
1.645932048559188843e-01 7.027994841337203979e-03 -5.443687438964843750e-01
9.267427027225494385e-02 -3.942674398422241211e-02 -2.955712080001831055e-01
7.169049978256225586e-02 -6.782059371471405029e-02 -2.544631361961364746e-01
3.156082332134246826e-02 -4.053130000829696655e-02 -4.349496662616729736e-01
2.527464926242828369e-01 -2.019685879349708557e-02 -3.377198576927185059e-01
9.208228439092636108e-02 -4.250133782625198364e-02 -2.805761694908142090e-01
1.120791360735893250e-01 -3.233255073428153992e-02 -4.536482095718383789e-01
1.003672927618026733e-01 -9.330179542303085327e-03 -4.647974371910095215e-01
1.819362938404083252e-01 -6.489359587430953979e-02 -1.880190074443817139e-01
3.976862132549285889e-02 -1.688475906848907471e-02 -5.392638444900512695e-01
1.977708637714385986e-01 -7.198814302682876587e-03 -5.207474231719970703e-01
9.350480139255523682e-02 -3.264604136347770691e-02 -3.304607272148132324e-01
1.655290573835372925e-01 2.169225364923477173e-03 -5.752416849136352539e-01
2.288423925638198853e-01 -3.825844079256057739e-02 -3.343756794929504395e-01
1.604789495468139648e-01 -1.618643291294574738e-02 -3.825991153717041016e-01
8.338374644517898560e-02 -4.998256266117095947e-02 -3.689317703247070312e-01
3.130450099706649780e-02 -5.849428474903106689e-02 -3.293835222721099854e-01
1.334536671638488770e-01 -1.498461887240409851e-02 -4.049594700336456299e-01
7.392438501119613647e-02 -5.972771719098091125e-02 -2.161027044057846069e-01
7.018278539180755615e-02 -4.939593374729156494e-02 -3.773918747901916504e-01
2.463678866624832153e-01 -4.242315888404846191e-02 -2.813041806221008301e-01
2.081411927938461304e-01 -4.303248599171638489e-02 -3.267540335655212402e-01
1.757823675870895386e-01 -6.427544355392456055e-02 -2.058737576007843018e-01
1.859174072742462158e-01 8.786879479885101318e-04 -5.587567687034606934e-01
1.107951477169990540e-01 -1.851924881339073181e-02 -5.212218761444091797e-01
2.335759401321411133e-01 -4.209066927433013916e-02 -3.039164245128631592e-01
1.230028420686721802e-01 -1.868520677089691162e-02 -3.893637359142303467e-01
1.981057822704315186e-01 -2.102378942072391510e-02 -4.575552940368652344e-01
5.916118621826171875e-03 -4.817551374435424805e-02 -3.892470300197601318e-01
1.313260644674301147e-01 -5.844451487064361572e-02 -2.901973724365234375e-01
1.101153641939163208e-01 -6.697048246860504150e-02 -1.694229543209075928e-01
8.661441504955291748e-02 -6.243528798222541809e-03 -4.993800520896911621e-01
8.681292831897735596e-02 -3.550697118043899536e-03 -5.203819274902343750e-01
1.421943306922912598e-01 -6.688416004180908203e-02 -2.191627770662307739e-01
1.878100633621215820e-01 -3.924694284796714783e-02 -3.677341938018798828e-01
2.073830962181091309e-01 -1.861215941607952118e-02 -3.500680625438690186e-01
1.820300072431564331e-01 -1.947867311537265778e-02 -3.537974357604980469e-01
5.702447146177291870e-02 -5.586462467908859253e-02 -3.423295021057128906e-01
2.005548179149627686e-01 -4.927308112382888794e-02 -2.940457463264465332e-01
1.606417596340179443e-01 -3.506259992718696594e-02 -4.113876521587371826e-01
2.633118629455566406e-01 -3.055381961166858673e-02 -3.317820131778717041e-01
1.061492115259170532e-01 -1.271448284387588501e-02 -4.378978610038757324e-01
5.207644402980804443e-02 -2.954999171197414398e-02 -3.815590441226959229e-01
1.224442422389984131e-01 -4.111272469162940979e-02 -4.011030495166778564e-01
1.836807876825332642e-01 -2.542859688401222229e-02 -3.203025460243225098e-01
8.073766529560089111e-02 -4.668242484331130981e-02 -3.892206549644470215e-01
2.117059379816055298e-02 -3.089671395719051361e-02 -4.810405671596527100e-01
6.143613904714584351e-02 -7.177802920341491699e-02 -2.177654951810836792e-01
1.285729259252548218e-01 -7.228765636682510376e-02 -1.702684611082077026e-01
7.323114573955535889e-02 -4.190333187580108643e-03 -5.323500633239746094e-01
5.225798487663269043e-02 -3.661423176527023315e-02 -4.525567293167114258e-01
9.423633664846420288e-02 1.975778490304946899e-03 -5.656852722167968750e-01
1.294277906417846680e-01 -6.074832007288932800e-02 -1.801839321851730347e-01
5.658155679702758789e-02 -3.402325510978698730e-02 -3.522383272647857666e-01
5.517354607582092285e-02 -6.136536598205566406e-03 -5.634412765502929688e-01
2.826695144176483154e-02 -2.086939290165901184e-02 -4.641636312007904053e-01
1.388905346393585205e-01 -6.271024048328399658e-02 -2.548625469207763672e-01
1.590530276298522949e-01 -6.208593398332595825e-02 -2.427552044391632080e-01
2.394863367080688477e-01 -2.165889181196689606e-02 -3.283759951591491699e-01
1.093151941895484924e-01 -8.572340011596679688e-04 -5.189631581306457520e-01
1.112268120050430298e-01 -3.522563725709915161e-02 -3.050206899642944336e-01
5.010307580232620239e-02 -2.131920680403709412e-02 -4.334583878517150879e-01
1.062266379594802856e-01 -4.427313804626464844e-03 -4.943336248397827148e-01
