-7.297499179840087891e-01 4.426703453063964844e-01 3.384748399257659912e-01
-9.407680034637451172e-01 4.048149585723876953e-01 3.821684420108795166e-01
-5.293964147567749023e-01 3.899990320205688477e-01 4.652093052864074707e-01
-7.018140554428100586e-01 1.294320076704025269e-01 3.533023595809936523e-01
-3.551930189132690430e-01 -7.300932705402374268e-02 2.394320517778396606e-01
-4.020564854145050049e-01 3.250550329685211182e-01 7.824376821517944336e-01
-8.716291189193725586e-02 1.046849936246871948e-01 1.001184105873107910e+00
-2.202726751565933228e-01 -2.981832623481750488e-02 -2.168354094028472900e-01
-8.022992610931396484e-01 2.515873312950134277e-01 5.698036551475524902e-01
-2.452000379562377930e-01 -1.015827804803848267e-01 5.185728073120117188e-01
9.089371562004089355e-02 -2.105877846479415894e-01 4.150026142597198486e-01
-8.047596812248229980e-01 3.071791529655456543e-01 6.825175881385803223e-01
8.563494682312011719e-02 -2.403928339481353760e-02 9.336335659027099609e-01
-1.634983718395233154e-01 -1.497807055711746216e-01 2.768670916557312012e-01
-4.217631518840789795e-01 1.172366216778755188e-01 9.590557813644409180e-01
-1.511133611202239990e-01 1.240825057029724121e-01 -1.986688375473022461e-02
-9.670078754425048828e-03 4.158993065357208252e-02 4.705107212066650391e-02
-3.641341924667358398e-01 4.190455377101898193e-02 -2.701475918292999268e-01
-3.958371281623840332e-02 9.098851680755615234e-02 1.243785321712493896e-01
-6.967208981513977051e-01 3.750866651535034180e-01 -2.379927039146423340e-02
-7.641334533691406250e-01 4.458776116371154785e-01 5.351305007934570312e-01
1.981384456157684326e-01 -1.935371309518814087e-01 5.941554307937622070e-01
-4.354785680770874023e-01 -3.484758734703063965e-02 1.633660495281219482e-01
-5.907893776893615723e-01 4.098525047302246094e-01 4.357392787933349609e-01
-6.439042091369628906e-02 2.014857530593872070e-02 -8.898431062698364258e-02
-1.275100111961364746e-01 -1.581477075815200806e-01 3.934185802936553955e-01
-5.456617474555969238e-01 2.845801115036010742e-01 -1.481483876705169678e-01
-1.999200731515884399e-01 2.386783957481384277e-01 4.148723185062408447e-01
7.970237731933593750e-02 6.310561299324035645e-02 4.842062592506408691e-01
-1.129391491413116455e-01 4.115968197584152222e-02 1.039343118667602539e+00
-1.810446530580520630e-01 1.847665607929229736e-01 1.233551502227783203e-01
1.087885200977325439e-01 -2.043128460645675659e-01 5.300425887107849121e-01
-2.993792593479156494e-01 2.950110435485839844e-01 6.024066209793090820e-01
-2.000296115875244141e-02 9.022561460733413696e-02 1.770793944597244263e-01
-5.525813102722167969e-01 5.307433009147644043e-02 5.076069831848144531e-01
-7.035229206085205078e-01 4.360966682434082031e-01 5.567857623100280762e-01
-5.295529961585998535e-02 -9.176112711429595947e-02 8.714237213134765625e-01
9.936243295669555664e-02 5.155052989721298218e-02 5.860502719879150391e-01
-1.636366397142410278e-01 -7.833403348922729492e-02 8.003430366516113281e-01
5.001220107078552246e-02 3.439958393573760986e-02 1.758611649274826050e-01
-5.322684049606323242e-01 3.579369783401489258e-01 1.299439370632171631e-01
-2.687007188796997070e-03 7.591008394956588745e-02 1.718948334455490112e-01
-8.753918409347534180e-01 2.783080339431762695e-01 2.243882417678833008e-02
-7.312679886817932129e-01 4.456042051315307617e-01 4.249558150768280029e-01
-4.359741508960723877e-01 2.538953423500061035e-01 -1.098673045635223389e-01
-5.702954530715942383e-02 -1.824631541967391968e-01 3.226041793823242188e-01
-1.950539797544479370e-01 2.406389266252517700e-01 4.914954900741577148e-01
-2.036291807889938354e-01 -1.025382876396179199e-01 -7.137930393218994141e-02
-5.545756220817565918e-01 3.851132988929748535e-01 7.154362797737121582e-01
-2.620605528354644775e-01 -1.069685965776443481e-01 8.128282427787780762e-02
-2.175304293632507324e-02 1.061462312936782837e-01 8.929576873779296875e-01
-7.476110458374023438e-01 1.565701365470886230e-01 5.725565552711486816e-02
2.246302068233489990e-01 -8.290107548236846924e-02 4.592494666576385498e-01
-2.354428172111511230e-01 -1.030011922121047974e-01 -2.404859662055969238e-02
1.868775188922882080e-01 -5.112278461456298828e-02 7.511715888977050781e-01
3.089782595634460449e-02 6.611256301403045654e-02 2.403069287538528442e-01
-4.134590625762939453e-01 3.437184691429138184e-01 6.378108263015747070e-01
-5.510981678962707520e-01 2.749792337417602539e-01 -1.732105314731597900e-01
-1.160500943660736084e-01 1.621178835630416870e-01 2.067260593175888062e-01
7.493078708648681641e-02 -2.066530734300613403e-01 4.508975446224212646e-01
-6.250954866409301758e-01 9.092555940151214600e-02 4.588206410408020020e-01
-6.981070637702941895e-01 2.483657747507095337e-01 7.941385507583618164e-01
-8.929246664047241211e-02 8.273580670356750488e-02 -1.102831959724426270e-02
-1.695964783430099487e-01 -1.291239112615585327e-01 5.394519567489624023e-01
-6.817729473114013672e-01 1.468996703624725342e-01 -1.478340923786163330e-01
-4.911033511161804199e-01 9.409729391336441040e-02 -2.738735973834991455e-01
-5.602009296417236328e-01 3.963003158569335938e-01 3.616392016410827637e-01
-6.049387454986572266e-01 5.888509750366210938e-02 1.057258248329162598e-01
-8.486995697021484375e-01 4.173474311828613281e-01 6.102563738822937012e-01
-4.740369319915771484e-01 3.602524697780609131e-01 7.137082219123840332e-01
-5.581106543540954590e-01 3.707166314125061035e-01 1.479199677705764771e-01
-6.179820895195007324e-01 6.583096086978912354e-02 2.022459656000137329e-01
-6.303957700729370117e-01 3.430270552635192871e-01 -6.910726428031921387e-02
-5.003226995468139648e-01 8.399948477745056152e-02 7.754580974578857422e-01
-2.958812117576599121e-01 1.458611488342285156e-01 1.053950071334838867e+00
-4.030251502990722656e-01 -5.060140788555145264e-02 2.376488000154495239e-01
-6.002371907234191895e-01 4.130328893661499023e-01 5.211825370788574219e-01
-5.290760993957519531e-01 3.880444169044494629e-01 6.000210046768188477e-01
-4.194339811801910400e-01 3.228794932365417480e-01 8.303365707397460938e-01
1.295942962169647217e-01 -6.284059584140777588e-02 8.901622295379638672e-01
-6.046469211578369141e-01 3.394846320152282715e-01 -5.520173907279968262e-02
-6.605125069618225098e-01 3.344133794307708740e-01 8.725993037223815918e-01
-5.483608245849609375e-01 6.968683004379272461e-02 6.108604669570922852e-01
1.502643227577209473e-01 1.892320811748504639e-03 6.953577399253845215e-01
-2.208158224821090698e-01 1.416350901126861572e-01 -9.269973635673522949e-02
-8.851593732833862305e-02 -7.716703414916992188e-02 8.822301626205444336e-01
-6.786000132560729980e-01 1.044005751609802246e-01 1.394905894994735718e-01
-1.265996694564819336e-02 1.335974335670471191e-01 5.819475054740905762e-01
-6.600767374038696289e-03 -1.359075456857681274e-01 -3.890413045883178711e-02
-2.401507794857025146e-01 -6.237594783306121826e-02 7.426270246505737305e-01
-3.018288314342498779e-01 1.464849114418029785e-01 6.300306320190429688e-02
-6.654232740402221680e-01 -2.655910328030586243e-02 1.128990948200225830e-02
-5.311555266380310059e-01 1.700545400381088257e-01 -3.349184244871139526e-02
-2.012049555778503418e-01 1.337584555149078369e-01 8.205425739288330078e-02
7.121459841728210449e-01 7.533594965934753418e-02 -2.119275368750095367e-02
-6.102837994694709778e-02 -9.342540055513381958e-02 -1.412194520235061646e-01
5.783397555351257324e-01 -1.497520953416824341e-01 2.191340550780296326e-03
5.946812033653259277e-01 -3.206679597496986389e-02 -1.397101432085037231e-01
2.420777231454849243e-01 6.367366295307874680e-03 -1.761805564165115356e-01
1.592111736536026001e-01 8.260680735111236572e-02 -1.556204110383987427e-01
-3.677359521389007568e-01 4.231865704059600830e-02 -1.810787618160247803e-01
-7.383073568344116211e-01 1.462035477161407471e-01 -3.306747972965240479e-02
-8.503262400627136230e-01 3.078471869230270386e-02 -2.393759973347187042e-02
4.857932925224304199e-01 5.816844478249549866e-02 1.114465594291687012e-01
2.617937326431274414e-01 -4.839880764484405518e-02 1.314761191606521606e-01
8.880108594894409180e-02 -1.370799243450164795e-01 -8.075458556413650513e-02
-2.658286690711975098e-01 6.141136214137077332e-02 1.180306822061538696e-01
5.860252380371093750e-01 -8.313023298978805542e-02 1.073816269636154175e-01
-5.319007039070129395e-01 -6.668325513601303101e-02 -4.316123202443122864e-03
5.896506905555725098e-01 -1.274048238992691040e-01 6.419280171394348145e-02
-2.100273966789245605e-01 -3.777045384049415588e-02 1.065019071102142334e-01
6.627190113067626953e-01 5.015026405453681946e-02 8.753946423530578613e-02
-8.563185334205627441e-01 2.664197236299514771e-02 -4.815953969955444336e-02
6.022936105728149414e-01 -9.831067919731140137e-02 9.566311538219451904e-02
-6.022179126739501953e-01 6.705594062805175781e-02 7.444980740547180176e-02
-7.012267708778381348e-01 -2.530595287680625916e-03 2.581985294818878174e-02
-5.401280149817466736e-02 1.707978397607803345e-01 -2.525050006806850433e-02
-3.653519228100776672e-02 -8.753438293933868408e-02 -1.486390233039855957e-01
-6.294750571250915527e-01 9.596752375364303589e-02 6.226517632603645325e-02
-5.342967510223388672e-01 3.040758520364761353e-02 8.485829830169677734e-02
7.388496994972229004e-01 -1.375249475240707397e-01 -2.012137882411479950e-02
6.167265772819519043e-01 6.454062461853027344e-02 8.368055522441864014e-02
5.282928943634033203e-01 -7.620320469141006470e-02 -1.379722356796264648e-01
-5.581680536270141602e-01 1.095525398850440979e-01 6.827606260776519775e-02
-6.349439024925231934e-01 1.368601024150848389e-01 3.091344982385635376e-02
5.319727659225463867e-01 -5.431478843092918396e-02 -1.451402604579925537e-01
8.857669234275817871e-01 -6.923986226320266724e-02 -6.860838830471038818e-02
7.646270841360092163e-02 -3.495071455836296082e-02 1.309883743524551392e-01
6.639893054962158203e-01 -5.575385317206382751e-02 1.126120388507843018e-01
-7.042080163955688477e-02 4.546624049544334412e-02 1.323954612016677856e-01
-4.070239365100860596e-01 -4.757783189415931702e-02 6.761935353279113770e-02
7.895690798759460449e-01 4.527614638209342957e-02 -4.861662536859512329e-02
-3.069046884775161743e-03 -1.032643914222717285e-01 7.514034211635589600e-02
-1.714296638965606689e-01 1.404657512903213501e-01 7.509332895278930664e-02
5.421318411827087402e-01 9.617720544338226318e-02 5.702016875147819519e-02
-5.861996412277221680e-01 1.103889048099517822e-01 -1.430361866950988770e-01
4.513382613658905029e-01 -1.506045609712600708e-01 -5.017860233783721924e-02
7.691398262977600098e-03 1.656452566385269165e-01 -4.512657225131988525e-02
-8.935447037220001221e-02 1.651500761508941650e-01 2.656206488609313965e-02
3.076505362987518311e-01 -1.377379298210144043e-01 4.995337501168251038e-02
-1.301951259374618530e-01 -3.297993168234825134e-02 -1.790053397417068481e-01
-2.064225375652313232e-01 1.746201813220977783e-01 -4.618620127439498901e-02
1.716679036617279053e-01 -1.407644897699356079e-01 2.908273413777351379e-02
-5.366502404212951660e-01 -7.178562693297863007e-03 -1.553577929735183716e-01
-5.146747827529907227e-01 -6.505665183067321777e-02 9.829923510551452637e-03
1.235121488571166992e-02 1.602859497070312500e-01 -6.784394383430480957e-02
7.462510466575622559e-02 4.932726547122001648e-02 -1.779836416244506836e-01
4.880574643611907959e-01 1.063159853219985962e-01 5.347421392798423767e-02
-2.003598511219024658e-01 4.009893909096717834e-02 1.255553513765335083e-01
1.115950495004653931e-01 1.512906104326248169e-01 3.913759067654609680e-02
-6.464999914169311523e-01 5.873083323240280151e-02 -1.532928049564361572e-01
-1.987173110246658325e-01 -1.160809174180030823e-01 6.827870383858680725e-03
7.913606613874435425e-02 1.146583445370197296e-02 1.395182758569717407e-01
7.419601827859878540e-02 -1.417530924081802368e-01 -5.992776900529861450e-02
8.696383237838745117e-01 -2.666236087679862976e-02 7.812240719795227051e-02
-3.088793456554412842e-01 -1.069024130702018738e-01 -6.154613196849822998e-02
2.526113688945770264e-01 8.780280500650405884e-02 -1.412368416786193848e-01
-4.254547059535980225e-01 1.778954267501831055e-02 9.975287318229675293e-02
3.641042709350585938e-01 1.279924213886260986e-01 3.968419507145881653e-02
2.973699569702148438e-01 -6.276176869869232178e-02 -1.625872105360031128e-01
3.097141385078430176e-01 1.414793282747268677e-01 3.560801967978477478e-03
-2.634817361831665039e-01 1.571899652481079102e-01 4.841839894652366638e-02
1.677677929401397705e-01 1.180211082100868225e-01 9.033884108066558838e-02
-4.660849273204803467e-01 -5.523827299475669861e-02 4.445030167698860168e-02
1.148597598075866699e-01 1.195592731237411499e-01 9.229777753353118896e-02
-4.755481183528900146e-01 -8.018140494823455811e-02 -1.423469558358192444e-02
-6.890805959701538086e-01 1.022850349545478821e-01 4.653607681393623352e-02
-7.069521546363830566e-01 -2.929196879267692566e-02 -7.320557534694671631e-02
1.861553788185119629e-01 -1.355070918798446655e-01 4.447646811604499817e-02
-4.998922646045684814e-01 1.945869624614715576e-02 8.835123479366302490e-02
6.031123399734497070e-01 4.884772375226020813e-02 -1.102155447006225586e-01
-6.674235463142395020e-01 8.525924757122993469e-03 -1.383753120899200439e-01
3.130095899105072021e-01 -1.538625657558441162e-01 -1.538066100329160690e-02
-3.774963319301605225e-01 -6.382597982883453369e-02 -1.363135576248168945e-01
-3.337726891040802002e-01 -5.228011682629585266e-02 7.792589068412780762e-02
-3.946136236190795898e-01 1.949104666709899902e-02 -1.788665205240249634e-01
5.891902446746826172e-01 6.795085221529006958e-02 -9.523612260818481445e-02
7.637959718704223633e-02 -1.377004384994506836e-01 2.070374041795730591e-02
-5.875226855278015137e-01 1.658330857753753662e-01 -4.304941743612289429e-02
2.674895823001861572e-01 1.321827620267868042e-02 -1.734147220849990845e-01
4.490784406661987305e-01 -1.411686390638351440e-01 -7.866950333118438721e-02
6.106057763099670410e-01 -1.412674635648727417e-01 -5.629436671733856201e-02
2.384702302515506744e-02 1.274795830249786377e-01 -1.282134056091308594e-01
3.866304159164428711e-01 -1.508732289075851440e-01 -5.322353169322013855e-02
1.903825439512729645e-02 -9.937513619661331177e-02 8.250680565834045410e-02
8.752682209014892578e-01 -1.157398447394371033e-01 1.694846898317337036e-03
-2.604686617851257324e-01 -7.066266983747482300e-02 7.351064682006835938e-02
3.875620365142822266e-01 3.920440003275871277e-02 1.298570632934570312e-01
4.664488434791564941e-01 6.305455695837736130e-03 -1.539645344018936157e-01
1.837499737739562988e-01 2.474719658493995667e-03 -1.801707297563552856e-01
-8.273351788520812988e-01 1.967758871614933014e-02 -8.291307836771011353e-02
-3.747257888317108154e-01 1.535135656595230103e-01 -1.113688349723815918e-01
5.600392818450927734e-01 -2.737431973218917847e-02 -1.448371559381484985e-01
-3.406997025012969971e-01 -7.727539539337158203e-02 -1.260655075311660767e-01
7.769592106342315674e-03 -1.313203126192092896e-01 -8.467057347297668457e-02
-8.037381768226623535e-01 7.545193657279014587e-04 -5.804296210408210754e-02
2.394464015960693359e-01 -9.127703309059143066e-02 -1.488187313079833984e-01
8.207301497459411621e-01 -3.009254112839698792e-02 -9.278655052185058594e-02
-2.449752092361450195e-01 -8.257614076137542725e-02 6.246432289481163025e-02
4.955593347549438477e-01 6.216808035969734192e-02 -1.227484643459320068e-01
-4.215889275074005127e-01 -8.287336677312850952e-02 -9.335561096668243408e-02
-2.114650011062622070e-01 1.733721494674682617e-01 3.337306901812553406e-03
3.137080669403076172e-01 1.215267255902290344e-01 6.713244318962097168e-02
-1.935194581747055054e-01 -9.641071408987045288e-02 -1.234519779682159424e-01
-4.048618674278259277e-01 -7.295940816402435303e-02 3.666671738028526306e-02
5.354574322700500488e-01 -3.034269809722900391e-02 -1.481047123670578003e-01
-4.061640426516532898e-02 -1.014605909585952759e-01 -1.334142684936523438e-01
-1.766088232398033142e-02 1.274527907371520996e-01 8.923240005970001221e-02
7.479114532470703125e-01 -7.811138033866882324e-02 -1.028498113155364990e-01
-1.459878534078598022e-01 -4.856484755873680115e-02 -1.712890416383743286e-01
3.597148656845092773e-01 -1.350389420986175537e-01 -9.562124311923980713e-02
8.727209270000457764e-02 -6.110073253512382507e-02 -1.695705652236938477e-01
6.928049921989440918e-01 1.956599578261375427e-02 1.025500148534774780e-01
-7.894060611724853516e-01 4.739426448941230774e-02 2.321542426943778992e-02
1.789310127496719360e-01 -1.113464981317520142e-01 8.298905193805694580e-02
2.186492830514907837e-01 1.314876824617385864e-01 6.540466845035552979e-02
-6.531438827514648438e-01 1.283445358276367188e-01 -1.189082413911819458e-01
-2.966793477535247803e-01 -4.728029668331146240e-02 8.834093809127807617e-02
2.979045510292053223e-01 -1.519194245338439941e-01 2.463636919856071472e-03
-7.191469073295593262e-01 7.889468967914581299e-02 4.688892140984535217e-02
5.893179774284362793e-01 -1.157632991671562195e-01 7.974447309970855713e-02
-3.026444837450981140e-02 4.280999675393104553e-02 -1.841367632150650024e-01
-6.063455715775489807e-02 7.198839634656906128e-02 1.260246485471725464e-01
-4.373417794704437256e-01 1.389670372009277344e-01 6.071176752448081970e-02
7.675804942846298218e-02 1.623375564813613892e-01 -1.308135688304901123e-05
5.117902159690856934e-01 -8.698361366987228394e-02 -1.341759413480758667e-01
-4.872722327709197998e-01 -6.284330785274505615e-02 -1.122033596038818359e-01
-4.826453030109405518e-01 6.787575781345367432e-02 9.372061491012573242e-02
-3.428623378276824951e-01 -1.169820968061685562e-02 1.019838452339172363e-01
3.675246536731719971e-01 -1.246574297547340393e-01 7.436719536781311035e-02
5.566193461418151855e-01 8.991861343383789062e-02 -7.375568151473999023e-02
-7.531940937042236328e-01 3.753935545682907104e-02 3.317094966769218445e-02
-3.317184373736381531e-02 -2.702223882079124451e-02 -1.826133579015731812e-01
2.741550207138061523e-01 -1.493031382560729980e-01 -5.789541453123092651e-02
5.932877063751220703e-01 -9.872288256883621216e-02 -1.168329864740371704e-01
8.825159072875976562e-01 -4.598156549036502838e-03 -6.089253351092338562e-02
4.027349650859832764e-01 -1.400824934244155884e-01 -8.400819450616836548e-02
2.455061115324497223e-02 -6.792555749416351318e-02 1.111057698726654053e-01
1.722634136676788330e-01 -1.211608871817588806e-01 -1.181590706110000610e-01
-2.682159841060638428e-01 -8.920587599277496338e-02 4.775192216038703918e-02
-2.380665242671966553e-01 9.171156212687492371e-03 1.204317957162857056e-01
9.493209421634674072e-02 9.854929149150848389e-02 -1.499808728694915771e-01
4.482282996177673340e-01 -5.981926247477531433e-02 -1.525355875492095947e-01
6.373386979103088379e-01 -5.495787039399147034e-02 1.155141890048980713e-01
-1.724502742290496826e-01 1.665350794792175293e-01 -7.762929797172546387e-02
4.408820271492004395e-01 -8.592712879180908203e-02 -1.414467245340347290e-01
-4.873481094837188721e-01 1.922335848212242126e-02 -1.707144975662231445e-01
-5.290287733078002930e-01 9.200830012559890747e-02 -1.585697233676910400e-01
7.877752184867858887e-01 -1.689409464597702026e-02 9.659549593925476074e-02
2.829555571079254150e-01 5.260235816240310669e-02 -1.599671691656112671e-01
-4.298422038555145264e-01 1.003576070070266724e-01 -1.609988361597061157e-01
-4.299821332097053528e-02 -1.303960680961608887e-01 1.341850683093070984e-02
-1.356024667620658875e-02 -1.319402158260345459e-01 -7.841704040765762329e-02
-1.084246188402175903e-01 1.726604253053665161e-01 -9.933928027749061584e-03
1.097451895475387573e-01 4.664896801114082336e-02 1.360474973917007446e-01
-5.691472887992858887e-01 7.290764153003692627e-02 7.961377501487731934e-02
7.112655043601989746e-01 4.566866904497146606e-02 7.949189841747283936e-02
-7.075530290603637695e-01 1.473833173513412476e-01 -7.263560593128204346e-02
-4.926153123378753662e-01 -7.558474689722061157e-02 -7.930559664964675903e-02
1.486959457397460938e-01 1.359417289495468140e-01 6.699185073375701904e-02
2.425594776868820190e-01 -1.250968575477600098e-01 6.856276094913482666e-02
2.113129198551177979e-01 -1.150570884346961975e-01 -1.266331523656845093e-01
-3.873496651649475098e-01 -9.202145040035247803e-02 -8.124034106731414795e-02
-6.881582736968994141e-02 -1.104340255260467529e-01 5.474800989031791687e-02
1.629443466663360596e-01 3.050850704312324524e-02 1.392163783311843872e-01
4.713740348815917969e-01 8.570272475481033325e-02 -1.047070920467376709e-01
3.924941718578338623e-01 -1.535983383655548096e-01 -3.692040592432022095e-02
-2.442857325077056885e-01 -1.041156798601150513e-01 -9.919138252735137939e-02
-8.045537769794464111e-02 -1.332272738218307495e-01 -3.881606832146644592e-02
4.799312055110931396e-01 9.908384829759597778e-02 6.963549554347991943e-02
-3.174587711691856384e-02 1.589492261409759521e-01 3.882723674178123474e-02
6.782058477401733398e-01 -1.074038296937942505e-01 8.034631609916687012e-02
-1.847134381532669067e-01 -6.137375161051750183e-02 -1.609827280044555664e-01
9.059476256370544434e-01 1.620098017156124115e-03 -4.236525297164916992e-02
4.602810442447662354e-01 -9.202630072832107544e-02 -1.359883248805999756e-01
5.130341649055480957e-01 -1.510647684335708618e-01 -3.871586918830871582e-02
-2.472387254238128662e-01 1.547513306140899658e-01 -1.085220873355865479e-01
7.082810997962951660e-01 -2.728703618049621582e-02 1.111996918916702271e-01
5.734536647796630859e-01 1.020531728863716125e-01 -3.157879784703254700e-02
6.402232646942138672e-01 -1.963185518980026245e-02 1.196678131818771362e-01
-3.115111291408538818e-01 -1.081202104687690735e-01 -3.577004373073577881e-02
7.178958654403686523e-01 5.706680566072463989e-02 -6.494556367397308350e-02
5.335935950279235840e-01 8.304508030414581299e-02 8.052180707454681396e-02
4.333488941192626953e-01 1.218981072306632996e-01 -4.560553282499313354e-02
9.733699560165405273e-01 -7.379975914955139160e-02 -1.004417520016431808e-02
-2.132433652877807617e-01 8.548261970281600952e-02 -1.727704554796218872e-01
-4.227680265903472900e-01 1.651354730129241943e-01 2.021750435233116150e-02
-4.711475670337677002e-01 -7.467275857925415039e-02 -9.357698261737823486e-02
1.128114759922027588e-02 1.477568298578262329e-01 -9.905350208282470703e-02
2.762399911880493164e-01 8.916308730840682983e-02 -1.368840336799621582e-01
7.897722721099853516e-02 1.188556998968124390e-01 9.495696425437927246e-02
-8.434612751007080078e-01 2.924932166934013367e-02 -8.277755975723266602e-02
5.210091471672058105e-01 5.361752212047576904e-02 -1.243068426847457886e-01
2.359341382980346680e-01 -1.415267586708068848e-01 3.526986017823219299e-02
1.030011549592018127e-01 1.495857983827590942e-01 -7.888251543045043945e-02
2.846571803092956543e-01 1.431097090244293213e-01 -3.527788072824478149e-02
5.602706074714660645e-01 -1.474238485097885132e-01 -4.649214446544647217e-02
-7.579007744789123535e-01 -1.267065387219190598e-02 -7.572232186794281006e-02
2.538641095161437988e-01 4.092416912317276001e-02 1.355622112751007080e-01
9.241453409194946289e-01 -9.365250170230865479e-02 -3.034548461437225342e-02
-4.066647961735725403e-02 -1.313441246747970581e-01 -7.369533181190490723e-02
-1.748464703559875488e-01 -2.056487649679183960e-02 1.182644069194793701e-01
-1.959120929241180420e-01 1.382534019649028778e-02 1.249513477087020874e-01
2.896457314491271973e-01 -1.421798318624496460e-01 3.847515583038330078e-02
1.303658932447433472e-01 9.199212491512298584e-02 1.155771315097808838e-01
8.148757815361022949e-01 -6.019696220755577087e-02 -9.318219125270843506e-02
-2.180289030075073242e-01 1.282279640436172485e-01 8.694975078105926514e-02
4.433039128780364990e-01 1.031237915158271790e-01 -8.731207251548767090e-02
-1.584678292274475098e-01 8.801364898681640625e-02 1.161364167928695679e-01
-5.216074585914611816e-01 -7.204554975032806396e-02 -1.706015691161155701e-02
-2.410844564437866211e-01 1.161527484655380249e-01 9.590570628643035889e-02
-7.431752979755401611e-02 7.273730635643005371e-02 -1.758000701665878296e-01
-4.401527643203735352e-01 -1.722312718629837036e-02 8.366201817989349365e-02
-4.368956983089447021e-01 2.385836467146873474e-02 -1.761234104633331299e-01
-5.576366186141967773e-01 1.310328952968120575e-02 7.538680732250213623e-02
6.251630783081054688e-01 -1.397402435541152954e-01 3.543791919946670532e-02
4.552595317363739014e-01 -1.183527484536170959e-01 -1.135360002517700195e-01
4.999339282512664795e-01 9.732133895158767700e-02 -8.002825081348419189e-02
5.966763943433761597e-02 6.331645697355270386e-02 1.309698969125747681e-01
-5.933246612548828125e-01 1.522586792707443237e-01 -9.438146650791168213e-02
-8.004920184612274170e-02 1.548250764608383179e-01 -9.652052819728851318e-02
2.581667900085449219e-01 -9.617174416780471802e-02 1.027873903512954712e-01
4.798230826854705811e-01 3.811419755220413208e-02 -1.409831196069717407e-01
-4.151931777596473694e-02 -1.195411160588264465e-01 4.285598173737525940e-02
-2.912339568138122559e-01 1.574579924345016479e-01 4.682420566678047180e-02
3.703500330448150635e-01 -1.506638675928115845e-01 1.592037081718444824e-02
-1.724406778812408447e-01 1.361198276281356812e-01 -1.321957856416702271e-01
-1.809698641300201416e-01 -1.046225652098655701e-01 -1.118268519639968872e-01
5.753048062324523926e-01 -5.410434678196907043e-02 -1.396655291318893433e-01
-5.259568095207214355e-01 1.666080206632614136e-01 -6.783105432987213135e-02
8.266018331050872803e-02 1.545829176902770996e-01 -6.954350322484970093e-02
-1.960502192378044128e-02 -1.360381096601486206e-01 -5.876376852393150330e-02
3.907240629196166992e-01 -4.417845234274864197e-02 -1.618262082338333130e-01
-7.587483525276184082e-01 2.442634478211402893e-02 -1.215680241584777832e-01
-4.196794033050537109e-01 1.302499771118164062e-01 7.122406363487243652e-02
-3.302233219146728516e-01 1.523475050926208496e-01 -1.137942671775817871e-01
9.126834273338317871e-01 -3.692151606082916260e-02 -6.141309812664985657e-02
7.977127432823181152e-01 -3.250364214181900024e-03 9.053200483322143555e-02
7.940945029258728027e-02 -1.004631370306015015e-01 8.741638064384460449e-02
-6.241404414176940918e-01 1.045555099844932556e-01 -1.421037912368774414e-01
6.605160236358642578e-01 -1.390900611877441406e-01 -5.009451508522033691e-02
6.499528884887695312e-01 6.028437241911888123e-02 -8.600503951311111450e-02
-7.732643485069274902e-01 -1.053528022021055222e-02 -6.115197390317916870e-02
-4.493040964007377625e-02 1.485101729631423950e-01 6.160650029778480530e-02
3.092815876007080078e-01 4.536472260951995850e-02 1.320543140172958374e-01
3.486571907997131348e-01 -1.544302552938461304e-01 -1.960489712655544281e-02
-2.896461486816406250e-01 1.610008180141448975e-01 -9.776432812213897705e-02
-7.623080015182495117e-01 1.414862424135208130e-01 -3.448811918497085571e-02
7.902783751487731934e-01 5.707690864801406860e-02 -9.145215153694152832e-03
-1.104550808668136597e-01 -1.304563134908676147e-01 -4.147465527057647705e-02
5.227971076965332031e-01 1.136197708547115326e-03 1.292661428451538086e-01
5.565437674522399902e-01 1.016484722495079041e-01 3.697444126009941101e-02
5.289249420166015625e-01 -1.082837432622909546e-01 -1.167816370725631714e-01
6.019592285156250000e-01 1.216580718755722046e-02 1.190301179885864258e-01
-4.000183939933776855e-01 1.663249731063842773e-01 -8.400960266590118408e-02
-3.402020037174224854e-01 -9.983915090560913086e-02 -2.978807315230369568e-03
-4.509502351284027100e-01 -7.421208918094635010e-02 -1.026234328746795654e-01
-7.375958561897277832e-02 1.693539321422576904e-01 -5.004279315471649170e-02
-2.871863842010498047e-01 1.296936422586441040e-01 8.228893578052520752e-02
1.913920044898986816e-01 -1.173224225640296936e-01 -1.236966252326965332e-01
-1.524335592985153198e-01 -1.262113153934478760e-01 -4.607168585062026978e-02
5.812673568725585938e-01 8.667857199907302856e-02 -7.044260948896408081e-02
7.362918257713317871e-01 -9.641184657812118530e-02 8.268368244171142578e-02
-6.139036417007446289e-01 -3.117610141634941101e-02 2.691024169325828552e-02
3.844598531723022461e-01 1.276481151580810547e-01 3.266097605228424072e-02
3.177851736545562744e-01 1.249188110232353210e-01 -8.190826326608657837e-02
6.798854470252990723e-01 -1.346400529146194458e-01 3.864150494337081909e-02
-1.591225340962409973e-02 8.756247907876968384e-02 -1.656528413295745850e-01
4.361018240451812744e-01 1.175435930490493774e-01 4.373116418719291687e-02
-2.998916506767272949e-01 1.173781454563140869e-01 9.157492220401763916e-02
9.239317178726196289e-01 6.283968687057495117e-04 -2.984932996332645416e-02
-2.429709434509277344e-01 -6.185393407940864563e-02 8.498908579349517822e-02
-4.512865841388702393e-01 -7.979286462068557739e-02 3.497438505291938782e-03
-1.112510412931442261e-01 1.249160766601562500e-01 -1.414715796709060669e-01
9.131965041160583496e-01 -7.444810867309570312e-02 -5.502931773662567139e-02
1.534174233675003052e-01 -1.150369718670845032e-01 -1.259841918945312500e-01
-1.219237223267555237e-02 1.520248875021934509e-02 1.365677565336227417e-01
-6.595185399055480957e-01 -4.363080486655235291e-02 -6.475347280502319336e-02
-6.410954594612121582e-01 2.828585915267467499e-03 5.005457624793052673e-02
-1.633498966693878174e-01 -1.032326221466064453e-01 4.842877015471458435e-02
-1.605729907751083374e-01 1.266261339187622070e-01 9.014622867107391357e-02
-7.638929784297943115e-02 6.725657731294631958e-02 1.271447241306304932e-01
1.501033008098602295e-01 6.049094349145889282e-02 -1.686826795339584351e-01
-7.670404016971588135e-02 1.053688004612922668e-01 1.086176186800003052e-01
6.773885488510131836e-01 1.745516434311866760e-03 1.117548197507858276e-01
4.897561669349670410e-01 -1.339257061481475830e-01 5.921189114451408386e-02
-3.092490434646606445e-01 1.750657856464385986e-01 -5.717352032661437988e-03
2.546328306198120117e-01 1.308837383985519409e-01 -8.607707917690277100e-02
3.728508651256561279e-01 1.344343721866607666e-01 -1.639693416655063629e-02
-6.962801814079284668e-01 9.693815559148788452e-02 -1.350665390491485596e-01
-7.359548211097717285e-01 1.424401551485061646e-01 -1.388454623520374298e-02
6.156115531921386719e-01 -4.142828285694122314e-02 -1.359229236841201782e-01
3.864140212535858154e-01 1.171625182032585144e-01 -7.795459032058715820e-02
-6.969810724258422852e-01 1.451285183429718018e-01 -1.135502010583877563e-03
-2.937530577182769775e-01 -9.694033861160278320e-02 2.581138536334037781e-02
9.810367822647094727e-01 -3.584511205554008484e-02 -1.072883699089288712e-02
6.852777004241943359e-01 5.429769307374954224e-02 -8.145914971828460693e-02
4.497843235731124878e-02 3.870812430977821350e-02 -1.823353469371795654e-01
3.547562360763549805e-01 6.432655453681945801e-02 -1.446315050125122070e-01
5.593695864081382751e-02 5.492868646979331970e-02 -1.771151423454284668e-01
4.440980553627014160e-01 4.822684079408645630e-02 -1.412137597799301147e-01
3.933548033237457275e-01 6.064027547836303711e-04 -1.634763181209564209e-01
-3.749531507492065430e-01 -9.927462786436080933e-02 -3.769421204924583435e-02
-1.399383991956710815e-01 1.669304668903350830e-01 -7.269071042537689209e-02
6.873969733715057373e-02 -5.459868535399436951e-02 1.220753341913223267e-01
2.414608299732208252e-01 3.568503633141517639e-02 -1.704797446727752686e-01
-1.835111230611801147e-01 5.005876719951629639e-02 1.257586181163787842e-01
8.136761784553527832e-01 -1.331609953194856644e-02 8.998572826385498047e-02
2.898821830749511719e-01 -1.145335510373115540e-01 8.522558212280273438e-02
-1.287706345319747925e-01 -1.232097521424293518e-01 9.295951575040817261e-03
-8.091291785240173340e-01 6.609433889389038086e-02 1.867369562387466431e-02
7.518532276153564453e-01 -4.234052821993827820e-02 1.038814485073089600e-01
3.385356664657592773e-01 -8.099552989006042480e-02 -1.514409482479095459e-01
1.049947887659072876e-01 1.555252969264984131e-01 -6.003035232424736023e-02
-6.681824326515197754e-01 5.828535929322242737e-02 6.096177920699119568e-02
-6.645560264587402344e-01 1.572131812572479248e-01 -5.358482524752616882e-02
8.896600604057312012e-01 2.478875219821929932e-02 1.242536306381225586e-02
4.038775861263275146e-01 -1.281780451536178589e-01 -1.045556217432022095e-01
-3.622722327709197998e-01 6.707971543073654175e-02 -1.772057265043258667e-01
3.945121169090270996e-01 -9.528188966214656830e-03 1.373417973518371582e-01
-3.344234824180603027e-01 -9.101539850234985352e-02 2.524138242006301880e-02
1.492340564727783203e-01 -9.337384253740310669e-02 9.990312159061431885e-02
-4.449099898338317871e-01 -5.070525035262107849e-02 -1.382968276739120483e-01
4.658730030059814453e-01 7.188808917999267578e-02 -1.203028261661529541e-01
-4.848118126392364502e-01 8.828484266996383667e-02 -1.635761559009552002e-01
8.504649996757507324e-01 3.353317081928253174e-02 3.433684632182121277e-02
2.177789509296417236e-01 5.970909819006919861e-02 1.301738768815994263e-01
4.442604184150695801e-01 9.800046682357788086e-03 1.336642950773239136e-01
9.739316999912261963e-02 -1.111347451806068420e-01 7.629291713237762451e-02
-2.528934180736541748e-01 7.623571157455444336e-02 -1.767380237579345703e-01
-5.374069809913635254e-01 1.506839394569396973e-01 3.147888183593750000e-02
8.264924883842468262e-01 -8.453448861837387085e-02 7.504041492938995361e-02
1.509550809860229492e-01 -7.449258863925933838e-02 -1.617004573345184326e-01
3.318095207214355469e-01 1.394544243812561035e-01 -3.956705331802368164e-03
8.352306485176086426e-01 6.289716344326734543e-03 -7.325553894042968750e-02
2.919881939888000488e-01 1.379860043525695801e-01 -5.561895668506622314e-02
-7.985587716102600098e-01 1.293803155422210693e-01 -2.183523401618003845e-02
5.859516263008117676e-01 -5.569965578615665436e-03 1.243814229965209961e-01
3.143089115619659424e-01 7.067254185676574707e-02 -1.459390521049499512e-01
-3.638049960136413574e-01 1.708558201789855957e-01 -7.132119685411453247e-02
8.212859630584716797e-01 4.313192889094352722e-02 -3.045739792287349701e-02
4.906727671623229980e-01 3.200257197022438049e-02 1.243234425783157349e-01
5.842441320419311523e-01 -8.619970083236694336e-02 -1.261263191699981689e-01
-3.880317881703376770e-02 9.099955856800079346e-02 -1.647714078426361084e-01
-5.817215442657470703e-01 -6.099077686667442322e-02 -2.452319301664829254e-02
2.183303087949752808e-01 1.054769828915596008e-01 9.973803162574768066e-02
4.217408299446105957e-01 -1.438789516687393188e-01 -7.419967651367187500e-02
1.345092356204986572e-01 3.785275295376777649e-02 1.379851102828979492e-01
-3.931740820407867432e-01 6.029312685132026672e-02 -1.773968338966369629e-01
6.537705063819885254e-01 8.935935795307159424e-02 -1.093453727662563324e-02
-8.312912583351135254e-01 1.309816073626279831e-02 -4.452839493751525879e-02
-3.582007586956024170e-01 -6.281537562608718872e-02 -1.406318992376327515e-01
-6.061167642474174500e-02 -1.334772258996963501e-01 -5.512350052595138550e-02
-1.024175435304641724e-01 1.212869808077812195e-01 9.589383006095886230e-02
-2.498221695423126221e-01 -3.918643295764923096e-02 -1.702259331941604614e-01
-1.885625272989273071e-01 8.883087337017059326e-02 -1.708470135927200317e-01
7.538603544235229492e-01 -8.908648788928985596e-02 8.557763695716857910e-02
-8.080410957336425781e-01 1.027130559086799622e-01 -1.030655503273010254e-01
6.102649569511413574e-01 6.967062503099441528e-02 -8.685246109962463379e-02
3.986934944987297058e-02 5.271710455417633057e-02 1.339909583330154419e-01
-5.279538035392761230e-01 -5.628124251961708069e-02 -1.101823598146438599e-01
9.232787787914276123e-02 -1.417206525802612305e-01 9.187120944261550903e-03
-3.102115690708160400e-01 1.305872052907943726e-01 8.004501461982727051e-02
7.976984977722167969e-01 -9.951270371675491333e-02 -7.704383879899978638e-02
9.194160103797912598e-01 1.199566479772329330e-02 -5.054935812950134277e-03
8.017539381980895996e-01 -1.298295855522155762e-01 -9.263997897505760193e-03
5.192607045173645020e-01 -1.058149039745330811e-01 9.396503865718841553e-02
-4.823119565844535828e-02 -9.872137568891048431e-03 -1.862379014492034912e-01
7.720870971679687500e-01 -1.334269493818283081e-01 -1.879299245774745941e-02
2.078684568405151367e-01 1.398228257894515991e-01 5.012514814734458923e-02
-2.633022665977478027e-01 -5.163392052054405212e-02 9.023858606815338135e-02
1.155073493719100952e-01 1.433732062578201294e-01 -9.065356850624084473e-02
-1.310938894748687744e-01 1.260564327239990234e-01 -1.413439661264419556e-01
5.291173979640007019e-02 1.404511630535125732e-01 -1.063256114721298218e-01
6.149012446403503418e-01 9.669179469347000122e-02 9.987726807594299316e-03
3.965955376625061035e-01 -1.543981134891510010e-01 -9.820535778999328613e-03
1.608731597661972046e-01 1.188946142792701721e-02 -1.808483600616455078e-01
-5.930089354515075684e-01 -4.653875529766082764e-02 -1.029273122549057007e-01
7.014098167419433594e-01 7.946290075778961182e-02 4.361793398857116699e-03
-4.717524349689483643e-01 1.720892786979675293e-01 -1.618061959743499756e-02
4.851835072040557861e-01 -1.440162956714630127e-01 -6.858432292938232422e-02
-1.629867404699325562e-01 1.544607579708099365e-01 -1.046904027462005615e-01
8.095417618751525879e-01 8.758612908422946930e-03 -8.104452490806579590e-02
1.956067085266113281e-01 1.408097892999649048e-01 -7.871285825967788696e-02
-3.113671541213989258e-01 -5.604385957121849060e-02 7.864676415920257568e-02
2.445314228534698486e-01 1.135483831167221069e-01 8.851180970668792725e-02
1.782106161117553711e-01 -5.648666992783546448e-02 -1.700838357210159302e-01
-2.158966064453125000e-01 1.193242445588111877e-01 -1.506301015615463257e-01
-3.198217153549194336e-01 1.747059673070907593e-01 -5.444952100515365601e-02
-7.753273248672485352e-01 2.302670106291770935e-02 1.664423570036888123e-02
-4.300822913646697998e-01 -7.166206091642379761e-02 3.070960938930511475e-02
1.633204221725463867e-01 6.252757459878921509e-02 1.304468512535095215e-01
1.343823671340942383e-01 1.545544862747192383e-01 2.244905382394790649e-02
2.002829164266586304e-01 -1.508316248655319214e-01 -2.034306339919567108e-02
-6.346218585968017578e-01 6.742152571678161621e-02 6.802929937839508057e-02
2.346183955669403076e-01 -1.314209308475255966e-02 -1.770948320627212524e-01
6.168976798653602600e-02 1.025039479136466980e-01 -1.497165262699127197e-01
-1.828428208827972412e-01 1.261389851570129395e-01 9.003943204879760742e-02
5.947494134306907654e-02 4.428021237254142761e-02 1.361915171146392822e-01
5.193393826484680176e-01 -1.481595933437347412e-01 2.222295477986335754e-02
5.406494140625000000e-01 -1.352956593036651611e-01 5.425839498639106750e-02
-4.545232355594635010e-01 4.409782215952873230e-02 -1.754546463489532471e-01
1.877082288265228271e-01 9.996771812438964844e-02 -1.388621628284454346e-01
-2.597377002239227295e-01 1.725249290466308594e-01 8.703757077455520630e-03
2.365638315677642822e-01 9.875410236418247223e-03 1.407885551452636719e-01
8.446511030197143555e-01 -7.191217690706253052e-02 7.810352742671966553e-02
2.702085375785827637e-01 -1.486579924821853638e-01 1.563148573040962219e-02
8.569970130920410156e-01 -9.806182235479354858e-02 -5.937331914901733398e-02
-5.879137516021728516e-01 1.303807795047760010e-01 -1.261984258890151978e-01
-3.666665256023406982e-01 -9.660643339157104492e-02 -7.493481040000915527e-02
-2.590222656726837158e-01 -5.714431777596473694e-02 -1.579515039920806885e-01
4.870579838752746582e-01 -1.366717964410781860e-01 -8.448357880115509033e-02
7.077708840370178223e-02 7.706789672374725342e-02 -1.662858128547668457e-01
-8.346129655838012695e-01 1.180847212672233582e-01 -6.856279075145721436e-02
-8.436836004257202148e-01 1.014815047383308411e-01 -9.125261567533016205e-03
3.650339692831039429e-02 -2.654810994863510132e-02 -1.824557185173034668e-01
-4.521405994892120361e-01 1.213932409882545471e-01 7.496249675750732422e-02
2.883309423923492432e-01 -1.375500261783599854e-01 -9.202335774898529053e-02
1.335797160863876343e-01 -8.651848882436752319e-02 -1.537396311759948730e-01
-2.146486937999725342e-01 7.066172361373901367e-02 1.195162087678909302e-01
-9.119769930839538574e-02 1.133098453283309937e-01 -1.512067019939422607e-01
9.884014129638671875e-01 -4.976991564035415649e-02 7.042400538921356201e-03
-1.462764441967010498e-01 -1.179548725485801697e-01 -8.912028372287750244e-02
-4.716218411922454834e-01 1.013816967606544495e-01 -1.581374555826187134e-01
-7.568359375000000000e-01 7.637346535921096802e-02 -1.296692043542861938e-01
8.545801043510437012e-01 -6.650228053331375122e-02 -8.010476082563400269e-02
-3.487736582756042480e-01 -3.042817860841751099e-02 9.149304032325744629e-02
2.193773537874221802e-01 1.358216255903244019e-01 -8.426326513290405273e-02
4.465748071670532227e-01 -7.789031602442264557e-03 -1.584893167018890381e-01
6.063276529312133789e-01 -6.873711198568344116e-02 -1.311154067516326904e-01
2.590253390371799469e-02 -4.681446030735969543e-02 1.233188062906265259e-01
-8.356919884681701660e-02 -2.664372697472572327e-02 1.240183115005493164e-01
-5.168368816375732422e-01 -5.710326507687568665e-02 2.481019496917724609e-02
9.004622697830200195e-01 2.003825642168521881e-02 -7.973454892635345459e-03
-5.925087928771972656e-01 8.795173466205596924e-02 7.199822366237640381e-02
-7.269980013370513916e-02 -5.934687331318855286e-02 1.083155125379562378e-01
3.627830743789672852e-01 -9.555009752511978149e-02 1.054432541131973267e-01
2.966068312525749207e-02 1.616322696208953857e-01 -5.836864933371543884e-02
2.318638414144515991e-01 -1.426049917936325073e-01 -7.857058942317962646e-02
-5.568022131919860840e-01 5.960594862699508667e-02 -1.648670136928558350e-01
2.649065107107162476e-02 -1.139514073729515076e-01 6.397487223148345947e-02
5.639791488647460938e-01 -7.199018448591232300e-02 -1.355319917201995850e-01
7.781383395195007324e-01 -5.837852135300636292e-02 -1.027066409587860107e-01
4.995102062821388245e-02 -1.182499602437019348e-01 6.028513982892036438e-02
9.556782245635986328e-02 -1.428008675575256348e-01 -6.030057370662689209e-02
7.298685312271118164e-01 6.815930455923080444e-02 -3.351170569658279419e-02
6.052522063255310059e-01 -1.321519631892442703e-02 -1.370294839143753052e-01
8.462117612361907959e-02 -6.622807681560516357e-02 1.164009422063827515e-01
1.517474353313446045e-01 -5.453303083777427673e-02 -1.715739667415618896e-01
-1.336268484592437744e-01 1.480102539062500000e-01 6.491741538047790527e-02
7.153464853763580322e-02 1.308387070894241333e-01 -1.184754967689514160e-01
8.046404123306274414e-01 -1.264559626579284668e-01 1.973837986588478088e-02
7.754980921745300293e-01 -3.544113785028457642e-02 -1.052094697952270508e-01
-7.836788892745971680e-01 3.743724431842565536e-03 -9.320662356913089752e-03
7.517036795616149902e-02 1.623012721538543701e-01 -3.587563335895538330e-02
-9.491956233978271484e-02 -8.475503884255886078e-03 -1.862939447164535522e-01
8.914735913276672363e-01 -9.698845446109771729e-02 4.361549392342567444e-02
7.337175607681274414e-01 -1.314427554607391357e-01 3.358282893896102905e-02
7.638113498687744141e-01 -1.109583079814910889e-01 -7.426235079765319824e-02
8.124849200248718262e-01 -1.140529587864875793e-01 -5.502124875783920288e-02
5.886539816856384277e-01 1.010601446032524109e-01 -2.046097256243228912e-02
-4.148094058036804199e-01 1.419737786054611206e-01 -1.265456378459930420e-01
-1.624930351972579956e-01 1.054647862911224365e-01 1.065205484628677368e-01
3.996099233627319336e-01 1.161693930625915527e-01 5.839509144425392151e-02
-7.543193101882934570e-01 6.314422935247421265e-04 4.780646413564682007e-03
-8.184800148010253906e-01 9.543792344629764557e-03 -7.011675834655761719e-02
-8.741364479064941406e-01 8.216468244791030884e-02 -8.073183894157409668e-02
2.247111499309539795e-01 -1.517548710107803345e-01 -2.337159588932991028e-02
-6.613668203353881836e-01 9.535789489746093750e-02 -1.416560113430023193e-01
-2.220188081264495850e-01 1.507792808115482330e-02 -1.867548972368240356e-01
5.222245454788208008e-01 5.890215933322906494e-02 1.061003059148788452e-01
4.992747306823730469e-01 -1.073688119649887085e-01 9.325480461120605469e-02
6.714819669723510742e-01 4.261000826954841614e-02 -9.778983891010284424e-02
-4.475623071193695068e-01 -1.806437969207763672e-03 8.998115360736846924e-02
-5.368772745132446289e-01 1.572025716304779053e-01 -9.307387471199035645e-02
-5.472090244293212891e-01 5.584635213017463684e-02 8.488383889198303223e-02
3.900956511497497559e-01 -7.819084823131561279e-02 1.175132095813751221e-01
1.738578677177429199e-01 1.511777043342590332e-01 2.383483573794364929e-02
-1.040123403072357178e-01 -1.243421509861946106e-01 1.435051113367080688e-02
3.193013668060302734e-01 4.740181379020214081e-03 1.395706236362457275e-01
-6.987619400024414062e-01 5.319941788911819458e-02 5.310388281941413879e-02
-2.981775999069213867e-01 -1.089172884821891785e-01 -2.117269672453403473e-02
7.994488477706909180e-01 -5.457368865609169006e-02 -9.824469685554504395e-02
4.954307973384857178e-01 -1.534081250429153442e-01 -1.156259328126907349e-02
8.212811350822448730e-01 1.199293881654739380e-03 8.242039382457733154e-02
-4.421905279159545898e-01 -8.619531244039535522e-02 -7.023997604846954346e-02
6.131054759025573730e-01 -1.348307579755783081e-01 4.869624599814414978e-02
-7.700747251510620117e-01 -2.385780215263366699e-03 -8.959026634693145752e-02
7.327527403831481934e-01 6.274779886007308960e-02 4.609275236725807190e-02
7.396005988121032715e-01 -1.021028161048889160e-01 -8.903755247592926025e-02
-2.886261641979217529e-01 1.732723116874694824e-01 -6.156080961227416992e-02
-6.140041947364807129e-01 -3.810836747288703918e-02 -1.089987754821777344e-01
2.056110799312591553e-01 -1.185035780072212219e-01 7.563561201095581055e-02
1.056441813707351685e-01 -8.676513284444808960e-02 1.027869582176208496e-01
2.556139826774597168e-01 -1.375520229339599609e-01 4.676735028624534607e-02
-1.038928180932998657e-01 1.564043611288070679e-01 -9.579445421695709229e-02
-5.399234294891357422e-01 -2.651800960302352905e-02 5.521470680832862854e-02
-6.428351998329162598e-01 1.500222235918045044e-01 -8.842912316322326660e-02
-6.756405234336853027e-01 1.435537189245223999e-01 9.930610656738281250e-03
5.038024783134460449e-01 -1.206069514155387878e-01 7.854880392551422119e-02
-2.444766461849212646e-01 1.238396838307380676e-01 -1.471419483423233032e-01
4.299032688140869141e-01 -6.892165541648864746e-02 -1.508415490388870239e-01
-5.743911862373352051e-01 1.578326821327209473e-01 9.680431336164474487e-03
2.999103963375091553e-01 8.020774275064468384e-02 -1.409603357315063477e-01
1.583685353398323059e-02 1.578646004199981689e-01 3.611682355403900146e-02
6.285542249679565430e-01 -1.415605545043945312e-01 -5.118637531995773315e-02
-2.179991304874420166e-01 -2.085527032613754272e-02 -1.799428313970565796e-01
-1.915267109870910645e-01 -5.750934407114982605e-02 9.598182141780853271e-02
-6.142240762710571289e-01 8.447878062725067139e-03 -1.495233774185180664e-01
6.132816672325134277e-01 -8.923404663801193237e-02 -1.204164475202560425e-01
-1.706554591655731201e-01 1.680807322263717651e-01 2.294754981994628906e-02
-4.692998230457305908e-01 1.676912903785705566e-01 -7.388629019260406494e-02
1.350549757480621338e-01 8.255393803119659424e-02 -1.579034924507141113e-01
-4.091480970382690430e-01 -8.441496640443801880e-02 1.147353276610374451e-02
-2.359298467636108398e-01 1.762730926275253296e-01 -3.230877220630645752e-02
7.821301221847534180e-01 -1.229137256741523743e-01 3.939853236079216003e-02
1.360156834125518799e-01 1.160739138722419739e-01 -1.288256347179412842e-01
7.101485729217529297e-01 -8.141038566827774048e-02 -1.088151633739471436e-01
-5.662904381752014160e-01 -1.671061664819717407e-02 -1.443261951208114624e-01
-7.565292119979858398e-01 -1.656083762645721436e-02 -4.086742550134658813e-02
3.679459393024444580e-01 -1.520281434059143066e-01 -4.791248589754104614e-02
6.573975682258605957e-01 -1.281282007694244385e-01 -7.463227212429046631e-02
-3.582421839237213135e-01 5.783425644040107727e-02 1.101101934909820557e-01
-7.653735876083374023e-01 1.090996190905570984e-01 2.074506506323814392e-02
-7.395073175430297852e-01 -9.893524460494518280e-03 -9.594435989856719971e-02
9.643324464559555054e-02 2.663198113441467285e-02 1.392989456653594971e-01
-3.909111022949218750e-01 1.320752501487731934e-02 1.035596728324890137e-01
