5.334296226501464844e-01 -1.404538005590438843e-01 3.849879205226898193e-01
-2.609550952911376953e-02 -7.494857907295227051e-02 2.077924758195877075e-01
5.682154893875122070e-01 -1.056722104549407959e-01 -9.240774810314178467e-02
5.322527885437011719e-02 -1.016365289688110352e-01 1.805364787578582764e-01
7.287551164627075195e-01 -1.369125545024871826e-01 1.293828636407852173e-01
6.448562741279602051e-01 -1.507706046104431152e-01 2.963481247425079346e-01
1.351170390844345093e-01 -1.222615092992782593e-01 1.309495270252227783e-01
5.611404776573181152e-01 -9.494824707508087158e-02 4.654673933982849121e-01
8.372436463832855225e-02 -1.079999804496765137e-01 5.954270809888839722e-02
5.385726690292358398e-02 -9.630082547664642334e-02 2.539969980716705322e-01
-3.407806158065795898e-02 -7.397358119487762451e-02 1.114129349589347839e-01
-4.699787497520446777e-02 -6.816682219505310059e-02 1.015009433031082153e-01
3.567185103893280029e-01 -1.419417113065719604e-01 -4.907579720020294189e-02
6.755162477493286133e-01 -1.497072875499725342e-01 2.701433598995208740e-01
1.295486092567443848e-01 -1.189764291048049927e-01 6.178180873394012451e-02
3.259287774562835693e-01 1.194175332784652710e-02 3.508059084415435791e-01
6.090937852859497070e-01 -1.295872628688812256e-01 3.963289856910705566e-01
2.078950405120849609e-03 -7.070769369602203369e-02 3.119130730628967285e-01
1.882428228855133057e-01 -1.325230300426483154e-01 1.069276854395866394e-01
1.760610938072204590e-02 -3.594849258661270142e-03 4.128307700157165527e-01
3.876739740371704102e-01 -1.465013921260833740e-01 -3.797712922096252441e-02
9.177446365356445312e-02 2.394300699234008789e-02 4.696311056613922119e-02
2.447726428508758545e-01 -7.331968098878860474e-02 -1.636023372411727905e-01
6.017794609069824219e-01 -1.640799343585968018e-01 2.062930762767791748e-01
-3.806111216545104980e-02 2.775596082210540771e-02 2.239947915077209473e-01
-8.775880932807922363e-02 -6.337042897939682007e-03 4.674565792083740234e-02
4.655290544033050537e-01 -3.102036938071250916e-02 -2.638712525367736816e-02
5.559062957763671875e-02 6.350427865982055664e-04 -4.912489652633666992e-02
3.256032168865203857e-01 -2.697914838790893555e-03 4.374628663063049316e-01
5.139287114143371582e-01 -6.392870843410491943e-02 4.808977842330932617e-01
6.033129692077636719e-01 -1.498318314552307129e-01 3.267160654067993164e-01
1.346027851104736328e-02 -5.207826197147369385e-02 3.873455524444580078e-01
2.812163233757019043e-01 -1.386257261037826538e-01 2.890273928642272949e-01
6.711875796318054199e-01 -1.441218852996826172e-01 3.529077768325805664e-02
8.997094631195068359e-02 -1.025417521595954895e-01 2.819765210151672363e-01
2.193192541599273682e-01 3.196552395820617676e-03 -3.722515702247619629e-02
6.806844472885131836e-01 -1.564438045024871826e-01 1.593433469533920288e-01
1.543342024087905884e-01 -1.027327477931976318e-01 3.693958222866058350e-01
6.363326907157897949e-01 -5.003641918301582336e-02 2.588495016098022461e-01
5.040339231491088867e-01 -1.663349270820617676e-01 1.203228384256362915e-01
4.164682626724243164e-01 -6.648363918066024780e-02 5.157388448715209961e-01
6.324775218963623047e-01 -1.626162528991699219e-01 1.237596571445465088e-01
4.926971793174743652e-01 -1.601181328296661377e-01 2.655099034309387207e-01
6.532067060470581055e-01 -1.597922146320343018e-01 1.174072027206420898e-01
2.344353795051574707e-01 1.860911399126052856e-02 3.729282915592193604e-01
3.621786832809448242e-03 -6.643728911876678467e-02 -3.429608047008514404e-02
3.948795795440673828e-01 -4.957500845193862915e-03 3.988602161407470703e-01
1.382239758968353271e-01 2.916898578405380249e-02 9.896477311849594116e-02
1.278312653303146362e-01 9.280689060688018799e-03 4.302510023117065430e-01
1.189158409833908081e-01 -8.504773676395416260e-02 4.031586647033691406e-01
1.352697163820266724e-01 -2.924563363194465637e-02 4.877846240997314453e-01
1.090107411146163940e-01 -1.157093122601509094e-01 8.950848132371902466e-02
4.403131008148193359e-01 -1.434528082609176636e-01 3.638393878936767578e-01
2.028742432594299316e-01 3.092823177576065063e-02 2.129186540842056274e-01
4.248367846012115479e-01 -1.554847657680511475e-01 2.757270932197570801e-01
3.222087323665618896e-01 9.019821882247924805e-03 3.778877258300781250e-01
6.209633350372314453e-01 -1.431841254234313965e-01 3.479239940643310547e-01
7.020460963249206543e-01 -8.130019903182983398e-02 2.768271565437316895e-01
2.635895609855651855e-01 2.377059310674667358e-02 2.920228838920593262e-01
3.753799200057983398e-01 -1.584028601646423340e-01 1.578804999589920044e-01
6.068859696388244629e-01 -5.801030993461608887e-02 3.232061862945556641e-02
5.065587759017944336e-01 -1.599056571722030640e-01 2.185803651809692383e-02
3.459532558917999268e-01 -4.257366061210632324e-02 -1.290531307458877563e-01
5.219952464103698730e-01 -1.691417023539543152e-02 1.986207664012908936e-01
2.963989973068237305e-03 3.251040726900100708e-02 2.245800495147705078e-01
6.410991549491882324e-01 -1.579304039478302002e-01 2.467716634273529053e-01
2.914281785488128662e-01 -1.044788360595703125e-01 -1.433871835470199585e-01
2.012835741043090820e-01 -1.113671064376831055e-01 -8.738319575786590576e-02
1.937362253665924072e-01 -1.249221265316009521e-01 2.838131487369537354e-01
5.615237951278686523e-01 -4.848033934831619263e-02 4.137832224369049072e-01
4.046525359153747559e-01 -9.345822036266326904e-03 2.054211497306823730e-02
6.596169471740722656e-01 -1.425813585519790649e-01 1.694901287555694580e-02
3.452388942241668701e-01 -1.551997810602188110e-01 1.640682220458984375e-01
1.317654550075531006e-01 -1.175486817955970764e-01 2.322156578302383423e-01
1.797738820314407349e-01 -9.670057147741317749e-02 4.150658249855041504e-01
6.070777177810668945e-01 -5.623353272676467896e-02 3.809032142162322998e-01
4.510842859745025635e-01 -6.559439003467559814e-02 -1.247398704290390015e-01
5.689686536788940430e-01 -1.661111563444137573e-01 1.859999895095825195e-01
6.410902738571166992e-01 -5.665728822350502014e-02 3.134213685989379883e-01
2.131432890892028809e-01 2.988161146640777588e-02 2.475480437278747559e-01
-5.358812212944030762e-02 -6.535508483648300171e-02 1.855946779251098633e-01
5.857288837432861328e-02 3.514041006565093994e-02 1.856682151556015015e-01
-6.921291351318359375e-04 2.690050005912780762e-02 9.804393351078033447e-02
4.722874164581298828e-01 -1.625162959098815918e-01 5.717359483242034912e-02
3.365946710109710693e-01 -1.476363837718963623e-01 2.717030644416809082e-01
2.261452972888946533e-01 -1.357239782810211182e-01 2.301966398954391479e-01
5.259047746658325195e-01 -4.996003210544586182e-02 4.514904618263244629e-01
3.033044636249542236e-01 1.804760098457336426e-02 3.142015933990478516e-01
2.066589593887329102e-01 2.847702801227569580e-02 1.429107040166854858e-01
4.218360781669616699e-02 -2.159426733851432800e-02 4.405418038368225098e-01
5.890812873840332031e-01 -3.613995015621185303e-02 2.848534584045410156e-01
9.017542004585266113e-02 4.774592816829681396e-03 4.335505962371826172e-01
2.446348369121551514e-01 -1.228133589029312134e-01 3.569534420967102051e-01
6.263962984085083008e-01 -5.442748963832855225e-02 9.052507579326629639e-02
3.151334822177886963e-01 -1.487302929162979126e-01 2.288155108690261841e-01
4.141063988208770752e-01 -1.533953547477722168e-01 2.874224185943603516e-01
-3.285443782806396484e-02 2.741685509681701660e-02 1.445429772138595581e-01
2.952328324317932129e-02 -1.254459470510482788e-02 -6.870543956756591797e-02
6.425802707672119141e-01 -7.443501800298690796e-02 2.520458400249481201e-02
1.251080930233001709e-01 -1.086798608303070068e-01 -2.294598519802093506e-02
2.849927544593811035e-02 -9.543327242136001587e-02 1.535985022783279419e-01
1.132648289203643799e-01 1.052378863096237183e-02 -2.357888221740722656e-02
1.665489226579666138e-01 2.217551320791244507e-02 4.889684915542602539e-02
4.955239295959472656e-01 -1.629280745983123779e-01 5.381276458501815796e-02
4.175603985786437988e-01 -1.540352851152420044e-01 -1.258462667465209961e-03
4.909389615058898926e-01 -2.791851013898849487e-02 4.146888852119445801e-01
1.582006178796291351e-02 1.668890938162803650e-02 3.474916517734527588e-01
3.235982730984687805e-03 -9.404785931110382080e-03 3.124111294746398926e-01
-2.540040388703346252e-02 8.834674023091793060e-03 3.382688164710998535e-01
2.730079740285873413e-02 1.902823336422443390e-02 3.745969831943511963e-01
-9.057979099452495575e-03 1.238629873842000961e-02 3.243244588375091553e-01
1.617414318025112152e-02 1.307406369596719742e-02 3.323169648647308350e-01
-3.367979824542999268e-02 -3.037082264199852943e-03 3.113251626491546631e-01
4.334629699587821960e-02 9.476336650550365448e-03 3.341393470764160156e-01
2.821900695562362671e-02 -1.030430570244789124e-02 2.947882413864135742e-01
4.421856626868247986e-02 -1.921947812661528587e-03 3.477697372436523438e-01
1.185748726129531860e-03 -1.360224559903144836e-02 2.786343395709991455e-01
4.805560037493705750e-02 -7.013333961367607117e-03 3.159071803092956543e-01
-4.710743203759193420e-02 -1.624319003894925117e-03 2.812861204147338867e-01
-6.380344741046428680e-03 7.182319648563861847e-03 3.063696920871734619e-01
-1.906936243176460266e-02 -4.194191657006740570e-03 3.185326457023620605e-01
1.579226553440093994e-02 -5.457488819956779480e-03 3.306967914104461670e-01
2.381023392081260681e-02 -1.036570686846971512e-02 3.121783435344696045e-01
-2.383781969547271729e-02 9.621627628803253174e-03 3.134163916110992432e-01
-2.425162121653556824e-02 -7.277622818946838379e-03 2.697346508502960205e-01
-1.350309047847986221e-02 6.833659717813134193e-04 3.341324329376220703e-01
-5.046486854553222656e-02 6.336997030302882195e-04 2.956932783126831055e-01
6.817430257797241211e-02 1.458285655826330185e-02 3.750027716159820557e-01
-2.700362354516983032e-02 -1.136065460741519928e-02 2.885633111000061035e-01
8.616930805146694183e-03 1.642189221456646919e-03 3.477869033813476562e-01
6.071488559246063232e-02 3.411802463233470917e-03 3.335301578044891357e-01
2.989530935883522034e-02 5.842179059982299805e-03 3.653165698051452637e-01
2.358660474419593811e-02 6.514255888760089874e-03 3.153733015060424805e-01
8.607194758951663971e-03 1.213552150875329971e-02 3.663263320922851562e-01
-6.063998676836490631e-03 1.612430438399314880e-02 3.518319725990295410e-01
5.625066906213760376e-02 1.364752277731895447e-02 3.562628924846649170e-01
1.176029145717620850e-01 -5.821389332413673401e-02 -1.803085952997207642e-01
-6.247884035110473633e-02 6.422505248337984085e-03 -4.589925408363342285e-01
-9.347796440124511719e-04 -1.231463346630334854e-02 -6.711702942848205566e-01
1.963696479797363281e-01 2.969793975353240967e-02 -2.463962435722351074e-01
9.950585663318634033e-02 -5.660961195826530457e-02 -2.576354742050170898e-01
1.615408957004547119e-01 4.947811737656593323e-02 -1.111132577061653137e-01
2.217864394187927246e-01 -8.475902490317821503e-03 6.763499975204467773e-02
1.528764665126800537e-01 4.426049441099166870e-02 1.202873885631561279e-01
1.434874236583709717e-01 -3.413427993655204773e-02 -5.476818680763244629e-01
1.457517147064208984e-01 5.122771486639976501e-02 -3.974177837371826172e-01
1.218145191669464111e-01 5.828998982906341553e-02 -4.250115156173706055e-01
1.555981934070587158e-01 4.844690859317779541e-02 1.812827587127685547e-02
1.136670932173728943e-01 -2.979300916194915771e-02 -6.332203149795532227e-01
1.902349665760993958e-02 7.032986730337142944e-02 -1.204982921481132507e-01
1.649923920631408691e-01 4.419102519750595093e-02 -3.627512753009796143e-01
3.102365881204605103e-02 5.957197397947311401e-02 1.117338538169860840e-01
2.005389779806137085e-01 1.878587529063224792e-02 1.214562654495239258e-01
2.035044431686401367e-01 2.341063693165779114e-02 1.316119730472564697e-02
-8.841469883918762207e-03 7.808069698512554169e-03 2.737051844596862793e-01
-1.661803573369979858e-02 -3.058973327279090881e-02 -3.540892004966735840e-01
1.955442428588867188e-01 1.338109187781810760e-02 -4.371891915798187256e-01
-4.119327664375305176e-02 -1.979240030050277710e-02 -2.813540697097778320e-01
1.292290985584259033e-01 5.984318256378173828e-02 -1.020897179841995239e-01
8.648542314767837524e-02 3.920649364590644836e-02 3.212214708328247070e-01
1.240874081850051880e-01 -5.572153255343437195e-02 9.318199753761291504e-02
1.290137171745300293e-01 5.410017818212509155e-02 -4.632928371429443359e-01
1.792544126510620117e-01 -3.605021163821220398e-02 -4.054704904556274414e-01
1.502130627632141113e-01 -2.585572376847267151e-02 -5.877441167831420898e-01
3.749287128448486328e-02 -3.958902508020401001e-02 1.809347271919250488e-01
7.218556106090545654e-02 -4.859735071659088135e-02 -4.262170195579528809e-01
2.144683003425598145e-01 4.678098484873771667e-03 -2.962242364883422852e-01
2.127458155155181885e-01 -3.039024397730827332e-02 7.418140769004821777e-02
1.210460811853408813e-02 7.076410204172134399e-02 -1.626130938529968262e-01
5.115453526377677917e-02 -4.981546849012374878e-02 -3.385218977928161621e-01
1.038468629121780396e-01 -5.858876183629035950e-02 -5.555030703544616699e-02
6.276752799749374390e-02 6.624174118041992188e-02 1.234781742095947266e-02
1.428855061531066895e-01 -5.363705754280090332e-02 -2.823448181152343750e-01
1.138562858104705811e-01 -2.747962623834609985e-02 3.991918563842773438e-01
1.758837997913360596e-01 -2.051035687327384949e-02 -5.285508632659912109e-01
9.400638192892074585e-02 6.356466561555862427e-02 9.586617350578308105e-03
7.871443778276443481e-02 -5.442943051457405090e-02 5.760535597801208496e-02
1.795196235179901123e-01 -4.652131721377372742e-02 -2.516232132911682129e-01
1.879185289144515991e-01 -2.014148980379104614e-02 -4.745336771011352539e-01
1.182365119457244873e-01 5.391864851117134094e-02 1.184162199497222900e-01
4.655703902244567871e-03 4.218443483114242554e-02 -7.410978674888610840e-01
-2.575985342264175415e-02 -1.701823249459266663e-02 -5.245478153228759766e-01
1.371681392192840576e-01 4.289450496435165405e-02 2.058106958866119385e-01
1.548049747943878174e-01 4.511570557951927185e-02 -4.372847378253936768e-01
-1.856873929500579834e-02 6.099292635917663574e-02 -5.315583944320678711e-02
1.113391593098640442e-01 -4.952954128384590149e-02 -4.237410724163055420e-01
2.280857786536216736e-02 7.281526178121566772e-02 -2.757604420185089111e-01
1.136277019977569580e-01 1.159220468252897263e-02 -7.589470148086547852e-01
-1.570089161396026611e-02 -2.399941906332969666e-02 8.076328039169311523e-02
2.052527517080307007e-01 -3.267591074109077454e-02 1.324685513973236084e-01
-1.156485825777053833e-02 -3.504210337996482849e-02 -2.378974407911300659e-01
7.026448100805282593e-02 -1.322932634502649307e-02 -7.525727152824401855e-01
-6.581737101078033447e-02 2.713124454021453857e-02 -4.990402758121490479e-01
5.056291818618774414e-02 5.286388471722602844e-02 2.056878805160522461e-01
9.027078747749328613e-03 4.534568265080451965e-02 2.099688053131103516e-01
3.695529326796531677e-02 -3.029842302203178406e-02 2.741684019565582275e-01
1.482889801263809204e-01 2.269807644188404083e-02 -6.459286212921142578e-01
3.167701512575149536e-02 2.186933159828186035e-02 3.636323213577270508e-01
-5.506765842437744141e-02 5.269753932952880859e-02 -3.770068287849426270e-01
7.642209529876708984e-04 -3.490241616964340210e-02 -4.116518497467041016e-01
7.607922703027725220e-02 7.037605345249176025e-02 -3.228510618209838867e-01
-3.267449140548706055e-02 -2.514685690402984619e-02 -2.371783554553985596e-01
-5.292627215385437012e-02 4.908930510282516479e-03 2.318994700908660889e-02
1.457920074462890625e-01 -4.022210836410522461e-02 -4.856747984886169434e-01
3.128019720315933228e-02 6.084911525249481201e-02 -6.195155382156372070e-01
1.126887500286102295e-01 6.262341141700744629e-02 -3.730072379112243652e-01
1.255616098642349243e-01 -4.349018633365631104e-02 2.877790629863739014e-01
9.237460792064666748e-02 6.680616736412048340e-02 -8.270958811044692993e-02
-4.535247385501861572e-02 1.562668010592460632e-02 -6.322599649429321289e-01
6.822522729635238647e-02 2.109760418534278870e-02 4.072632789611816406e-01
-8.163973689079284668e-03 3.596378490328788757e-02 2.191620767116546631e-01
-3.981080651283264160e-02 2.947890013456344604e-02 1.144295632839202881e-01
1.262100040912628174e-01 -5.856786295771598816e-02 -5.327746272087097168e-02
-2.223312854766845703e-02 4.265922680497169495e-02 1.308616995811462402e-01
6.309718638658523560e-02 6.514313071966171265e-02 -5.294374227523803711e-01
1.664971113204956055e-01 4.699956625699996948e-02 -8.065930008888244629e-02
-1.542845368385314941e-02 -3.327926620841026306e-02 -2.540051937103271484e-01
2.511003613471984863e-02 -1.621852815151214600e-02 3.236886262893676758e-01
1.428368091583251953e-01 -5.083046108484268188e-02 1.770463585853576660e-01
1.159777492284774780e-02 -2.384723350405693054e-02 -6.142430305480957031e-01
1.816259324550628662e-01 -4.328496009111404419e-02 -2.990109324455261230e-01
-1.150046288967132568e-02 5.261794850230216980e-02 -6.494935154914855957e-01
1.227036193013191223e-01 4.300757870078086853e-02 2.443570792675018311e-01
8.149082213640213013e-02 -2.774431928992271423e-02 -6.688692569732666016e-01
1.139270365238189697e-01 -5.889225378632545471e-02 -1.076440885663032532e-01
1.904380470514297485e-01 -4.682198166847229004e-02 -2.814494073390960693e-02
3.753079846501350403e-02 6.518351286649703979e-02 -5.582902431488037109e-01
-5.921427905559539795e-02 3.292351216077804565e-02 -5.473947525024414062e-01
5.604572594165802002e-03 -4.150359705090522766e-02 -1.416469216346740723e-01
7.953557372093200684e-02 6.737004220485687256e-02 -4.773506522178649902e-02
5.072681978344917297e-02 7.006901502609252930e-02 -7.907449454069137573e-02
1.142683699727058411e-01 -6.032401695847511292e-03 -7.403666377067565918e-01
1.116760820150375366e-02 -4.329940676689147949e-02 -2.076607942581176758e-01
1.875172853469848633e-01 -3.882096707820892334e-02 -3.264250755310058594e-01
3.966272622346878052e-02 -4.624174907803535461e-03 -7.768713831901550293e-01
9.220958501100540161e-02 -3.845647349953651428e-02 -5.751783251762390137e-01
7.513277232646942139e-02 -4.508859664201736450e-02 2.265159487724304199e-01
8.475253731012344360e-02 -5.640940740704536438e-02 7.671520113945007324e-03
2.146882563829421997e-02 6.456733494997024536e-02 -5.656272172927856445e-01
-2.581128478050231934e-02 4.765522107481956482e-02 7.744941115379333496e-02
6.921372562646865845e-02 -2.766460925340652466e-02 3.646107316017150879e-01
1.948217600584030151e-01 3.233774006366729736e-02 -1.815567165613174438e-01
5.248542502522468567e-02 -5.086291953921318054e-02 3.371496498584747314e-02
1.050677821040153503e-01 3.143566194921731949e-03 -7.700443863868713379e-01
6.823918223381042480e-02 -3.056918457150459290e-02 3.457515239715576172e-01
5.006731301546096802e-02 5.972454324364662170e-02 -6.249088048934936523e-01
-6.428658962249755859e-04 -2.131446450948715210e-02 -5.987005233764648438e-01
1.037589311599731445e-01 -4.083845391869544983e-02 -5.451744198799133301e-01
1.293069422245025635e-01 3.793615475296974182e-02 -6.363961100578308105e-01
2.594444155693054199e-02 -4.094452038407325745e-02 1.037918925285339355e-01
-5.517818033695220947e-03 6.966874003410339355e-02 -2.359464615583419800e-01
9.217309206724166870e-02 -5.224284157156944275e-02 1.479901373386383057e-01
1.574518159031867981e-02 -4.236407950520515442e-02 -3.330280184745788574e-01
1.125168055295944214e-02 -3.161994740366935730e-02 1.577815711498260498e-01
1.619323790073394775e-01 -5.258017033338546753e-02 7.655712962150573730e-02
-3.455899655818939209e-03 4.341006651520729065e-02 -7.234017848968505859e-01
1.075526326894760132e-01 5.124677345156669617e-02 -5.975159406661987305e-01
1.587569713592529297e-01 -4.697012528777122498e-02 -3.575621843338012695e-01
-1.292306184768676758e-02 2.325854450464248657e-02 -7.519602775573730469e-01
-5.547311902046203613e-02 2.958839386701583862e-02 1.278497278690338135e-02
-8.921146392822265625e-03 5.105193331837654114e-02 1.130904257297515869e-01
-6.091444194316864014e-02 2.580929547548294067e-02 -2.288101613521575928e-02
1.537695676088333130e-01 7.066114339977502823e-03 -6.587144136428833008e-01
2.047462165355682373e-01 -3.899907693266868591e-02 -1.372292637825012207e-01
1.052445769309997559e-01 -3.315737843513488770e-02 -6.164364814758300781e-01
1.182926744222640991e-01 -2.637667953968048096e-02 -6.496722698211669922e-01
2.048066258430480957e-01 1.269940286874771118e-03 -4.041904807090759277e-01
-7.449796795845031738e-02 1.838354393839836121e-02 -2.789906859397888184e-01
4.809334129095077515e-02 7.269582897424697876e-02 -2.082497626543045044e-01
1.901038736104965210e-01 -1.010927651077508926e-02 -4.959430992603302002e-01
1.780690550804138184e-01 4.150113463401794434e-02 -6.812117248773574829e-02
1.362233161926269531e-01 -4.880049452185630798e-02 2.178589999675750732e-01
4.684247076511383057e-03 -3.839096426963806152e-02 -3.549919128417968750e-01
-4.977093636989593506e-02 5.645298212766647339e-02 -2.816577255725860596e-01
-3.725463896989822388e-02 4.893327876925468445e-02 5.877643823623657227e-03
1.185711622238159180e-01 -5.586777254939079285e-02 -2.783056199550628662e-01
1.029031351208686829e-01 6.124782562255859375e-02 -4.707496762275695801e-01
1.848750859498977661e-01 1.496428716927766800e-02 2.562277913093566895e-01
5.200277641415596008e-02 5.112050101161003113e-02 2.234788537025451660e-01
-1.818820834159851074e-02 1.519332360476255417e-02 2.388973832130432129e-01
1.614554822444915771e-01 -9.757139720022678375e-03 -6.186243295669555664e-01
1.990295499563217163e-01 2.971949428319931030e-02 -1.369526088237762451e-01
1.064849495887756348e-01 -5.292022600769996643e-02 -3.623777627944946289e-01
1.621485501527786255e-01 4.737536981701850891e-02 -3.159613311290740967e-01
1.927101463079452515e-01 2.973444014787673950e-02 4.238949716091156006e-02
1.464841067790985107e-01 2.840267866849899292e-02 3.085416555404663086e-01
1.271504908800125122e-02 6.156640872359275818e-02 5.135008692741394043e-02
1.965199112892150879e-01 3.097799047827720642e-02 -7.121364772319793701e-02
7.443875074386596680e-05 -3.959237039089202881e-02 -2.171593904495239258e-01
-1.414014399051666260e-02 9.665185585618019104e-03 -7.339583039283752441e-01
-1.552304625511169434e-02 -3.231320530176162720e-02 -8.967781811952590942e-02
7.333174347877502441e-03 -4.135725647211074829e-02 -8.145736902952194214e-02
1.566195487976074219e-01 5.178112164139747620e-02 -1.882026940584182739e-01
7.715034484863281250e-02 -5.626865103840827942e-02 -2.067068070173263550e-01
4.619762301445007324e-03 5.152689665555953979e-02 -6.875234246253967285e-01
-4.226817935705184937e-02 3.716672584414482117e-02 -6.348205804824829102e-01
-2.071217447519302368e-02 -2.931651473045349121e-02 -7.257120311260223389e-02
-3.991226106882095337e-02 -2.208094112575054169e-03 -5.792036056518554688e-01
1.358430683612823486e-01 5.746789276599884033e-02 -7.278750836849212646e-02
3.173487633466720581e-02 -4.800478741526603699e-02 -4.333847761154174805e-02
8.044392615556716919e-02 -5.583752319216728210e-02 -2.471123337745666504e-01
2.167791128158569336e-03 -2.547458931803703308e-02 -5.652838945388793945e-01
1.408283710479736328e-01 5.440006032586097717e-02 -1.336963474750518799e-02
-4.248660802841186523e-02 3.144386783242225647e-02 9.255743026733398438e-02
-1.240733265876770020e-02 5.890720337629318237e-02 -5.836207270622253418e-01
5.353503301739692688e-02 6.100697442889213562e-02 -6.059693098068237305e-01
-1.428723335266113281e-02 -1.294852700084447861e-02 -6.213874220848083496e-01
-6.910158693790435791e-02 3.109436854720115662e-02 -4.500517845153808594e-01
2.132316082715988159e-01 -3.375852853059768677e-02 -2.392615377902984619e-02
1.499076187610626221e-01 4.679790511727333069e-02 9.476339817047119141e-02
1.769393980503082275e-01 -3.856137022376060486e-02 -3.901143372058868408e-01
3.287566453218460083e-02 -3.429740667343139648e-02 2.243420779705047607e-01
2.886457368731498718e-02 6.712721288204193115e-02 -1.553043723106384277e-02
6.497927010059356689e-02 -5.113523080945014954e-02 -3.543808758258819580e-01
7.441005110740661621e-02 -1.665404811501502991e-02 4.172437787055969238e-01
1.849718019366264343e-02 -2.736775949597358704e-02 -5.989697575569152832e-01
1.518026739358901978e-01 4.708711430430412292e-02 7.754310965538024902e-02
1.302715390920639038e-01 -4.406572505831718445e-02 -4.763248264789581299e-01
6.414951384067535400e-02 7.188273966312408447e-02 -2.969353199005126953e-01
3.459718078374862671e-02 -4.964525252580642700e-02 -1.873430013656616211e-01
1.591066271066665649e-02 6.032386422157287598e-02 7.616326212882995605e-02
2.246966063976287842e-01 -1.781535521149635315e-02 -7.245413213968276978e-02
1.851018220186233521e-01 2.581288665533065796e-02 1.669528186321258545e-01
8.721172809600830078e-02 -4.359219595789909363e-02 2.659559547901153564e-01
4.243759065866470337e-02 -5.144074931740760803e-02 -1.240691244602203369e-01
8.661885559558868408e-02 6.821525096893310547e-02 -1.104019656777381897e-01
1.030822768807411194e-01 -2.672028169035911560e-02 -6.650024652481079102e-01
7.021760940551757812e-02 7.143814116716384888e-02 -2.208196818828582764e-01
7.200025022029876709e-02 -4.464268684387207031e-02 -4.918462932109832764e-01
-1.349195092916488647e-02 6.607910990715026855e-02 -1.406302452087402344e-01
-1.200843602418899536e-02 -3.427057340741157532e-02 -2.825014591217041016e-01
3.934790939092636108e-02 5.087790638208389282e-02 -7.110401391983032227e-01
9.383544325828552246e-02 1.833774894475936890e-02 4.213719367980957031e-01
2.118218690156936646e-02 -3.932432830333709717e-02 -4.431110322475433350e-01
4.733074456453323364e-02 6.699080765247344971e-02 -5.191686153411865234e-01
-2.963981032371520996e-02 6.457637250423431396e-02 -3.094105720520019531e-01
1.821728795766830444e-01 3.608677908778190613e-02 -3.286789655685424805e-01
1.802752166986465454e-02 6.978868693113327026e-02 -1.053241565823554993e-01
1.956322789192199707e-01 1.685495488345623016e-02 1.799886226654052734e-01
1.172624528408050537e-02 6.588566303253173828e-02 -5.330365896224975586e-01
-1.982865482568740845e-02 6.566699594259262085e-02 -1.792985945940017700e-01
1.074734851717948914e-01 6.591120362281799316e-02 -2.220122814178466797e-01
5.802487581968307495e-02 -5.234836414456367493e-02 1.958490908145904541e-02
6.339855492115020752e-02 -5.413104966282844543e-02 -1.756021380424499512e-02
1.736427843570709229e-01 -5.070076510310173035e-02 -1.837908476591110229e-01
1.428929716348648071e-02 7.223174907267093658e-04 -7.667901515960693359e-01
2.216057777404785156e-01 5.039787385612726212e-03 -3.907008469104766846e-02
2.244532555341720581e-01 -3.738556988537311554e-03 -1.476332694292068481e-01
2.099168896675109863e-01 -2.892122790217399597e-02 -2.550332248210906982e-01
1.712148189544677734e-01 4.444132372736930847e-02 -5.507276952266693115e-02
1.806294471025466919e-01 -3.881374374032020569e-02 2.224561572074890137e-01
1.960171461105346680e-01 -4.005279019474983215e-02 -2.380758523941040039e-01
1.747062206268310547e-01 9.468585252761840820e-03 -5.728018283843994141e-01
1.471315920352935791e-01 -5.144240707159042358e-02 1.573176085948944092e-01
3.837233036756515503e-02 -3.433854877948760986e-02 -5.713994503021240234e-01
-6.528170406818389893e-02 1.645880285650491714e-03 -1.858256608247756958e-01
4.974254965782165527e-02 5.790574848651885986e-02 1.488745808601379395e-01
6.111155822873115540e-02 7.178584486246109009e-02 -1.785635650157928467e-01
2.008550986647605896e-02 -4.297307133674621582e-02 -3.505572676658630371e-01
1.767283082008361816e-01 4.053954780101776123e-02 -6.734773516654968262e-03
-5.923293530941009521e-03 -3.619389608502388000e-02 -7.517804950475692749e-02
-3.467313945293426514e-02 6.238017976284027100e-02 -2.351502031087875366e-01
1.118009835481643677e-01 5.723678693175315857e-02 -5.021156668663024902e-01
-4.889351874589920044e-02 5.583251640200614929e-02 -3.951162099838256836e-01
5.199529230594635010e-03 -1.729730889201164246e-02 2.502058446407318115e-01
2.100959271192550659e-01 -1.975045725703239441e-02 1.794293224811553955e-01
1.775646954774856567e-01 -5.106532946228981018e-02 -9.844280779361724854e-02
4.424957931041717529e-02 -4.160110652446746826e-02 -4.871741235256195068e-01
1.241289079189300537e-02 1.442287489771842957e-02 3.367274403572082520e-01
-2.590925991535186768e-02 -2.863985672593116760e-02 -1.792814135551452637e-01
1.949802190065383911e-01 9.900512173771858215e-03 -4.556852877140045166e-01
-7.259322702884674072e-02 2.699743956327438354e-02 -1.847835630178451538e-01
1.434511095285415649e-01 -5.443623661994934082e-02 -2.580260038375854492e-01
1.233702376484870911e-01 6.047194078564643860e-02 -3.484697937965393066e-01
1.248552650213241577e-02 -3.745494410395622253e-02 8.065834641456604004e-02
-2.282918244600296021e-02 2.882916852831840515e-02 -7.231021523475646973e-01
7.199085503816604614e-02 -4.838833957910537720e-02 1.705780029296875000e-01
6.230427697300910950e-02 -5.385980382561683655e-02 -2.474405169486999512e-01
1.625795960426330566e-01 2.044612541794776917e-02 3.122428655624389648e-01
1.715039312839508057e-01 4.386049509048461914e-02 -3.673399984836578369e-02
1.648713797330856323e-01 -5.314934626221656799e-02 -1.708724796772003174e-01
8.582504093647003174e-02 1.176404487341642380e-02 4.372731447219848633e-01
1.107653677463531494e-01 2.865441888570785522e-02 3.691691756248474121e-01
9.529288113117218018e-02 4.629278555512428284e-02 -6.751832962036132812e-01
2.009129375219345093e-01 -3.728743270039558411e-02 1.128203868865966797e-01
1.801800727844238281e-02 7.143092155456542969e-02 -3.925197124481201172e-01
-2.733717858791351318e-02 -2.220549806952476501e-02 3.547847270965576172e-03
1.133517250418663025e-01 3.867378830909729004e-02 -6.808880567550659180e-01
1.722956895828247070e-01 3.697910159826278687e-02 -4.161902666091918945e-01
2.216098010540008545e-01 -1.730951294302940369e-02 -1.948805451393127441e-01
1.897286027669906616e-01 3.578266873955726624e-02 -1.142251938581466675e-01
1.186577379703521729e-01 4.739986360073089600e-02 2.064099907875061035e-01
-1.542410254478454590e-02 5.762765556573867798e-02 1.456178724765777588e-02
1.935507655143737793e-01 2.918580174446105957e-02 -3.065845370292663574e-01
-6.232061982154846191e-02 1.117244735360145569e-02 -4.573938250541687012e-02
5.919245257973670959e-02 3.394545242190361023e-02 3.495121002197265625e-01
-1.220385730266571045e-02 6.832694262266159058e-02 -3.660776615142822266e-01
2.038564085960388184e-01 2.046047151088714600e-02 -2.970269322395324707e-01
3.412300720810890198e-02 4.725248366594314575e-02 -7.349887490272521973e-01
-7.195861637592315674e-02 3.302429988980293274e-02 -3.839375972747802734e-01
4.653386771678924561e-02 7.290720194578170776e-02 -2.988272905349731445e-01
1.573986113071441650e-01 -5.260943621397018433e-02 -2.452706992626190186e-01
1.177226006984710693e-02 7.208738476037979126e-02 -2.889583408832550049e-01
8.195877820253372192e-02 -4.378122091293334961e-02 -5.117637515068054199e-01
6.184494495391845703e-02 3.028200939297676086e-02 3.688782453536987305e-01
-1.934698224067687988e-02 -2.934631332755088806e-02 -5.219611525535583496e-02
5.231866613030433655e-02 -1.538961287587881088e-02 3.895963430404663086e-01
5.025812238454818726e-02 -5.133727192878723145e-02 -2.802215516567230225e-01
8.601965010166168213e-02 -4.924673587083816528e-02 1.894906461238861084e-01
-7.143166661262512207e-02 3.155867755413055420e-02 -4.073753952980041504e-01
1.607680320739746094e-01 3.142616897821426392e-02 2.378080189228057861e-01
1.865349411964416504e-01 3.775952011346817017e-02 -1.420893967151641846e-01
2.171238958835601807e-01 -6.486052647233009338e-03 1.263924837112426758e-01
3.966592252254486084e-02 -4.951485246419906616e-02 -2.171462774276733398e-02
2.702346444129943848e-02 6.214986741542816162e-02 -6.025948524475097656e-01
-6.695674359798431396e-02 4.368966817855834961e-02 -2.935500741004943848e-01
1.490195542573928833e-01 2.733354270458221436e-02 -6.237987875938415527e-01
1.669939905405044556e-01 -2.640169113874435425e-02 3.451650142669677734e-01
-6.283538043498992920e-02 -8.929139003157615662e-04 -1.695322990417480469e-01
9.723270684480667114e-02 2.307511866092681885e-02 -7.734809517860412598e-01
1.907183527946472168e-01 -4.040601104497909546e-02 -2.798683345317840576e-01
-5.605436861515045166e-02 5.769579205662012100e-03 -2.314999699592590332e-03
-6.726461648941040039e-02 1.143178157508373260e-02 -4.354874491691589355e-01
4.464927315711975098e-02 6.967175751924514771e-02 -6.536642462015151978e-02
-5.795028805732727051e-02 -2.981121651828289032e-03 -4.072148203849792480e-01
1.203504949808120728e-01 -5.751070752739906311e-02 3.231032192707061768e-02
2.780937775969505310e-02 3.921862319111824036e-02 2.860651612281799316e-01
7.480584830045700073e-02 6.728515774011611938e-02 -4.519584774971008301e-01
2.106572389602661133e-01 -5.130846984684467316e-03 1.840802133083343506e-01
9.443134069442749023e-02 5.162307247519493103e-02 2.027738988399505615e-01
1.006332039833068848e-02 5.035666748881340027e-02 -7.023484706878662109e-01
1.358420401811599731e-01 -4.605576023459434509e-02 -4.394611418247222900e-01
-3.775169700384140015e-02 -2.057214081287384033e-02 -1.080934926867485046e-01
1.149244308471679688e-01 5.656895041465759277e-02 8.409774303436279297e-02
5.760582908987998962e-02 3.579492866992950439e-02 -7.817039489746093750e-01
1.717797964811325073e-01 -4.613591358065605164e-02 -3.099932372570037842e-01
2.248528152704238892e-01 -3.644997254014015198e-03 -1.284230649471282959e-01
2.019487321376800537e-03 -1.020918879657983780e-02 -6.925591826438903809e-01
8.069981634616851807e-02 -5.714322254061698914e-02 -7.596385478973388672e-02
2.380690351128578186e-02 2.277901396155357361e-02 3.468636274337768555e-01
1.315105855464935303e-01 -2.097804099321365356e-05 -7.181566953659057617e-01
1.140038520097732544e-01 -5.879679694771766663e-02 -1.299273371696472168e-01
7.668099552392959595e-02 6.667362153530120850e-02 -1.998494565486907959e-02
1.282645612955093384e-01 6.095250695943832397e-02 -2.229618728160858154e-01
1.052632182836532593e-01 5.468054115772247314e-02 1.434896588325500488e-01
5.364695936441421509e-02 3.129883110523223877e-02 -7.972736358642578125e-01
-3.906201571226119995e-02 -1.827908679842948914e-02 -3.832495212554931641e-01
2.074722349643707275e-01 -3.758640959858894348e-02 7.027029991149902344e-03
-4.996341466903686523e-02 1.786338910460472107e-02 7.289856672286987305e-02
-5.487276613712310791e-02 6.731918547302484512e-03 -5.363983511924743652e-01
7.647813111543655396e-02 -3.456465154886245728e-02 -6.125636100769042969e-01
6.245002150535583496e-04 6.907659024000167847e-02 -1.524945199489593506e-01
1.175888627767562866e-01 5.332835763692855835e-02 -5.343795418739318848e-01
5.257434397935867310e-02 -5.320460721850395203e-02 -1.879071444272994995e-01
4.756703600287437439e-02 -5.076292157173156738e-02 6.277859210968017578e-04
1.500831842422485352e-01 4.865949973464012146e-02 -4.131870865821838379e-01
2.189176082611083984e-01 -2.489314228296279907e-02 -1.689043492078781128e-01
5.873262137174606323e-02 -4.897643625736236572e-02 -3.884869813919067383e-01
1.043964028358459473e-01 -1.842578873038291931e-02 -7.097577452659606934e-01
1.011005640029907227e-01 6.645786762237548828e-02 -1.344538331031799316e-01
-6.596127152442932129e-02 2.186304423958063126e-03 -3.309212923049926758e-01
-3.635797649621963501e-02 5.519615858793258667e-02 -6.718182563781738281e-02
5.668099224567413330e-02 -5.008891969919204712e-02 7.948815822601318359e-02
-1.787679642438888550e-02 -1.589084044098854065e-03 -6.815825700759887695e-01
2.434693649411201477e-02 3.027847781777381897e-02 3.233621120452880859e-01
5.595602467656135559e-02 6.834897398948669434e-02 -4.768854081630706787e-01
1.011795848608016968e-01 -5.452273413538932800e-02 -3.244215250015258789e-01
-3.895726054906845093e-02 -1.611327007412910461e-02 -2.893987298011779785e-02
-3.833108395338058472e-02 2.857385203242301941e-02 -6.711454391479492188e-01
4.444795474410057068e-02 4.710844531655311584e-02 2.530062794685363770e-01
-3.819357603788375854e-02 5.071225017309188843e-02 -5.700847506523132324e-01
-3.922238200902938843e-02 5.181386694312095642e-02 -5.532242059707641602e-01
-1.490765810012817383e-02 6.565263122320175171e-02 -4.529484510421752930e-01
-1.137057691812515259e-02 -2.451492100954055786e-02 1.055260300636291504e-01
1.845984756946563721e-01 -4.641977325081825256e-02 8.320844173431396484e-02
2.966172620654106140e-02 7.093096524477005005e-02 -4.285160005092620850e-01
1.560525596141815186e-01 -4.818910732865333557e-02 1.908288002014160156e-01
6.432478129863739014e-02 5.317563936114311218e-02 -6.751400828361511230e-01
2.512400597333908081e-02 5.613934248685836792e-02 -6.674922704696655273e-01
9.989485889673233032e-02 6.727156043052673340e-02 -2.617124915122985840e-01
-2.363047748804092407e-02 4.251150786876678467e-02 -6.816360354423522949e-01
1.351425349712371826e-01 -4.999222978949546814e-02 -3.803625702857971191e-01
-7.749520242214202881e-03 6.624375283718109131e-02 -1.096016168594360352e-01
1.377870142459869385e-01 2.041398361325263977e-02 3.730945587158203125e-01
1.038677096366882324e-01 -1.336566638201475143e-02 -7.317652702331542969e-01
2.133513838052749634e-01 1.717255264520645142e-02 -1.288646906614303589e-01
3.619669750332832336e-02 6.810199469327926636e-02 -2.874277532100677490e-02
4.872605949640274048e-02 4.921099916100502014e-02 2.388310432434082031e-01
1.141714006662368774e-01 -1.506099570542573929e-02 4.385070204734802246e-01
8.428836613893508911e-02 2.441620454192161560e-02 4.007197618484497070e-01
1.472560763359069824e-01 -5.334952473640441895e-02 1.158134937286376953e-01
1.814820766448974609e-01 3.150063008069992065e-02 1.231142580509185791e-01
2.072946727275848389e-02 -4.537453129887580872e-02 -6.578062474727630615e-02
1.851037740707397461e-01 -4.785794764757156372e-02 3.067055344581604004e-02
9.285479038953781128e-02 -4.599823430180549622e-02 -4.841605722904205322e-01
5.038711056113243103e-02 7.183786481618881226e-02 -3.721548020839691162e-01
3.331573680043220520e-02 -3.476242348551750183e-02 -5.545802712440490723e-01
-5.429896712303161621e-02 4.953952133655548096e-02 -1.437985301017761230e-01
-2.550105750560760498e-02 3.308999910950660706e-02 1.689843237400054932e-01
-2.110759168863296509e-02 -1.706157252192497253e-02 1.164842844009399414e-01
1.236328333616256714e-01 -5.627373978495597839e-02 7.676821947097778320e-02
9.409198909997940063e-02 5.918631702661514282e-02 -5.425347089767456055e-01
-3.888615965843200684e-02 5.142264999449253082e-04 -6.032369136810302734e-01
7.595536112785339355e-02 6.035189330577850342e-02 1.078392565250396729e-01
2.209494113922119141e-01 4.202825948596000671e-04 -2.157257348299026489e-01
1.674297451972961426e-01 -4.661369696259498596e-02 -3.246564269065856934e-01
1.113225519657135010e-01 3.250220045447349548e-02 3.462763428688049316e-01
1.011419743299484253e-01 -9.069197811186313629e-03 -7.495729923248291016e-01
1.931640207767486572e-01 -4.583067074418067932e-02 -5.050130188465118408e-02
-3.139937669038772583e-02 5.033914372324943542e-02 2.456967532634735107e-02
2.171257287263870239e-01 1.249598525464534760e-02 -6.538300961256027222e-02
1.342177689075469971e-01 -3.005713224411010742e-02 -5.985857248306274414e-01
1.486372351646423340e-01 -5.678315833210945129e-02 -4.632563889026641846e-02
2.088384926319122314e-01 2.164530754089355469e-02 -8.979710936546325684e-02
7.910048961639404297e-02 7.037281244993209839e-02 -2.861114740371704102e-01
9.736704826354980469e-02 6.734552234411239624e-02 -3.039799332618713379e-01
1.037712842226028442e-01 5.760896578431129456e-02 -5.308146476745605469e-01
1.639030501246452332e-02 9.488871321082115173e-03 -7.912809848785400391e-01
8.263701200485229492e-02 5.371317267417907715e-02 -6.394835710525512695e-01
-5.084280669689178467e-02 -1.147826854139566422e-02 -1.277525722980499268e-01
1.340527832508087158e-02 -4.338729009032249451e-02 -2.591449022293090820e-01
7.432382553815841675e-02 -2.348124235868453979e-02 3.923470377922058105e-01
4.296834766864776611e-02 -5.095481872558593750e-02 -2.310234457254409790e-01
1.184953004121780396e-02 -3.779347240924835205e-02 -4.234971404075622559e-01
-6.642358005046844482e-02 4.411767050623893738e-02 -2.772785127162933350e-01
3.344157338142395020e-02 7.203125208616256714e-02 -1.599477529525756836e-01
-7.490043342113494873e-02 2.666008844971656799e-02 -3.058279454708099365e-01
3.583707660436630249e-02 7.192059606313705444e-02 -3.892747163772583008e-01
1.161016076803207397e-01 5.011459067463874817e-02 1.795262098312377930e-01
-1.400430500507354736e-02 -2.962466329336166382e-02 6.114453077316284180e-03
1.905342638492584229e-01 2.493337914347648621e-02 1.372175812721252441e-01
3.400377184152603149e-02 1.592198386788368225e-02 3.801785707473754883e-01
3.903920203447341919e-02 7.138714194297790527e-02 -4.103810489177703857e-01
6.219276413321495056e-02 -3.884559869766235352e-02 -5.575382113456726074e-01
9.174203872680664062e-02 6.198099255561828613e-02 -5.045506954193115234e-01
8.359654247760772705e-02 6.991788744926452637e-02 -2.595644295215606689e-01
1.293640434741973877e-01 4.898873716592788696e-02 1.547189354896545410e-01
-1.482528448104858398e-02 6.630645692348480225e-02 -4.336328804492950439e-01
5.590213090181350708e-02 -3.395568206906318665e-02 2.964862883090972900e-01
-1.633761078119277954e-02 6.787095218896865845e-02 -3.313624858856201172e-01
1.276814639568328857e-01 3.106345608830451965e-02 -6.800162792205810547e-01
1.523943543434143066e-01 4.356176778674125671e-02 -4.763609766960144043e-01
-6.085757911205291748e-02 4.684654623270034790e-02 -4.175717234611511230e-01
-1.883134990930557251e-02 6.242135539650917053e-02 -5.064944624900817871e-01
2.572482079267501831e-02 7.286615669727325439e-02 -3.061255514621734619e-01
1.509618312120437622e-01 -4.801861569285392761e-02 2.056004703044891357e-01
-4.711702466011047363e-03 -5.916650407016277313e-03 2.623758614063262939e-01
6.160393357276916504e-03 -3.777512535452842712e-02 2.417102456092834473e-02
4.959880560636520386e-02 5.345501005649566650e-02 -6.868596673011779785e-01
1.603282988071441650e-01 5.033173039555549622e-02 -1.651766300201416016e-01
2.013618052005767822e-01 1.534212101250886917e-02 1.487713158130645752e-01
1.209508180618286133e-01 -3.161644563078880310e-02 3.776946067810058594e-01
2.257293835282325745e-02 6.499694287776947021e-02 1.598967611789703369e-02
-4.727602005004882812e-02 -1.398731488734483719e-02 -3.567208349704742432e-01
1.213247328996658325e-01 -5.854863300919532776e-02 -1.454219520092010498e-01
2.020345255732536316e-02 -3.041880950331687927e-02 -5.705338120460510254e-01
8.459884673357009888e-02 6.011977046728134155e-02 -5.582282543182373047e-01
8.756750822067260742e-02 6.491103768348693848e-02 -3.452599048614501953e-03
1.664294153451919556e-01 -3.192264214158058167e-02 -4.961826503276824951e-01
-2.531647682189941406e-02 6.183959916234016418e-02 -1.126919016242027283e-01
-6.358306109905242920e-02 1.290301326662302017e-03 -1.457984000444412231e-01
1.279027462005615234e-01 -5.803978815674781799e-02 -6.961792707443237305e-03
1.985466778278350830e-01 -3.417732939124107361e-02 1.706508100032806396e-01
1.541199982166290283e-01 -3.837662562727928162e-02 3.022376298904418945e-01
5.807953327894210815e-02 -4.610830172896385193e-02 1.642616689205169678e-01
6.513860076665878296e-02 -3.708124905824661255e-02 -5.806215405464172363e-01
2.271982282400131226e-02 -4.622499272227287292e-02 -8.274056017398834229e-02
1.237932816147804260e-01 -5.202718079090118408e-02 -3.643583059310913086e-01
-3.779195249080657959e-03 -3.400463610887527466e-02 -3.962323069572448730e-01
5.167690292000770569e-02 4.600347578525543213e-02 2.673463225364685059e-01
8.590612560510635376e-02 3.576957061886787415e-02 3.439502120018005371e-01
2.399773150682449341e-02 4.160434380173683167e-02 2.652946114540100098e-01
-2.995426952838897705e-02 -1.291017699986696243e-02 9.093266725540161133e-02
2.255681306123733521e-01 -1.307094004005193710e-02 -4.043979942798614502e-02
-2.203716337680816650e-02 -3.044167906045913696e-02 -1.646177917718887329e-01
1.894728243350982666e-01 -3.271249309182167053e-02 -3.820268511772155762e-01
1.218247264623641968e-01 4.145065322518348694e-02 2.613153457641601562e-01
1.775563955307006836e-01 4.233665764331817627e-02 -2.024317532777786255e-01
1.902820169925689697e-01 3.026219457387924194e-02 6.156037747859954834e-02
1.485002040863037109e-01 -4.742771014571189880e-02 -3.865574002265930176e-01
1.641755402088165283e-01 -3.951667994260787964e-02 -4.349840879440307617e-01
3.622693195939064026e-02 6.971329450607299805e-02 -4.655171036720275879e-01
-1.234930753707885742e-02 6.753152608871459961e-02 -4.064542055130004883e-01
1.106468662619590759e-01 3.566531464457511902e-02 -7.042602300643920898e-01
1.681756079196929932e-01 4.700890555977821350e-02 -1.524579524993896484e-01
-4.323828220367431641e-02 -1.476606633514165878e-02 -4.033079743385314941e-01
7.939369231462478638e-02 2.791565284132957458e-02 3.858050107955932617e-01
1.047654598951339722e-01 6.624528020620346069e-02 -1.731144040822982788e-01
1.613440215587615967e-01 1.400868408381938934e-02 -6.214188933372497559e-01
6.275135278701782227e-02 6.704936176538467407e-02 -4.924055933952331543e-01
1.537877693772315979e-02 -1.257808413356542587e-02 -7.084304094314575195e-01
7.350517064332962036e-02 -5.235910788178443909e-02 9.559577703475952148e-02
1.196498945355415344e-01 5.599598214030265808e-02 -4.837350547313690186e-01
-1.370910555124282837e-02 -2.957395091652870178e-02 -4.112307727336883545e-01
-6.719560921192169189e-02 1.064960192888975143e-02 -1.156142875552177429e-01
4.631111770868301392e-02 7.060199975967407227e-02 -4.303670823574066162e-01
1.839865893125534058e-01 -4.849962890148162842e-02 -1.406069695949554443e-01
1.456616073846817017e-01 1.925501227378845215e-02 -6.659032106399536133e-01
4.584167152643203735e-02 7.226469367742538452e-02 -1.700956970453262329e-01
3.304459154605865479e-03 -3.475831821560859680e-03 -7.305601239204406738e-01
1.574356555938720703e-01 -5.438735708594322205e-02 3.865769505500793457e-02
5.543556809425354004e-02 -4.194579645991325378e-02 2.147125601768493652e-01
1.252666860818862915e-02 3.986033424735069275e-02 -7.595272064208984375e-01
1.877968311309814453e-01 2.609164919704198837e-03 2.970359027385711670e-01
-7.404790818691253662e-02 2.602939307689666748e-02 -3.613142669200897217e-01
8.969113975763320923e-02 -5.306626483798027039e-02 1.257135868072509766e-01
5.225775018334388733e-02 -5.284110084176063538e-02 -5.805940926074981689e-02
1.588822007179260254e-01 -5.117222666740417480e-02 -2.751233577728271484e-01
-2.072123438119888306e-02 2.043119072914123535e-02 2.235910296440124512e-01
2.474361658096313477e-02 -4.729500412940979004e-02 -1.428558677434921265e-01
1.752182245254516602e-01 3.792832046747207642e-02 -3.745712041854858398e-01
-7.002191245555877686e-02 1.181762106716632843e-02 -1.627462655305862427e-01
-3.826942294836044312e-02 4.776549711823463440e-02 -5.952124595642089844e-01
7.905462384223937988e-02 4.949756711721420288e-02 -6.833202838897705078e-01
1.263888776302337646e-01 -5.032753944396972656e-02 2.028020322322845459e-01
1.452538371086120605e-01 -5.698544904589653015e-02 -1.301053464412689209e-01
1.112176626920700073e-01 4.759392514824867249e-02 2.204627096652984619e-01
1.611714661121368408e-01 -3.680032119154930115e-02 -4.732939004898071289e-01
-5.053991079330444336e-02 4.079496860504150391e-02 -5.742818117141723633e-01
2.062992453575134277e-01 -1.620875298976898193e-02 -3.748617768287658691e-01
1.506158709526062012e-01 4.257808253169059753e-02 -4.995370209217071533e-01
2.193759381771087646e-01 1.165464520454406738e-03 -2.412551939487457275e-01
9.680069983005523682e-02 -2.615358680486679077e-02 4.006848335266113281e-01
-5.312149226665496826e-02 -1.090798806399106979e-02 -3.128263950347900391e-01
2.188754528760910034e-01 -5.292525514960289001e-03 1.026696860790252686e-01
1.262420564889907837e-01 5.884273722767829895e-02 -2.936132252216339111e-02
2.229071781039237976e-02 -2.799804508686065674e-02 2.424197196960449219e-01
8.365990221500396729e-02 4.623627662658691406e-02 2.672716379165649414e-01
2.506056055426597595e-02 5.885050632059574127e-03 3.703331947326660156e-01
