6.385815143585205078e-01 -1.158094331622123718e-01 -1.261639297008514404e-01
5.333205461502075195e-01 -1.512334048748016357e-01 2.725893445312976837e-02
4.707002937793731689e-01 -1.378416121006011963e-01 -2.628656923770904541e-01
1.500588357448577881e-01 -1.758282184600830078e-01 -1.734530776739120483e-01
3.911795020103454590e-01 -2.561984211206436157e-02 5.562209337949752808e-02
4.388457238674163818e-01 -1.578810960054397583e-01 -1.901751756668090820e-01
6.335930824279785156e-01 -6.209964305162429810e-02 -1.619355082511901855e-01
2.105430513620376587e-01 -4.372628405690193176e-02 -2.118069827556610107e-01
5.295376777648925781e-01 -2.938921004533767700e-02 -1.761882379651069641e-02
-2.901026606559753418e-02 -1.478507071733474731e-01 1.366741359233856201e-01
4.936601519584655762e-01 -3.337111324071884155e-02 -1.570452600717544556e-01
5.758868455886840820e-01 -1.286143064498901367e-01 -1.886323690414428711e-01
-1.714864373207092285e-02 -1.670058667659759521e-01 3.913012146949768066e-02
1.829497218132019043e-01 -5.248732864856719971e-02 -2.443981915712356567e-01
5.333815217018127441e-01 -1.102668419480323792e-01 2.225235849618911743e-01
1.725019216537475586e-01 -3.811769932508468628e-02 -1.259728074073791504e-01
6.693537235260009766e-01 -1.019273549318313599e-01 -9.463857114315032959e-02
2.662602066993713379e-01 -1.814469546079635620e-01 2.555911801755428314e-02
2.205047011375427246e-02 -5.850077420473098755e-02 -3.562257811427116394e-02
4.378476738929748535e-01 -2.635884284973144531e-02 -1.115536168217658997e-01
5.912216007709503174e-02 -6.718058139085769653e-02 -2.128400802612304688e-01
4.575020968914031982e-01 -1.650559306144714355e-01 -6.769940257072448730e-02
8.455455303192138672e-03 -6.221775710582733154e-02 6.621604785323143005e-03
4.148032367229461670e-01 -2.584969997406005859e-02 -1.124684140086174011e-01
5.134837031364440918e-01 -2.804297208786010742e-02 -4.833618551492691040e-02
-5.917394161224365234e-02 -1.544247716665267944e-01 -1.178825199604034424e-01
-1.295593380928039551e-02 -7.037390768527984619e-02 -1.073724403977394104e-01
5.816752910614013672e-01 -1.390507668256759644e-01 3.947630524635314941e-02
2.410863339900970459e-01 -1.815023124217987061e-01 4.298712313175201416e-02
4.787183403968811035e-01 -2.550927549600601196e-02 -3.776102140545845032e-02
4.839423894882202148e-01 -1.574294269084930420e-01 7.084556668996810913e-02
6.596543788909912109e-01 -1.001959145069122314e-01 7.400603592395782471e-02
1.034547388553619385e-01 -1.625080555677413940e-01 1.785692125558853149e-01
-2.415275573730468750e-02 -7.102277874946594238e-02 9.649215266108512878e-03
1.018745303153991699e-01 -1.818471252918243408e-01 -6.668560206890106201e-03
2.778196036815643311e-01 -1.687604784965515137e-01 1.575900167226791382e-01
6.485853791236877441e-01 -5.752506852149963379e-02 -1.092624887824058533e-01
3.087198734283447266e-01 -1.604351848363876343e-01 1.944955885410308838e-01
2.434638440608978271e-01 -1.414946764707565308e-01 2.671236097812652588e-01
3.412351608276367188e-01 -1.475669741630554199e-01 -2.957325875759124756e-01
3.114039301872253418e-01 -2.595676481723785400e-02 3.565897792577743530e-02
2.284285426139831543e-02 -1.655935645103454590e-01 -1.705883145332336426e-01
3.037697076797485352e-02 -7.937908172607421875e-02 1.735658645629882812e-01
4.657208621501922607e-01 -2.802582830190658569e-02 -1.190739274024963379e-01
-4.936137795448303223e-02 -1.627868264913558960e-01 -3.375268355011940002e-02
4.982303380966186523e-01 -2.670953422784805298e-02 -2.827756851911544800e-02
5.923230648040771484e-01 -1.235271245241165161e-01 1.256825327873229980e-01
4.464422166347503662e-02 -5.381717905402183533e-02 -4.282571375370025635e-02
3.086928129196166992e-01 -2.546121180057525635e-02 -7.759138941764831543e-02
3.577770590782165527e-01 -1.484753638505935669e-01 2.269831448793411255e-01
1.714798212051391602e-01 -1.260528862476348877e-01 -3.437877893447875977e-01
1.036506742238998413e-01 -1.287532448768615723e-01 2.615590989589691162e-01
5.688309669494628906e-01 -8.294485509395599365e-02 -2.668625712394714355e-01
3.621531724929809570e-01 -7.042925059795379639e-02 -3.344386518001556396e-01
3.610615730285644531e-01 -2.551922202110290527e-02 -1.089590787887573242e-01
-7.578700780868530273e-02 -1.145919859409332275e-01 -1.679764539003372192e-01
3.614996671676635742e-01 -1.527610123157501221e-01 2.091469764709472656e-01
5.489525794982910156e-01 -1.250334531068801880e-01 1.762104779481887817e-01
2.575176954269409180e-02 -6.279359757900238037e-02 7.514122128486633301e-02
3.528702855110168457e-01 -4.095693677663803101e-02 -2.401344329118728638e-01
2.204436063766479492e-02 -1.600690782070159912e-01 1.403185427188873291e-01
3.522798418998718262e-01 -1.761725991964340210e-01 -8.615577965974807739e-02
4.687143564224243164e-01 -6.158141791820526123e-02 2.351743429899215698e-01
6.484341025352478027e-01 -9.084199368953704834e-02 1.133090555667877197e-01
4.341726303100585938e-01 -2.525012940168380737e-02 -9.389969706535339355e-02
1.241571009159088135e-01 -4.982921108603477478e-02 -1.804148107767105103e-01
5.520918369293212891e-01 -5.979802086949348450e-02 -2.444256544113159180e-01
-7.365447282791137695e-02 -1.554534733295440674e-01 -4.186346754431724548e-02
1.289449483156204224e-01 -7.273630797863006592e-02 -2.888845205307006836e-01
3.832404017448425293e-01 -4.897765070199966431e-02 -2.750580310821533203e-01
1.707825064659118652e-01 -1.826709061861038208e-01 3.198593109846115112e-02
-4.147982597351074219e-02 -1.043430268764495850e-01 1.505974680185317993e-01
3.829048573970794678e-01 -1.624887138605117798e-01 1.463821977376937866e-01
6.093314290046691895e-01 -5.656594783067703247e-02 1.198056191205978394e-01
2.638554573059082031e-01 -3.682734072208404541e-02 1.355237811803817749e-01
4.110736846923828125e-01 -1.515963822603225708e-01 1.881168782711029053e-01
3.834168314933776855e-01 -2.322356402873992920e-02 -5.093403160572052002e-02
7.472355663776397705e-02 -7.605785131454467773e-02 2.038381844758987427e-01
6.630922555923461914e-01 -5.961789935827255249e-02 1.118805073201656342e-02
3.831461369991302490e-01 -2.314151823520660400e-02 -1.222117431461811066e-02
5.085700750350952148e-01 -1.349989324808120728e-01 -2.418435364961624146e-01
3.290094733238220215e-01 -3.074241429567337036e-02 -1.658932417631149292e-01
2.145228385925292969e-01 -1.655707061290740967e-01 1.848523616790771484e-01
1.159486025571823120e-01 -4.753484949469566345e-02 -1.498823016881942749e-01
5.342891216278076172e-01 -4.023226350545883179e-02 1.187141686677932739e-01
3.796461820602416992e-01 -8.022567629814147949e-02 2.881024777889251709e-01
4.184150993824005127e-01 -1.706441044807434082e-01 -3.725380077958106995e-02
-7.845246791839599609e-02 -9.722173959016799927e-02 -1.151872575283050537e-01
8.026443421840667725e-02 -1.803067028522491455e-01 4.224846139550209045e-03
3.695532083511352539e-01 -2.326930314302444458e-02 -8.296981453895568848e-03
4.547113776206970215e-01 -3.212907910346984863e-02 1.106635481119155884e-01
-5.226230621337890625e-02 -9.389690309762954712e-02 1.070441156625747681e-01
2.985734641551971436e-01 -1.477835625410079956e-01 -3.054414987564086914e-01
2.864352464675903320e-01 -2.770312130451202393e-02 -1.055744290351867676e-01
4.818609356880187988e-01 -1.300029456615447998e-01 2.191745638847351074e-01
5.762898325920104980e-01 -6.563989818096160889e-02 -2.388627827167510986e-01
2.460514008998870850e-01 -5.304270610213279724e-02 2.172200083732604980e-01
3.442092835903167725e-01 -1.659476011991500854e-01 -2.084077447652816772e-01
3.995005488395690918e-01 -1.712620854377746582e-01 -9.531602263450622559e-02
4.692059159278869629e-01 -1.359186023473739624e-01 2.103976905345916748e-01
-1.975673437118530273e-02 -1.175324320793151855e-01 -2.454852163791656494e-01
1.438346207141876221e-01 -4.192244261503219604e-02 -1.307060420513153076e-01
5.199175477027893066e-01 -1.485008299350738525e-01 -1.536231637001037598e-01
-5.654776096343994141e-02 -1.029721274971961975e-01 -1.835958361625671387e-01
3.465294837951660156e-03 -1.724083721637725830e-01 -6.220830231904983521e-02
1.741366088390350342e-01 -1.832096576690673828e-01 -8.016240596771240234e-02
2.998373508453369141e-01 -1.651949584484100342e-01 1.723577529191970825e-01
1.824083924293518066e-02 -1.670209169387817383e-01 9.583203494548797607e-02
1.292736232280731201e-01 -1.745032370090484619e-01 1.176452487707138062e-01
1.518602669239044189e-01 -6.729565560817718506e-02 2.275161296129226685e-01
3.879289329051971436e-02 -5.909420922398567200e-02 6.722266972064971924e-02
5.446048378944396973e-01 -1.500186473131179810e-01 -5.703901499509811401e-02
1.147238463163375854e-01 -1.701144278049468994e-01 -2.032598704099655151e-01
2.212206423282623291e-01 -7.115277647972106934e-02 2.649390697479248047e-01
3.944927155971527100e-01 -1.711505204439163208e-01 -1.077361553907394409e-01
4.740157723426818848e-01 -5.128499493002891541e-02 2.040515840053558350e-01
-3.496354818344116211e-02 -1.135640516877174377e-01 -2.274561673402786255e-01
7.185655832290649414e-02 -1.394598186016082764e-01 2.327238470315933228e-01
6.235256195068359375e-01 -4.845676571130752563e-02 -1.069451197981834412e-01
5.082068443298339844e-01 -1.158478409051895142e-01 2.320275157690048218e-01
2.475955635309219360e-01 -1.729204803705215454e-01 1.363142579793930054e-01
6.363848447799682617e-01 -4.918907582759857178e-02 -7.102646678686141968e-02
1.906783282756805420e-01 -1.207122728228569031e-01 2.927819788455963135e-01
-1.075185537338256836e-01 -1.365967094898223877e-01 -2.931104414165019989e-02
2.359508872032165527e-01 -8.566918969154357910e-02 -3.511047065258026123e-01
3.256225585937500000e-02 -1.757953166961669922e-01 -7.265840470790863037e-02
1.560012251138687134e-01 -3.652483224868774414e-02 -3.730342537164688110e-02
5.203975439071655273e-01 -7.201966643333435059e-02 -2.890074253082275391e-01
-3.551754355430603027e-02 -8.500570058822631836e-02 1.019017994403839111e-01
4.788018465042114258e-01 -4.272606223821640015e-02 1.671809256076812744e-01
4.429075121879577637e-02 -7.658781111240386963e-02 1.783208549022674561e-01
4.988625943660736084e-01 -4.553543776273727417e-02 1.703983843326568604e-01
-9.451210498809814453e-03 -1.022003963589668274e-01 -2.441006749868392944e-01
3.075855374336242676e-01 -1.701011657714843750e-01 -1.977211982011795044e-01
-2.615481615066528320e-02 -7.110187411308288574e-02 -5.248254165053367615e-02
2.451324462890625000e-01 -7.838627696037292480e-02 -3.424124717712402344e-01
1.055226325988769531e-01 -1.667424738407135010e-01 1.587826013565063477e-01
2.019050866365432739e-01 -3.167395293712615967e-02 -2.716901339590549469e-02
3.325044512748718262e-01 -9.849236160516738892e-02 -3.636203408241271973e-01
-8.611750602722167969e-02 -9.666476398706436157e-02 2.109092660248279572e-02
1.350509822368621826e-01 -1.588570922613143921e-01 2.039666324853897095e-01
2.789058387279510498e-01 -1.819723695516586304e-01 -2.428767457604408264e-02
1.701000332832336426e-02 -7.020190358161926270e-02 -1.724458336830139160e-01
-4.082322120666503906e-03 -1.470376849174499512e-01 1.649946570396423340e-01
1.763592958450317383e-01 -5.915071442723274231e-02 2.120557278394699097e-01
-9.326484799385070801e-02 -1.055931672453880310e-01 -1.037070751190185547e-01
3.831400871276855469e-01 -1.320592164993286133e-01 2.635916471481323242e-01
4.347609877586364746e-01 -2.926945686340332031e-02 9.185779094696044922e-02
3.986709713935852051e-01 -2.459377050399780273e-02 3.609710931777954102e-02
5.738201737403869629e-02 -1.775145828723907471e-01 -8.995056897401809692e-02
3.404549062252044678e-01 -1.374123990535736084e-01 2.641460597515106201e-01
2.429434657096862793e-02 -1.096975356340408325e-01 2.227168828248977661e-01
-8.937242627143859863e-02 -1.488888263702392578e-01 -4.313423484563827515e-02
4.256312847137451172e-01 -1.691805124282836914e-01 1.049798913300037384e-02
6.354987621307373047e-01 -5.272753164172172546e-02 -1.113458201289176941e-01
4.464787542819976807e-01 -1.496428847312927246e-01 1.720618903636932373e-01
5.515542626380920410e-01 -3.176485747098922729e-02 -2.156679332256317139e-02
2.188951969146728516e-01 -1.071087270975112915e-01 -3.611200153827667236e-01
2.761304378509521484e-03 -7.298362255096435547e-02 -1.651408225297927856e-01
1.981944739818572998e-01 -4.832247644662857056e-02 1.743071526288986206e-01
1.605279147624969482e-01 -1.832821667194366455e-01 -7.343650609254837036e-02
-5.255779623985290527e-02 -9.548646956682205200e-02 -1.702355146408081055e-01
4.944129288196563721e-02 -1.780110597610473633e-01 -3.217110410332679749e-03
2.469188868999481201e-01 -6.214851513504981995e-02 2.484847158193588257e-01
5.895181894302368164e-01 -1.390265077352523804e-01 -1.244274899363517761e-03
4.559083580970764160e-01 -2.543719112873077393e-02 -8.117413520812988281e-02
3.173766732215881348e-01 -1.695763915777206421e-01 1.363921612501144409e-01
-2.862685918807983398e-02 -9.362748265266418457e-02 1.451935023069381714e-01
5.718271136283874512e-01 -1.340066790580749512e-01 1.066411882638931274e-01
1.524558663368225098e-01 -1.768959164619445801e-01 1.041643768548965454e-01
3.342584371566772461e-01 -2.608785778284072876e-02 5.256815254688262939e-02
2.234388291835784912e-01 -6.409334391355514526e-02 2.475801855325698853e-01
4.959438443183898926e-01 -3.015115857124328613e-02 6.444332003593444824e-02
6.176017224788665771e-02 -5.103971436619758606e-02 -6.565452367067337036e-02
2.265301793813705444e-01 -1.762970834970474243e-01 -1.729026287794113159e-01
2.532347142696380615e-01 -1.277787834405899048e-01 2.913299202919006348e-01
1.976853609085083008e-01 -1.671223640441894531e-01 1.766268759965896606e-01
1.515165716409683228e-01 -1.820846498012542725e-01 3.789540380239486694e-02
3.742384314537048340e-01 -1.617292761802673340e-01 -2.176151573657989502e-01
4.190667271614074707e-01 -1.222277134656906128e-01 -3.282267153263092041e-01
5.569671392440795898e-01 -1.068304255604743958e-01 2.080466598272323608e-01
1.532425135374069214e-01 -3.683584183454513550e-02 -2.294886112213134766e-02
2.148029804229736328e-01 -1.596237570047378540e-01 -2.718962430953979492e-01
1.850783824920654297e-01 -1.338671594858169556e-01 2.771314978599548340e-01
3.965668082237243652e-01 -9.403584897518157959e-02 -3.527005612850189209e-01
3.183078765869140625e-01 -2.911555767059326172e-02 8.803422749042510986e-02
3.043268024921417236e-01 -3.623227030038833618e-02 -2.039786577224731445e-01
3.447951078414916992e-01 -1.571902185678482056e-01 -2.570335865020751953e-01
4.255657196044921875e-01 -4.436708241701126099e-02 1.922026276588439941e-01
4.485918283462524414e-01 -2.410606294870376587e-02 -3.064540028572082520e-02
3.143761157989501953e-01 -1.330974400043487549e-01 -3.380619883537292480e-01
5.444954633712768555e-01 -1.490047276020050049e-01 -8.491744101047515869e-02
2.381440401077270508e-01 -5.728590115904808044e-02 2.305458337068557739e-01
4.209454655647277832e-01 -2.731542289257049561e-02 -1.313593983650207520e-01
1.748692095279693604e-01 -1.361826956272125244e-01 -3.312167227268218994e-01
-7.071438431739807129e-02 -1.020956709980964661e-01 -1.545004993677139282e-01
6.692886352539062500e-01 -9.518010914325714111e-02 -1.180645003914833069e-01
2.645899355411529541e-01 -1.736338436603546143e-01 -1.868138760328292847e-01
6.500091552734375000e-01 -1.130563616752624512e-01 4.658712446689605713e-02
1.216768175363540649e-01 -1.025433018803596497e-01 2.745134234428405762e-01
-1.745995879173278809e-02 -1.664400100708007812e-01 -1.053313612937927246e-01
2.492668479681015015e-01 -2.928581833839416504e-02 3.552962839603424072e-02
4.870721995830535889e-01 -1.531058102846145630e-01 1.073164939880371094e-01
1.337079107761383057e-01 -8.034767210483551025e-02 2.516543269157409668e-01
4.948020577430725098e-01 -5.287716537714004517e-02 2.003104537725448608e-01
4.281458258628845215e-01 -7.864023000001907349e-02 2.761555314064025879e-01
5.717578530311584473e-02 -5.706402659416198730e-02 -1.430008858442306519e-01
1.015742868185043335e-01 -1.777839809656143188e-01 -1.333409249782562256e-01
-9.331881999969482422e-03 -1.529899984598159790e-01 1.406042575836181641e-01
4.189169406890869141e-01 -2.494174987077713013e-02 -9.497579187154769897e-02
4.348728060722351074e-01 -1.488367915153503418e-01 1.847523599863052368e-01
5.937536954879760742e-01 -8.036102354526519775e-02 1.842712163925170898e-01
1.414826065301895142e-01 -1.630590260028839111e-01 -2.484238743782043457e-01
6.628907918930053711e-01 -1.087835729122161865e-01 -8.088348060846328735e-02
5.261988639831542969e-01 -1.292848885059356689e-01 1.853720247745513916e-01
4.358486533164978027e-01 -1.160666346549987793e-01 -3.300817310810089111e-01
2.383870035409927368e-01 -2.906426787376403809e-02 6.768779829144477844e-03
2.604020833969116211e-01 -6.883930414915084839e-02 -3.265478909015655518e-01
5.336958169937133789e-01 -1.261938810348510742e-01 -2.477527111768722534e-01
5.839081108570098877e-02 -1.771191656589508057e-01 3.839658200740814209e-02
4.885761737823486328e-01 -1.549233049154281616e-01 -1.494276225566864014e-01
3.420074880123138428e-01 -3.893084079027175903e-02 1.707593351602554321e-01
3.744114041328430176e-01 -1.007129400968551636e-01 2.989265322685241699e-01
9.020322561264038086e-02 -6.383467465639114380e-02 -2.287085950374603271e-01
2.219659984111785889e-01 -2.999111264944076538e-02 -4.314896464347839355e-02
3.932287096977233887e-01 -1.727154552936553955e-01 1.503607444465160370e-02
4.219266176223754883e-01 -2.520953863859176636e-02 4.177638143301010132e-02
3.768693804740905762e-01 -1.217490434646606445e-01 2.833386063575744629e-01
-8.406868577003479004e-02 -1.200712770223617554e-01 9.640088677406311035e-02
3.814772069454193115e-01 -5.821390822529792786e-02 2.471340745687484741e-01
7.652851939201354980e-02 -4.979502409696578979e-02 -9.737126529216766357e-02
4.402341246604919434e-01 -3.308584541082382202e-02 -1.812130510807037354e-01
3.431496024131774902e-02 -1.628563702106475830e-01 1.367312222719192505e-01
3.995326459407806396e-01 -1.481516808271408081e-01 2.094881385564804077e-01
3.917137682437896729e-01 -1.423308402299880981e-01 2.336195260286331177e-01
2.154852747917175293e-01 -3.148096799850463867e-02 2.525009028613567352e-02
5.793941617012023926e-01 -1.384432911872863770e-01 5.435280501842498779e-02
-4.952654242515563965e-02 -1.431572288274765015e-01 -1.835116147994995117e-01
-2.663001418113708496e-02 -1.281785666942596436e-01 1.761057376861572266e-01
1.710045337677001953e-02 -1.520804315805435181e-01 1.678693890571594238e-01
5.686087608337402344e-01 -1.441548466682434082e-01 8.149975910782814026e-03
4.365488588809967041e-01 -1.336797773838043213e-01 -2.966672182083129883e-01
4.021418690681457520e-01 -1.434959471225738525e-01 2.250318378210067749e-01
2.904262840747833252e-01 -3.338155895471572876e-02 -1.766381859779357910e-01
2.498572766780853271e-01 -1.775613576173782349e-01 -1.548775881528854370e-01
2.970035672187805176e-01 -4.369006305932998657e-02 -2.466906905174255371e-01
1.132211387157440186e-01 -1.521517932415008545e-01 -2.797348201274871826e-01
2.713677883148193359e-01 -3.673796355724334717e-02 -1.956518590450286865e-01
4.238595068454742432e-02 -1.693901419639587402e-01 -1.631005108356475830e-01
7.758405804634094238e-02 -1.694733500480651855e-01 1.288016289472579956e-01
2.246177792549133301e-01 -1.556880921125411987e-01 2.267071455717086792e-01
1.605405807495117188e-01 -1.644530594348907471e-01 -2.461370676755905151e-01
2.214806973934173584e-01 -3.223131597042083740e-02 -1.087045371532440186e-01
4.475731849670410156e-01 -1.650514155626296997e-01 -1.012372821569442749e-01
5.855364799499511719e-01 -3.686726838350296021e-02 -6.250301375985145569e-03
2.403962165117263794e-01 -4.221843928098678589e-02 1.613524258136749268e-01
3.407723903656005859e-01 -1.779830753803253174e-01 -5.431377887725830078e-02
2.686108648777008057e-01 -1.821913123130798340e-01 -3.714511170983314514e-03
1.062694191932678223e-01 -1.566187739372253418e-01 -2.628731429576873779e-01
1.057763844728469849e-01 -4.535093903541564941e-02 4.572301357984542847e-02
4.119542539119720459e-01 -5.371813476085662842e-02 -2.875535190105438232e-01
2.967253029346466064e-01 -2.575576305389404297e-02 -7.079304009675979614e-02
5.650818347930908203e-01 -1.441020816564559937e-01 -8.784455806016921997e-02
1.069159358739852905e-01 -1.332775503396987915e-01 -3.167878389358520508e-01
3.581435680389404297e-01 -4.670745506882667542e-02 -2.671365439891815186e-01
2.139955759048461914e-01 -1.626418083906173706e-01 -2.590630352497100830e-01
5.945548415184020996e-01 -1.349954903125762939e-01 4.425600916147232056e-02
4.079014956951141357e-01 -2.327597141265869141e-02 -4.657464101910591125e-02
3.500894606113433838e-01 -1.710772961378097534e-01 1.020456701517105103e-01
1.767273843288421631e-01 -1.463663876056671143e-01 2.509907186031341553e-01
1.843014061450958252e-01 -8.896274119615554810e-02 -3.430877625942230225e-01
1.745909452438354492e-03 -1.506081968545913696e-01 -2.192297577857971191e-01
1.012984514236450195e-01 -1.205073669552803040e-01 -3.258812129497528076e-01
1.045345962047576904e-01 -1.081650778651237488e-01 2.695217132568359375e-01
6.440606117248535156e-01 -1.207300573587417603e-01 -1.445088442414999008e-02
4.720480442047119141e-01 -7.029349356889724731e-02 -3.091560304164886475e-01
8.218380808830261230e-02 -1.491928100585937500e-01 -2.756668627262115479e-01
4.056092500686645508e-01 -2.325045317411422729e-02 -1.066728681325912476e-02
3.276770710945129395e-01 -3.861749917268753052e-02 1.671384274959564209e-01
4.141503274440765381e-01 -1.669186800718307495e-01 -1.368247121572494507e-01
2.443943917751312256e-01 -1.353665590286254883e-01 -3.390937447547912598e-01
4.284221529960632324e-01 -6.563632190227508545e-02 2.562731206417083740e-01
1.339397579431533813e-01 -1.829881817102432251e-01 1.511750742793083191e-03
7.190962135791778564e-02 -1.296204626560211182e-01 2.465530782938003540e-01
4.810715913772583008e-01 -1.353620141744613647e-01 2.036050558090209961e-01
2.664486169815063477e-01 -1.196327209472656250e-01 -3.594817221164703369e-01
3.611002266407012939e-01 -1.563820838928222656e-01 1.933355778455734253e-01
-7.280868291854858398e-02 -8.923198282718658447e-02 1.666685007512569427e-02
6.269012391567230225e-02 -1.791590303182601929e-01 -5.794168263673782349e-02
5.798403024673461914e-01 -7.344457507133483887e-02 1.903708577156066895e-01
2.941108644008636475e-01 -1.798416674137115479e-01 -9.344737976789474487e-02
4.972979426383972168e-02 -1.755681186914443970e-01 4.963088780641555786e-02
2.324232310056686401e-01 -3.070035576820373535e-02 -9.643953293561935425e-02
2.911559045314788818e-01 -1.786692738533020020e-01 -1.183230578899383545e-01
2.325033396482467651e-01 -1.608312726020812988e-01 2.063217461109161377e-01
9.179313480854034424e-02 -8.398278057575225830e-02 2.358544319868087769e-01
2.726727724075317383e-02 -1.748922169208526611e-01 1.934445463120937347e-02
1.589760035276412964e-01 -5.506943538784980774e-02 -2.418833822011947632e-01
5.971270799636840820e-02 -1.752246618270874023e-01 6.622789055109024048e-02
3.689513206481933594e-01 -3.017036616802215576e-02 1.095432639122009277e-01
3.300012052059173584e-01 -1.552692949771881104e-01 -2.709603607654571533e-01
2.094174474477767944e-01 -1.684977114200592041e-01 -2.295276671648025513e-01
4.658114016056060791e-01 -1.590819954872131348e-01 8.493264764547348022e-02
4.971334338188171387e-02 -5.276353284716606140e-02 -2.068904042243957520e-02
3.337637484073638916e-01 -1.784396171569824219e-01 -2.584328874945640564e-03
9.150661528110504150e-02 -1.707827150821685791e-01 -1.882620006799697876e-01
3.475744128227233887e-01 -9.118715673685073853e-02 3.009037077426910400e-01
4.614709019660949707e-01 -1.529159247875213623e-01 -2.002389430999755859e-01
8.302381634712219238e-02 -5.649487301707267761e-02 -1.789480149745941162e-01
5.486310720443725586e-01 -3.245706856250762939e-02 1.938322745263576508e-02
2.177022844552993774e-01 -1.761421114206314087e-01 1.149293631315231323e-01
1.068323552608489990e-01 -1.746690571308135986e-01 -1.670293658971786499e-01
4.139224588871002197e-01 -1.321693658828735352e-01 2.514569759368896484e-01
5.961098670959472656e-01 -9.783648699522018433e-02 1.800970584154129028e-01
4.121701121330261230e-01 -3.016759455204010010e-02 -1.639253199100494385e-01
2.309038937091827393e-01 -3.114653378725051880e-02 4.579695314168930054e-02
-2.487382292747497559e-02 -1.554348468780517578e-01 -1.718785315752029419e-01
3.380512893199920654e-01 -1.432402133941650391e-01 -3.097330629825592041e-01
3.767963647842407227e-01 -2.478791773319244385e-02 4.073641449213027954e-02
2.819237112998962402e-01 -1.080789044499397278e-01 3.065614402294158936e-01
2.587283551692962646e-01 -1.758652627468109131e-01 -1.690568625926971436e-01
6.313936710357666016e-01 -6.774871051311492920e-02 1.226356178522109985e-01
5.898790061473846436e-02 -6.389999389648437500e-02 -1.953756958246231079e-01
2.063500881195068359e-02 -1.675645709037780762e-01 -1.545153707265853882e-01
3.369385004043579102e-02 -8.627726137638092041e-02 1.969093382358551025e-01
5.207619667053222656e-01 -2.913069725036621094e-02 9.362166747450828552e-03
2.771961688995361328e-01 -1.819265186786651611e-01 -5.032560974359512329e-02
1.399034410715103149e-01 -5.224362015724182129e-02 -2.122601270675659180e-01
6.546526551246643066e-01 -8.444686979055404663e-02 1.037352085113525391e-01
6.127574443817138672e-01 -1.175955906510353088e-01 -1.750944405794143677e-01
3.593535423278808594e-01 -1.732177287340164185e-01 6.786468625068664551e-02
1.075703054666519165e-01 -1.807587742805480957e-01 -9.404064714908599854e-02
1.963033974170684814e-01 -1.504665464162826538e-01 2.423442751169204712e-01
6.037307977676391602e-01 -9.767463058233261108e-02 -2.309270650148391724e-01
1.764428615570068359e-02 -6.041046977043151855e-02 -7.350828498601913452e-02
-1.087624430656433105e-01 -1.270673722028732300e-01 -7.726293057203292847e-02
5.312950015068054199e-01 -1.530712991952896118e-01 -2.208609692752361298e-02
-1.085502803325653076e-01 -1.340472549200057983e-01 -5.342264100909233093e-02
5.014505982398986816e-01 -1.517760157585144043e-01 9.643912315368652344e-02
1.694443821907043457e-01 -3.497592359781265259e-02 -3.421498090028762817e-02
6.445762515068054199e-02 -7.569715380668640137e-02 1.941547393798828125e-01
4.666259884834289551e-01 -4.064700007438659668e-02 1.618509888648986816e-01
2.169622033834457397e-01 -1.834113895893096924e-01 -6.819096952676773071e-02
3.596468269824981689e-01 -5.157968401908874512e-02 -2.858066856861114502e-01
3.773804306983947754e-01 -1.738910079002380371e-01 -8.701676130294799805e-02
7.616364955902099609e-02 -9.283974021673202515e-02 2.416389137506484985e-01
4.399737119674682617e-01 -1.272680759429931641e-01 -3.099123537540435791e-01
-6.318083405494689941e-02 -9.206905961036682129e-02 7.454075664281845093e-02
4.273396730422973633e-01 -5.320892110466957092e-02 -2.827670872211456299e-01
3.117241263389587402e-01 -1.800557076930999756e-01 -9.830743074417114258e-03
3.226835727691650391e-01 -2.533361315727233887e-02 -8.761018514633178711e-02
3.978993892669677734e-01 -1.528461873531341553e-01 1.903809309005737305e-01
6.249718666076660156e-01 -1.276491433382034302e-01 -6.413824111223220825e-02
1.328409463167190552e-01 -1.099201813340187073e-01 2.811266779899597168e-01
3.103364706039428711e-01 -7.064689695835113525e-02 2.776758074760437012e-01
1.667847633361816406e-01 -3.734465688467025757e-02 4.689241200685501099e-02
2.142550349235534668e-01 -3.542135655879974365e-02 -1.444729417562484741e-01
3.238786458969116211e-01 -7.241693139076232910e-02 2.812336385250091553e-01
7.065120339393615723e-02 -1.743138730525970459e-01 8.615510165691375732e-02
6.138576269149780273e-01 -5.286089330911636353e-02 9.696251153945922852e-02
2.065134942531585693e-01 -3.131651133298873901e-02 -4.215106368064880371e-02
5.859291553497314453e-02 -1.713539659976959229e-01 -1.621578931808471680e-01
6.615993976593017578e-01 -7.193294167518615723e-02 -1.345042288303375244e-01
3.687533736228942871e-01 -1.716883778572082520e-01 7.682753354310989380e-02
-3.675550222396850586e-02 -1.484134346246719360e-01 1.252001225948333740e-01
1.482546925544738770e-01 -1.611324995756149292e-01 1.981751620769500732e-01
-4.715934395790100098e-02 -7.857449352741241455e-02 1.243372447788715363e-02
1.938382685184478760e-01 -4.326102882623672485e-02 1.398339271545410156e-01
8.418470621109008789e-02 -6.834387779235839844e-02 -2.426624447107315063e-01
1.579352915287017822e-01 -7.644905149936676025e-02 2.545435428619384766e-01
4.025809466838836670e-01 -1.612260192632675171e-01 -2.002052366733551025e-01
-1.030340790748596191e-01 -1.149324700236320496e-01 3.719416260719299316e-02
4.195606708526611328e-02 -5.868745595216751099e-02 -1.276749372482299805e-01
9.422476589679718018e-02 -1.806009411811828613e-01 2.125186286866664886e-02
2.239223718643188477e-01 -1.429241448640823364e-01 -3.233631849288940430e-01
1.330491751432418823e-01 -1.783064603805541992e-01 -1.443410515785217285e-01
6.974531710147857666e-02 -7.738609611988067627e-02 -2.618014514446258545e-01
1.603401303291320801e-01 -1.351219713687896729e-01 -3.300040066242218018e-01
1.050511002540588379e-01 -5.299015343189239502e-02 -1.815127730369567871e-01
1.491200923919677734e-02 -1.614585220813751221e-01 -1.867870837450027466e-01
4.974475204944610596e-01 -3.039649873971939087e-02 -1.235488504171371460e-01
5.320698618888854980e-01 -1.465263366699218750e-01 -1.483715623617172241e-01
5.915886163711547852e-01 -4.377463087439537048e-02 -1.331520527601242065e-01
8.218093216419219971e-02 -1.804759055376052856e-01 -6.317516416311264038e-02
6.494842767715454102e-01 -9.807808697223663330e-02 -1.616118103265762329e-01
2.885523438453674316e-01 -3.548936545848846436e-02 -1.932458281517028809e-01
-4.076901078224182129e-02 -1.578889042139053345e-01 -1.333355009555816650e-01
2.940044105052947998e-01 -9.035524725914001465e-02 -3.612115979194641113e-01
6.313005685806274414e-01 -5.775895714759826660e-02 -1.490434557199478149e-01
2.498471438884735107e-01 -1.781260818243026733e-01 8.799871057271957397e-02
4.803834855556488037e-01 -3.460616618394851685e-02 -1.752874404191970825e-01
6.724978685379028320e-01 -1.032361611723899841e-01 -6.856847554445266724e-02
2.540091574192047119e-01 -1.378347575664520264e-01 2.747238874435424805e-01
2.613943517208099365e-01 -8.604016155004501343e-02 2.966687977313995361e-01
2.537684738636016846e-01 -1.590356528759002686e-01 2.121422290802001953e-01
1.954439282417297363e-01 -6.980023533105850220e-02 2.536495923995971680e-01
2.991261184215545654e-01 -9.090643376111984253e-02 3.030552268028259277e-01
2.629830241203308105e-01 -2.937272191047668457e-02 5.451324582099914551e-02
1.561758965253829956e-01 -1.835550665855407715e-01 -6.065515428781509399e-02
3.408322334289550781e-01 -2.801837772130966187e-02 -1.397232264280319214e-01
4.574254155158996582e-01 -1.567494571208953857e-01 -1.778914928436279297e-01
6.441868543624877930e-01 -1.189624220132827759e-01 -7.909798622131347656e-02
6.338739395141601562e-01 -5.717256665229797363e-02 8.319751173257827759e-02
9.630522131919860840e-02 -5.164936929941177368e-02 1.017417311668395996e-01
6.179618835449218750e-01 -4.450440779328346252e-02 1.933416165411472321e-02
3.620519936084747314e-01 -1.738782972097396851e-01 5.437347292900085449e-02
5.295943021774291992e-01 -1.486167907714843750e-01 7.333709299564361572e-02
4.982799887657165527e-01 -7.947047054767608643e-02 2.505995929241180420e-01
3.850567340850830078e-01 -1.459524035453796387e-01 -2.846982479095458984e-01
2.532240748405456543e-01 -1.143392324447631836e-01 -3.626655638217926025e-01
6.606540083885192871e-01 -6.942638754844665527e-02 7.174831628799438477e-02
3.803513348102569580e-01 -9.077342599630355835e-02 -3.548080623149871826e-01
4.522573351860046387e-01 -2.613814920186996460e-02 -9.907054901123046875e-02
3.663670420646667480e-01 -4.396417364478111267e-02 -2.550530433654785156e-01
-7.555705308914184570e-02 -1.270410716533660889e-01 1.113301068544387817e-01
4.114184081554412842e-01 -1.384444832801818848e-01 -2.962076067924499512e-01
2.845087051391601562e-01 -8.554525673389434814e-02 2.980693578720092773e-01
3.883875608444213867e-01 -3.017048537731170654e-02 1.094928681850433350e-01
7.379651069641113281e-02 -1.758346557617187500e-01 7.321173697710037231e-02
1.584830880165100098e-02 -1.685587465763092041e-01 -1.407105326652526855e-01
5.428002476692199707e-01 -1.315560638904571533e-01 -2.197195440530776978e-01
1.411684602499008179e-01 -1.514700353145599365e-01 -2.900097072124481201e-01
3.703593313694000244e-01 -3.943770378828048706e-02 1.747472584247589111e-01
5.108381807804107666e-02 -5.333156883716583252e-02 -7.346052676439285278e-02
5.092491507530212402e-01 -1.572589278221130371e-01 -2.143176272511482239e-02
2.310616672039031982e-01 -3.301770985126495361e-02 -1.322345882654190063e-01
5.888293981552124023e-01 -1.113487035036087036e-01 1.679906696081161499e-01
5.718156695365905762e-01 -3.552662581205368042e-02 -7.556153833866119385e-02
1.859211921691894531e-01 -3.605596721172332764e-02 5.981122702360153198e-02
1.241074204444885254e-01 -4.506847262382507324e-02 -1.362968981266021729e-01
1.672415882349014282e-01 -1.675976812839508057e-01 -2.315049320459365845e-01
2.136215716600418091e-01 -1.481603533029556274e-01 -3.098822534084320068e-01
6.867879629135131836e-01 -8.551517128944396973e-02 -1.376956701278686523e-02
2.018168568611145020e-01 -1.272245347499847412e-01 2.884303927421569824e-01
3.055649995803833008e-02 -5.955377221107482910e-02 -1.085383892059326172e-01
1.901086270809173584e-01 -1.303230375051498413e-01 -3.423626124858856201e-01
-1.418444514274597168e-02 -8.101474493741989136e-02 1.213690191507339478e-01
1.421360075473785400e-01 -1.826967149972915649e-01 1.885257847607135773e-02
3.553168177604675293e-01 -1.662602722644805908e-01 -1.994469761848449707e-01
1.939437240362167358e-01 -3.405617177486419678e-02 -9.601974487304687500e-02
3.477346897125244141e-01 -1.626558154821395874e-01 1.668736487627029419e-01
5.589289069175720215e-01 -9.188975393772125244e-02 -2.764232158660888672e-01
2.567519843578338623e-01 -1.313250958919525146e-01 -3.457603752613067627e-01
4.419332146644592285e-01 -1.647830754518508911e-01 5.753687769174575806e-02
4.829195737838745117e-01 -1.089195013046264648e-01 -3.158074021339416504e-01
5.572918653488159180e-01 -1.475371122360229492e-01 -3.031085431575775146e-02
4.407472610473632812e-01 -3.360644727945327759e-02 1.275004893541336060e-01
4.778823256492614746e-01 -1.588285267353057861e-01 -1.264715045690536499e-01
3.853334486484527588e-02 -5.513058230280876160e-02 -9.155280888080596924e-03
5.540946125984191895e-02 -6.134700775146484375e-02 -1.744885593652725220e-01
1.364652067422866821e-01 -1.832545846700668335e-01 -5.264079570770263672e-02
-1.394534111022949219e-02 -1.431726962327957153e-01 -2.249514162540435791e-01
2.471236884593963623e-01 -2.825983613729476929e-02 -5.584251508116722107e-02
4.007841050624847412e-01 -1.332542747259140015e-01 2.544232904911041260e-01
5.425890684127807617e-01 -5.234297737479209900e-02 -2.282244414091110229e-01
-2.403616905212402344e-02 -7.278300821781158447e-02 -9.704058617353439331e-02
5.195485353469848633e-01 -1.540097147226333618e-01 2.655866555869579315e-02
1.086787432432174683e-01 -4.360409453511238098e-02 1.831375621259212494e-02
2.861987650394439697e-01 -6.098589673638343811e-02 -3.107442855834960938e-01
2.204722166061401367e-01 -3.026766330003738403e-02 -3.038084134459495544e-03
4.743987619876861572e-01 -3.863164037466049194e-02 1.473490893840789795e-01
4.089345335960388184e-01 -8.557512611150741577e-02 -3.458105027675628662e-01
4.387940764427185059e-01 -2.454400807619094849e-02 -7.365811616182327271e-02
3.927350044250488281e-03 -1.039508432149887085e-01 -2.595120072364807129e-01
2.723935246467590332e-02 -9.556172043085098267e-02 2.101267427206039429e-01
6.774564981460571289e-01 -8.286942541599273682e-02 -1.037715598940849304e-01
2.163699269294738770e-02 -8.866348862648010254e-02 1.913158297538757324e-01
5.115295648574829102e-01 -3.288009017705917358e-02 8.036648482084274292e-02
4.735526740550994873e-01 -1.616275012493133545e-01 -9.396897256374359131e-02
1.805911511182785034e-01 -6.155398488044738770e-02 -2.807373702526092529e-01
6.009238362312316895e-01 -4.125124216079711914e-02 2.841277234256267548e-02
1.071632653474807739e-01 -1.495804637670516968e-01 2.251045852899551392e-01
2.856943011283874512e-01 -1.349597573280334473e-01 -3.381299078464508057e-01
8.258704841136932373e-02 -4.719942808151245117e-02 1.456987112760543823e-03
2.671877443790435791e-01 -1.210659071803092957e-01 2.989261746406555176e-01
1.352402567863464355e-02 -1.732558608055114746e-01 1.694346405565738678e-02
3.097688555717468262e-01 -3.808565437793731689e-02 -2.178095281124114990e-01
5.116418600082397461e-01 -1.565514653921127319e-01 -5.733036994934082031e-02
4.111920893192291260e-01 -1.090001016855239868e-01 2.864111661911010742e-01
4.687482416629791260e-01 -1.636224389076232910e-01 -1.188401132822036743e-03
1.964314281940460205e-01 -1.840696334838867188e-01 -4.307338967919349670e-02
2.540363967418670654e-01 -1.698534637689590454e-01 -2.167963981628417969e-01
-1.063649356365203857e-01 -1.092814281582832336e-01 -1.706311851739883423e-02
2.346495687961578369e-01 -1.828893274068832397e-01 1.341045834124088287e-02
1.204456835985183716e-01 -1.254776418209075928e-01 -3.300476372241973877e-01
2.369939833879470825e-01 -1.810966283082962036e-01 -1.128881201148033142e-01
-1.712080836296081543e-02 -1.623929440975189209e-01 8.256342262029647827e-02
-4.625487327575683594e-02 -1.213511377573013306e-01 -2.157722115516662598e-01
2.528598308563232422e-01 -1.819733232259750366e-01 2.467989735305309296e-02
1.469409018754959106e-01 -4.752799123525619507e-02 -1.874625980854034424e-01
5.594233870506286621e-01 -4.244233667850494385e-02 -1.664795875549316406e-01
3.737398386001586914e-01 -1.699925065040588379e-01 9.108034521341323853e-02
2.309796065092086792e-01 -7.485269010066986084e-02 2.750803530216217041e-01
6.053159236907958984e-01 -1.198619604110717773e-01 1.193594038486480713e-01
4.448010921478271484e-01 -1.672917604446411133e-01 -4.183511808514595032e-02
2.860874831676483154e-01 -5.114950612187385559e-02 2.200955301523208618e-01
4.264690876007080078e-01 -2.407953888177871704e-02 1.208632625639438629e-02
2.328306436538696289e-02 -7.017607986927032471e-02 1.243942230939865112e-01
2.973605394363403320e-01 -1.307499706745147705e-01 2.847877740859985352e-01
2.403680384159088135e-01 -1.834075152873992920e-01 -3.202630579471588135e-02
3.478136360645294189e-01 -3.448229283094406128e-02 -2.001958340406417847e-01
2.975826561450958252e-01 -1.474547684192657471e-01 2.466385215520858765e-01
2.792575955390930176e-01 -1.531825065612792969e-01 2.310746461153030396e-01
2.860950827598571777e-01 -6.385768949985504150e-02 2.605116367340087891e-01
6.137821674346923828e-01 -4.430524632334709167e-02 -8.923416584730148315e-02
2.182460874319076538e-01 -9.131019562482833862e-02 -3.537969589233398438e-01
3.337729871273040771e-01 -1.203435808420181274e-01 2.942813038825988770e-01
3.565805554389953613e-01 -5.640458315610885620e-02 2.436680644750595093e-01
4.718740284442901611e-01 -1.417043209075927734e-01 1.874063611030578613e-01
3.981431722640991211e-01 -4.917941242456436157e-02 -2.741844654083251953e-01
3.176751732826232910e-01 -1.574499756097793579e-01 -2.656600475311279297e-01
1.318299919366836548e-01 -1.800320148468017578e-01 -1.227304339408874512e-01
5.187425613403320312e-01 -5.872504413127899170e-02 2.050000429153442383e-01
5.928651988506317139e-02 -1.625266671180725098e-01 -2.161329835653305054e-01
2.720346748828887939e-01 -9.153368324041366577e-02 3.024680912494659424e-01
6.273289918899536133e-01 -1.248805820941925049e-01 -9.286951273679733276e-02
-7.914423942565917969e-02 -1.388882696628570557e-01 -1.444254070520401001e-01
6.058545112609863281e-01 -1.343362778425216675e-01 -5.605868995189666748e-02
8.942437171936035156e-02 -4.601214081048965454e-02 -5.586838722229003906e-02
6.283081769943237305e-01 -6.383402645587921143e-02 -1.757249534130096436e-01
7.193709909915924072e-02 -1.800056397914886475e-01 -8.505985140800476074e-03
3.480580449104309082e-01 -1.194599941372871399e-01 2.927789390087127686e-01
2.690316140651702881e-01 -5.178734660148620605e-02 2.187685668468475342e-01
3.543935716152191162e-01 -1.417164206504821777e-01 2.493250221014022827e-01
4.825201630592346191e-01 -1.452689468860626221e-01 1.619170904159545898e-01
1.099142432212829590e-02 -1.736417710781097412e-01 -3.856068477034568787e-03
4.086176156997680664e-01 -1.014860942959785461e-01 -3.497480750083923340e-01
3.620667457580566406e-01 -1.522320210933685303e-01 -2.712439298629760742e-01
-5.231654644012451172e-02 -9.185980260372161865e-02 -1.571131199598312378e-01
5.717117786407470703e-01 -6.098649650812149048e-02 1.735889911651611328e-01
3.838636279106140137e-01 -1.048871278762817383e-01 -3.550561368465423584e-01
3.073356747627258301e-01 -6.103391200304031372e-02 2.553925514221191406e-01
3.218181133270263672e-01 -2.442141622304916382e-02 -5.667074024677276611e-02
1.863207221031188965e-01 -3.614641726016998291e-02 -1.189694181084632874e-01
6.238613128662109375e-01 -1.201867088675498962e-01 8.029036968946456909e-02
5.699081420898437500e-01 -1.367852091789245605e-01 9.178028255701065063e-02
4.282392859458923340e-01 -1.548629105091094971e-01 -2.192259579896926880e-01
1.387280225753784180e-01 -1.546911299228668213e-01 2.196176648139953613e-01
6.170350313186645508e-01 -4.286618903279304504e-02 -2.170193567872047424e-02
-2.652019262313842773e-03 -1.704155355691909790e-01 -8.597213774919509888e-02
-2.474874258041381836e-03 -1.563050448894500732e-01 -1.939910650253295898e-01
6.029705405235290527e-01 -1.247831657528877258e-01 1.009020507335662842e-01
2.142987400293350220e-01 -1.791471540927886963e-01 -1.456247717142105103e-01
3.038341403007507324e-01 -3.075623512268066406e-02 1.000645160675048828e-01
-1.128918528556823730e-01 -1.256226748228073120e-01 -1.797883585095405579e-02
-1.349651813507080078e-02 -1.011427342891693115e-01 1.797630786895751953e-01
6.724122762680053711e-01 -8.206114172935485840e-02 -1.201452687382698059e-01
-3.852725028991699219e-03 -1.594385355710983276e-01 -1.776992529630661011e-01
9.288507699966430664e-02 -1.794220507144927979e-01 -1.035505831241607666e-01
1.222601383924484253e-01 -8.321779221296310425e-02 -3.097695112228393555e-01
1.456342637538909912e-01 -9.601986408233642578e-02 -3.376931250095367432e-01
3.832624256610870361e-01 -1.202422827482223511e-01 -3.430120944976806641e-01
-8.639243245124816895e-02 -9.630356729030609131e-02 -7.395523786544799805e-02
3.536475598812103271e-01 -1.758769154548645020e-01 2.985230647027492523e-02
1.818784773349761963e-01 -3.457075357437133789e-02 -7.957490533590316772e-02
2.162367850542068481e-01 -3.130189329385757446e-02 -7.925814390182495117e-02
1.359423995018005371e-02 -8.109141886234283447e-02 1.605393588542938232e-01
3.368708789348602295e-01 -1.741867363452911377e-01 7.933790981769561768e-02
6.306726336479187012e-01 -9.126446396112442017e-02 -2.009040862321853638e-01
-3.651341795921325684e-02 -1.293795555830001831e-01 -2.234012633562088013e-01
3.770487010478973389e-01 -1.744602322578430176e-01 1.095683686435222626e-02
5.063591003417968750e-01 -1.425704061985015869e-01 -2.109387516975402832e-01
4.475313723087310791e-01 -5.405625700950622559e-02 -2.801172137260437012e-01
1.041676700115203857e-01 -1.474580466747283936e-01 -2.892125844955444336e-01
3.146003484725952148e-01 -2.823455631732940674e-02 7.551447302103042603e-02
4.711372256278991699e-01 -9.254395216703414917e-02 -3.282509744167327881e-01
3.387560546398162842e-01 -5.170387774705886841e-02 2.283233255147933960e-01
5.530397891998291016e-01 -1.476059406995773315e-01 -7.402024418115615845e-02
-5.633533000946044922e-04 -1.665469706058502197e-01 7.508371770381927490e-02
4.877550005912780762e-01 -4.156915098428726196e-02 -2.148729711771011353e-01
7.889686524868011475e-02 -8.031705021858215332e-02 2.188305407762527466e-01
3.865858316421508789e-01 -1.713397502899169922e-01 -1.181623041629791260e-01
3.980658650398254395e-01 -2.387249469757080078e-02 -7.566837966442108154e-02
2.754065394401550293e-01 -1.658049672842025757e-01 1.759132295846939087e-01
1.978054940700531006e-01 -1.834145784378051758e-01 -7.491189241409301758e-02
2.811931371688842773e-01 -3.572100400924682617e-02 1.348034143447875977e-01
-2.960938215255737305e-02 -1.597881317138671875e-01 -1.404128968715667725e-01
6.712846457958221436e-02 -5.787637457251548767e-02 -1.667084097862243652e-01
-1.276969909667968750e-02 -1.502672880887985229e-01 -2.063078582286834717e-01
-2.031677961349487305e-02 -1.187660172581672668e-01 1.862086504697799683e-01
4.075756967067718506e-01 -1.432436704635620117e-01 -2.832053899765014648e-01
2.789866626262664795e-01 -1.745300590991973877e-01 -1.738463640213012695e-01
5.843300819396972656e-01 -1.396071314811706543e-01 -7.936971634626388550e-02
6.742225885391235352e-01 -1.022576764225959778e-01 4.679704084992408752e-03
3.201949596405029297e-01 -1.779726743698120117e-01 3.906472772359848022e-02
3.224261999130249023e-01 -5.203277990221977234e-02 -2.862608432769775391e-01
1.084372103214263916e-01 -1.792883872985839844e-01 5.850927531719207764e-02
1.158986836671829224e-01 -5.569684132933616638e-02 1.531611531972885132e-01
3.182767331600189209e-01 -1.516759395599365234e-01 2.281997650861740112e-01
8.498430252075195312e-03 -1.714374870061874390e-01 -9.700163453817367554e-02
1.801981627941131592e-01 -4.228051379323005676e-02 1.209334284067153931e-01
4.546969532966613770e-01 -2.647484838962554932e-02 4.591897875070571899e-02
1.732786446809768677e-01 -7.334421575069427490e-02 2.538811266422271729e-01
2.526396214962005615e-01 -7.199338078498840332e-02 2.738587260246276855e-01
2.606766819953918457e-01 -8.421066403388977051e-02 -3.529492616653442383e-01
3.720566630363464355e-01 -3.059289604425430298e-02 -1.708451658487319946e-01
2.772610783576965332e-01 -1.621052026748657227e-01 -2.549509406089782715e-01
-4.668220877647399902e-02 -1.583870649337768555e-01 -1.173734962940216064e-01
2.119370400905609131e-01 -3.234624862670898438e-02 3.818348050117492676e-02
2.466607987880706787e-01 -3.631754964590072632e-02 1.219164282083511353e-01
2.299463599920272827e-01 -4.769361019134521484e-02 1.872179210186004639e-01
5.602825880050659180e-01 -4.836472868919372559e-02 1.397227346897125244e-01
1.765297353267669678e-01 -1.838068366050720215e-01 -7.082857191562652588e-04
1.647449731826782227e-01 -6.725613772869110107e-02 2.338943630456924438e-01
5.152883529663085938e-01 -7.710490375757217407e-02 2.395254522562026978e-01
4.010398685932159424e-01 -8.366309106349945068e-02 2.874820828437805176e-01
4.838409125804901123e-01 -2.644256502389907837e-02 1.237213052809238434e-02
-3.675547242164611816e-02 -1.573278307914733887e-01 8.442397415637969971e-02
1.704927682876586914e-01 -1.327096521854400635e-01 2.762596905231475830e-01
4.234719276428222656e-02 -6.782233715057373047e-02 -1.958316862583160400e-01
1.317081600427627563e-01 -4.600292071700096130e-02 -1.572714895009994507e-01
2.074272930622100830e-01 -5.454055592417716980e-02 -2.662353515625000000e-01
1.575322151184082031e-01 -1.150971353054046631e-01 -3.472515642642974854e-01
2.493321448564529419e-01 -1.463698148727416992e-01 -3.148379325866699219e-01
3.278061747550964355e-01 -1.635364741086959839e-01 -2.315634489059448242e-01
4.014323055744171143e-01 -1.720995306968688965e-01 -6.700131297111511230e-02
5.934265851974487305e-01 -1.198454201221466064e-01 1.382216364145278931e-01
5.177347064018249512e-01 -1.174616515636444092e-01 2.223735600709915161e-01
5.884565114974975586e-01 -1.068259030580520630e-01 -2.365096360445022583e-01
4.717689752578735352e-01 -1.557293236255645752e-01 1.072451174259185791e-01
-1.180583238601684570e-02 -9.065928310155868530e-02 -2.176636010408401489e-01
5.763359069824218750e-01 -3.953135758638381958e-02 -1.210210993885993958e-01
2.553889155387878418e-02 -7.300414890050888062e-02 -2.000236958265304565e-01
3.259671032428741455e-01 -1.430491209030151367e-01 2.533938884735107422e-01
5.011613965034484863e-01 -1.565049588680267334e-01 4.291693121194839478e-02
1.626555025577545166e-01 -6.156625598669052124e-02 -2.715965807437896729e-01
