5.459433794021606445e-02 -6.957088410854339600e-02 1.081207543611526489e-01
2.076240777969360352e-01 -2.945552393794059753e-02 -1.105703413486480713e-01
2.957742810249328613e-01 -1.839996501803398132e-02 -3.525231033563613892e-03
2.367087155580520630e-01 -1.314717158675193787e-02 7.462488114833831787e-02
6.814822554588317871e-03 -4.463424533605575562e-02 -2.837800979614257812e-02
3.298332095146179199e-01 -5.157383903861045837e-02 -9.967776015400886536e-03
3.064588904380798340e-01 -7.942198961973190308e-02 6.945211440324783325e-03
1.500716805458068848e-01 -3.077501617372035980e-02 -1.105684340000152588e-01
1.224195435643196106e-01 -7.155112922191619873e-03 -7.018201053142547607e-02
1.453526318073272705e-02 -7.396411895751953125e-02 1.637597382068634033e-02
1.477366387844085693e-01 -8.757757395505905151e-02 1.003003865480422974e-01
7.944022864103317261e-02 -1.127146556973457336e-02 1.004900634288787842e-01
1.193278208374977112e-01 -8.341626822948455811e-02 1.071096211671829224e-01
1.233032047748565674e-01 -7.054849714040756226e-02 1.268818676471710205e-01
5.765357613563537598e-02 -8.213073015213012695e-04 3.642088174819946289e-02
2.078108489513397217e-01 -9.114319086074829102e-02 -7.498976588249206543e-02
2.350829839706420898e-01 -9.924808144569396973e-02 2.350991405546665192e-02
7.726570218801498413e-02 -9.249620884656906128e-02 -1.741253584623336792e-02
6.238981336355209351e-02 -7.699960470199584961e-02 9.962007403373718262e-02
2.010762393474578857e-01 -4.637976735830307007e-02 1.269370317459106445e-01
2.863346338272094727e-01 -7.321566343307495117e-02 -7.768468558788299561e-02
2.705938220024108887e-01 -1.814653910696506500e-02 5.475494638085365295e-02
2.492066025733947754e-01 -5.157431587576866150e-02 -1.112991720438003540e-01
1.860162019729614258e-01 -8.013014495372772217e-02 1.094239950180053711e-01
1.707344502210617065e-01 6.558321416378021240e-03 2.857041917741298676e-02
3.802909702062606812e-02 -8.466717600822448730e-02 2.306241169571876526e-02
1.674835979938507080e-01 -1.044453456997871399e-01 9.475607424974441528e-03
1.292089074850082397e-01 -9.862473607063293457e-02 6.002429127693176270e-02
5.194371938705444336e-02 -1.797657459974288940e-03 1.873133704066276550e-02
1.500107049942016602e-01 -1.039535701274871826e-01 6.156038492918014526e-03
2.206298708915710449e-01 -7.658075541257858276e-03 -6.878283619880676270e-02
1.494673788547515869e-01 -1.024525612592697144e-03 7.985435426235198975e-02
2.232905030250549316e-01 -1.086155697703361511e-02 7.839700579643249512e-02
7.904723286628723145e-03 -1.957907341420650482e-02 9.396303445100784302e-03
1.513013094663619995e-01 -8.174870908260345459e-02 1.117932498455047607e-01
1.864274293184280396e-01 5.870059132575988770e-03 -9.445553645491600037e-03
2.128956019878387451e-01 2.944603562355041504e-03 1.884483546018600464e-02
2.600071430206298828e-01 -3.880625963211059570e-02 -1.034643054008483887e-01
1.371083259582519531e-01 -3.987525776028633118e-02 1.374662518501281738e-01
2.919827699661254883e-01 -8.561404049396514893e-02 -3.136461228132247925e-02
7.739542424678802490e-02 -4.583515971899032593e-02 -9.178073704242706299e-02
2.384828925132751465e-01 -4.282978922128677368e-02 1.100628077983856201e-01
2.873620092868804932e-01 -5.939435213804244995e-02 7.412832975387573242e-02
1.209590733051300049e-01 6.951522082090377808e-03 -2.357205376029014587e-04
6.550309062004089355e-02 -2.225680090487003326e-02 1.144605726003646851e-01
5.941274017095565796e-02 -8.530694246292114258e-02 7.343286275863647461e-02
2.341974079608917236e-01 -9.342840313911437988e-02 -6.009881570935249329e-02
1.518195718526840210e-01 -1.013635247945785522e-01 -2.919147908687591553e-02
1.758187115192413330e-01 -9.843573719263076782e-02 6.403406709432601929e-02
3.204771876335144043e-01 -3.450324758887290955e-02 -2.041573822498321533e-02
4.567782580852508545e-02 -5.612209439277648926e-02 -6.775909662246704102e-02
2.106706053018569946e-01 4.882588982582092285e-04 -3.921990469098091125e-02
9.000065177679061890e-02 2.221230417490005493e-03 -1.775494404137134552e-02
1.080342084169387817e-01 -7.948809117078781128e-02 -8.063668012619018555e-02
-1.844316720962524414e-03 -5.574672669172286987e-02 6.522877514362335205e-02
2.215014994144439697e-01 -9.241160750389099121e-02 -6.835357844829559326e-02
1.352571845054626465e-01 8.823983371257781982e-04 7.396584749221801758e-02
4.384309053421020508e-03 -2.032579109072685242e-02 2.458901703357696533e-02
1.659846603870391846e-01 -8.748986572027206421e-02 -8.330357074737548828e-02
1.665377318859100342e-01 2.055689692497253418e-04 7.135277986526489258e-02
1.091998144984245300e-01 1.035995781421661377e-03 7.062064856290817261e-02
1.890898942947387695e-01 -1.627616584300994873e-04 -5.245581641793251038e-02
2.745895385742187500e-01 -4.551297053694725037e-02 8.658328652381896973e-02
1.355236470699310303e-01 -1.101730018854141235e-02 1.075277179479598999e-01
1.197876036167144775e-01 -9.575323760509490967e-02 7.088842988014221191e-02
9.605489671230316162e-02 -1.768462732434272766e-02 -8.066239953041076660e-02
1.239629536867141724e-01 6.775494664907455444e-03 3.436096012592315674e-02
2.397117316722869873e-01 -1.153606921434402466e-03 -8.758425712585449219e-03
1.975028216838836670e-01 -3.024946898221969604e-03 -6.153353676199913025e-02
8.033334463834762573e-02 -9.254768490791320801e-02 6.068100407719612122e-02
2.099116742610931396e-01 -5.227581411600112915e-02 -1.192641854286193848e-01
2.515802681446075439e-01 -9.778216481208801270e-02 8.865725249052047729e-04
3.492752462625503540e-02 -8.070710301399230957e-02 5.893990024924278259e-02
6.815472245216369629e-02 -1.444875448942184448e-02 -5.924994125962257385e-02
1.706530302762985229e-01 -5.518068745732307434e-02 1.339343190193176270e-01
1.390971541404724121e-01 -1.018862202763557434e-01 4.079969972372055054e-02
1.397214680910110474e-01 -7.024802267551422119e-03 -7.421474158763885498e-02
2.088844031095504761e-01 3.511846065521240234e-03 -1.311402954161167145e-02
1.732028722763061523e-01 -4.014622420072555542e-03 8.389480412006378174e-02
2.061056196689605713e-01 -7.168494164943695068e-02 1.144063919782638550e-01
2.982468605041503906e-01 -8.187870681285858154e-02 1.909094676375389099e-02
8.004081249237060547e-02 -7.104011625051498413e-02 1.177411973476409912e-01
6.793470680713653564e-02 -6.858926266431808472e-03 -3.958627209067344666e-02
2.959966361522674561e-01 -7.165542244911193848e-02 5.214303731918334961e-02
2.380377203226089478e-01 -9.008128196001052856e-03 6.134067475795745850e-02
3.050312101840972900e-01 -6.266406923532485962e-02 -7.247732579708099365e-02
1.278018504381179810e-01 -9.597779810428619385e-02 -4.617258161306381226e-02
1.835242062807083130e-01 -9.869658946990966797e-02 -5.001725256443023682e-02
2.431749999523162842e-01 -8.729505538940429688e-02 -7.527177035808563232e-02
1.421451419591903687e-01 -7.031336426734924316e-02 -1.047535091638565063e-01
2.966798543930053711e-01 -3.407881036400794983e-02 5.439106747508049011e-02
3.094370067119598389e-01 -4.899097979068756104e-02 -7.125724852085113525e-02
5.609583854675292969e-02 -8.935837447643280029e-02 4.369560629129409790e-02
5.652311444282531738e-02 -8.785883337259292603e-02 5.684343352913856506e-02
2.988653182983398438e-01 -4.631653428077697754e-02 6.246161088347434998e-02
1.218876540660858154e-01 4.238463938236236572e-03 5.628395825624465942e-02
1.632205992937088013e-01 -1.024104952812194824e-01 4.189024493098258972e-02
3.250137269496917725e-01 -5.001845955848693848e-02 -4.309996590018272400e-02
8.985619992017745972e-02 -2.222254872322082520e-03 7.785132527351379395e-02
2.373952716588973999e-01 -7.324630022048950195e-02 -1.021762937307357788e-01
8.816376328468322754e-03 -1.856925524771213531e-02 4.717673733830451965e-02
1.791657507419586182e-01 4.179231822490692139e-03 -3.162577748298645020e-02
1.948542445898056030e-01 -8.770339190959930420e-03 8.866168558597564697e-02
9.413911402225494385e-02 4.020836204290390015e-03 4.426389187574386597e-02
1.965978443622589111e-01 5.002103745937347412e-03 1.879641786217689514e-02
1.649911552667617798e-01 -2.311283163726329803e-02 -1.050626337528228760e-01
5.006521940231323242e-02 -4.105579107999801636e-03 -4.702276550233364105e-03
1.447757780551910400e-01 -9.706765413284301758e-02 -4.935038089752197266e-02
6.849969923496246338e-02 -8.096950501203536987e-02 -5.173507705330848694e-02
1.704627424478530884e-01 3.508135676383972168e-03 5.412610247731208801e-02
2.073299884796142578e-02 -1.162979751825332642e-02 3.066365793347358704e-02
2.699658274650573730e-01 -5.314365029335021973e-02 -1.027271151542663574e-01
2.917679846286773682e-01 -1.965087838470935822e-02 -4.163437709212303162e-02
1.705698668956756592e-01 -2.678434923291206360e-02 1.249486505985260010e-01
2.792540788650512695e-01 -2.834360487759113312e-02 -8.068594336509704590e-02
2.307233065366744995e-01 4.132129251956939697e-04 1.121521648019552231e-02
1.290996223688125610e-01 5.092483013868331909e-03 -2.431830018758773804e-02
9.256340563297271729e-02 -8.465833961963653564e-04 -3.625920042395591736e-02
1.387139856815338135e-01 -1.465036720037460327e-02 -8.957506716251373291e-02
6.400637328624725342e-02 -9.223718941211700439e-02 1.448336802423000336e-02
1.476283520460128784e-01 7.615126669406890869e-03 2.436729148030281067e-02
4.787493497133255005e-02 -1.091358438134193420e-02 8.168238401412963867e-02
1.302654743194580078e-01 -2.875136211514472961e-02 -1.049762815237045288e-01
2.991221249103546143e-01 -2.109573781490325928e-02 -2.920908853411674500e-02
3.290542960166931152e-02 -2.856815233826637268e-02 1.041769981384277344e-01
1.405151486396789551e-01 -7.094344496726989746e-02 1.268792599439620972e-01
3.211038112640380859e-01 -7.037102431058883667e-02 -1.381557248532772064e-02
3.064606785774230957e-01 -3.251489251852035522e-02 -5.705392733216285706e-02
2.327461838722229004e-01 -8.075660467147827148e-02 -9.265749156475067139e-02
9.061855822801589966e-02 -9.009243547916412354e-02 7.986609637737274170e-02
5.525161325931549072e-02 -6.774337589740753174e-02 -6.473016738891601562e-02
7.847646623849868774e-02 -7.899010181427001953e-02 -6.413893401622772217e-02
8.582326024770736694e-02 -8.800426125526428223e-02 -4.662045463919639587e-02
2.557543814182281494e-01 -9.233587235212326050e-02 -5.032688751816749573e-02
2.772062122821807861e-01 -8.290360122919082642e-02 -6.487117707729339600e-02
4.361277818679809570e-02 -8.593879640102386475e-02 4.107924178242683411e-02
1.141979694366455078e-01 6.961498409509658813e-03 1.866082288324832916e-02
4.969760775566101074e-02 -1.502775773406028748e-02 9.392760694026947021e-02
2.407638877630233765e-01 -8.301167190074920654e-02 8.185017108917236328e-02
2.092085182666778564e-01 -9.690456837415695190e-02 5.925043299794197083e-02
2.193317264318466187e-01 -9.791201353073120117e-02 4.845542833209037781e-02
7.356126606464385986e-02 1.875501126050949097e-03 3.088759724050760269e-03
3.945069760084152222e-02 -8.538708090782165527e-03 -1.165056973695755005e-02
8.055479079484939575e-02 -1.277799904346466064e-02 -6.391389667987823486e-02
6.755296140909194946e-02 -9.223052859306335449e-02 -3.424240276217460632e-04
6.699495762586593628e-02 -3.826002404093742371e-02 -8.436325192451477051e-02
1.118006706237792969e-01 4.433322697877883911e-03 -2.012580446898937225e-02
1.487358361482620239e-01 -9.839855134487152100e-02 6.545253843069076538e-02
1.057301983237266541e-01 -9.746384620666503906e-02 -2.154085412621498108e-02
3.083359301090240479e-01 -3.067193180322647095e-02 2.706237323582172394e-02
2.068347632884979248e-01 -9.553684294223785400e-02 -6.101567670702934265e-02
2.762559056282043457e-01 -6.951669603586196899e-02 -8.990278840065002441e-02
4.240241646766662598e-02 -1.155588030815124512e-02 -2.811899036169052124e-02
2.124028354883193970e-01 -3.963370621204376221e-02 1.209923774003982544e-01
2.238558977842330933e-01 -6.891851127147674561e-02 -1.095253378152847290e-01
2.211704403162002563e-01 -8.234314620494842529e-02 9.365612268447875977e-02
3.167544603347778320e-01 -3.366205468773841858e-02 1.205826271325349808e-02
1.162749156355857849e-01 -9.614966809749603271e-02 -3.824624046683311462e-02
4.379153996706008911e-02 -3.503398969769477844e-02 1.163140535354614258e-01
2.463357001543045044e-01 -3.146715462207794189e-03 1.629511453211307526e-02
9.979211539030075073e-02 -1.442923396825790405e-02 1.119087785482406616e-01
-9.170129895210266113e-03 -4.668575525283813477e-02 5.450819805264472961e-02
1.604224145412445068e-01 -1.040073856711387634e-01 2.235255576670169830e-02
2.726780474185943604e-01 -4.075061157345771790e-02 -9.826992452144622803e-02
1.922412514686584473e-01 -4.563073813915252686e-02 -1.200707554817199707e-01
1.621681898832321167e-01 -9.097886830568313599e-02 9.124118089675903320e-02
7.501203566789627075e-02 -2.347054891288280487e-02 -7.772658765316009521e-02
2.319879829883575439e-01 -5.513810366392135620e-02 -1.154558360576629639e-01
1.848909854888916016e-01 -1.043269708752632141e-01 7.420815993100404739e-03
2.687062621116638184e-01 -9.262345731258392334e-02 1.989817619323730469e-02
7.631749659776687622e-02 2.396464347839355469e-03 3.770375996828079224e-02
1.488106846809387207e-01 -5.252172797918319702e-02 1.374597996473312378e-01
2.944726049900054932e-01 -2.622877061367034912e-02 -6.034507229924201965e-02
5.725568532943725586e-02 -6.001293659210205078e-03 -2.565273270010948181e-02
1.070725619792938232e-01 -3.804384544491767883e-02 1.361610293388366699e-01
1.362084895372390747e-01 -7.850503921508789062e-02 1.172216534614562988e-01
1.954014599323272705e-02 -6.101834401488304138e-02 -3.564042970538139343e-02
1.840766817331314087e-01 -3.646633774042129517e-02 -1.169775724411010742e-01
1.013866364955902100e-01 -8.789283037185668945e-02 -5.836902931332588196e-02
8.403684943914413452e-02 -2.042943798005580902e-02 1.179422438144683838e-01
-1.823157072067260742e-04 -3.472774848341941833e-02 7.251915335655212402e-02
3.368861973285675049e-02 -8.437592536211013794e-03 1.370090991258621216e-03
2.168654203414916992e-01 -8.739322423934936523e-02 -8.299849927425384521e-02
1.607505977153778076e-02 -2.540904283523559570e-02 8.377483487129211426e-02
2.050718665122985840e-02 -7.748793810606002808e-02 2.682965807616710663e-02
1.141721010208129883e-01 -8.556127548217773438e-02 -7.140600681304931641e-02
3.190322518348693848e-01 -4.456546902656555176e-02 2.859352715313434601e-02
2.787193655967712402e-01 -9.072718024253845215e-02 -2.440116181969642639e-02
2.270603626966476440e-01 -1.750044524669647217e-03 3.998532518744468689e-02
8.421270549297332764e-02 -3.224804252386093140e-02 -9.068174660205841064e-02
1.477909684181213379e-01 5.623292177915573120e-03 -2.496517449617385864e-02
1.619836241006851196e-01 -9.691272675991058350e-02 7.204945385456085205e-02
1.803145110607147217e-01 -1.026331633329391479e-01 3.782287240028381348e-02
9.042085707187652588e-02 -8.135735988616943359e-02 -6.736159324645996094e-02
9.092561900615692139e-02 -4.295789450407028198e-02 -9.823384881019592285e-02
2.165176272392272949e-01 -3.695815801620483398e-03 -5.656717345118522644e-02
1.254790872335433960e-01 -7.516813278198242188e-02 -9.428958594799041748e-02
2.094002068042755127e-02 -1.280431821942329407e-02 7.431120146065950394e-03
1.154567599296569824e-01 -6.217323988676071167e-02 -1.034317761659622192e-01
1.688235551118850708e-01 -1.742071844637393951e-02 1.138795167207717896e-01
3.127797842025756836e-01 -3.203132376074790955e-02 -4.248312860727310181e-02
3.029441237449645996e-01 -8.228353410959243774e-02 -7.172683253884315491e-03
4.305744916200637817e-02 -6.928664445877075195e-02 -5.127694457769393921e-02
1.234555244445800781e-01 7.252059876918792725e-04 -4.555408284068107605e-02
1.003690734505653381e-01 -5.170056223869323730e-02 -1.021143347024917603e-01
5.461634695529937744e-02 -8.016613125801086426e-02 -3.995940089225769043e-02
1.814010143280029297e-01 -1.029867380857467651e-01 -2.255817502737045288e-02
3.020703196525573730e-01 -3.018310666084289551e-02 3.881803154945373535e-02
7.378418743610382080e-02 -5.508629605174064636e-02 1.293693631887435913e-01
2.076465785503387451e-01 -1.006968170404434204e-01 -3.507988154888153076e-02
6.973752379417419434e-02 -3.168993443250656128e-02 1.253060847520828247e-01
2.724826335906982422e-02 -1.403409987688064575e-02 6.878819316625595093e-02
1.430711746215820312e-01 7.201448082923889160e-03 -8.550766855478286743e-03
8.045289665460586548e-02 -9.574776887893676758e-02 9.082528762519359589e-03
5.072638392448425293e-03 -5.215378105640411377e-02 8.268241584300994873e-02
2.482917606830596924e-01 -5.569908767938613892e-03 -3.850478678941726685e-02
1.791643649339675903e-01 -4.907283186912536621e-02 -1.201252937316894531e-01
3.261200785636901855e-01 -5.752160400152206421e-02 1.106500439345836639e-02
2.240071594715118408e-01 1.562513411045074463e-03 -1.048540323972702026e-02
1.837614327669143677e-01 -5.119024962186813354e-02 1.319181025028228760e-01
2.869419455528259277e-01 -3.884197399020195007e-02 -8.739590644836425781e-02
1.465467363595962524e-01 -5.757294595241546631e-03 9.457491338253021240e-02
2.285668551921844482e-01 -1.012634932994842529e-01 -4.344853572547435760e-03
1.023887544870376587e-01 4.695996642112731934e-03 -1.020745001733303070e-02
4.615940153598785400e-02 -5.084520205855369568e-02 1.195196062326431274e-01
2.835718393325805664e-01 -2.417261339724063873e-02 -6.855675578117370605e-02
9.286715835332870483e-02 -9.817174077033996582e-02 1.483276858925819397e-02
1.089258193969726562e-01 -9.952701628208160400e-03 -7.191652059555053711e-02
1.970814168453216553e-01 2.287123352289199829e-03 -3.641163185238838196e-02
1.987980306148529053e-01 -1.037831902503967285e-01 7.356880232691764832e-03
1.088749021291732788e-01 -2.806710451841354370e-02 -9.794585406780242920e-02
1.854564845561981201e-01 -6.141893565654754639e-03 -7.381692528724670410e-02
2.507940530776977539e-01 -2.900002524256706238e-02 -9.860414266586303711e-02
1.204631328582763672e-01 -9.091905504465103149e-02 -6.038093194365501404e-02
1.777790486812591553e-01 7.171370089054107666e-04 6.505556404590606689e-02
4.863085597753524780e-02 -3.900269046425819397e-02 -7.212086021900177002e-02
2.586092650890350342e-01 -1.073551923036575317e-02 4.464564099907875061e-02
1.665999442338943481e-01 4.584081470966339111e-04 -5.325327813625335693e-02
1.085984557867050171e-01 1.103017479181289673e-03 -3.737745061516761780e-02
2.007812857627868652e-01 4.914633929729461670e-03 6.445657927542924881e-03
-8.774951100349426270e-03 -5.064502358436584473e-02 1.243357546627521515e-02
-2.317681908607482910e-03 -5.860046297311782837e-02 4.611521959304809570e-03
2.863381505012512207e-01 -2.268993854522705078e-02 4.588517546653747559e-02
1.480201333761215210e-01 -2.556808851659297943e-02 1.274448782205581665e-01
1.577095985412597656e-01 6.361220031976699829e-03 3.820027410984039307e-02
1.603035032749176025e-01 -4.578001424670219421e-02 1.364525705575942993e-01
1.866470724344253540e-01 6.263334304094314575e-03 6.341197527945041656e-03
2.172134667634963989e-01 -9.692480415105819702e-02 -5.261684209108352661e-02
3.478316962718963623e-02 -6.474554538726806641e-03 2.357040345668792725e-02
1.234543025493621826e-01 -4.525296390056610107e-04 7.894928753376007080e-02
1.119898855686187744e-01 5.829997360706329346e-03 3.953613340854644775e-02
2.266327142715454102e-01 -1.001401841640472412e-01 -2.718979120254516602e-02
2.468115687370300293e-01 -9.246259927749633789e-02 5.080850794911384583e-02
2.558451890945434570e-02 -6.420236080884933472e-02 9.360261261463165283e-02
1.408970355987548828e-02 -1.857912540435791016e-02 6.271908432245254517e-02
2.542273402214050293e-01 -8.320958912372589111e-02 -7.987853884696960449e-02
2.803975343704223633e-01 -1.497862115502357483e-02 2.685512229800224304e-02
1.530148983001708984e-01 -6.081647425889968872e-02 -1.141597032546997070e-01
2.353701293468475342e-01 -3.632528707385063171e-02 -1.105778813362121582e-01
3.427005559206008911e-02 -1.736926846206188202e-02 8.694271743297576904e-02
-9.046688675880432129e-03 -3.435622155666351318e-02 4.247412458062171936e-02
1.715093106031417847e-01 6.685130298137664795e-03 -1.020520366728305817e-02
5.590133368968963623e-02 -3.111049532890319824e-03 5.558359250426292419e-02
1.490299850702285767e-01 1.244369894266128540e-03 -4.935670271515846252e-02
4.809192568063735962e-02 -8.475518226623535156e-02 -1.307224854826927185e-02
2.444664239883422852e-01 -7.924232631921768188e-03 -5.479097738862037659e-02
1.015164703130722046e-01 -8.599722385406494141e-02 9.705182909965515137e-02
3.017860054969787598e-01 -7.850840687751770020e-02 -4.629247263073921204e-02
1.601952761411666870e-01 -7.623116672039031982e-02 1.194250583648681641e-01
2.014853060245513916e-01 -7.378597557544708252e-02 -1.070317775011062622e-01
2.061685025691986084e-01 -8.520843088626861572e-02 9.437845647335052490e-02
1.289481818675994873e-01 -9.936563670635223389e-02 -2.958154678344726562e-02
7.015370577573776245e-02 -1.040264964103698730e-03 -1.637679152190685272e-02
1.964583098888397217e-01 -9.766383469104766846e-02 6.165021285414695740e-02
1.878118366003036499e-01 -2.079315483570098877e-02 1.134980618953704834e-01
-5.206421017646789551e-03 -5.815540254116058350e-02 4.657113924622535706e-02
2.874428033828735352e-02 -7.908322662115097046e-02 -7.519992068409919739e-04
2.274386137723922729e-01 -5.508214235305786133e-04 -3.023626282811164856e-02
6.213824450969696045e-02 -6.254738569259643555e-02 1.201401650905609131e-01
7.330989092588424683e-02 -5.376055836677551270e-03 8.138608932495117188e-02
4.757729917764663696e-02 -8.673157542943954468e-02 2.202820032835006714e-03
1.734522730112075806e-01 -7.376420497894287109e-02 1.205842792987823486e-01
4.218329489231109619e-02 -1.887453533709049225e-02 -4.613748937845230103e-02
1.816462725400924683e-01 -2.141994237899780273e-02 -1.035030186176300049e-01
1.786569654941558838e-01 -9.413328766822814941e-02 7.971252501010894775e-02
1.660426706075668335e-01 -7.252635061740875244e-02 -1.069165468215942383e-01
1.936508715152740479e-01 -7.062478363513946533e-02 1.193288564682006836e-01
2.153808176517486572e-01 -8.958527445793151855e-02 8.054487407207489014e-02
9.166788309812545776e-02 -8.251465857028961182e-03 9.715422987937927246e-02
1.565742790699005127e-01 -1.921165920794010162e-02 1.188341975212097168e-01
2.651087045669555664e-01 -8.202712982892990112e-03 1.654985733330249786e-02
3.526387363672256470e-02 -7.880605757236480713e-03 5.116232857108116150e-02
2.811475396156311035e-01 -9.061607718467712402e-02 -1.434550620615482330e-03
9.065777808427810669e-02 -9.390145540237426758e-02 -2.660993114113807678e-02
9.564471989870071411e-02 -7.210037857294082642e-02 -8.560137450695037842e-02
3.182316422462463379e-01 -6.955015659332275391e-02 -3.795096650719642639e-02
1.164153516292572021e-01 -1.012871861457824707e-01 2.276824600994586945e-02
5.911431461572647095e-02 -2.507391758263111115e-02 -6.944626569747924805e-02
3.068767189979553223e-01 -5.523607134819030762e-02 5.275321006774902344e-02
2.249613404273986816e-02 -2.079752273857593536e-02 -2.650798857212066650e-02
2.458863705396652222e-01 -9.601952135562896729e-02 -3.975401446223258972e-02
1.235591918230056763e-01 -5.402503162622451782e-02 -1.098297387361526489e-01
1.134627461433410645e-01 -1.001660749316215515e-01 3.743502497673034668e-02
5.484789609909057617e-03 -2.414035797119140625e-02 -2.717697061598300934e-03
2.520598769187927246e-01 -2.062853984534740448e-02 -8.527441322803497314e-02
8.687254786491394043e-02 5.237422883510589600e-04 6.384161114692687988e-02
4.346390813589096069e-02 -6.208844110369682312e-02 1.106427162885665894e-01
1.086199656128883362e-01 -7.910150289535522461e-02 1.132806390523910522e-01
-3.398563712835311890e-02 -9.627684019505977631e-03 3.593484163284301758e-01
7.607201114296913147e-03 -1.795220002532005310e-02 3.819708824157714844e-01
-3.091381676495075226e-02 1.571304048411548138e-03 4.790800809860229492e-01
7.355819642543792725e-02 -1.526140840724110603e-03 4.402183890342712402e-01
6.603339314460754395e-02 -6.199816241860389709e-03 3.783710002899169922e-01
5.069101601839065552e-02 -3.454504185356199741e-04 3.297238051891326904e-01
8.310168981552124023e-02 1.090624835342168808e-02 4.190070629119873047e-01
-2.509137615561485291e-03 3.952698782086372375e-03 3.759256601333618164e-01
2.158992551267147064e-02 1.251279190182685852e-02 4.262064695358276367e-01
-7.158553227782249451e-03 8.632920682430267334e-03 5.033586025238037109e-01
6.311333924531936646e-02 -6.935705896466970444e-03 4.075687229633331299e-01
4.950732737779617310e-02 -1.056409068405628204e-02 3.541365861892700195e-01
7.895357161760330200e-02 9.414404630661010742e-03 3.956174254417419434e-01
6.159775890409946442e-03 -1.241352688521146774e-02 4.694426953792572021e-01
4.059175029397010803e-03 1.154044177383184433e-02 4.636357426643371582e-01
4.371977224946022034e-02 -1.073731016367673874e-02 4.276617467403411865e-01
5.240566283464431763e-02 9.843971580266952515e-03 3.764174580574035645e-01
-1.865808852016925812e-02 5.976343061774969101e-03 4.501182436943054199e-01
1.415396574884653091e-02 9.654457680881023407e-03 4.024195373058319092e-01
1.017801929265260696e-02 1.131126750260591507e-02 4.329300224781036377e-01
8.121931552886962891e-02 2.964614890515804291e-03 4.492993056774139404e-01
-1.399710588157176971e-02 5.271997302770614624e-03 4.151124358177185059e-01
-4.924079403281211853e-03 5.891261156648397446e-03 5.280263423919677734e-01
5.056085437536239624e-02 1.666005328297615051e-02 4.882987141609191895e-01
-5.137674510478973389e-03 -1.860113069415092468e-02 3.922664523124694824e-01
2.625779807567596436e-02 -1.796816359274089336e-04 3.272462189197540283e-01
7.470058649778366089e-02 -2.873061224818229675e-03 3.942975699901580811e-01
3.639457374811172485e-02 7.214327342808246613e-03 3.612811565399169922e-01
5.879785865545272827e-02 1.270111463963985443e-02 4.012204408645629883e-01
-4.221754521131515503e-02 -1.349647343158721924e-02 4.346181750297546387e-01
7.479194551706314087e-02 1.281414553523063660e-02 4.947148263454437256e-01
-1.375297643244266510e-02 -1.607708632946014404e-02 4.416106939315795898e-01
-1.140173524618148804e-03 -1.777026616036891937e-02 4.086506962776184082e-01
3.916789591312408447e-02 -1.346777565777301788e-02 3.752326369285583496e-01
-6.579969078302383423e-03 -1.891387812793254852e-02 3.688354492187500000e-01
3.658868372440338135e-02 1.606887951493263245e-02 4.806381165981292725e-01
1.196560543030500412e-02 -8.591669611632823944e-03 4.947912693023681641e-01
-1.917220465838909149e-02 -1.749009452760219574e-02 4.222818017005920410e-01
5.095732212066650391e-02 1.655775122344493866e-02 4.643931388854980469e-01
2.060787566006183624e-02 1.420425157994031906e-02 4.663325548171997070e-01
2.139660529792308807e-02 -1.411686651408672333e-02 3.255950510501861572e-01
6.670062243938446045e-02 8.235282264649868011e-03 5.118069648742675781e-01
4.441162943840026855e-02 1.107695233076810837e-02 3.876082599163055420e-01
8.284073323011398315e-02 1.242111437022686005e-02 4.379610121250152588e-01
1.686039008200168610e-02 -1.183035038411617279e-02 3.136919438838958740e-01
6.849784404039382935e-02 1.571886613965034485e-02 4.509154856204986572e-01
-9.477879852056503296e-03 8.600820787250995636e-03 4.903211295604705811e-01
-9.339310228824615479e-03 -3.638123162090778351e-03 3.397906422615051270e-01
-1.150308176875114441e-03 -1.383480429649353027e-02 3.183838725090026855e-01
2.314245887100696564e-02 -1.620130613446235657e-02 3.768770396709442139e-01
3.517828881740570068e-04 -1.130862999707460403e-02 4.815426468849182129e-01
-2.319735102355480194e-02 4.071838222444057465e-03 4.357098340988159180e-01
3.600960224866867065e-02 -1.091124489903450012e-02 4.452607631683349609e-01
7.267619483172893524e-03 -6.528722587972879410e-05 3.387115299701690674e-01
8.550030738115310669e-02 6.977277807891368866e-03 4.067327976226806641e-01
4.445510357618331909e-02 1.574064977467060089e-02 4.474771916866302490e-01
-5.392352119088172913e-03 -1.727482490241527557e-02 4.220156371593475342e-01
5.069426819682121277e-02 6.149812135845422745e-03 3.533069193363189697e-01
2.512760646641254425e-02 1.452549267560243607e-02 5.061858296394348145e-01
-1.258884929120540619e-02 4.380004480481147766e-03 4.005626142024993896e-01
4.996209591627120972e-02 -5.192210432142019272e-03 4.738908410072326660e-01
4.517468810081481934e-02 1.139132399111986160e-02 5.345323085784912109e-01
2.205494791269302368e-02 -1.231713406741619110e-02 4.538491964340209961e-01
6.691835075616836548e-02 -1.894430490210652351e-03 3.484480977058410645e-01
6.926955282688140869e-02 1.592569239437580109e-02 4.753968417644500732e-01
-1.460055448114871979e-02 9.159891633316874504e-04 3.742929995059967041e-01
7.088998705148696899e-02 2.088760957121849060e-03 4.798315167427062988e-01
-4.138071089982986450e-02 -1.198844425380229950e-02 4.497432708740234375e-01
-2.098820917308330536e-02 -1.881388016045093536e-02 3.883779048919677734e-01
-1.738231629133224487e-03 9.829285554587841034e-03 4.458998143672943115e-01
1.965491101145744324e-02 -1.616689749062061310e-02 3.459668159484863281e-01
6.967910379171371460e-02 1.283800415694713593e-02 4.089727103710174561e-01
-1.676573418080806732e-02 -1.856606267392635345e-02 4.010569751262664795e-01
4.441047459840774536e-02 1.262971013784408569e-02 4.026049077510833740e-01
-3.453934937715530396e-02 -1.159034576267004013e-02 4.666920602321624756e-01
-7.596392184495925903e-03 7.096292683854699135e-04 3.606417179107666016e-01
-9.638702496886253357e-03 -1.841046847403049469e-02 3.501013219356536865e-01
7.816386409103870392e-03 1.175368856638669968e-02 5.087063908576965332e-01
-4.521983116865158081e-02 -8.395618759095668793e-03 4.069090783596038818e-01
8.129011094570159912e-02 1.182201039046049118e-02 4.764572679996490479e-01
5.513793230056762695e-02 1.421058271080255508e-02 4.175878763198852539e-01
2.337012439966201782e-02 6.609122268855571747e-03 3.649216890335083008e-01
-2.656647376716136932e-02 -3.557379357516765594e-03 3.694276809692382812e-01
-1.838683150708675385e-02 -1.872344315052032471e-02 3.623772859573364258e-01
1.322618685662746429e-02 -3.897651564329862595e-03 5.198499560356140137e-01
-2.320983074605464935e-02 -1.736042834818363190e-02 3.494315445423126221e-01
2.573222108185291290e-02 -5.531771574169397354e-03 5.038641095161437988e-01
5.252562463283538818e-02 -6.459916941821575165e-03 4.566572308540344238e-01
-2.649911306798458099e-02 5.516302771866321564e-04 4.014735221862792969e-01
2.992937341332435608e-02 -1.468521729111671448e-02 3.986563980579376221e-01
-1.412262581288814545e-02 7.572751492261886597e-03 4.673034846782684326e-01
3.731657564640045166e-02 -2.118387958034873009e-03 5.118531584739685059e-01
2.267361246049404144e-02 2.803212031722068787e-03 3.420461416244506836e-01
7.527741044759750366e-02 -8.706868393346667290e-04 3.706045150756835938e-01
7.118156179785728455e-03 7.868946529924869537e-03 5.354831814765930176e-01
-3.090374171733856201e-03 -4.722643177956342697e-03 5.185656547546386719e-01
-3.827899694442749023e-02 -5.753404926508665085e-03 3.892897963523864746e-01
5.319476127624511719e-03 1.196476165205240250e-02 4.863576292991638184e-01
4.008787870407104492e-02 1.482537481933832169e-02 5.191998481750488281e-01
4.008112475275993347e-03 -1.591218262910842896e-02 4.334856867790222168e-01
1.308843865990638733e-02 -1.042001135647296906e-02 4.808481037616729736e-01
4.671986401081085205e-02 -2.415020018815994263e-03 4.988278150558471680e-01
5.737102031707763672e-02 1.552167255431413651e-02 5.077667236328125000e-01
1.719346269965171814e-02 8.710734546184539795e-03 3.884383141994476318e-01
6.730570457875728607e-03 -1.804824918508529663e-02 3.612270355224609375e-01
3.389678895473480225e-02 -9.774711914360523224e-03 4.615925252437591553e-01
6.785472482442855835e-02 1.484343875199556351e-02 4.320098161697387695e-01
1.955412887036800385e-02 4.601428285241127014e-03 5.420148968696594238e-01
-3.519515693187713623e-02 1.973705366253852844e-04 4.497847259044647217e-01
2.314830385148525238e-02 -1.400450989603996277e-02 4.311270117759704590e-01
-1.316966302692890167e-02 -8.669069036841392517e-03 3.279353976249694824e-01
2.912425622344017029e-02 -1.406843680888414383e-02 3.367708325386047363e-01
1.312375366687774658e-01 1.191462129354476929e-01 -2.238608598709106445e-01
2.715075612068176270e-01 -1.119455397129058838e-01 -1.651600152254104614e-01
-3.931078910827636719e-01 -7.562798261642456055e-02 -1.294260770082473755e-01
-1.607869863510131836e-01 1.592629402875900269e-02 2.634925842285156250e-01
-7.268129587173461914e-01 6.062474101781845093e-03 -1.345602720975875854e-01
-4.841327667236328125e-01 -7.955028116703033447e-02 -5.592076480388641357e-02
-1.286375075578689575e-01 2.260601818561553955e-01 -7.171526551246643066e-02
-7.287113666534423828e-01 1.835108101367950439e-01 -1.390038430690765381e-01
3.240346014499664307e-01 1.415158510208129883e-01 1.687067747116088867e-01
-4.523112475872039795e-01 -4.672356322407722473e-02 1.618427485227584839e-01
7.836471796035766602e-01 -9.472805261611938477e-02 -3.139182552695274353e-02
3.566986620426177979e-01 1.221455633640289307e-01 -1.739840805530548096e-01
-5.414708256721496582e-01 1.485689580440521240e-01 -2.055314928293228149e-01
1.560765057802200317e-01 1.013161391019821167e-01 -2.348056733608245850e-01
3.763062059879302979e-01 -7.129965722560882568e-02 -2.087081968784332275e-01
-8.000720292329788208e-02 2.227555662393569946e-01 9.834650903940200806e-02
-8.454751968383789062e-01 9.784748405218124390e-02 1.638529151678085327e-01
-6.756720542907714844e-01 1.709364205598831177e-01 -1.651066094636917114e-01
-1.249918341636657715e-02 -1.241843104362487793e-01 -1.134485676884651184e-01
2.213921546936035156e-01 -1.484030187129974365e-01 -6.370496004819869995e-03
-4.654193818569183350e-01 8.009016513824462891e-03 -2.205313742160797119e-01
4.564984738826751709e-01 -1.205245852470397949e-01 -1.312226504087448120e-01
6.120270490646362305e-01 -6.259419023990631104e-02 1.590721011161804199e-01
1.227736026048660278e-01 -1.115710437297821045e-01 -1.634802520275115967e-01
-7.222276926040649414e-01 2.146161198616027832e-01 -8.623568713665008545e-02
-8.845146894454956055e-01 1.853224784135818481e-01 -7.647737115621566772e-02
6.768044233322143555e-01 -8.427472412586212158e-02 -1.313881576061248779e-01
9.957878291606903076e-02 7.947485893964767456e-03 2.620782256126403809e-01
-7.579287290573120117e-01 -1.891870424151420593e-02 4.822369664907455444e-02
4.216957986354827881e-01 5.691670626401901245e-02 2.203291356563568115e-01
8.480261564254760742e-01 -5.892489477992057800e-02 2.233083732426166534e-02
-3.565176725387573242e-01 2.194345891475677490e-01 -1.217719987034797668e-01
2.383772432804107666e-01 -1.247376948595046997e-01 -1.388976126909255981e-01
3.190603256225585938e-01 1.042840033769607544e-01 2.141665965318679810e-01
7.631435394287109375e-01 1.249118894338607788e-02 -1.188239008188247681e-01
-6.773990392684936523e-01 2.207077443599700928e-01 1.148735880851745605e-01
-3.303816616535186768e-01 1.823945790529251099e-01 -1.871661841869354248e-01
-2.807744741439819336e-01 2.042310684919357300e-01 1.784867942333221436e-01
-1.582115292549133301e-01 -9.904204308986663818e-02 1.360401958227157593e-01
9.708045423030853271e-02 -1.384456604719161987e-01 5.955015495419502258e-02
4.869605600833892822e-01 3.959004953503608704e-02 -2.105079144239425659e-01
5.072741508483886719e-01 8.799129724502563477e-02 1.742898672819137573e-01
5.148814916610717773e-01 7.464097440242767334e-02 -1.791139394044876099e-01
-3.181641548871994019e-02 2.174191027879714966e-01 1.034200638532638550e-01
-4.165028035640716553e-02 2.060602754354476929e-01 -1.178617775440216064e-01
-4.866538345813751221e-01 2.445097267627716064e-01 -1.822616159915924072e-02
4.183515012264251709e-01 1.576025784015655518e-02 -2.313119322061538696e-01
-3.127979636192321777e-01 -8.689628541469573975e-02 1.217828318476676941e-01
-9.222378730773925781e-01 7.032949477434158325e-02 -9.183470159769058228e-02
1.794906556606292725e-01 1.654497385025024414e-01 1.726498007774353027e-01
-3.304464221000671387e-01 1.317449212074279785e-01 2.519456744194030762e-01
-3.698116540908813477e-01 -3.195266798138618469e-02 -2.067581564188003540e-01
6.663440465927124023e-01 -7.921692728996276855e-02 -1.411146074533462524e-01
4.269172847270965576e-01 2.479176409542560577e-02 2.272356301546096802e-01
4.718262851238250732e-01 5.259046703577041626e-02 -2.077946513891220093e-01
-9.928381443023681641e-01 1.644881814718246460e-01 2.950403280556201935e-02
1.795689463615417480e-01 3.463625535368919373e-02 -2.590992748737335205e-01
-2.682519555091857910e-01 5.690992996096611023e-02 2.681171894073486328e-01
-5.257887840270996094e-01 1.263162046670913696e-01 -2.203536033630371094e-01
-5.806767940521240234e-01 1.664684861898422241e-01 -1.858322173357009888e-01
-3.302051424980163574e-01 2.360557168722152710e-01 -6.713940203189849854e-02
-4.392353594303131104e-01 -8.991529047489166260e-02 -3.037737123668193817e-02
-4.727349281311035156e-01 -4.813842847943305969e-02 1.524480730295181274e-01
-1.678695976734161377e-01 8.581112325191497803e-02 2.706483602523803711e-01
8.804328739643096924e-02 -1.392284929752349854e-01 -7.225253432989120483e-02
-8.054909706115722656e-01 1.745341420173645020e-01 1.526763290166854858e-01
-3.128550201654434204e-02 2.272965759038925171e-01 -7.401897571980953217e-03
7.119415998458862305e-01 -9.235929697751998901e-03 -1.531090438365936279e-01
4.367801845073699951e-01 -1.414013653993606567e-01 4.254095256328582764e-02
4.693023860454559326e-01 1.082325577735900879e-01 1.648309975862503052e-01
-3.384646177291870117e-01 9.481619298458099365e-02 -2.503841221332550049e-01
1.708425432443618774e-01 -4.221641644835472107e-02 -2.425003200769424438e-01
5.006459951400756836e-01 1.434818804264068604e-01 5.863957479596138000e-02
5.826195478439331055e-01 -2.014851197600364685e-02 -1.964140385389328003e-01
2.981502115726470947e-01 1.197632253170013428e-01 2.045368105173110962e-01
-1.004539966583251953e+00 1.409340798854827881e-01 -3.006767667829990387e-02
6.645491123199462891e-01 -2.402016147971153259e-02 1.626901626586914062e-01
4.525614529848098755e-02 1.319402158260345459e-01 2.378241568803787231e-01
-3.212737441062927246e-01 1.016797497868537903e-01 -2.493573576211929321e-01
-4.050061702728271484e-01 1.903315335512161255e-01 -1.746329367160797119e-01
-5.649378299713134766e-01 -6.672360002994537354e-02 -3.692248463630676270e-02
-3.854003250598907471e-01 2.248246520757675171e-01 1.379052102565765381e-01
7.243293523788452148e-01 -1.898219808936119080e-02 1.398794502019882202e-01
4.042668342590332031e-01 1.564143747091293335e-01 9.576579928398132324e-02
4.255013167858123779e-02 2.007826268672943115e-01 1.342204362154006958e-01
1.221216470003128052e-02 2.178190797567367554e-01 8.156158030033111572e-02
4.423131644725799561e-01 -8.822885155677795410e-02 1.687069088220596313e-01
-4.869118630886077881e-01 1.945529282093048096e-01 -1.636454463005065918e-01
-1.078645437955856323e-01 -1.276318877935409546e-01 -6.186411529779434204e-02
7.268615961074829102e-01 3.280790150165557861e-02 1.232411339879035950e-01
-6.530356407165527344e-01 -4.756980761885643005e-02 -3.806104138493537903e-02
-1.953855156898498535e-02 1.455079615116119385e-01 -2.158461362123489380e-01
2.988664507865905762e-01 7.874477654695510864e-02 2.352311909198760986e-01
1.796008348464965820e-01 -6.882062554359436035e-02 -2.224654853343963623e-01
-5.076587796211242676e-01 1.087802052497863770e-01 2.452049851417541504e-01
-1.902857124805450439e-01 2.265588939189910889e-01 1.134213730692863464e-01
4.597981870174407959e-01 1.247222572565078735e-01 -1.316384077072143555e-01
3.937482833862304688e-01 5.513392016291618347e-02 -2.239823937416076660e-01
7.459844350814819336e-01 4.049133509397506714e-03 -1.331971287727355957e-01
5.904680490493774414e-01 -1.323183625936508179e-01 -4.311500489711761475e-02
-4.209600761532783508e-02 -1.074369251728057861e-01 -1.534698456525802612e-01
2.874176204204559326e-01 -1.256337314844131470e-01 -1.361180990934371948e-01
3.066814839839935303e-01 1.652245670557022095e-01 -1.091980561614036560e-01
-5.456962585449218750e-01 -7.084831595420837402e-04 1.969149112701416016e-01
1.742202341556549072e-01 1.384898126125335693e-01 -1.965876668691635132e-01
-3.565064072608947754e-02 8.641133457422256470e-02 -2.582065165042877197e-01
-6.330274343490600586e-01 -4.475111886858940125e-02 7.540611922740936279e-02
4.106052815914154053e-01 -6.093010678887367249e-02 -2.126004397869110107e-01
-8.581862449645996094e-01 1.781681030988693237e-01 1.281187683343887329e-01
8.037514686584472656e-01 2.015028148889541626e-03 9.020950645208358765e-02
8.494910001754760742e-01 -4.876775667071342468e-02 -5.065694451332092285e-02
6.069430112838745117e-01 1.164938807487487793e-01 -4.418631643056869507e-02
6.236799955368041992e-01 -4.283730313181877136e-02 1.686927080154418945e-01
-2.324547618627548218e-02 1.867847144603729248e-01 1.804850697517395020e-01
2.047964334487915039e-01 -1.481065601110458374e-01 -6.433258764445781708e-03
-6.033928394317626953e-01 -2.617017552256584167e-02 -1.425061970949172974e-01
-6.475220918655395508e-01 1.542209684848785400e-01 -1.848142743110656738e-01
2.470103204250335693e-01 4.135353863239288330e-02 2.537492215633392334e-01
-5.009196400642395020e-01 -6.972064077854156494e-02 -8.919896930456161499e-02
-2.669758796691894531e-01 2.370130419731140137e-01 -5.302096158266067505e-02
-5.430380105972290039e-01 -4.295206442475318909e-02 1.351171135902404785e-01
-9.812594652175903320e-01 8.336196094751358032e-02 -4.513652250170707703e-02
3.371604979038238525e-01 1.698986887931823730e-01 9.430408477783203125e-02
-1.849758028984069824e-01 1.021774485707283020e-02 -2.584745287895202637e-01
-6.918281316757202148e-01 1.503722369670867920e-01 -1.784434914588928223e-01
-2.899241447448730469e-01 7.346433401107788086e-02 -2.579355835914611816e-01
-9.423023462295532227e-01 5.896036699414253235e-02 -5.662487819790840149e-02
-4.262186288833618164e-01 -1.568608358502388000e-02 2.100647985935211182e-01
-4.465540349483489990e-01 2.044813707470893860e-02 -2.310871630907058716e-01
4.220461249351501465e-01 -7.502354681491851807e-02 1.864734292030334473e-01
7.254934310913085938e-01 -1.123120039701461792e-01 -6.827415898442268372e-03
1.907663047313690186e-01 3.443901240825653076e-02 2.600005567073822021e-01
-1.248672232031822205e-01 1.813186146318912506e-02 -2.640140950679779053e-01
-2.241580784320831299e-01 -7.925850152969360352e-02 1.635348498821258545e-01
7.605652809143066406e-01 -5.608276650309562683e-02 -1.197732761502265930e-01
-4.285041689872741699e-01 -7.992415130138397217e-02 -9.905464947223663330e-02
-4.355465769767761230e-01 -6.771080195903778076e-02 1.240093782544136047e-01
-1.178999021649360657e-01 -1.197772324085235596e-01 8.274478465318679810e-02
-8.571560382843017578e-01 1.943717449903488159e-01 -7.460273057222366333e-02
-6.048082113265991211e-01 -2.409429475665092468e-02 1.450323164463043213e-01
-4.949567019939422607e-01 -4.379523918032646179e-02 1.526235044002532959e-01
-4.980288073420524597e-02 1.786796748638153076e-01 1.977271735668182373e-01
-3.808282911777496338e-01 2.023670263588428497e-02 -2.415090203285217285e-01
-3.596957325935363770e-01 1.108913645148277283e-01 2.585642039775848389e-01
-5.371451973915100098e-01 8.496509492397308350e-02 2.422268539667129517e-01
6.858952045440673828e-01 7.853037118911743164e-02 9.039954096078872681e-02
-4.356130957603454590e-03 1.982183456420898438e-01 1.534882038831710815e-01
-9.788780212402343750e-01 7.461833953857421875e-02 -3.255473449826240540e-02
3.603868782520294189e-01 1.971757784485816956e-02 -2.402669936418533325e-01
-4.001420736312866211e-02 -1.317968070507049561e-01 5.295965448021888733e-02
-2.880709469318389893e-01 -1.120763421058654785e-01 -1.913227327167987823e-02
-7.619656324386596680e-01 2.244156748056411743e-01 -3.473774343729019165e-02
-1.674711406230926514e-01 9.559608995914459229e-02 -2.565526068210601807e-01
-4.591087698936462402e-01 1.750692725181579590e-01 -1.904741972684860229e-01
-9.869316220283508301e-02 -1.319526433944702148e-01 -6.190876010805368423e-04
-8.305865526199340820e-01 1.016203537583351135e-01 1.705684214830398560e-01
-7.933651208877563477e-01 2.118484526872634888e-01 -6.486332416534423828e-02
5.184618234634399414e-01 -1.061310470104217529e-01 1.286009997129440308e-01
5.703905820846557617e-01 3.730648756027221680e-02 -1.884907484054565430e-01
-3.948547542095184326e-01 1.496854871511459351e-01 2.387016564607620239e-01
-1.456843912601470947e-01 -1.265420913696289062e-01 2.376565709710121155e-02
-4.776037633419036865e-01 -8.330340683460235596e-02 -3.300887718796730042e-02
5.064327716827392578e-01 1.372665166854858398e-01 -6.848655641078948975e-02
7.404120266437530518e-02 2.146339118480682373e-01 -3.350611031055450439e-02
1.860643029212951660e-01 1.018575057387351990e-01 -2.303797602653503418e-01
-9.530500173568725586e-01 8.864077180624008179e-02 9.776990860700607300e-02
-2.125704735517501831e-01 1.555234938859939575e-01 2.366756200790405273e-01
-1.635904759168624878e-01 -1.095608472824096680e-01 -1.191428527235984802e-01
5.150966644287109375e-01 -2.403818443417549133e-02 -2.115023136138916016e-01
-5.307536125183105469e-01 1.053981855511665344e-02 -2.076942324638366699e-01
4.895621240139007568e-01 7.954883575439453125e-02 -1.826693862676620483e-01
5.818710327148437500e-01 1.199436932802200317e-01 -6.097755581140518188e-02
-2.477497756481170654e-01 -1.057841628789901733e-01 -9.938759356737136841e-02
-2.543409168720245361e-01 1.001762002706527710e-01 2.661108970642089844e-01
8.598672151565551758e-01 7.207207381725311279e-04 4.120636265724897385e-03
-1.321763098239898682e-01 2.302018702030181885e-01 -5.181956663727760315e-02
-4.816211760044097900e-01 8.371456712484359741e-02 -2.376731485128402710e-01
-1.391403973102569580e-01 6.117115169763565063e-02 -2.656806707382202148e-01
-5.785249471664428711e-01 2.113185375928878784e-01 1.546363830566406250e-01
-6.552671194076538086e-01 1.737240403890609741e-01 1.914172768592834473e-01
4.801156222820281982e-01 -7.883466780185699463e-02 -1.879619508981704712e-01
5.224723815917968750e-01 1.372909396886825562e-01 -5.100293084979057312e-02
-9.518940448760986328e-01 1.826371103525161743e-01 -2.198380604386329651e-02
-2.612128853797912598e-02 2.252506613731384277e-01 -2.759844996035099030e-02
2.506084740161895752e-03 2.240526117384433746e-02 2.683889567852020264e-01
2.358238101005554199e-01 3.936159983277320862e-02 -2.530853152275085449e-01
5.612473487854003906e-01 9.904065728187561035e-02 -1.289206892251968384e-01
1.653695851564407349e-01 -1.103980392217636108e-01 1.513448059558868408e-01
3.396979570388793945e-01 1.753437072038650513e-01 6.619308143854141235e-02
-1.659268736839294434e-01 2.377881258726119995e-01 3.113593440502882004e-03
6.424254179000854492e-02 1.308324337005615234e-01 -2.215903103351593018e-01
-3.310320973396301270e-01 -1.051815450191497803e-01 2.802664041519165039e-02
-5.097028017044067383e-01 1.884777098894119263e-01 1.959718167781829834e-01
-8.045256137847900391e-02 -5.221934244036674500e-02 2.210592776536941528e-01
-4.691489040851593018e-01 2.331996709108352661e-01 1.115743964910507202e-01
3.313061594963073730e-01 5.979200452566146851e-02 2.374009042978286743e-01
3.678958714008331299e-01 7.372343540191650391e-02 -2.186163216829299927e-01
-3.268419206142425537e-01 2.096742391586303711e-01 -1.428465992212295532e-01
-3.845722973346710205e-01 -2.713653817772865295e-02 -2.085860222578048706e-01
2.733330726623535156e-01 -1.488922983407974243e-01 -5.642017349600791931e-03
3.822277486324310303e-01 -1.235805451869964600e-01 -1.345814913511276245e-01
3.952516317367553711e-01 -1.453443020582199097e-01 2.559270523488521576e-02
-3.794673383235931396e-01 -5.799615010619163513e-02 -1.700547635555267334e-01
1.669508218765258789e-02 1.490061134099960327e-01 -2.081506848335266113e-01
-7.908709347248077393e-02 2.252378612756729126e-01 -5.826722830533981323e-02
1.406005322933197021e-01 1.061334460973739624e-01 2.444785088300704956e-01
2.431867420673370361e-01 -1.344727426767349243e-01 -1.113414242863655090e-01
-1.822814345359802246e-03 -3.015286847949028015e-02 -2.493218928575515747e-01
