-1.409962624311447144e-01 5.372389405965805054e-02 7.811009883880615234e-01
-1.702386438846588135e-01 5.764096230268478394e-02 8.160040378570556641e-01
-1.840927600860595703e-01 5.918128043413162231e-02 7.416541576385498047e-01
-1.983421146869659424e-01 5.854932963848114014e-02 5.771896243095397949e-01
-1.695972532033920288e-01 5.364460498094558716e-02 1.024662971496582031e+00
-1.816317439079284668e-01 2.903002314269542694e-02 8.338895440101623535e-01
-1.689645797014236450e-01 2.418217808008193970e-02 1.227040886878967285e-01
-8.270717412233352661e-02 3.692897781729698181e-02 7.575935125350952148e-02
-3.178901225328445435e-02 1.120500452816486359e-02 6.107275485992431641e-01
-7.626314461231231689e-02 3.849323466420173645e-02 1.739250719547271729e-01
1.213841140270233154e-02 1.416617445647716522e-02 2.889883220195770264e-01
6.879173219203948975e-03 1.677872613072395325e-02 9.636870026588439941e-02
-1.028593704104423523e-01 1.147453673183917999e-02 5.757651329040527344e-01
-1.338705271482467651e-01 3.336795046925544739e-02 1.029176950454711914e+00
-8.319186419248580933e-02 4.078691452741622925e-02 2.316101193428039551e-01
-5.999201163649559021e-02 3.018355183303356171e-02 -2.578428387641906738e-02
-6.136463582515716553e-02 1.956677064299583435e-03 1.438936293125152588e-01
-1.060913875699043274e-01 4.353634268045425415e-02 9.123497605323791504e-01
-2.092714011669158936e-01 3.262095898389816284e-02 7.171660661697387695e-01
-4.261741042137145996e-02 2.207885682582855225e-02 -1.408837139606475830e-01
-9.696517884731292725e-02 1.171286217868328094e-02 6.109535098075866699e-01
-1.596354693174362183e-02 1.787832006812095642e-03 3.258920311927795410e-01
-2.283962666988372803e-01 4.266605526208877563e-02 9.153522253036499023e-01
-7.566888630390167236e-02 6.963105872273445129e-03 4.806721806526184082e-01
-1.167073100805282593e-02 2.369468472898006439e-02 1.353594064712524414e-01
-1.445828378200531006e-01 4.869423061609268188e-02 2.589690089225769043e-01
-3.418423235416412354e-03 1.824116893112659454e-02 4.704987406730651855e-01
-1.128938123583793640e-01 4.948358982801437378e-02 5.981947779655456543e-01
-1.979084014892578125e-01 3.292115032672882080e-02 2.125925570726394653e-01
-2.009871155023574829e-01 5.914698913693428040e-02 9.606822729110717773e-01
-1.127980127930641174e-01 4.718284308910369873e-02 8.542826175689697266e-01
-1.674116104841232300e-01 2.326153591275215149e-02 7.014797925949096680e-01
-9.710636734962463379e-02 3.579612448811531067e-02 -3.146260976791381836e-03
-1.972400248050689697e-01 2.820920757949352264e-02 3.711971938610076904e-01
-1.850703656673431396e-01 2.510681003332138062e-02 3.131208419799804688e-01
-1.215997636318206787e-01 2.975378744304180145e-02 9.881095886230468750e-01
-6.482703983783721924e-02 2.784971706569194794e-02 -9.707000851631164551e-02
-1.419556140899658203e-02 2.579840086400508881e-02 3.607009649276733398e-01
-1.027040183544158936e-03 8.479934185743331909e-03 4.407486617565155029e-01
-5.622512474656105042e-02 9.325152263045310974e-03 6.014844179153442383e-01
-1.362821310758590698e-01 1.815164275467395782e-02 6.923049688339233398e-01
-1.745550930500030518e-01 4.821794480085372925e-02 2.167690843343734741e-01
-1.120446398854255676e-01 4.914156347513198853e-02 5.389646887779235840e-01
-1.089519113302230835e-01 3.242114558815956116e-02 -8.107963204383850098e-02
-1.690453588962554932e-01 4.602825641632080078e-02 1.657040715217590332e-01
-1.526315510272979736e-01 5.261952430009841919e-02 9.683758020401000977e-01
-4.927594214677810669e-02 3.542580455541610718e-02 3.154942095279693604e-01
-1.485114097595214844e-01 5.355302989482879639e-02 8.977755308151245117e-01
-1.321602165699005127e-01 4.042889922857284546e-02 4.981520771980285645e-02
-2.174231708049774170e-01 4.198875278234481812e-02 9.787018299102783203e-01
-2.405299991369247437e-02 4.759147763252258301e-03 4.461291134357452393e-01
-9.192635864019393921e-02 4.531253874301910400e-02 6.518112421035766602e-01
-4.054215550422668457e-02 4.656428471207618713e-03 -1.806648671627044678e-01
-1.687328219413757324e-01 2.092495374381542206e-02 5.180037617683410645e-01
-1.300745308399200439e-01 5.204113945364952087e-02 7.596440315246582031e-01
-1.097225472331047058e-01 4.237291216850280762e-02 1.473672986030578613e-01
9.359225630760192871e-03 1.511626038700342178e-02 6.235149502754211426e-02
-1.034992933273315430e-02 1.927487738430500031e-02 -3.418296575546264648e-02
-2.192131429910659790e-02 2.125423774123191833e-02 6.219769120216369629e-01
-7.809904962778091431e-02 4.046310856938362122e-02 2.612587809562683105e-01
-2.092504799365997314e-01 3.218265622854232788e-02 3.866813480854034424e-01
-8.206623792648315430e-02 4.810020327568054199e-03 2.662657499313354492e-01
-2.347296476364135742e-01 4.303681105375289917e-02 8.578994274139404297e-01
-2.156990766525268555e-01 5.983239412307739258e-02 9.637949466705322266e-01
-1.713288128376007080e-01 2.598536759614944458e-02 7.900559306144714355e-01
-1.975640356540679932e-01 5.535861849784851074e-02 4.300099909305572510e-01
-1.405086219310760498e-01 2.999484725296497345e-02 9.867303371429443359e-01
-1.253887116909027100e-01 5.079489946365356445e-02 7.999958992004394531e-01
-2.218759655952453613e-01 5.628040060400962830e-02 4.996654689311981201e-01
-1.278879493474960327e-01 5.199845135211944580e-02 6.284765005111694336e-01
-5.169258266687393188e-02 2.227649092674255371e-03 3.026768565177917480e-01
-1.645446717739105225e-01 5.149396881461143494e-02 1.050143241882324219e+00
-1.943480223417282104e-02 2.392608486115932465e-02 5.633193850517272949e-01
-2.152731418609619141e-01 3.711789101362228394e-02 3.187078237533569336e-01
-2.917517721652984619e-02 2.000648528337478638e-04 -6.368371844291687012e-02
-1.960972547531127930e-01 5.934149771928787231e-02 9.251919984817504883e-01
-2.273249179124832153e-01 6.040790677070617676e-02 9.303737878799438477e-01
-9.860523045063018799e-02 2.201186865568161011e-02 8.760505914688110352e-01
-2.221397459506988525e-01 6.101702898740768433e-02 7.647707462310791016e-01
-1.605397313833236694e-01 4.549956321716308594e-02 1.508886814117431641e-01
-1.479990780353546143e-02 1.487797778099775314e-02 -1.539901793003082275e-01
-1.166373789310455322e-01 1.298593543469905853e-02 5.712946653366088867e-01
-5.100087076425552368e-02 2.909680269658565521e-02 -1.369285583496093750e-02
-9.780838340520858765e-02 4.332749173045158386e-02 8.538609743118286133e-01
-1.929674148559570312e-01 5.798693001270294189e-02 5.541855692863464355e-01
-1.230754256248474121e-01 1.357562653720378876e-02 5.570171475410461426e-01
-1.616009771823883057e-01 1.929219067096710205e-02 2.523531913757324219e-01
-5.064228177070617676e-02 2.288457006216049194e-03 -6.818702816963195801e-02
-5.655014514923095703e-02 3.708211332559585571e-02 5.949932932853698730e-01
-5.285018682479858398e-02 3.654496744275093079e-02 5.446333885192871094e-01
-1.358286291360855103e-01 1.820583455264568329e-02 -1.031935214996337891e-02
-2.320588231086730957e-01 5.835881829261779785e-02 6.116532087326049805e-01
-2.213990986347198486e-01 5.866404995322227478e-02 5.885252356529235840e-01
-3.207919746637344360e-02 2.258569002151489258e-02 6.882346272468566895e-01
-7.459251582622528076e-02 3.188809379935264587e-02 -3.622835874557495117e-02
-2.461921721696853638e-01 5.838686227798461914e-02 9.059877395629882812e-01
-2.217528223991394043e-01 6.100919470191001892e-02 8.787733912467956543e-01
-1.976796388626098633e-01 3.009190969169139862e-02 2.783546447753906250e-01
-4.399672150611877441e-02 3.399520367383956909e-02 2.921306490898132324e-01
-2.450363785028457642e-01 5.114395171403884888e-02 5.502188801765441895e-01
-8.112387359142303467e-02 7.960911840200424194e-03 -1.053653657436370850e-01
-1.741147637367248535e-01 2.260316908359527588e-02 5.749168992042541504e-01
-1.908116489648818970e-01 2.860830724239349365e-02 2.363355010747909546e-01
-1.798349916934967041e-01 3.060998953878879547e-02 8.944834470748901367e-01
-1.006573885679244995e-01 3.891996294260025024e-02 6.923112273216247559e-02
-1.332767456769943237e-01 5.272714421153068542e-02 7.360507249832153320e-01
-1.497221887111663818e-01 3.257033601403236389e-02 -3.313013911247253418e-02
-1.019543409347534180e-01 1.172095723450183868e-02 5.911539793014526367e-01
-9.713093936443328857e-02 4.454866051673889160e-02 8.012101054191589355e-01
-3.002823144197463989e-02 2.741962671279907227e-02 7.928878068923950195e-02
-1.526633650064468384e-02 6.538858637213706970e-03 4.715516269207000732e-01
-1.492719352245330811e-01 1.919288933277130127e-02 6.514348387718200684e-01
-2.066208124160766602e-01 3.980647772550582886e-02 9.903322458267211914e-01
-5.264378339052200317e-02 1.106766425073146820e-02 -2.297796308994293213e-01
-8.481524139642715454e-02 4.323699697852134705e-02 6.984977126121520996e-01
-1.833566725254058838e-01 2.622810564935207367e-02 2.223882824182510376e-01
-1.948554515838623047e-01 2.842468768358230591e-02 6.737648248672485352e-01
-7.056199014186859131e-03 -4.923008382320404053e-04 -6.103828549385070801e-02
-1.016909405589103699e-01 2.594707533717155457e-02 9.323613643646240234e-01
-1.559381484985351562e-01 1.753724738955497742e-02 3.228599131107330322e-01
-1.220435276627540588e-01 1.140429824590682983e-02 1.352397203445434570e-01
-4.470521211624145508e-02 3.452662378549575806e-02 5.095248818397521973e-01
-1.512572318315505981e-01 1.679512672126293182e-02 4.340724349021911621e-01
-1.795609891414642334e-01 2.298188954591751099e-02 4.274958372116088867e-01
-6.686046719551086426e-02 1.133196055889129639e-02 -2.111066281795501709e-01
-1.886352896690368652e-01 2.844018116593360901e-02 7.531070709228515625e-01
-1.978110671043395996e-01 5.965214222669601440e-02 6.647090315818786621e-01
-2.449726760387420654e-01 4.522551223635673523e-02 7.494016289710998535e-01
-5.058629810810089111e-02 2.564953640103340149e-03 3.319880962371826172e-01
-9.437074512243270874e-02 2.808707952499389648e-02 -1.351531445980072021e-01
-2.482177168130874634e-01 4.956938326358795166e-02 5.971616506576538086e-01
-2.476431727409362793e-01 5.579566955566406250e-02 6.465897560119628906e-01
-1.814835965633392334e-01 2.573052793741226196e-02 6.885328888893127441e-01
-2.988726645708084106e-02 -6.612371653318405151e-04 1.202775537967681885e-01
-8.575148135423660278e-02 5.122695118188858032e-03 1.201642751693725586e-01
-7.756389677524566650e-03 2.033692225813865662e-02 2.703985571861267090e-02
-1.146102175116539001e-01 1.507757324725389481e-02 6.744230985641479492e-01
1.932121813297271729e-02 2.954265102744102478e-03 1.225031316280364990e-01
-1.461255699396133423e-01 4.604905843734741211e-02 1.721546053886413574e-01
-1.541957706212997437e-01 5.549476295709609985e-02 6.095567345619201660e-01
-1.415882706642150879e-01 2.564326487481594086e-02 9.029023647308349609e-01
-5.453253537416458130e-02 1.120670698583126068e-02 6.488983631134033203e-01
-1.853989958763122559e-01 5.920711159706115723e-02 7.165190577507019043e-01
-1.252645850181579590e-01 3.556731343269348145e-02 -3.557196259498596191e-02
-7.318779826164245605e-03 2.351580187678337097e-02 2.741035819053649902e-01
-1.303953826427459717e-01 1.300857588648796082e-02 1.501232683658599854e-01
3.604665398597717285e-03 9.617026895284652710e-03 -1.261622607707977295e-01
-1.913268864154815674e-01 2.634054049849510193e-02 5.565372109413146973e-01
1.669900119304656982e-02 6.031455472111701965e-03 -4.698219895362854004e-02
-1.531025469303131104e-01 2.313152700662612915e-02 1.671063899993896484e-02
-1.567482352256774902e-01 1.991527900099754333e-02 1.319392919540405273e-01
-1.023086160421371460e-02 2.438624761998653412e-02 2.425774484872817993e-01
-1.409428864717483521e-01 5.347964912652969360e-02 5.566428899765014648e-01
-2.517356276512145996e-01 5.053626000881195068e-02 6.718862056732177734e-01
-1.522986888885498047e-01 5.142776668071746826e-02 3.447689414024353027e-01
-8.056483417749404907e-02 4.204681143164634705e-02 3.423283696174621582e-01
-4.473306238651275635e-02 7.153868675231933594e-03 5.374940037727355957e-01
-1.283566504716873169e-01 1.487389113754034042e-02 2.241957187652587891e-02
-1.369579881429672241e-01 3.175853937864303589e-02 1.012665748596191406e+00
-9.320501983165740967e-02 8.447712287306785583e-03 -3.998738527297973633e-02
-1.020697951316833496e-01 3.045036457479000092e-02 9.711278676986694336e-01
-1.365244835615158081e-01 5.218208581209182739e-02 8.515939712524414062e-01
-7.174821197986602783e-02 7.267545908689498901e-03 5.083758831024169922e-01
-1.279920786619186401e-01 1.310200616717338562e-02 4.749909043312072754e-01
-5.952955037355422974e-02 3.308399394154548645e-02 7.768628597259521484e-01
1.565338671207427979e-02 2.032497897744178772e-03 1.553585529327392578e-01
8.604452013969421387e-04 3.997351974248886108e-03 3.435021340847015381e-01
-2.369468510150909424e-01 6.015368551015853882e-02 7.451169490814208984e-01
-1.083219200372695923e-01 1.077737100422382355e-02 5.055855512619018555e-01
-1.070185378193855286e-01 1.470025535672903061e-02 6.880022883415222168e-01
-2.009041011333465576e-01 6.011763960123062134e-02 7.015255689620971680e-01
-4.224913567304611206e-02 2.482914179563522339e-02 -8.358189463615417480e-02
1.930023729801177979e-02 2.512451261281967163e-03 5.092874169349670410e-02
1.337790489196777344e-02 1.430130004882812500e-02 1.320591568946838379e-01
-1.458404958248138428e-01 2.096827886998653412e-02 4.225999116897583008e-03
-1.634276509284973145e-01 3.143429011106491089e-02 9.737035036087036133e-01
-1.770259439945220947e-02 2.548027224838733673e-02 4.913818538188934326e-01
-2.099545896053314209e-01 3.974170610308647156e-02 2.461170554161071777e-01
-1.632950007915496826e-01 2.127245068550109863e-02 1.572467684745788574e-01
-9.604595601558685303e-02 4.629936814308166504e-02 6.267198920249938965e-01
-1.408370733261108398e-01 1.456037536263465881e-02 2.371729761362075806e-01
-1.202227100729942322e-01 4.531481862068176270e-02 2.136485725641250610e-01
-1.529122143983840942e-02 2.336850389838218689e-03 3.472376465797424316e-01
-6.314799189567565918e-02 2.335797995328903198e-03 2.050338834524154663e-01
-1.575440317392349243e-01 1.793560571968555450e-02 4.067848324775695801e-01
-2.070384621620178223e-01 3.328427672386169434e-02 3.052169084548950195e-01
-7.313935458660125732e-02 3.936684131622314453e-02 2.474083006381988525e-01
-1.207982525229454041e-01 1.108755171298980713e-02 3.847744464874267578e-01
-2.256602048873901367e-02 2.776514925062656403e-02 4.723183512687683105e-01
-6.274107098579406738e-02 3.672111779451370239e-02 2.039840370416641235e-01
-1.048028022050857544e-01 8.558357134461402893e-03 3.672367930412292480e-01
-1.316079199314117432e-01 4.956938698887825012e-02 3.493586778640747070e-01
-1.134808957576751709e-01 9.445741772651672363e-03 3.044584393501281738e-01
-2.378818094730377197e-01 6.039238721132278442e-02 7.860327363014221191e-01
-1.298995167016983032e-01 2.028809487819671631e-02 7.948287725448608398e-01
-7.776439189910888672e-03 1.066830195486545563e-02 5.065081119537353516e-01
-2.416817396879196167e-01 5.728496611118316650e-02 9.720196723937988281e-01
-1.358583420515060425e-01 5.326858162879943848e-02 6.649426817893981934e-01
-1.493979841470718384e-01 1.692424714565277100e-02 4.939834773540496826e-01
-2.312791049480438232e-01 3.871528059244155884e-02 6.418984532356262207e-01
-7.935807108879089355e-02 4.162326455116271973e-03 1.358290910720825195e-01
-1.396704316139221191e-01 1.560910511761903763e-02 1.175335645675659180e-01
-1.740559339523315430e-01 4.725824296474456787e-02 1.950819790363311768e-01
-1.297964751720428467e-01 4.965626075863838196e-02 3.653372526168823242e-01
-1.196960061788558960e-01 1.148343458771705627e-02 8.831885457038879395e-02
-1.828670203685760498e-01 4.132358357310295105e-02 1.219576001167297363e-01
3.798156976699829102e-03 1.917972415685653687e-02 2.540274560451507568e-01
-4.620365798473358154e-03 1.141738146543502808e-03 2.688599228858947754e-01
-2.052870094776153564e-01 5.869955569505691528e-02 9.934860467910766602e-01
-1.575634032487869263e-01 5.530075728893280029e-02 8.807864189147949219e-01
-4.999038577079772949e-02 8.086245507001876831e-04 8.424177765846252441e-02
-3.869592398405075073e-02 1.282464712858200073e-03 2.875161170959472656e-01
-7.261240482330322266e-02 2.068777009844779968e-02 8.330323100090026855e-01
-2.542522549629211426e-01 5.294530838727951050e-02 7.768381237983703613e-01
-7.411402463912963867e-02 1.767069660127162933e-02 7.917058467864990234e-01
-5.852650105953216553e-02 3.823231160640716553e-02 4.372324645519256592e-01
-1.344429701566696167e-01 1.351723447442054749e-02 4.065472483634948730e-01
-1.742936074733734131e-01 4.056363925337791443e-02 9.072852134704589844e-02
-9.828970581293106079e-02 6.961151957511901855e-03 2.625129818916320801e-01
-1.694306135177612305e-01 5.721221864223480225e-02 8.600198030471801758e-01
-2.371104508638381958e-01 5.681640654802322388e-02 5.840312242507934570e-01
-1.957727670669555664e-01 4.771529883146286011e-02 2.388607114553451538e-01
-1.258302628993988037e-01 1.178843155503273010e-02 3.672745227813720703e-01
-7.388107478618621826e-03 4.752786830067634583e-03 -1.805227100849151611e-01
-1.475261300802230835e-01 5.214276909828186035e-02 9.515808820724487305e-01
-1.928890198469161987e-01 2.882320061326026917e-02 2.565362453460693359e-01
-2.508545219898223877e-01 5.679894611239433289e-02 7.295793294906616211e-01
-1.484549343585968018e-01 5.492600798606872559e-02 6.321448683738708496e-01
-3.697247058153152466e-02 2.247191593050956726e-02 -1.129660308361053467e-01
-7.592739909887313843e-02 8.499255403876304626e-03 5.484148263931274414e-01
-8.562621474266052246e-02 1.686839014291763306e-02 7.802351713180541992e-01
-1.155312880873680115e-01 1.697812415659427643e-02 7.373696565628051758e-01
-2.401212900876998901e-01 4.338684305548667908e-02 7.768450379371643066e-01
-2.306649684906005859e-01 3.960464149713516235e-02 7.605794072151184082e-01
-7.609300315380096436e-03 2.180862054228782654e-02 9.588462114334106445e-02
-1.581018567085266113e-01 1.811583526432514191e-02 2.979210317134857178e-01
-2.035791873931884766e-01 5.056226998567581177e-02 3.096906542778015137e-01
-1.590415090322494507e-01 4.712197184562683105e-02 1.895900219678878784e-01
-7.435104250907897949e-02 4.071431607007980347e-02 3.262932300567626953e-01
-1.237203180789947510e-01 4.984219372272491455e-02 8.420163393020629883e-01
-2.405997812747955322e-01 4.488850384950637817e-02 8.415805697441101074e-01
-7.553431391716003418e-02 4.471724852919578552e-03 1.082992553710937500e-02
-9.562843292951583862e-02 4.318285733461380005e-02 2.569457292556762695e-01
-3.107920289039611816e-03 2.164100110530853271e-02 3.420174717903137207e-01
-1.515223979949951172e-01 3.348867967724800110e-02 1.026631712913513184e+00
-1.571851372718811035e-01 5.472467094659805298e-02 9.128166437149047852e-01
-1.677168905735015869e-01 5.750015750527381897e-02 7.735809087753295898e-01
-1.437154710292816162e-01 4.419382661581039429e-02 1.263889968395233154e-01
-1.156534403562545776e-01 9.956261143088340759e-03 1.588694453239440918e-01
-1.028361916542053223e-02 -8.044671267271041870e-04 -4.094520211219787598e-02
-4.542461782693862915e-02 2.750771865248680115e-02 -3.011152148246765137e-02
-6.486681103706359863e-02 3.901822492480278015e-02 3.406974673271179199e-01
-1.967301666736602783e-01 3.967227041721343994e-02 1.670688986778259277e-01
-1.866622716188430786e-01 2.523899823427200317e-02 3.445830345153808594e-01
-2.383193671703338623e-01 4.183336719870567322e-02 7.064918875694274902e-01
-2.232802063226699829e-01 3.813108056783676147e-02 8.075999021530151367e-01
-9.598979353904724121e-02 4.635842889547348022e-02 5.965471863746643066e-01
-2.358538806438446045e-01 5.808480829000473022e-02 9.887158870697021484e-01
-2.341123670339584351e-01 3.984611481428146362e-02 6.076331734657287598e-01
-9.739787131547927856e-02 3.660072758793830872e-02 1.572963595390319824e-02
-1.174599081277847290e-01 5.027934908866882324e-02 6.560457348823547363e-01
-1.412414163351058960e-01 5.181239545345306396e-02 9.173651933670043945e-01
-9.912382066249847412e-02 4.686244577169418335e-02 5.284773707389831543e-01
-1.275076419115066528e-01 1.324610412120819092e-02 4.926255345344543457e-01
-1.107290610671043396e-01 1.999823376536369324e-02 8.297378420829772949e-01
-7.644529640674591064e-02 4.228938370943069458e-02 5.673431754112243652e-01
-9.915466606616973877e-02 1.752582937479019165e-02 7.859044671058654785e-01
-1.122526749968528748e-01 9.161040186882019043e-03 2.787985205650329590e-01
-1.233348846435546875e-01 2.208179421722888947e-02 8.582172989845275879e-01
-2.319935709238052368e-02 2.739084884524345398e-03 3.745411634445190430e-01
-4.608763754367828369e-02 2.692436613142490387e-02 7.546329498291015625e-01
-2.395719438791275024e-01 5.901485681533813477e-02 9.448280334472656250e-01
-1.407816708087921143e-01 1.457669399678707123e-02 3.936816751956939697e-01
-1.136375367641448975e-01 1.049865782260894775e-02 6.881302595138549805e-02
-5.024445056915283203e-02 3.262372314929962158e-02 7.017652988433837891e-01
-1.533033698797225952e-01 3.155205398797988892e-02 9.959663152694702148e-01
-1.716354787349700928e-01 2.136649377644062042e-02 4.938218593597412109e-01
-1.616155207157135010e-01 5.255372077226638794e-02 3.649152219295501709e-01
-7.713542133569717407e-02 2.839589677751064301e-02 -1.139516532421112061e-01
-2.151325941085815430e-01 3.298634663224220276e-02 5.316247344017028809e-01
-1.515772342681884766e-01 5.465325713157653809e-02 5.462338328361511230e-01
-1.510214954614639282e-01 1.797690615057945251e-02 5.591365694999694824e-01
-8.430996537208557129e-02 2.306732907891273499e-02 -1.845416128635406494e-01
-1.076025590300559998e-01 1.317063905298709869e-02 6.281318068504333496e-01
-1.204747110605239868e-01 4.862905293703079224e-02 8.678376078605651855e-01
-8.265221863985061646e-02 3.113213926553726196e-02 -7.360890507698059082e-02
-2.285047620534896851e-02 2.840955182909965515e-02 2.743225097656250000e-01
-2.039934396743774414e-01 4.827354103326797485e-02 2.709929943084716797e-01
-1.904729604721069336e-01 2.579265087842941284e-02 4.753595590591430664e-01
-1.105167195200920105e-01 4.534713551402091980e-02 8.981943726539611816e-01
-2.033805996179580688e-01 6.034696102142333984e-02 7.180025577545166016e-01
-4.468001425266265869e-02 3.447344154119491577e-02 3.309797644615173340e-01
-8.086837828159332275e-02 4.198782518506050110e-02 7.157241106033325195e-01
-1.091542020440101624e-01 9.859872981905937195e-03 5.065459012985229492e-02
-2.589073777198791504e-02 -8.701924234628677368e-04 2.961364388465881348e-02
-1.485907733440399170e-01 1.712745800614356995e-02 5.259351134300231934e-01
-9.622663259506225586e-02 1.659027114510536194e-02 7.663587331771850586e-01
-1.909956037998199463e-01 3.077806159853935242e-02 1.854061484336853027e-01
-6.249155476689338684e-02 3.758568316698074341e-02 2.607928812503814697e-01
-6.403662264347076416e-02 2.391325309872627258e-03 7.091182470321655273e-02
-5.540189892053604126e-02 2.176535874605178833e-02 7.992135286331176758e-01
-2.518790215253829956e-02 2.743740007281303406e-02 1.391197144985198975e-01
-2.427469789981842041e-01 5.987693369388580322e-02 8.088759183883666992e-01
-6.717172265052795410e-02 1.993184909224510193e-02 8.141239881515502930e-01
-1.745131015777587891e-01 2.177038416266441345e-02 3.842147886753082275e-01
-1.315553039312362671e-01 4.679948091506958008e-02 9.952201843261718750e-01
-1.549158245325088501e-01 1.812060736119747162e-02 5.112888813018798828e-01
-1.890815347433090210e-01 5.318659543991088867e-02 3.553870916366577148e-01
-1.795796751976013184e-01 5.784482508897781372e-02 5.998332500457763672e-01
-1.935460716485977173e-01 5.750219896435737610e-02 1.003210783004760742e+00
-1.871049702167510986e-01 5.948340147733688354e-02 7.744418382644653320e-01
-1.424506753683090210e-01 5.419477820396423340e-02 6.504440307617187500e-01
1.968756318092346191e-02 2.869566902518272400e-03 1.011364459991455078e-01
-8.298687636852264404e-02 4.074984043836593628e-02 7.973405718803405762e-01
-2.060160338878631592e-01 6.068054586648941040e-02 8.502534627914428711e-01
2.033710479736328125e-02 4.734836518764495850e-03 1.156622171401977539e-02
-2.245510369539260864e-01 4.044842347502708435e-02 8.838841915130615234e-01
-6.503584980964660645e-02 1.726498268544673920e-02 7.747044563293457031e-01
-1.623591482639312744e-01 5.477378889918327332e-02 9.503599405288696289e-01
-1.012421175837516785e-01 2.314160764217376709e-02 8.944903612136840820e-01
-3.679608553647994995e-02 2.039832994341850281e-03 3.387556970119476318e-01
-6.826308369636535645e-02 3.695560619235038757e-03 3.115119338035583496e-01
-7.410372793674468994e-02 1.133880391716957092e-02 6.491183638572692871e-01
-1.246124356985092163e-01 1.149431057274341583e-02 1.893470436334609985e-01
-7.795648276805877686e-02 4.266941547393798828e-02 5.477930903434753418e-01
-1.289320588111877441e-01 5.218648165464401245e-02 6.447707414627075195e-01
-1.419574618339538574e-01 4.114176332950592041e-02 6.058195233345031738e-02
-2.342389822006225586e-01 6.080993264913558960e-02 8.391776084899902344e-01
-6.819392740726470947e-02 3.029545769095420837e-03 2.347916662693023682e-01
-1.702278107404708862e-01 3.449063003063201904e-02 1.013586163520812988e+00
-2.087721228599548340e-02 2.798669598996639252e-02 3.781137168407440186e-01
-9.771511703729629517e-02 4.263568669557571411e-02 8.728223443031311035e-01
-2.799294143915176392e-02 3.019751422107219696e-02 3.651813566684722900e-01
-1.258817166090011597e-01 1.835967227816581726e-02 7.477728724479675293e-01
-1.111742034554481506e-01 8.924800902605056763e-03 2.293151170015335083e-01
-4.878959804773330688e-02 1.014688983559608459e-03 2.018407434225082397e-01
-1.849297583103179932e-01 2.546869590878486633e-02 2.844391465187072754e-01
-1.464032381772994995e-01 4.831314831972122192e-02 2.411450296640396118e-01
-1.201379448175430298e-01 4.286368563771247864e-02 1.302998661994934082e-01
-1.856592595577239990e-01 3.303141146898269653e-02 9.321393370628356934e-01
-1.182539984583854675e-01 4.990052431821823120e-02 5.052332878112792969e-01
-9.906196594238281250e-02 4.608458653092384338e-02 4.190157353878021240e-01
-1.282659471035003662e-01 4.843857139348983765e-02 3.108080625534057617e-01
-1.553744226694107056e-01 4.375431686639785767e-02 1.132043004035949707e-01
-1.762145459651947021e-01 5.788708478212356567e-02 8.763841390609741211e-01
-6.961560249328613281e-02 3.695845976471900940e-02 1.543910503387451172e-01
-1.984818428754806519e-01 5.613511055707931519e-02 4.593720138072967529e-01
-1.268843859434127808e-01 5.183947086334228516e-02 6.841652393341064453e-01
-9.746883809566497803e-02 4.611927270889282227e-02 4.522770047187805176e-01
-7.053023576736450195e-02 3.030691295862197876e-03 1.220484673976898193e-01
-2.322907000780105591e-01 4.483953490853309631e-02 9.375904202461242676e-01
-1.463374644517898560e-01 3.489652276039123535e-02 1.045293450355529785e+00
-2.276971042156219482e-01 5.652904883027076721e-02 5.279531478881835938e-01
-6.710019707679748535e-02 1.354323327541351318e-02 7.077242136001586914e-01
-1.361705362796783447e-03 -7.170625030994415283e-04 1.377870738506317139e-01
-1.098597943782806396e-01 8.742334321141242981e-03 1.984579712152481079e-01
-1.521343439817428589e-01 1.669141836464405060e-02 3.516016304492950439e-01
-8.587908744812011719e-02 3.568885475397109985e-02 2.558803558349609375e-02
-2.047866731882095337e-01 5.766166746616363525e-02 5.244178771972656250e-01
-1.059138700366020203e-01 4.163246601819992065e-02 9.467290639877319336e-01
-2.481193989515304565e-01 4.707959666848182678e-02 7.638339996337890625e-01
-1.130519881844520569e-01 1.881017163395881653e-02 7.966287732124328613e-01
-6.399131566286087036e-02 3.379981592297554016e-02 6.603431701660156250e-02
-1.281341314315795898e-01 1.533147320151329041e-02 5.335360765457153320e-03
-1.358580589294433594e-01 2.000887319445610046e-02 -4.304164648056030273e-02
-9.569862484931945801e-02 4.204207658767700195e-02 2.018885165452957153e-01
-1.513015180826187134e-01 1.690297946333885193e-02 4.492814540863037109e-01
-1.545820832252502441e-01 2.335511334240436554e-02 7.923232913017272949e-01
-2.356359511613845825e-01 5.931566655635833740e-02 6.763948202133178711e-01
-9.157396852970123291e-03 2.138141356408596039e-02 5.284225940704345703e-02
-2.889090031385421753e-02 -7.834248244762420654e-04 9.268620610237121582e-02
-1.720910966396331787e-01 2.987662330269813538e-02 9.097523689270019531e-01
4.245787858963012695e-04 2.933124080300331116e-03 3.149396777153015137e-01
-2.372934520244598389e-01 4.604272171854972839e-02 4.623624980449676514e-01
-1.925222575664520264e-01 5.789026618003845215e-02 9.849811792373657227e-01
1.076787710189819336e-02 4.581902176141738892e-04 -1.913475990295410156e-02
-1.780162900686264038e-01 5.139403790235519409e-02 3.008440732955932617e-01
-8.913490921258926392e-02 4.375491291284561157e-02 3.594627976417541504e-01
-1.148753389716148376e-01 3.871359676122665405e-02 3.119269013404846191e-02
1.335032284259796143e-03 7.344832643866539001e-03 -1.545435488224029541e-01
-1.089266240596771240e-01 2.113340049982070923e-02 -1.581255495548248291e-01
-2.255948483943939209e-01 3.702008724212646484e-02 6.886867284774780273e-01
-7.976292073726654053e-02 6.405601277947425842e-03 4.302764832973480225e-01
-1.526096761226654053e-01 3.687851503491401672e-02 6.520032882690429688e-03
-4.733295738697052002e-02 3.240768238902091980e-02 1.360379159450531006e-01
-4.210655391216278076e-02 1.857983507215976715e-02 -1.909032762050628662e-01
-5.777747556567192078e-02 1.563606783747673035e-03 1.287367045879364014e-01
-1.216121762990951538e-01 2.634499594569206238e-02 -1.243555843830108643e-01
-2.070048451423645020e-01 5.768783390522003174e-02 1.028259038925170898e+00
-4.295703023672103882e-02 1.171207055449485779e-03 2.619379162788391113e-01
-1.603989154100418091e-01 4.872056841850280762e-02 2.323231846094131470e-01
-1.281756013631820679e-01 5.198502913117408752e-02 7.096709012985229492e-01
-2.133742570877075195e-01 3.279768675565719604e-02 4.557001292705535889e-01
-8.103306591510772705e-02 4.252257198095321655e-02 6.812720298767089844e-01
-1.442619860172271729e-01 2.089164778590202332e-02 7.567577362060546875e-01
-2.298238575458526611e-01 5.158927291631698608e-02 1.044815182685852051e+00
-3.413969278335571289e-02 6.702054291963577271e-03 5.168340802192687988e-01
-3.827954083681106567e-02 2.752371504902839661e-02 1.376786828041076660e-02
-2.258149981498718262e-01 5.497820302844047546e-02 4.773498177528381348e-01
-1.301433593034744263e-01 1.404753699898719788e-02 7.627782225608825684e-02
-6.248536333441734314e-02 7.420839741826057434e-03 -1.739024221897125244e-01
-8.257459104061126709e-02 6.910923868417739868e-03 -5.997219681739807129e-02
-1.345662474632263184e-01 5.088335275650024414e-02 9.003995656967163086e-01
-1.581111550331115723e-01 5.578996613621711731e-02 5.909684896469116211e-01
-2.868787944316864014e-02 3.760978579521179199e-04 2.480649650096893311e-01
8.059181272983551025e-03 1.482239644974470139e-02 2.655795216560363770e-02
-2.018193304538726807e-01 2.892931364476680756e-02 5.129399895668029785e-01
-4.836706072092056274e-02 3.028130158782005310e-03 -1.131660640239715576e-01
-1.033316478133201599e-01 8.620485663414001465e-03 3.939240872859954834e-01
3.584988415241241455e-03 1.480348780751228333e-02 -3.118920326232910156e-02
-2.800758928060531616e-02 -1.227390021085739136e-04 -4.649093747138977051e-02
-1.757846772670745850e-01 2.221106365323066711e-02 4.788829386234283447e-01
-1.083017289638519287e-01 3.598055243492126465e-02 -1.866132020950317383e-02
-7.769492268562316895e-02 3.449250012636184692e-02 8.793113231658935547e-01
-6.357592344284057617e-02 2.479434013366699219e-03 4.620322585105895996e-02
-1.234071925282478333e-01 4.180234670639038086e-02 9.293857216835021973e-02
-2.439048588275909424e-01 5.082680284976959229e-02 5.354501008987426758e-01
-1.308272331953048706e-01 2.351088449358940125e-02 8.771377801895141602e-01
-1.699357926845550537e-01 3.102735243737697601e-02 4.042443633079528809e-02
-6.905686855316162109e-02 1.251680962741374969e-02 6.838718652725219727e-01
-1.695998758077621460e-01 5.565932393074035645e-02 4.945338070392608643e-01
-5.584705248475074768e-02 2.860544621944427490e-02 -4.958570003509521484e-02
-1.956272125244140625e-02 1.788469031453132629e-02 -1.259312331676483154e-01
-6.875622272491455078e-02 4.754427820444107056e-03 -6.748023629188537598e-02
-1.765927076339721680e-01 2.238710224628448486e-02 3.564161956310272217e-01
-1.157578453421592712e-01 4.733410477638244629e-02 3.313610851764678955e-01
-3.499913215637207031e-02 2.955833449959754944e-02 1.265522241592407227e-01
-7.685090601444244385e-02 3.747842460870742798e-02 8.298104405403137207e-01
-1.677000224590301514e-01 5.234858393669128418e-02 3.428405523300170898e-01
-5.547591671347618103e-02 3.325719386339187622e-02 7.383380532264709473e-01
-2.091411054134368896e-01 3.601937368512153625e-02 8.740028738975524902e-01
-1.447882056236267090e-01 5.113910138607025146e-02 3.610591888427734375e-01
-1.816068589687347412e-01 2.392486855387687683e-02 5.411849021911621094e-01
-9.154665470123291016e-02 4.436788707971572876e-02 7.349715232849121094e-01
-1.749598979949951172e-01 2.459672465920448303e-02 1.748029291629791260e-01
-4.129438102245330811e-02 2.913068234920501709e-02 4.882603883743286133e-02
-2.006818354129791260e-01 3.335559740662574768e-02 8.495990037918090820e-01
-1.618556678295135498e-01 2.889307215809822083e-02 9.228200912475585938e-01
-1.870552301406860352e-01 3.172826766967773438e-02 1.392936706542968750e-01
-1.467023193836212158e-01 5.260189995169639587e-02 4.308593571186065674e-01
-1.899993121623992920e-01 5.468249320983886719e-02 1.063564419746398926e+00
-6.616909056901931763e-02 3.882225602865219116e-02 6.649645566940307617e-01
-1.859726309776306152e-01 5.909473076462745667e-02 8.594172000885009766e-01
-1.164280250668525696e-01 2.397864684462547302e-02 9.054438471794128418e-01
-6.702081859111785889e-02 1.556811016052961349e-02 7.485598325729370117e-01
-4.204853624105453491e-02 3.292172029614448547e-02 2.359656989574432373e-01
-4.674133658409118652e-02 4.700323566794395447e-03 -1.668648421764373779e-01
1.825511455535888672e-02 8.496107533574104309e-03 2.429290711879730225e-01
-1.393762826919555664e-01 1.589133590459823608e-02 9.861341118812561035e-02
-2.134414613246917725e-01 5.914476513862609863e-02 6.018458604812622070e-01
-1.770111173391342163e-02 2.002487704157829285e-02 -6.846925616264343262e-02
-7.196386158466339111e-02 3.421275690197944641e-02 3.790983557701110840e-02
-1.783214360475540161e-01 5.410724133253097534e-02 3.940089941024780273e-01
-1.675922423601150513e-01 5.746588110923767090e-02 7.042559385299682617e-01
-1.133060157299041748e-01 4.831020534038543701e-02 4.200898110866546631e-01
-6.839276850223541260e-02 3.526670858263969421e-03 2.940282821655273438e-01
-7.955891638994216919e-02 4.085899889469146729e-02 7.550063133239746094e-01
-1.928118616342544556e-01 2.652437239885330200e-02 4.161655008792877197e-01
-1.028624847531318665e-01 9.768567979335784912e-03 4.845360517501831055e-01
-7.931786775588989258e-02 2.038108929991722107e-02 -2.032792270183563232e-01
-1.504350453615188599e-01 5.310520157217979431e-02 9.353269338607788086e-01
-2.000825107097625732e-01 2.899651788175106049e-02 6.140115261077880859e-01
7.484532892704010010e-03 1.742811128497123718e-02 1.770901083946228027e-01
-2.150601148605346680e-01 4.081570729613304138e-02 2.798749208450317383e-01
-1.684643030166625977e-01 3.600841388106346130e-02 1.040112257003784180e+00
-2.109442949295043945e-01 3.965480625629425049e-02 9.642331600189208984e-01
-3.398640453815460205e-02 3.094005957245826721e-02 5.316500663757324219e-01
-5.491035804152488708e-02 2.304419130086898804e-02 -1.577008664608001709e-01
-3.865838050842285156e-02 2.965333871543407440e-02 9.257581830024719238e-02
-2.543472349643707275e-01 5.382832139730453491e-02 7.922269105911254883e-01
-1.788308322429656982e-01 2.281020395457744598e-02 4.066259860992431641e-01
-1.069976240396499634e-01 4.776907339692115784e-02 7.412911653518676758e-01
-1.003179028630256653e-01 1.018913649022579193e-02 5.256376266479492188e-01
-6.622888147830963135e-03 3.476759418845176697e-03 3.621211647987365723e-01
-2.069129645824432373e-01 6.079816073179244995e-02 7.875995635986328125e-01
-8.298175036907196045e-02 3.847180679440498352e-02 1.293861865997314453e-01
-7.857751846313476562e-02 9.284988045692443848e-03 5.724281072616577148e-01
-2.054972350597381592e-01 5.981385707855224609e-02 9.395377635955810547e-01
-3.649280220270156860e-02 3.250654786825180054e-03 3.981866836547851562e-01
-1.325397491455078125e-01 5.252593383193016052e-02 5.834608674049377441e-01
-1.415096074342727661e-01 1.742955669760704041e-02 5.872496962547302246e-02
-3.819308429956436157e-02 1.131584867835044861e-03 -7.640954852104187012e-02
-7.704757153987884521e-02 4.170632362365722656e-02 3.707738220691680908e-01
-4.611626267433166504e-02 1.249284297227859497e-02 6.651487946510314941e-01
-1.332898288965225220e-01 3.193459659814834595e-02 -7.119271159172058105e-02
-5.702905356884002686e-03 4.957485944032669067e-04 -1.042012870311737061e-01
-8.354856818914413452e-02 9.192405268549919128e-03 -1.244758069515228271e-01
-1.465342193841934204e-02 -1.309402287006378174e-03 5.316972732543945312e-02
-1.492913067340850830e-01 4.999312013387680054e-02 1.018398523330688477e+00
-1.122619137167930603e-01 4.344320669770240784e-02 1.754425466060638428e-01
-8.739556372165679932e-02 2.660510130226612091e-02 -1.504866778850555420e-01
-1.483978480100631714e-01 2.041956409811973572e-02 7.149670124053955078e-01
-1.526975631713867188e-02 1.965658552944660187e-02 5.779652595520019531e-01
-1.042086705565452576e-01 9.292498230934143066e-03 4.404472112655639648e-01
-2.020218521356582642e-01 5.162185430526733398e-02 3.285883963108062744e-01
1.413412392139434814e-02 1.955900341272354126e-03 1.740924715995788574e-01
-2.048065215349197388e-01 4.292847588658332825e-02 1.050606131553649902e+00
-1.574084758758544922e-01 1.785387843847274780e-02 3.867682814598083496e-01
-1.467977315187454224e-01 1.806231960654258728e-02 6.113090515136718750e-01
-1.678791046142578125e-01 5.617995560169219971e-02 5.396207571029663086e-01
-2.339967340230941772e-02 6.373822689056396484e-04 2.721383571624755859e-01
-1.840904504060745239e-01 3.858670592308044434e-02 1.070514619350433350e-01
-2.334479391574859619e-01 6.052318960428237915e-02 8.988141417503356934e-01
-1.347207427024841309e-01 5.154629796743392944e-02 4.495149850845336914e-01
-3.884298354387283325e-02 2.866739965975284576e-02 6.760053634643554688e-01
-2.398957759141921997e-01 4.910654574632644653e-02 4.859084784984588623e-01
-1.645750105381011963e-01 2.151429653167724609e-02 6.332669854164123535e-01
7.744118571281433105e-03 -4.361663013696670532e-04 3.937461972236633301e-02
-2.285730391740798950e-01 3.846187517046928406e-02 7.295334339141845703e-01
-4.470288753509521484e-03 -4.110708832740783691e-04 1.789718270301818848e-01
-2.014537155628204346e-01 3.147372975945472717e-02 7.622794508934020996e-01
-1.284326314926147461e-01 1.239811629056930542e-02 1.706167161464691162e-01
-8.104754984378814697e-02 4.296535998582839966e-02 4.303264319896697998e-01
1.265832781791687012e-02 1.027650758624076843e-02 3.317934274673461914e-01
-3.091998398303985596e-02 3.100650385022163391e-03 -1.658608019351959229e-01
-1.183800399303436279e-03 1.767855510115623474e-02 5.539059638977050781e-03
-1.138602122664451599e-01 4.960530996322631836e-02 5.792016983032226562e-01
-2.903912216424942017e-02 6.292406469583511353e-04 -8.831009268760681152e-02
-1.231551617383956909e-01 1.668472588062286377e-02 6.994081735610961914e-01
-1.130860522389411926e-01 1.178523898124694824e-02 -2.511203289031982422e-03
-7.647366076707839966e-02 3.546425700187683105e-02 5.666172504425048828e-02
-1.189028322696685791e-01 4.630352184176445007e-02 2.604893445968627930e-01
-3.663559257984161377e-02 3.408323973417282104e-04 2.170360982418060303e-01
-8.876645565032958984e-02 6.732955574989318848e-03 4.235327243804931641e-03
-1.804041862487792969e-01 5.695006251335144043e-02 9.673916101455688477e-01
-1.540424674749374390e-01 5.553674697875976562e-02 8.078746199607849121e-01
-1.253938525915145874e-01 4.750909283757209778e-02 2.820464670658111572e-01
-1.867733597755432129e-01 5.061228200793266296e-02 2.826023697853088379e-01
-1.786991953849792480e-01 2.692328952252864838e-02 7.738933563232421875e-01
-1.742257773876190186e-01 5.776073783636093140e-02 6.368141174316406250e-01
-1.511474549770355225e-01 2.535026520490646362e-02 8.682827353477478027e-01
-8.177368342876434326e-02 4.547188058495521545e-03 2.194167226552963257e-01
-5.283379554748535156e-02 5.408821627497673035e-03 4.717315733432769775e-01
-1.361648142337799072e-01 1.368935406208038330e-02 2.160326540470123291e-01
-2.407659739255905151e-01 5.990815162658691406e-02 7.660020589828491211e-01
-4.173418879508972168e-02 3.379499912261962891e-02 4.916764497756958008e-01
-8.607203513383865356e-02 3.701243177056312561e-02 8.987911939620971680e-01
-1.766289323568344116e-01 4.926697909832000732e-02 2.428683787584304810e-01
-9.761132299900054932e-03 5.184546113014221191e-03 4.205780327320098877e-01
-1.551876366138458252e-01 5.485274642705917358e-02 5.292160511016845703e-01
-1.985278129577636719e-01 6.032923236489295959e-02 8.161581754684448242e-01
-6.687777489423751831e-02 4.022756218910217285e-02 4.976884722709655762e-01
-1.835874468088150024e-02 -1.105234026908874512e-03 1.187530159950256348e-02
5.618259310722351074e-03 1.040476001799106598e-02 -1.028140485286712646e-01
-8.236601948738098145e-03 2.234220504760742188e-02 1.153236031532287598e-01
1.615650951862335205e-02 6.728714331984519958e-03 2.681494951248168945e-01
-4.273939877748489380e-02 1.139698736369609833e-02 6.386113762855529785e-01
-1.820166260004043579e-01 5.884192138910293579e-02 8.369860053062438965e-01
-2.236308604478836060e-01 4.451688006520271301e-02 9.925780296325683594e-01
-1.836975365877151489e-01 5.797130614519119263e-02 9.350629448890686035e-01
-2.261337935924530029e-01 4.197840020060539246e-02 3.708772957324981689e-01
-1.290077716112136841e-02 2.532963640987873077e-02 2.583754658699035645e-01
-4.540488868951797485e-02 3.250939026474952698e-02 1.619771718978881836e-01
-1.070209890604019165e-01 1.153938099741935730e-02 -4.383593797683715820e-02
-9.126551449298858643e-02 2.473728358745574951e-02 -1.694661676883697510e-01
2.036459743976593018e-03 5.045179277658462524e-04 -8.352449536323547363e-02
-1.462501883506774902e-01 5.044586956501007080e-02 3.231630921363830566e-01
-7.044415175914764404e-02 4.090674966573715210e-02 4.457337856292724609e-01
-2.771302312612533569e-02 2.962746657431125641e-02 2.583551406860351562e-01
-1.763490438461303711e-01 2.739801257848739624e-02 8.098299503326416016e-01
-1.561896800994873047e-01 5.545186251401901245e-02 8.521522879600524902e-01
-9.421475231647491455e-02 6.486859172582626343e-03 2.839197218418121338e-01
-2.593012899160385132e-02 2.079092524945735931e-02 6.537756919860839844e-01
-1.383875012397766113e-01 1.982676796615123749e-02 -2.476799488067626953e-02
-1.143667548894882202e-01 4.246580973267555237e-02 9.783072471618652344e-01
-1.204048916697502136e-01 5.053266882896423340e-02 7.265747785568237305e-01
-5.719997733831405640e-02 3.403109684586524963e-02 1.222010850906372070e-01
-2.247839421033859253e-01 5.952538177371025085e-02 6.411253213882446289e-01
-4.322110861539840698e-02 2.907864004373550415e-02 3.278437256813049316e-02
-2.111219316720962524e-01 3.287777677178382874e-02 7.009233236312866211e-01
-9.861306101083755493e-02 4.686938971281051636e-02 5.715024471282958984e-01
-6.885574758052825928e-02 3.222124651074409485e-03 2.529793381690979004e-01
-2.402070760726928711e-01 5.911252647638320923e-02 6.990440487861633301e-01
-1.414511352777481079e-01 1.458809524774551392e-02 2.591914832592010498e-01
-1.350556313991546631e-02 2.532120794057846069e-02 3.934573531150817871e-01
-5.287614464759826660e-02 2.036193385720252991e-03 2.798704206943511963e-01
-5.630841851234436035e-02 1.879312098026275635e-03 1.122090220451354980e-02
-2.173857688903808594e-01 4.941276833415031433e-02 3.378725647926330566e-01
-3.745069354772567749e-02 3.625402227044105530e-03 4.136896133422851562e-01
-6.285119056701660156e-02 3.948999568819999695e-03 3.670412003993988037e-01
-1.210866570472717285e-01 1.285713538527488708e-02 5.303130149841308594e-01
-6.543178111314773560e-02 3.470911830663681030e-02 7.944712638854980469e-01
4.229024052619934082e-03 1.898726448416709900e-02 2.168827950954437256e-01
-2.325806617736816406e-01 6.040739268064498901e-02 9.133929014205932617e-01
-1.376203745603561401e-01 1.586494594812393188e-02 5.665314793586730957e-01
-7.216380536556243896e-02 3.745445981621742249e-03 3.177747130393981934e-02
-1.307510882616043091e-01 5.031591281294822693e-02 3.980591297149658203e-01
-2.701988816261291504e-02 7.944181561470031738e-05 2.283190637826919556e-01
-3.387507796287536621e-02 -3.327410668134689331e-04 1.464212834835052490e-01
-1.634761989116668701e-01 2.288976870477199554e-02 7.169213294982910156e-01
-6.467214226722717285e-02 5.244653671979904175e-03 -1.113201081752777100e-01
1.059263013303279877e-02 2.400344237685203552e-02 -4.651461243629455566e-01
-8.867517113685607910e-03 9.455434978008270264e-03 -5.102063417434692383e-01
-3.853404894471168518e-03 2.398211881518363953e-02 -4.694504439830780029e-01
-4.103269055485725403e-02 2.077481895685195923e-02 -5.081111192703247070e-01
6.826535612344741821e-02 -3.637508489191532135e-03 -2.853465080261230469e-01
4.053622484207153320e-02 7.550689391791820526e-03 -3.399877548217773438e-01
2.917912788689136505e-02 -1.572123728692531586e-04 -4.353942871093750000e-01
-4.703793674707412720e-04 2.657456323504447937e-02 -5.246354937553405762e-01
-2.059684321284294128e-02 2.277030050754547119e-02 -4.785802364349365234e-01
-2.049669250845909119e-02 1.212095655500888824e-02 -5.264159440994262695e-01
2.469493821263313293e-02 4.908307921141386032e-03 -3.373996615409851074e-01
-1.819378137588500977e-02 1.865327730774879456e-02 -4.503363370895385742e-01
6.542879343032836914e-02 -1.469059195369482040e-02 -2.965821027755737305e-01
-2.335569635033607483e-02 2.183566987514495850e-02 -5.563275218009948730e-01
-2.324291318655014038e-02 8.293828926980495453e-03 -5.094282627105712891e-01
2.667031064629554749e-02 -8.248877711594104767e-03 -3.939434587955474854e-01
4.788781702518463135e-02 -1.679993048310279846e-02 -2.988673448562622070e-01
1.515782251954078674e-02 1.200939342379570007e-02 -3.781940639019012451e-01
7.798791676759719849e-02 -4.975827410817146301e-03 -3.138665258884429932e-01
6.172148138284683228e-02 -1.367698889225721359e-02 -3.140736520290374756e-01
-4.680451378226280212e-02 1.825961843132972717e-02 -5.240991115570068359e-01
5.563208088278770447e-02 -1.544932927936315536e-02 -2.657044529914855957e-01
6.822629272937774658e-02 -1.524663995951414108e-02 -2.748296856880187988e-01
-7.290719076991081238e-03 1.380747184157371521e-02 -4.110450744628906250e-01
4.680463671684265137e-02 1.386702340096235275e-02 -3.844099342823028564e-01
-8.767832070589065552e-03 -6.156399846076965332e-03 -3.734018206596374512e-01
2.337316982448101044e-02 -1.411520969122648239e-02 -3.416774868965148926e-01
-3.351470455527305603e-02 2.658124640583992004e-02 -5.365596413612365723e-01
2.272589132189750671e-03 3.870956599712371826e-03 -4.785245954990386963e-01
6.771403551101684570e-02 2.887402893975377083e-03 -3.205619454383850098e-01
5.337095633149147034e-02 -1.168170105665922165e-02 -3.425687849521636963e-01
-9.391536936163902283e-03 -5.361774936318397522e-03 -4.179359078407287598e-01
-1.846102997660636902e-03 -3.578561358153820038e-03 -4.373501241207122803e-01
1.223027892410755157e-02 -8.270584978163242340e-03 -4.008312523365020752e-01
1.498840004205703735e-02 -8.721090853214263916e-04 -4.458141624927520752e-01
3.354174643754959106e-02 2.005723305046558380e-02 -4.592368602752685547e-01
2.330967225134372711e-02 2.067142166197299957e-02 -4.332920908927917480e-01
2.063058316707611084e-02 6.240584421902894974e-03 -4.713762402534484863e-01
2.255913056433200836e-02 -4.807651974260807037e-03 -4.183103442192077637e-01
