4.468772113323211670e-01 -7.335378974676132202e-02 -6.792061030864715576e-02
1.165036708116531372e-01 -3.948803246021270752e-02 8.378294110298156738e-02
7.073054313659667969e-01 -8.571145683526992798e-02 -4.762307927012443542e-02
-3.198086023330688477e-01 -4.539007321000099182e-02 5.602257326245307922e-03
3.883658051490783691e-01 -8.541014790534973145e-02 6.087711453437805176e-02
-1.027392745018005371e-01 -3.288701176643371582e-03 2.412020415067672729e-02
2.229701578617095947e-01 -1.683765277266502380e-02 7.566758990287780762e-02
7.074090242385864258e-01 -1.336424052715301514e-01 -5.690825358033180237e-02
9.430317282676696777e-01 -1.033680438995361328e-01 3.784199804067611694e-02
5.096387863159179688e-01 -5.151389166712760925e-02 -2.284540049731731415e-02
-2.623617649078369141e-01 -7.214222103357315063e-03 7.738281274214386940e-04
9.098067879676818848e-02 -9.562742710113525391e-02 -2.340658335015177727e-03
2.416506409645080566e-02 -9.828473627567291260e-02 -3.763543069362640381e-02
2.837708890438079834e-01 -1.689859107136726379e-02 4.736345633864402771e-02
1.689864993095397949e-01 -1.100408285856246948e-02 6.015352159738540649e-02
3.211777210235595703e-01 -4.231616109609603882e-02 -3.430436924099922180e-02
6.447722315788269043e-01 -1.305966377258300781e-01 -6.774012744426727295e-02
3.160496652126312256e-01 -7.546132057905197144e-02 6.792087107896804810e-02
1.737975180149078369e-01 -1.035985127091407776e-01 -6.846067029982805252e-03
-5.599418282508850098e-02 -3.830228745937347412e-02 6.806440651416778564e-02
-5.501133203506469727e-02 -3.240875899791717529e-03 3.374190628528594971e-02
-2.669063210487365723e-01 -3.492620214819908142e-02 3.656082600355148315e-02
7.187941670417785645e-01 -6.046952307224273682e-02 7.185964379459619522e-03
3.368727564811706543e-01 -1.207465827465057373e-01 -3.340062499046325684e-02
-1.622698903083801270e-01 -4.259750247001647949e-02 4.852058365941047668e-02
-7.987648248672485352e-02 -4.601159319281578064e-02 5.783694237470626831e-02
-9.925389289855957031e-02 -1.396300643682479858e-02 -1.598446257412433624e-02
3.631429970264434814e-01 -7.279032468795776367e-02 -7.545056194067001343e-02
1.420887112617492676e-01 -5.836670845746994019e-02 -7.541576027870178223e-02
-2.649371623992919922e-01 -5.109496414661407471e-02 1.263870298862457275e-02
3.982657194137573242e-02 -6.220928952097892761e-02 -8.261655271053314209e-02
2.546697854995727539e-01 -9.446443617343902588e-02 3.105287253856658936e-02
2.171913832426071167e-01 -4.280837625265121460e-02 8.831855654716491699e-02
6.270918250083923340e-01 -6.874915212392807007e-02 -3.527527675032615662e-02
9.062877893447875977e-01 -8.168800175189971924e-02 2.693431638181209564e-02
8.482362031936645508e-01 -1.220284849405288696e-01 2.003828808665275574e-02
-7.165735960006713867e-02 -6.136433035135269165e-02 3.878614678978919983e-02
4.388750791549682617e-01 -4.986129701137542725e-02 9.100762009620666504e-02
7.770754098892211914e-01 -1.083104908466339111e-01 4.557514563202857971e-02
1.817853599786758423e-01 -1.091322898864746094e-01 -7.956291735172271729e-02
3.573572039604187012e-01 -3.805113583803176880e-02 -1.932815834879875183e-02
6.593716144561767578e-01 -1.217800825834274292e-01 1.575132086873054504e-02
-2.189629077911376953e-01 -3.296767547726631165e-02 4.817324876785278320e-02
3.622406721115112305e-01 -1.157565042376518250e-01 -8.707004040479660034e-02
6.485657393932342529e-02 -8.596934378147125244e-03 2.300814352929592133e-02
3.016962110996246338e-01 -5.345604568719863892e-02 -5.630465596914291382e-02
6.486371755599975586e-01 -6.165242940187454224e-02 -1.629167795181274414e-02
-2.501906752586364746e-01 -3.748819231986999512e-03 1.860505156219005585e-02
-2.399678826332092285e-01 -2.654669806361198425e-02 -4.347171634435653687e-02
6.344034671783447266e-01 -6.351917237043380737e-02 -2.361769787967205048e-02
5.248461961746215820e-01 -8.121393620967864990e-02 -6.824514269828796387e-02
1.609895080327987671e-01 -8.731521666049957275e-02 3.135093301534652710e-02
-6.533598899841308594e-02 -5.817168205976486206e-02 -7.974503189325332642e-02
6.249493956565856934e-01 -1.206815689802169800e-01 1.583933643996715546e-02
-2.433617115020751953e-01 -5.065050348639488220e-02 1.966563239693641663e-02
1.814311593770980835e-01 -6.378418207168579102e-02 6.950549036264419556e-02
1.890963613986968994e-01 -3.028075397014617920e-02 8.918568491935729980e-02
2.008464336395263672e-01 -1.216174289584159851e-02 4.949514567852020264e-02
1.560997664928436279e-01 -7.599212974309921265e-02 5.047561600804328918e-02
5.759136676788330078e-01 -8.261549472808837891e-02 7.392794638872146606e-02
2.878485620021820068e-01 -4.647427424788475037e-02 8.984390646219253540e-02
-1.070463061332702637e-01 -8.607396483421325684e-02 -4.761486873030662537e-02
1.800428628921508789e-01 -9.762600064277648926e-02 1.161807030439376831e-02
6.801964044570922852e-01 -9.406270831823348999e-02 -6.178904324769973755e-02
-1.921864449977874756e-01 -1.783609390258789062e-02 5.989659950137138367e-02
-1.808091998100280762e-01 -3.124266862869262695e-03 1.921213418245315552e-02
-1.844310164451599121e-01 -7.569096237421035767e-02 -3.241472318768501282e-02
-2.651980519294738770e-02 -5.236322432756423950e-02 5.828281119465827942e-02
4.251042008399963379e-02 -9.896916896104812622e-02 -3.156839683651924133e-02
5.846762657165527344e-01 -1.261942982673645020e-01 -4.243741743266582489e-03
5.468957424163818359e-01 -1.197143048048019409e-01 -8.355610072612762451e-02
5.236639976501464844e-01 -1.132832765579223633e-01 2.398143894970417023e-02
5.420187711715698242e-01 -4.780922830104827881e-02 -6.804395001381635666e-03
-1.928288340568542480e-01 -4.398286342620849609e-03 1.148065458983182907e-02
6.117891073226928711e-01 -5.278250575065612793e-02 -2.843244001269340515e-03
5.691809058189392090e-01 -5.003172159194946289e-02 -6.245924159884452820e-03
6.011310219764709473e-02 -8.514510840177536011e-02 -9.134040772914886475e-02
4.763882756233215332e-01 -5.647248029708862305e-02 -3.866048902273178101e-02
4.736595749855041504e-01 -8.063025772571563721e-02 7.231126725673675537e-02
3.558882772922515869e-01 -6.234744191169738770e-02 -6.348236650228500366e-02
8.229338526725769043e-01 -9.522736072540283203e-02 5.897821485996246338e-02
1.222985982894897461e-01 -9.368878602981567383e-02 1.014311425387859344e-02
-1.609549224376678467e-01 -5.062602460384368896e-03 9.382245130836963654e-03
-9.586989879608154297e-03 -5.104122310876846313e-02 -7.342366129159927368e-02
3.349467813968658447e-01 -1.224902272224426270e-01 -5.449560284614562988e-02
5.318494439125061035e-01 -1.277647614479064941e-01 -7.376407086849212646e-02
5.901517868041992188e-01 -1.037497371435165405e-01 4.739553108811378479e-02
5.371718108654022217e-02 -6.995973736047744751e-02 -8.764784038066864014e-02
-1.630833745002746582e-01 -4.091079533100128174e-02 -6.337818503379821777e-02
-2.685031294822692871e-02 -4.138423502445220947e-02 6.912063062191009521e-02
3.205438554286956787e-01 -1.189071536064147949e-01 -2.841455675661563873e-02
-4.450115561485290527e-02 -9.225593507289886475e-02 -6.268714368343353271e-02
2.226040959358215332e-01 -6.924085319042205811e-02 6.714050471782684326e-02
7.108884453773498535e-01 -1.326183527708053589e-01 -1.548711396753787994e-02
4.722194671630859375e-01 -1.192057058215141296e-01 2.477464731782674789e-03
-2.572948336601257324e-01 -1.265703886747360229e-02 -1.613156683743000031e-02
2.752706408500671387e-02 -5.897678434848785400e-03 3.138411790132522583e-02
5.070598721504211426e-01 -1.257966756820678711e-01 -1.461066585034132004e-02
2.147941589355468750e-01 -1.113864183425903320e-01 -2.558169327676296234e-02
-3.453042507171630859e-01 -4.932378977537155151e-02 -2.189498022198677063e-02
8.228479027748107910e-01 -1.098273992538452148e-01 4.256798699498176575e-02
7.209386825561523438e-01 -9.232804179191589355e-02 -5.363940075039863586e-02
5.894351601600646973e-01 -9.741124510765075684e-02 -7.597674429416656494e-02
1.138201653957366943e-01 -1.072490736842155457e-01 -5.796345695853233337e-02
-3.474926948547363281e-02 -2.543598413467407227e-02 -3.742771595716476440e-02
2.876217961311340332e-01 -5.659953877329826355e-02 -6.234431266784667969e-02
9.722959995269775391e-01 -1.160496771335601807e-01 1.570779830217361450e-02
3.985357880592346191e-01 -1.172425076365470886e-01 -3.448187839239835739e-03
4.260464310646057129e-01 -7.156668603420257568e-02 -6.799580156803131104e-02
-2.987999320030212402e-01 -2.462670207023620605e-02 3.832105174660682678e-02
7.790553569793701172e-01 -6.752560287714004517e-02 6.928772199898958206e-03
-3.273622393608093262e-01 -1.143219694495201111e-02 -6.881603039801120758e-03
-1.896998882293701172e-01 -6.655736267566680908e-02 -7.204233855009078979e-02
8.208066225051879883e-03 -6.441403925418853760e-02 -8.440294116735458374e-02
-5.706107616424560547e-02 -8.768032491207122803e-02 -2.167187631130218506e-02
6.999800205230712891e-01 -1.350942552089691162e-01 -3.356933966279029846e-02
-1.274406909942626953e-03 -4.308810085058212280e-02 -6.388318538665771484e-02
8.147290349006652832e-01 -6.812918931245803833e-02 2.291419170796871185e-02
8.188907504081726074e-01 -7.215481996536254883e-02 6.109878048300743103e-02
-2.196868658065795898e-01 -6.067080423235893250e-02 -6.934466212987899780e-02
8.495559692382812500e-01 -7.236809283494949341e-02 2.693351730704307556e-02
2.649591565132141113e-01 -1.125702112913131714e-01 -8.460594713687896729e-02
3.075371384620666504e-01 -2.264102548360824585e-02 1.797934994101524353e-02
8.705989718437194824e-01 -1.317715048789978027e-01 -3.729878738522529602e-02
-1.364852488040924072e-01 -3.020370751619338989e-02 6.326514482498168945e-02
8.229289650917053223e-01 -8.856256306171417236e-02 -2.802074700593948364e-02
2.261116504669189453e-01 -1.092437356710433960e-01 -8.598374575376510620e-02
9.404691457748413086e-01 -1.142575591802597046e-01 2.645682170987129211e-02
3.035452961921691895e-02 -5.056232213973999023e-03 4.634743928909301758e-02
4.361001253128051758e-01 -2.716387063264846802e-02 5.482967942953109741e-02
2.466763705015182495e-01 -2.235045656561851501e-02 4.514139145612716675e-03
6.158376932144165039e-01 -4.317040741443634033e-02 4.237649589776992798e-02
4.087507128715515137e-01 -1.259796917438507080e-01 -6.327173113822937012e-02
-1.859028935432434082e-01 -1.443061232566833496e-02 -2.074742317199707031e-02
6.690549254417419434e-01 -5.322404205799102783e-02 7.268009334802627563e-02
6.126192808151245117e-01 -1.146902665495872498e-01 -8.079084008932113647e-02
3.746038973331451416e-01 -1.050559878349304199e-01 -9.288340061902999878e-02
-1.052105426788330078e-02 -9.482793509960174561e-02 -3.574513643980026245e-02
-3.283701539039611816e-01 -8.178725838661193848e-03 2.384803816676139832e-02
7.145018577575683594e-01 -7.968272268772125244e-02 7.491470873355865479e-02
3.355637788772583008e-01 -5.522795766592025757e-02 -5.534154549241065979e-02
6.972517371177673340e-01 -6.702555716037750244e-02 -1.683034002780914307e-02
5.890735983848571777e-02 -9.764064848423004150e-02 -8.136564493179321289e-02
3.058813810348510742e-01 -1.186522543430328369e-01 -3.207314386963844299e-02
4.584599435329437256e-01 -9.440424293279647827e-02 5.328713357448577881e-02
2.592274844646453857e-01 -6.364615261554718018e-02 7.638850063085556030e-02
-3.479810357093811035e-01 -1.268947869539260864e-02 2.544878236949443817e-02
7.496627569198608398e-01 -9.212822467088699341e-02 6.498294323682785034e-02
-1.447301208972930908e-01 -6.510186940431594849e-03 4.248611163347959518e-03
2.947502434253692627e-01 -1.200526654720306396e-01 -5.962670966982841492e-02
-1.071267127990722656e-01 -2.143391221761703491e-02 -3.339222818613052368e-02
1.496157050132751465e-01 -2.013590931892395020e-02 -5.803597159683704376e-03
4.215535521507263184e-01 -1.165283620357513428e-01 2.667083870619535446e-03
5.615041255950927734e-01 -1.273162215948104858e-01 -7.521550357341766357e-02
8.645157516002655029e-02 -1.045296341180801392e-01 -6.519187986850738525e-02
8.916852474212646484e-01 -1.197597086429595947e-01 2.248974516987800598e-02
4.105945825576782227e-01 -4.810955375432968140e-02 9.139779210090637207e-02
4.747116863727569580e-01 -3.297915682196617126e-02 2.620518207550048828e-02
7.363983392715454102e-01 -9.880132973194122314e-02 5.831305682659149170e-02
-5.970627069473266602e-03 -6.159111484885215759e-02 4.928325489163398743e-02
2.739908993244171143e-01 -8.293977379798889160e-02 5.371513590216636658e-02
3.334871530532836914e-01 -1.173496544361114502e-01 -1.752767898142337799e-02
1.658372133970260620e-01 -8.390450477600097656e-02 -9.312710165977478027e-02
1.861537992954254150e-01 -1.014366894960403442e-01 -9.134725481271743774e-02
4.949045181274414062e-01 -5.280186235904693604e-02 -2.835139445960521698e-02
5.047019720077514648e-01 -3.477854654192924500e-02 2.977650612592697144e-02
4.488877654075622559e-01 -1.163256615400314331e-01 7.390698883682489395e-03
6.674915552139282227e-03 -7.336104661226272583e-02 3.215100988745689392e-02
8.511826992034912109e-01 -1.189330071210861206e-01 -5.138833448290824890e-02
6.380307674407958984e-01 -1.071489378809928894e-01 -7.659365236759185791e-02
3.165677785873413086e-01 -9.081554412841796875e-02 4.566500335931777954e-02
-3.494846820831298828e-02 -3.770999610424041748e-03 5.195798724889755249e-02
7.766307592391967773e-01 -9.751946479082107544e-02 5.904086679220199585e-02
2.008515000343322754e-01 -1.050391197204589844e-01 -8.914025872945785522e-02
6.591187715530395508e-01 -1.243246644735336304e-01 -7.465689629316329956e-02
3.080715835094451904e-01 -1.206606924533843994e-01 -4.795078188180923462e-02
5.886453390121459961e-01 -4.042384028434753418e-02 4.451221227645874023e-02
4.775533676147460938e-01 -4.098604619503021240e-02 8.679604530334472656e-02
6.415615081787109375e-01 -9.224671125411987305e-02 -6.532771140336990356e-02
-3.615805506706237793e-01 -1.214037090539932251e-02 4.131902242079377174e-04
4.367621839046478271e-01 -2.924057468771934509e-02 3.057097643613815308e-02
7.737812399864196777e-02 -9.610980749130249023e-02 -7.434290833771228790e-03
8.310182392597198486e-02 -1.004855632781982422e-01 -8.037897199392318726e-02
-1.002854406833648682e-01 -7.321249693632125854e-02 9.544688276946544647e-03
5.519409775733947754e-01 -4.278768599033355713e-02 1.174488291144371033e-02
7.818750143051147461e-01 -6.337673217058181763e-02 2.591968700289726257e-02
-3.154150843620300293e-01 -1.179346442222595215e-02 3.533855825662612915e-02
-2.926993370056152344e-01 -8.961975574493408203e-03 3.828522190451622009e-02
-1.173627674579620361e-01 -2.761698514223098755e-02 -4.507931321859359741e-02
1.316400170326232910e-01 -1.083501428365707397e-01 -6.441343575716018677e-02
2.740733921527862549e-01 -1.186894625425338745e-01 -5.056393519043922424e-02
6.839075088500976562e-01 -1.124913990497589111e-01 3.694697096943855286e-02
1.992481946945190430e-02 -1.852826774120330811e-02 -1.779866404831409454e-02
-3.397381305694580078e-02 -6.460498273372650146e-02 4.018972069025039673e-02
4.234949946403503418e-01 -5.445444211363792419e-02 8.999451249837875366e-02
6.518337726593017578e-01 -1.103715822100639343e-01 3.934300690889358521e-02
5.180478096008300781e-01 -1.288002878427505493e-01 -2.656279504299163818e-02
1.914114356040954590e-01 -6.094846129417419434e-02 -7.539568841457366943e-02
8.565872311592102051e-01 -1.007518321275711060e-01 5.174016579985618591e-02
3.873011469841003418e-01 -5.809721350669860840e-02 -5.375223606824874878e-02
-1.509885489940643311e-01 -1.076577603816986084e-02 -1.009111572057008743e-02
6.345826387405395508e-01 -9.044308215379714966e-02 6.708301603794097900e-02
-2.216238379478454590e-01 -2.658687531948089600e-03 3.254272788763046265e-02
7.709829509258270264e-02 -6.478220224380493164e-02 -8.391632139682769775e-02
5.299852788448333740e-02 -8.697628229856491089e-02 1.229649875313043594e-02
6.127306818962097168e-02 -8.043476939201354980e-02 2.832277305424213409e-02
-4.441314935684204102e-02 -3.001403808593750000e-02 7.429420202970504761e-02
-3.598911166191101074e-01 -4.243706911802291870e-02 -3.949355706572532654e-02
3.005615472793579102e-01 -6.471391767263412476e-02 7.833135873079299927e-02
6.162589788436889648e-01 -4.691346362233161926e-02 1.876797713339328766e-02
5.510745644569396973e-01 -1.290360391139984131e-01 -2.078511379659175873e-02
1.397046297788619995e-01 -8.615326881408691406e-02 3.026320412755012512e-02
-6.556493043899536133e-02 -9.045659005641937256e-02 -5.782910063862800598e-02
1.067329794168472290e-01 -8.207632601261138916e-02 3.286992758512496948e-02
4.342805445194244385e-01 -7.736212015151977539e-02 7.380285859107971191e-02
2.206621468067169189e-01 -2.499658241868019104e-02 8.734919875860214233e-02
7.159720063209533691e-01 -1.169397756457328796e-01 2.965504862368106842e-02
-3.609420657157897949e-01 -2.605032175779342651e-02 -3.123456239700317383e-02
-1.703771948814392090e-02 -6.466154754161834717e-02 -8.438167721033096313e-02
2.085593342781066895e-02 -8.500348031520843506e-02 1.004392188042402267e-02
3.867379128932952881e-01 -1.214831471443176270e-01 -2.206772193312644958e-02
4.705709218978881836e-01 -4.313666746020317078e-02 -1.044940762221813202e-02
5.063686370849609375e-01 -8.807148784399032593e-02 6.526849418878555298e-02
-1.947340667247772217e-01 -2.180288359522819519e-02 -3.620035201311111450e-02
7.561100721359252930e-01 -1.146242171525955200e-01 -6.542599946260452271e-02
1.170621216297149658e-01 -8.233692497014999390e-03 4.911071434617042542e-02
-1.285930573940277100e-01 -2.761065959930419922e-03 4.794149100780487061e-02
5.936106443405151367e-01 -1.334800124168395996e-01 -4.895019158720970154e-02
1.058229804039001465e-02 -6.061326712369918823e-02 5.308308452367782593e-02
6.403752565383911133e-01 -1.263699531555175781e-01 1.386386691592633724e-03
2.681908309459686279e-01 -4.956043511629104614e-02 8.764224499464035034e-02
6.942808628082275391e-03 -8.134248852729797363e-02 -8.897738903760910034e-02
-1.299898624420166016e-01 -7.957237958908081055e-02 -1.964583620429039001e-02
3.814315795898437500e-02 -4.235320538282394409e-02 -6.107339635491371155e-02
-2.792928814888000488e-01 -2.774725109338760376e-02 -4.332086443901062012e-02
5.187848806381225586e-01 -4.692880809307098389e-02 -9.855234995484352112e-03
5.581672191619873047e-01 -7.168789207935333252e-02 -5.152692273259162903e-02
2.030742466449737549e-01 -1.051921248435974121e-01 -5.002244375646114349e-03
8.199724555015563965e-02 -9.574137628078460693e-03 6.896617263555526733e-02
1.459307968616485596e-01 -1.330983638763427734e-02 7.434469461441040039e-02
6.804934740066528320e-01 -5.475358664989471436e-02 1.293040253221988678e-02
4.359595477581024170e-01 -8.655506372451782227e-02 -8.213028311729431152e-02
3.712213337421417236e-01 -1.215440183877944946e-01 -2.661483734846115112e-02
1.724479645490646362e-01 -2.184791862964630127e-02 -7.251020520925521851e-03
-2.368845939636230469e-01 -3.410659730434417725e-03 3.580632060766220093e-02
4.855471849441528320e-01 -1.236120164394378662e-01 -9.965947829186916351e-03
5.207577347755432129e-01 -9.447364509105682373e-02 -8.068364858627319336e-02
9.802268445491790771e-02 -1.050086319446563721e-01 -4.064216464757919312e-02
7.214556336402893066e-01 -1.238063871860504150e-01 1.438744273036718369e-02
4.077840447425842285e-01 -1.150613352656364441e-01 -8.882068097591400146e-02
2.423425316810607910e-01 -6.542764604091644287e-02 7.322391867637634277e-02
3.546820878982543945e-01 -2.584214508533477783e-02 1.778343133628368378e-02
3.013738691806793213e-01 -9.212044626474380493e-02 -9.309325367212295532e-02
1.211433261632919312e-01 -7.812608778476715088e-02 4.222743213176727295e-02
-5.645930767059326172e-02 -8.118900656700134277e-02 6.123747443780303001e-04
4.009439945220947266e-01 -1.253219544887542725e-01 -4.108301550149917603e-02
-2.434601187705993652e-01 -6.831380724906921387e-02 -3.745217993855476379e-02
1.464903652667999268e-01 -9.915307164192199707e-02 4.622734850272536278e-04
9.264479875564575195e-01 -8.649539202451705933e-02 1.889950968325138092e-02
5.072153806686401367e-01 -3.321208804845809937e-02 4.419970884919166565e-02
-1.060700714588165283e-01 -9.233135730028152466e-03 -2.757978858426213264e-03
1.236496269702911377e-01 -7.397478073835372925e-02 -8.921431005001068115e-02
2.096931487321853638e-01 -1.119817048311233521e-01 -7.707082480192184448e-02
-1.003886461257934570e-01 -5.400197952985763550e-02 -7.620313763618469238e-02
1.943883597850799561e-01 -1.512243598699569702e-02 2.149032615125179291e-02
3.147850930690765381e-01 -9.967079758644104004e-02 -9.415207058191299438e-02
4.048371315002441406e-02 -6.317251920700073242e-02 5.379110202193260193e-02
-3.111795783042907715e-01 -1.433929800987243652e-02 -1.694750227034091949e-02
2.767429053783416748e-01 -1.086493432521820068e-01 1.551139866933226585e-04
2.441522479057312012e-02 -9.518589824438095093e-03 1.101342123001813889e-02
4.973111748695373535e-01 -4.494678601622581482e-02 -9.417458437383174896e-03
6.520413756370544434e-01 -8.174685388803482056e-02 7.523284107446670532e-02
5.401310324668884277e-02 -1.021568328142166138e-01 -5.206090584397315979e-02
-3.780623078346252441e-01 -4.086205735802650452e-02 -1.908605918288230896e-02
4.689000248908996582e-01 -6.110413372516632080e-02 8.769539743661880493e-02
2.889717221260070801e-01 -1.175622418522834778e-01 -3.191327676177024841e-02
7.827466726303100586e-01 -1.337128579616546631e-01 -1.730956509709358215e-02
3.500838279724121094e-01 -2.955438196659088135e-02 8.600732684135437012e-02
-1.290051341056823730e-01 -8.324541896581649780e-02 -5.661773681640625000e-02
1.377740949392318726e-01 -5.262851715087890625e-02 7.654196023941040039e-02
4.728387594223022461e-01 -3.047022223472595215e-02 6.229610368609428406e-02
3.158202171325683594e-01 -3.046337887644767761e-02 -7.013889029622077942e-03
-3.167950510978698730e-01 -2.079655602574348450e-02 -2.966440655291080475e-02
8.061920404434204102e-01 -1.319277435541152954e-01 -8.528918959200382233e-03
-1.840001046657562256e-01 -5.284612625837326050e-02 -7.194147258996963501e-02
-1.212880015373229980e-02 -1.003190129995346069e-02 3.879540599882602692e-03
6.294027566909790039e-01 -4.621882736682891846e-02 2.847614511847496033e-02
5.493948459625244141e-01 -9.363238513469696045e-02 6.025667861104011536e-02
4.007956385612487793e-01 -1.112843528389930725e-01 1.388639956712722778e-02
-2.395242452621459961e-02 -7.766712456941604614e-02 1.735464669764041901e-02
2.222489118576049805e-01 -1.153271794319152832e-01 -6.017355620861053467e-02
5.200458765029907227e-01 -9.980800002813339233e-02 4.932701960206031799e-02
4.639388918876647949e-01 -1.098982095718383789e-01 2.517748065292835236e-02
5.422875881195068359e-01 -1.307247579097747803e-01 -3.265032917261123657e-02
-2.829197645187377930e-01 -9.951710700988769531e-03 -7.327442523092031479e-03
6.851096153259277344e-01 -6.419166922569274902e-02 7.939563691616058350e-02
-1.201713681221008301e-01 -1.042524352669715881e-02 6.558533757925033569e-02
-8.059835433959960938e-02 -2.495959401130676270e-03 3.947878256440162659e-02
4.609024226665496826e-01 -3.006282448768615723e-02 3.789766132831573486e-02
4.545813798904418945e-02 -7.231538742780685425e-02 4.056539386510848999e-02
9.205460548400878906e-01 -1.129870116710662842e-01 -3.314077109098434448e-02
1.291897892951965332e-01 -1.038044318556785583e-01 -8.218833804130554199e-02
5.197654962539672852e-01 -3.875376284122467041e-02 7.838735729455947876e-02
2.739399671554565430e-02 -5.084478482604026794e-02 -7.218043506145477295e-02
8.115831017494201660e-01 -9.887775778770446777e-02 -4.475994780659675598e-02
8.881055712699890137e-01 -1.108280271291732788e-01 -3.985610604286193848e-02
8.683955669403076172e-02 -2.062497287988662720e-02 -1.575827412307262421e-02
7.606935501098632812e-01 -1.352974772453308105e-01 -4.330597072839736938e-02
4.843953847885131836e-01 -4.724744334816932678e-02 -1.792376488447189331e-02
1.388548612594604492e-01 -2.734785526990890503e-02 -2.584085427224636078e-02
7.215430736541748047e-01 -7.444857060909271240e-02 -2.654177509248256683e-02
6.472289562225341797e-01 -6.850779801607131958e-02 -3.094245120882987976e-02
5.588306188583374023e-01 -3.758375346660614014e-02 5.731694400310516357e-02
2.299396991729736328e-01 -1.065668985247612000e-01 -3.275140654295682907e-03
3.079039156436920166e-01 -1.156742647290229797e-01 -1.713049411773681641e-02
-2.324141263961791992e-01 -4.601627588272094727e-03 1.096620224416255951e-02
3.292216062545776367e-01 -6.430435180664062500e-02 -6.865782290697097778e-02
6.164102554321289062e-01 -6.132014095783233643e-02 8.453187346458435059e-02
-2.989444732666015625e-01 -1.118023321032524109e-02 -9.715407155454158783e-03
1.328210830688476562e-01 -8.908230811357498169e-03 5.007953569293022156e-02
1.978271901607513428e-01 -1.342051848769187927e-02 6.758890300989151001e-02
4.752356112003326416e-01 -9.962168335914611816e-02 4.618396237492561340e-02
8.668207526206970215e-01 -1.187318637967109680e-01 2.608311548829078674e-02
3.518705368041992188e-01 -1.127335280179977417e-01 2.142804674804210663e-03
5.126180648803710938e-01 -7.947759330272674561e-02 7.515098899602890015e-02
8.758256435394287109e-01 -8.992661535739898682e-02 5.608621239662170410e-02
-1.966998577117919922e-01 -9.088125079870223999e-03 -6.557662505656480789e-03
1.856184601783752441e-01 -4.398244619369506836e-02 -5.284895002841949463e-02
3.720951080322265625e-02 -2.234395965933799744e-02 -2.528931200504302979e-02
3.620833456516265869e-01 -1.185916215181350708e-01 -1.568390242755413055e-02
5.751950740814208984e-01 -3.939863294363021851e-02 6.060974672436714172e-02
2.987195849418640137e-01 -7.658033072948455811e-02 6.504446268081665039e-02
7.851459980010986328e-01 -6.343628466129302979e-02 5.471475049853324890e-02
9.313012659549713135e-02 -1.601703092455863953e-02 8.036801218986511230e-02
3.071565628051757812e-01 -6.721521168947219849e-02 -7.404850423336029053e-02
3.751477003097534180e-01 -6.583023816347122192e-02 -6.611220538616180420e-02
2.418386340141296387e-01 -2.754182368516921997e-02 -1.198189705610275269e-02
4.390359520912170410e-01 -3.362096473574638367e-02 1.128822285681962967e-02
-6.860566139221191406e-02 -6.921044737100601196e-02 2.550494112074375153e-02
6.820949316024780273e-01 -7.708418369293212891e-02 -3.929008916020393372e-02
7.703458070755004883e-01 -6.216101348400115967e-02 5.859173834323883057e-02
5.670385062694549561e-02 -2.830145508050918579e-02 -3.623863682150840759e-02
6.590834856033325195e-01 -9.359469264745712280e-02 -6.428796052932739258e-02
1.576510071754455566e-02 -5.131587386131286621e-02 6.495161354541778564e-02
6.505030393600463867e-02 -2.305874228477478027e-02 -2.417121268808841705e-02
5.866676568984985352e-03 -8.187806606292724609e-02 1.425277162343263626e-02
3.425650298595428467e-01 -3.223659843206405640e-02 -6.883365102112293243e-03
4.285529553890228271e-01 -1.259801536798477173e-01 -3.484629839658737183e-02
2.106728404760360718e-01 -3.919821232557296753e-02 -4.200512543320655823e-02
-1.516758501529693604e-01 -4.771150648593902588e-03 5.414235964417457581e-02
-8.219099044799804688e-02 -8.402571827173233032e-02 -1.708971150219440460e-02
9.725851416587829590e-01 -1.025464609265327454e-01 2.695055445656180382e-04
4.706370830535888672e-01 -1.263050884008407593e-01 -2.453350275754928589e-02
8.295494914054870605e-01 -1.091457903385162354e-01 -5.083600804209709167e-02
3.044784069061279297e-02 -2.865370735526084900e-02 8.133837580680847168e-02
8.503466844558715820e-03 -9.779626876115798950e-02 -6.106935441493988037e-02
2.746716737747192383e-01 -2.132552489638328552e-02 8.016953617334365845e-02
5.823365449905395508e-01 -1.299279332160949707e-01 -1.943774148821830750e-02
9.700387716293334961e-03 -3.544041886925697327e-02 -5.231599882245063782e-02
1.548084318637847900e-01 -9.900268167257308960e-03 4.963127523660659790e-02
-2.218452095985412598e-02 -8.738569170236587524e-02 -8.012871257960796356e-03
3.212194144725799561e-01 -5.728165060281753540e-02 8.552240580320358276e-02
5.026963949203491211e-01 -3.995535522699356079e-02 8.304811269044876099e-02
6.900925636291503906e-01 -8.497018367052078247e-02 -4.957754164934158325e-02
-4.177364706993103027e-02 -7.254499942064285278e-03 1.093369070440530777e-02
8.230693936347961426e-01 -1.334385871887207031e-01 -4.344531893730163574e-02
2.993479967117309570e-01 -2.740199863910675049e-02 -1.162733766250312328e-03
9.922047257423400879e-01 -1.110453009605407715e-01 9.175254963338375092e-03
3.064534366130828857e-01 -1.161416918039321899e-01 -8.228605240583419800e-02
1.045303940773010254e-01 -9.607245028018951416e-02 -8.939881622791290283e-02
7.571184635162353516e-02 -2.366416156291961670e-02 8.419186621904373169e-02
7.864155769348144531e-01 -7.434718310832977295e-02 6.942128390073776245e-02
7.598898410797119141e-01 -1.027682870626449585e-01 -5.782355368137359619e-02
-4.464447498321533203e-03 -9.239749610424041748e-02 -2.027564868330955505e-02
7.843467593193054199e-01 -1.194179505109786987e-01 2.622100897133350372e-02
7.260705828666687012e-01 -1.345908939838409424e-01 -2.563272789120674133e-02
-2.050510942935943604e-01 -6.443283706903457642e-02 9.233840974047780037e-04
8.910418748855590820e-01 -1.039454787969589233e-01 4.551137238740921021e-02
6.316287815570831299e-02 -5.545628443360328674e-02 6.615267693996429443e-02
2.399145960807800293e-01 -6.801573187112808228e-02 -7.975701242685317993e-02
5.411562919616699219e-01 -3.928967192769050598e-02 2.234808728098869324e-02
3.935441970825195312e-01 -1.211465746164321899e-01 -8.026906847953796387e-02
5.579394102096557617e-01 -7.536779344081878662e-02 7.984777539968490601e-02
-1.601218581199645996e-01 -7.964695245027542114e-02 -5.281545594334602356e-02
5.048238635063171387e-01 -6.582691520452499390e-02 8.558497577905654907e-02
-3.085426688194274902e-01 -3.343115001916885376e-02 2.807148918509483337e-02
8.885594010353088379e-01 -7.915592938661575317e-02 4.307057708501815796e-02
5.229243040084838867e-01 -4.157697409391403198e-02 7.124593015760183334e-03
2.181710302829742432e-01 -1.573595032095909119e-02 2.512038685381412506e-02
7.468196749687194824e-01 -7.588892430067062378e-02 7.407555729150772095e-02
4.244084358215332031e-01 -4.018445312976837158e-02 -1.225454360246658325e-02
-1.361310482025146484e-02 -6.793913990259170532e-02 3.817911073565483093e-02
1.619780063629150391e-01 -1.936439052224159241e-02 8.341283351182937622e-02
8.964579105377197266e-01 -1.264260709285736084e-01 -4.000034928321838379e-02
1.918132752180099487e-01 -1.069846153259277344e-01 -1.402274891734123230e-02
9.731029868125915527e-01 -1.146470233798027039e-01 -1.524746697396039963e-02
4.429560899734497070e-01 -1.275761276483535767e-01 -4.278423637151718140e-02
-1.986963152885437012e-01 -5.270235240459442139e-02 2.719621732831001282e-02
3.009033799171447754e-01 -9.601750969886779785e-02 3.424884378910064697e-02
1.518837958574295044e-01 -1.334441825747489929e-02 1.928025297820568085e-02
7.444057464599609375e-01 -7.502830028533935547e-02 -2.234693057835102081e-02
1.802786290645599365e-01 -9.166713058948516846e-02 2.549570985138416290e-02
7.573999166488647461e-01 -9.198296070098876953e-02 -4.686618596315383911e-02
5.187550783157348633e-01 -3.693941980600357056e-02 2.445184998214244843e-02
1.893568187952041626e-01 -2.430718392133712769e-02 -1.152541954070329666e-02
-7.305109500885009766e-02 -7.437112927436828613e-02 -8.416929095983505249e-02
9.753674268722534180e-02 -4.257446900010108948e-02 -5.776100605726242065e-02
4.599207639694213867e-02 -1.642339304089546204e-02 -9.280073456466197968e-03
-5.512598156929016113e-02 -4.447310417890548706e-02 -6.716822832822799683e-02
7.712192535400390625e-01 -7.855854183435440063e-02 7.139315456151962280e-02
9.127685427665710449e-01 -1.298193782567977905e-01 -1.105891074985265732e-02
1.661429405212402344e-01 -6.383109837770462036e-02 6.793476641178131104e-02
6.458118557929992676e-01 -9.843142330646514893e-02 5.766581743955612183e-02
2.737738788127899170e-01 -3.197999298572540283e-02 -1.828353665769100189e-02
-4.267418384552001953e-02 -3.556468337774276733e-02 -5.504380911588668823e-02
5.928521752357482910e-01 -1.301496028900146484e-01 -6.930943578481674194e-02
2.316031157970428467e-01 -4.525873064994812012e-02 8.798405528068542480e-02
3.962897062301635742e-01 -2.585909143090248108e-02 3.295854851603507996e-02
4.444226622581481934e-01 -1.245460063219070435e-01 -7.650971412658691406e-02
-2.253901958465576172e-02 -3.622099757194519043e-03 4.169732332229614258e-02
-7.903394103050231934e-02 -1.336225122213363647e-02 7.113943248987197876e-02
-7.186472415924072266e-03 -4.459165036678314209e-03 3.426681458950042725e-02
7.059628963470458984e-01 -1.189145073294639587e-01 -7.213051617145538330e-02
-2.552497386932373047e-01 -2.222136780619621277e-02 -3.602556139230728149e-02
3.310602903366088867e-01 -7.750087976455688477e-02 -8.254142105579376221e-02
5.001822710037231445e-01 -1.086891815066337585e-01 -8.802849054336547852e-02
2.391652166843414307e-01 -1.504880189895629883e-02 3.769515827298164368e-02
5.687819719314575195e-01 -1.115468293428421021e-01 3.174549341201782227e-02
6.232811212539672852e-01 -7.863137125968933105e-02 -5.168998986482620239e-02
3.342053294181823730e-01 -1.105985194444656372e-01 5.203778389841318130e-03
-2.167208194732666016e-01 -1.859540864825248718e-02 -3.005360998213291168e-02
9.169256091117858887e-01 -1.003008857369422913e-01 -2.043978869915008545e-02
6.883570551872253418e-01 -5.301867052912712097e-02 6.628440320491790771e-02
4.249733686447143555e-02 -3.025811165571212769e-02 -4.117956757545471191e-02
-2.433775067329406738e-01 -5.121627449989318848e-02 -6.584410369396209717e-02
6.117646694183349609e-01 -1.336894631385803223e-01 -5.345036834478378296e-02
4.149886369705200195e-01 -2.559146657586097717e-02 5.593826994299888611e-02
5.482566356658935547e-01 -1.182797253131866455e-01 1.460337918251752853e-02
-2.975153923034667969e-01 -5.156935378909111023e-02 -5.634654685854911804e-02
8.592489957809448242e-01 -1.259568482637405396e-01 1.002945099025964737e-02
4.721776247024536133e-01 -6.741716712713241577e-02 -5.711846798658370972e-02
8.720226287841796875e-01 -7.537299394607543945e-02 3.232388570904731750e-02
8.878157138824462891e-01 -1.321243643760681152e-01 -2.096664533019065857e-02
7.104040980339050293e-01 -9.518547356128692627e-02 6.251203268766403198e-02
6.090940535068511963e-02 -6.220750510692596436e-03 4.165454581379890442e-02
6.914460659027099609e-01 -1.316543817520141602e-01 -1.285729184746742249e-02
5.656671524047851562e-01 -1.283988356590270996e-01 -1.532557234168052673e-02
8.841349482536315918e-01 -9.887851029634475708e-02 -2.805616334080696106e-02
6.058448553085327148e-02 -6.968504935503005981e-02 4.712899029254913330e-02
-2.197955250740051270e-01 -5.578165501356124878e-02 1.628339104354381561e-02
2.234966903924942017e-01 -2.543324604630470276e-02 -9.214257821440696716e-03
3.163867890834808350e-01 -1.047574505209922791e-01 1.748213917016983032e-02
1.773160696029663086e-01 -6.315169483423233032e-02 -7.855743169784545898e-02
3.473689556121826172e-01 -1.226558089256286621e-01 -6.555238366127014160e-02
7.472124099731445312e-01 -1.355933845043182373e-01 -3.707814589142799377e-02
5.002508759498596191e-01 -1.297143250703811646e-01 -3.827860578894615173e-02
8.862454891204833984e-01 -7.809507846832275391e-02 2.742322534322738647e-02
2.489838898181915283e-01 -2.994985133409500122e-02 8.976536244153976440e-02
2.050323486328125000e-01 -2.628405764698982239e-02 8.820512890815734863e-02
1.345015466213226318e-01 -1.991189271211624146e-02 -7.430660072714090347e-03
2.481957674026489258e-01 -5.738463252782821655e-02 -6.694818288087844849e-02
-6.919954419136047363e-01 2.056359797716140747e-01 1.617232561111450195e-01
2.442846894264221191e-01 1.855250447988510132e-03 -2.808118462562561035e-01
-2.899736166000366211e-01 1.542194932699203491e-01 2.636474668979644775e-01
2.875961661338806152e-01 -1.104080528020858765e-01 1.611504107713699341e-01
-4.417493939399719238e-01 2.600165605545043945e-01 -1.324729155749082565e-02
-3.340753316879272461e-01 7.384987175464630127e-02 -2.956308126449584961e-01
-2.062985002994537354e-01 -1.258982867002487183e-01 7.412625104188919067e-02
4.589825570583343506e-01 1.685473173856735229e-01 4.385728016495704651e-02
-4.915350377559661865e-01 8.061319589614868164e-02 2.743342816829681396e-01
-2.356899976730346680e-01 1.226965636014938354e-01 2.838615775108337402e-01
-2.278909683227539062e-01 4.588109254837036133e-02 -3.017754554748535156e-01
-7.069860398769378662e-02 2.453809976577758789e-01 -5.177117139101028442e-02
5.307393074035644531e-01 -3.348242864012718201e-02 -2.130538523197174072e-01
-6.193141341209411621e-01 1.028870344161987305e-01 -2.525815367698669434e-01
-5.474231839179992676e-01 1.792575120925903320e-01 -2.227799594402313232e-01
5.949593335390090942e-02 6.026429682970046997e-02 -3.000128269195556641e-01
3.660996854305267334e-01 -1.337010264396667480e-01 -9.798035025596618652e-02
-5.274754762649536133e-01 3.629472106695175171e-03 -2.429116517305374146e-01
-3.145509362220764160e-01 -3.954220563173294067e-03 2.693845927715301514e-01
-6.964626908302307129e-01 1.822212338447570801e-02 -2.040435075759887695e-01
-1.086688861250877380e-01 -2.095394209027290344e-02 -2.829276919364929199e-01
1.049765869975090027e-01 2.231892943382263184e-01 8.346366137266159058e-02
4.522017389535903931e-02 3.923677653074264526e-02 -3.020354509353637695e-01
6.673722267150878906e-01 2.232785522937774658e-02 -1.678857952356338501e-01
5.752268433570861816e-01 4.438715428113937378e-02 1.902738511562347412e-01
-1.008430004119873047e+00 1.534336209297180176e-01 -4.364565014839172363e-02
-5.376952290534973145e-01 2.316212803125381470e-01 -1.401457637548446655e-01
4.494803398847579956e-02 5.220120400190353394e-02 2.942755222320556641e-01
-8.408444523811340332e-01 2.052084952592849731e-01 -9.942480176687240601e-02
-3.173685967922210693e-01 2.547908127307891846e-01 -6.751987338066101074e-02
-9.012578725814819336e-01 2.533893287181854248e-02 9.082539379596710205e-02
4.144325554370880127e-01 1.813967078924179077e-01 -1.195285748690366745e-02
1.717729866504669189e-01 -1.466975808143615723e-01 4.537845402956008911e-02
-7.793319970369338989e-02 -1.422301679849624634e-01 3.719647182151675224e-03
-2.657963931560516357e-01 2.118602544069290161e-01 -1.950473934412002563e-01
-6.098095774650573730e-01 -4.428131505846977234e-02 -1.532767415046691895e-01
3.847934007644653320e-01 -8.250739425420761108e-03 2.453452199697494507e-01
-6.484757065773010254e-01 2.195144295692443848e-01 1.473794430494308472e-01
2.143807411193847656e-01 -8.881993591785430908e-02 -2.171050906181335449e-01
1.188625469803810120e-01 -4.003676399588584900e-02 -2.710286974906921387e-01
-1.958377361297607422e-01 -1.310029327869415283e-01 4.480378329753875732e-02
-2.862281799316406250e-01 1.453702300786972046e-01 -2.724939286708831787e-01
-4.014293253421783447e-01 7.577442377805709839e-02 2.854124307632446289e-01
-2.974164485931396484e-01 2.546388208866119385e-01 6.692439317703247070e-02
-2.281015217304229736e-01 2.500381767749786377e-01 8.164051175117492676e-02
-3.473536670207977295e-01 2.469227910041809082e-01 1.088626831769943237e-01
7.107502967119216919e-02 1.142678037285804749e-01 -2.785189747810363770e-01
-1.431015133857727051e-01 -1.208311021327972412e-01 -1.294697672128677368e-01
-4.307872354984283447e-01 -5.819362029433250427e-02 1.887459605932235718e-01
-8.230938911437988281e-01 1.957561969757080078e-01 1.310010403394699097e-01
2.275089919567108154e-01 1.983978450298309326e-01 -1.196011155843734741e-01
-2.404634952545166016e-01 -8.066963404417037964e-03 -2.816372513771057129e-01
-3.787344694137573242e-01 2.593878507614135742e-01 3.366743028163909912e-02
5.946881771087646484e-01 1.179790347814559937e-01 9.357059746980667114e-02
-5.259254574775695801e-01 6.605697423219680786e-02 2.675975859165191650e-01
-8.047869205474853516e-01 2.305174618959426880e-01 -1.987410709261894226e-02
4.591469466686248779e-01 -5.474596098065376282e-02 -2.176677733659744263e-01
6.869951635599136353e-02 1.373380422592163086e-01 -2.614375352859497070e-01
-6.214947104454040527e-01 -3.303024545311927795e-02 1.639899760484695435e-01
-7.869853824377059937e-02 2.238368541002273560e-01 -1.486378759145736694e-01
-1.795175671577453613e-01 -8.218939602375030518e-02 -2.115559875965118408e-01
1.408164203166961670e-01 1.776832491159439087e-01 -1.985418349504470825e-01
5.371260643005371094e-01 1.197604238986968994e-01 -1.425263434648513794e-01
7.117671370506286621e-01 -8.931627869606018066e-02 7.843126077204942703e-04
7.343662381172180176e-01 5.509594082832336426e-02 8.207752555608749390e-02
-4.340256750583648682e-02 2.460271716117858887e-01 -5.915337242186069489e-03
-1.625545024871826172e-01 2.241019532084465027e-02 -3.002101182937622070e-01
6.376367211341857910e-01 -6.143845990300178528e-02 1.376839131116867065e-01
5.468661785125732422e-01 5.073023214936256409e-02 1.986593753099441528e-01
2.890554070472717285e-01 1.555368900299072266e-01 -1.928743869066238403e-01
-1.325331330299377441e-01 -1.383142769336700439e-01 -2.622313611209392548e-02
4.914849102497100830e-01 8.275544643402099609e-02 1.998435556888580322e-01
4.713833034038543701e-01 -1.328344941139221191e-01 3.731944411993026733e-02
4.480203092098236084e-01 -1.323057711124420166e-01 5.657502636313438416e-02
6.073061823844909668e-01 1.308840960264205933e-01 4.621119238436222076e-03
-1.512158662080764771e-02 4.814406856894493103e-02 -3.045200407505035400e-01
-3.633404672145843506e-01 2.236947119235992432e-01 -1.726897805929183960e-01
-5.670826435089111328e-01 -2.493682876229286194e-02 -2.025341391563415527e-01
5.552477240562438965e-01 7.133361697196960449e-02 1.830720901489257812e-01
-1.280514001846313477e-01 -8.825688064098358154e-02 -2.085855454206466675e-01
-1.835871934890747070e-01 -1.344873905181884766e-01 1.110204495489597321e-02
7.733496427536010742e-01 5.446660518646240234e-02 -1.363214384764432907e-02
-2.212209999561309814e-01 2.179457098245620728e-01 1.803890168666839600e-01
-8.624991178512573242e-01 1.335687637329101562e-01 1.719304770231246948e-01
7.241071462631225586e-01 5.111907422542572021e-02 9.785906970500946045e-02
2.434977293014526367e-01 -1.126236617565155029e-01 1.613988429307937622e-01
-6.325461864471435547e-01 -6.511284410953521729e-02 6.577505171298980713e-02
-6.453570723533630371e-02 1.257034540176391602e-01 2.777704298496246338e-01
1.273074150085449219e-01 4.627078026533126831e-02 -2.963274121284484863e-01
3.258659243583679199e-01 -4.281739518046379089e-02 -2.506893575191497803e-01
-7.299558520317077637e-01 1.040141731500625610e-01 -2.248736768960952759e-01
3.093357384204864502e-01 1.872269809246063232e-01 -1.103603839874267578e-01
-1.619036048650741577e-01 2.490555495023727417e-01 6.869416683912277222e-02
-8.482357263565063477e-01 1.721181124448776245e-01 1.514872163534164429e-01
-6.592782735824584961e-01 1.823503673076629639e-01 2.004460841417312622e-01
9.813167154788970947e-03 2.246472239494323730e-01 1.207093670964241028e-01
-4.217368364334106445e-02 -6.458641588687896729e-02 -2.484536170959472656e-01
-6.361298263072967529e-02 2.109853476285934448e-01 -1.772577613592147827e-01
2.732110619544982910e-01 -1.130750179290771484e-01 1.574176996946334839e-01
4.144674837589263916e-01 6.496103107929229736e-02 -2.443304657936096191e-01
-6.603166460990905762e-03 -1.402907818555831909e-01 -7.863376289606094360e-02
7.109964638948440552e-02 2.305164337158203125e-01 -6.580437719821929932e-02
5.521597266197204590e-01 -6.185438111424446106e-02 -1.858949214220046997e-01
3.256867229938507080e-01 -5.135742947459220886e-02 2.320725321769714355e-01
-7.194309234619140625e-01 -3.741947188973426819e-02 -9.916207194328308105e-02
-9.665762186050415039e-01 3.800661861896514893e-02 5.876795388758182526e-03
-2.849973440170288086e-01 -1.067126542329788208e-01 1.219793707132339478e-01
-4.216817915439605713e-01 -1.078613251447677612e-01 1.073472760617733002e-02
1.749919056892395020e-01 -1.476941108703613281e-01 -5.050298571586608887e-02
7.070092111825942993e-02 8.350610733032226562e-02 -2.934706807136535645e-01
-5.311250090599060059e-01 -7.611230015754699707e-02 -1.120500639081001282e-01
-6.168016195297241211e-01 6.116129457950592041e-02 2.483374774456024170e-01
-5.248680710792541504e-01 1.724919080734252930e-01 -2.325368672609329224e-01
-3.945275545120239258e-01 2.428513467311859131e-01 -1.220894753932952881e-01
-5.645071864128112793e-01 1.535188555717468262e-01 -2.420613318681716919e-01
-4.861705899238586426e-01 2.351009994745254517e-01 -1.381755620241165161e-01
5.002823472023010254e-01 1.478836536407470703e-01 9.204910695552825928e-02
7.510360479354858398e-01 4.509039223194122314e-03 1.033981069922447205e-01
-9.263550043106079102e-01 1.803158521652221680e-01 9.462455660104751587e-02
-4.982518255710601807e-01 -2.393001690506935120e-02 2.184662967920303345e-01
-2.457293570041656494e-01 -2.430027350783348083e-02 -2.698611915111541748e-01
4.971303641796112061e-01 1.357244551181793213e-01 -1.350694447755813599e-01
-8.306103944778442383e-02 4.012188315391540527e-02 2.982117831707000732e-01
2.302742898464202881e-01 -1.486263722181320190e-01 -3.171376138925552368e-02
5.073237419128417969e-01 -3.402861580252647400e-02 2.060073614120483398e-01
5.836575627326965332e-01 -6.471404433250427246e-02 1.571871936321258545e-01
-5.050495862960815430e-01 -3.276805952191352844e-02 2.056931406259536743e-01
-4.557571709156036377e-01 9.986196458339691162e-02 -2.800486683845520020e-01
2.979728281497955322e-01 1.188583076000213623e-01 -2.360855638980865479e-01
-8.196006417274475098e-01 1.521248221397399902e-01 -1.782420128583908081e-01
-1.792553365230560303e-01 -8.094412088394165039e-02 2.037574797868728638e-01
-3.533354401588439941e-01 2.560395598411560059e-01 -6.198432669043540955e-02
2.423961460590362549e-01 2.007208466529846191e-01 9.785024076700210571e-02
2.446386218070983887e-01 -1.484353840351104736e-01 1.534467935562133789e-02
2.378315329551696777e-01 7.750621438026428223e-02 -2.754404842853546143e-01
2.825859785079956055e-01 -1.419356316328048706e-01 6.374917179346084595e-02
-6.437262892723083496e-01 1.269781142473220825e-01 2.408507168292999268e-01
7.355496287345886230e-03 -2.379955723881721497e-02 -2.838222682476043701e-01
-4.353195726871490479e-01 -3.870860114693641663e-02 -2.229800969362258911e-01
2.655962705612182617e-01 -1.095632463693618774e-01 -1.792190074920654297e-01
-1.965112686157226562e-01 2.334956228733062744e-01 1.402103900909423828e-01
2.585562318563461304e-02 -1.137887388467788696e-01 1.620547324419021606e-01
-5.478867888450622559e-01 1.942762136459350586e-01 2.062968760728836060e-01
-2.774685621261596680e-03 -1.145865768194198608e-01 1.580965071916580200e-01
1.292043030261993408e-01 -5.191925540566444397e-02 -2.614549696445465088e-01
-3.353014886379241943e-01 2.283741384744644165e-01 1.629475653171539307e-01
6.257049441337585449e-01 -8.441887795925140381e-02 1.106102615594863892e-01
-7.376236468553543091e-02 2.482533752918243408e-01 1.302257180213928223e-02
-1.052949726581573486e-01 2.312536984682083130e-01 -1.320750117301940918e-01
9.610836952924728394e-02 1.920003890991210938e-01 -1.831949502229690552e-01
-8.865023851394653320e-01 5.841610208153724670e-02 1.465651392936706543e-01
5.580800175666809082e-01 -9.299218654632568359e-02 1.267699897289276123e-01
-9.003897011280059814e-02 -1.916004344820976257e-02 -2.848282158374786377e-01
-4.075860977172851562e-01 1.093743443489074707e-01 2.803583443164825439e-01
-1.367310136556625366e-01 -1.087943166494369507e-01 -1.655860394239425659e-01
-4.457459449768066406e-01 2.443777024745941162e-01 -1.140327304601669312e-01
-8.793129920959472656e-01 1.907871067523956299e-01 -1.060335114598274231e-01
-1.512117087841033936e-01 1.432003527879714966e-01 -2.738171517848968506e-01
-5.502644181251525879e-01 -2.627843245863914490e-02 -2.063149958848953247e-01
-9.791439026594161987e-02 1.780435144901275635e-01 -2.360128909349441528e-01
-1.201484054327011108e-01 2.484244108200073242e-02 2.950814962387084961e-01
3.203840255737304688e-01 1.821280568838119507e-01 1.149834394454956055e-01
-9.151934981346130371e-01 3.335409238934516907e-02 -9.392450004816055298e-02
4.734172523021697998e-01 4.348739981651306152e-02 -2.364190518856048584e-01
-1.585398465394973755e-01 2.448100894689559937e-01 9.140245616436004639e-02
