-1.302711199969053268e-03 7.164950668811798096e-02 -5.062334537506103516e-01
-6.533046066761016846e-02 -7.449432462453842163e-02 -3.015362620353698730e-01
1.249051019549369812e-01 2.432807534933090210e-02 -5.141965150833129883e-01
-8.938899636268615723e-02 -7.806910574436187744e-02 -4.173682928085327148e-01
2.219141088426113129e-02 6.215316429734230042e-02 -4.154871106147766113e-01
-1.209669113159179688e-01 6.387561559677124023e-02 -4.857419431209564209e-01
1.985768675804138184e-01 -2.546032890677452087e-02 -3.961978852748870850e-01
-9.602591395378112793e-02 -6.293690949678421021e-02 -6.998912096023559570e-01
-1.482324302196502686e-01 -5.465792492032051086e-02 -5.755603909492492676e-01
-1.644383072853088379e-01 3.335103392601013184e-02 -4.694785475730895996e-01
3.202202916145324707e-02 -1.098854094743728638e-01 -2.397296577692031860e-01
1.040379777550697327e-01 -1.182211190462112427e-01 -3.570784926414489746e-01
1.061215400695800781e-01 3.607324883341789246e-02 -5.163488984107971191e-01
2.330015003681182861e-01 -9.166270494461059570e-02 -1.231796145439147949e-01
-2.245465219020843506e-01 5.274729803204536438e-02 -7.989697456359863281e-01
4.420822486281394958e-02 2.177036926150321960e-02 -1.944920122623443604e-01
9.732573479413986206e-02 -4.508823156356811523e-03 -6.579489111900329590e-01
-1.634063720703125000e-01 8.141891658306121826e-02 -7.403068542480468750e-01
8.252216875553131104e-02 4.913992807269096375e-02 -4.913714230060577393e-01
2.288601398468017578e-01 -3.763332962989807129e-02 -2.079862058162689209e-01
1.110241282731294632e-02 6.629930436611175537e-02 -6.395340561866760254e-01
2.213847935199737549e-01 -7.399258017539978027e-02 -3.152222633361816406e-01
1.024581491947174072e-01 -4.306796006858348846e-03 -1.083700358867645264e-01
-1.029317826032638550e-01 7.601942121982574463e-02 -8.063337802886962891e-01
1.283165067434310913e-01 -1.221077591180801392e-01 -1.916840374469757080e-01
-1.093902140855789185e-01 -6.023209169507026672e-02 -6.989794969558715820e-01
-3.999920934438705444e-02 5.838390812277793884e-02 -7.978484034538269043e-01
-1.718063466250896454e-02 5.178626254200935364e-02 -3.353728652000427246e-01
1.533558368682861328e-01 -1.208153367042541504e-01 -1.682409942150115967e-01
6.214215606451034546e-02 4.628554359078407288e-02 -3.212346434593200684e-01
2.838443219661712646e-02 6.541630625724792480e-02 -4.844994843006134033e-01
-4.882219806313514709e-02 -4.015820473432540894e-02 -7.944349646568298340e-01
-6.479971855878829956e-02 -7.781033217906951904e-02 -6.386333703994750977e-01
8.331800997257232666e-02 -4.693937487900257111e-03 -6.853086948394775391e-01
1.486864686012268066e-01 2.010222524404525757e-02 -4.129609167575836182e-01
1.570085436105728149e-01 -1.121230423450469971e-01 -3.376977443695068359e-01
3.212923929095268250e-02 -7.883633673191070557e-02 -6.356699466705322266e-01
9.599506109952926636e-02 4.432608559727668762e-02 -4.702258706092834473e-01
1.109387278556823730e-01 6.876610219478607178e-03 -1.460771262645721436e-01
9.518025815486907959e-02 -7.786828093230724335e-03 -9.967264533042907715e-02
-1.344223320484161377e-01 7.200114428997039795e-02 -8.487722873687744141e-01
1.479738354682922363e-01 -2.703431062400341034e-02 -5.558327436447143555e-01
8.892628550529479980e-02 -1.009173095226287842e-01 -4.957521557807922363e-01
-1.595830470323562622e-01 -3.070088103413581848e-02 -7.840928435325622559e-01
-1.305060535669326782e-01 -5.584531277418136597e-02 -4.461081326007843018e-01
2.268807440996170044e-01 -3.597852215170860291e-02 -2.441660612821578979e-01
2.417831718921661377e-01 -6.819149106740951538e-02 -1.854065954685211182e-01
4.776909481734037399e-03 -8.942455053329467773e-02 -1.879945099353790283e-01
-5.359270423650741577e-02 7.906663417816162109e-02 -5.485092401504516602e-01
-4.358246549963951111e-02 -9.640386700630187988e-02 -4.016698300838470459e-01
-9.202722460031509399e-02 7.889842987060546875e-02 -5.522248744964599609e-01
-1.725910305976867676e-01 7.743638753890991211e-02 -8.037941455841064453e-01
-2.008830457925796509e-01 3.893314674496650696e-02 -5.795632600784301758e-01
1.718939542770385742e-01 -9.961974620819091797e-02 -3.777805566787719727e-01
6.065234541893005371e-02 -1.172297149896621704e-01 -3.693396449089050293e-01
1.512908339500427246e-01 -6.806074082851409912e-02 -5.131204128265380859e-01
7.800639420747756958e-02 -1.040918081998825073e-01 -1.177980601787567139e-01
1.228788867592811584e-01 -1.150147169828414917e-01 -1.202834248542785645e-01
4.490730166435241699e-02 3.194219619035720825e-02 -7.147605419158935547e-01
-1.258697509765625000e-01 -6.593775004148483276e-02 -5.600923299789428711e-01
-7.042136043310165405e-02 2.935551479458808899e-02 -3.020542263984680176e-01
1.933875232934951782e-01 -8.373677730560302734e-02 -3.827250003814697266e-01
5.980983749032020569e-02 -6.787012517452239990e-02 -6.471334695816040039e-01
-1.988776773214340210e-02 6.667897105216979980e-02 -4.277145862579345703e-01
-2.193674743175506592e-01 1.499649137258529663e-02 -8.225662112236022949e-01
5.996033921837806702e-02 4.611721262335777283e-02 -6.277036070823669434e-01
-2.521540410816669464e-02 7.735174894332885742e-02 -5.775756239891052246e-01
1.195525005459785461e-01 -7.407916337251663208e-02 -5.549132227897644043e-01
1.337252855300903320e-01 -1.193578243255615234e-01 -3.113948106765747070e-01
-1.601313203573226929e-01 4.882149770855903625e-02 -9.084029197692871094e-01
6.627707183361053467e-02 -7.217881828546524048e-02 -6.284281015396118164e-01
1.296195685863494873e-01 -4.958426952362060547e-02 -5.826233029365539551e-01
2.302983552217483521e-01 -4.778262972831726074e-02 -2.738754749298095703e-01
1.466031819581985474e-01 2.103340253233909607e-02 -2.970765233039855957e-01
2.082554548978805542e-01 -1.095542311668395996e-01 -1.686379313468933105e-01
1.589778065681457520e-01 -1.070361584424972534e-01 -6.467068195343017578e-02
2.109604179859161377e-01 -9.735631942749023438e-02 -2.784865498542785645e-01
6.741815060377120972e-02 -2.449595183134078979e-02 -7.086920738220214844e-01
-2.839886210858821869e-02 -5.588646046817302704e-03 -8.358439207077026367e-01
-1.327810138463973999e-01 -6.063909828662872314e-02 -6.266404986381530762e-01
5.605252832174301147e-02 3.791583701968193054e-02 -6.734351515769958496e-01
8.909819275140762329e-02 -1.134971082210540771e-01 -1.496424376964569092e-01
-6.599720567464828491e-02 -4.959260299801826477e-02 -7.710418105125427246e-01
2.246637940406799316e-01 -3.246399760246276855e-02 -2.266110926866531372e-01
4.479135852307081223e-03 -1.055381298065185547e-01 -4.702290594577789307e-01
-1.578807085752487183e-01 -4.079003632068634033e-02 -7.280800342559814453e-01
-1.372748017311096191e-01 -4.313781112432479858e-02 -4.166826009750366211e-01
9.377668797969818115e-02 2.619712054729461670e-02 -2.223540842533111572e-01
1.520600616931915283e-01 -1.075576990842819214e-03 -5.132811069488525391e-01
-1.179873496294021606e-01 5.681711062788963318e-02 -8.846590518951416016e-01
-1.258068084716796875e-01 -5.925009399652481079e-02 -6.717867851257324219e-01
3.136615455150604248e-02 6.051205471158027649e-02 -6.220108270645141602e-01
1.554173976182937622e-01 1.682789996266365051e-03 -1.644018292427062988e-01
8.694721758365631104e-02 4.818614944815635681e-02 -4.595378935337066650e-01
2.963286079466342926e-02 -9.436553716659545898e-02 -1.580844521522521973e-01
-1.643120311200618744e-02 -1.035948395729064941e-01 -3.585110008716583252e-01
1.461260169744491577e-01 -1.123328804969787598e-01 -9.107512235641479492e-02
-1.319262832403182983e-01 6.802292168140411377e-02 -5.237088799476623535e-01
-4.031516611576080322e-02 -9.507972002029418945e-02 -3.539752960205078125e-01
-1.305639743804931641e-01 8.313348889350891113e-02 -6.502134799957275391e-01
-1.321770399808883667e-01 -6.218734011054039001e-02 -5.238999724388122559e-01
-3.806459158658981323e-02 4.007802158594131470e-02 -3.003165423870086670e-01
-1.924111545085906982e-01 -1.570986956357955933e-02 -5.600952506065368652e-01
1.521128043532371521e-02 6.927898526191711426e-02 -5.522614717483520508e-01
1.709362864494323730e-02 5.202437564730644226e-02 -7.133612632751464844e-01
-8.312284946441650391e-02 8.383093774318695068e-02 -6.900143623352050781e-01
6.838668137788772583e-02 4.703740403056144714e-02 -3.363653421401977539e-01
-1.235819160938262939e-01 -6.594125926494598389e-02 -5.962819457054138184e-01
-5.621822178363800049e-02 4.185666143894195557e-02 -8.546776771545410156e-01
-1.767992973327636719e-01 7.810366153717041016e-02 -7.807429432868957520e-01
2.565510571002960205e-02 -8.846673369407653809e-02 -1.465663015842437744e-01
1.463748700916767120e-02 -1.029824018478393555e-01 -5.071700215339660645e-01
1.954319924116134644e-01 -1.377288531512022018e-02 -1.725957989692687988e-01
1.192401275038719177e-01 -9.857751429080963135e-02 -4.726350009441375732e-01
-1.554391533136367798e-01 -4.932871833443641663e-02 -5.499978065490722656e-01
-8.047439903020858765e-02 -6.633082032203674316e-02 -6.953895092010498047e-01
1.728043854236602783e-01 -1.173912584781646729e-01 -2.460108101367950439e-01
-1.507125943899154663e-01 5.458044633269309998e-02 -9.006320238113403320e-01
-4.836461972445249557e-03 5.002401396632194519e-02 -7.645491361618041992e-01
9.493564069271087646e-02 4.422305896878242493e-02 -3.850998282432556152e-01
-1.271453201770782471e-01 -3.979844599962234497e-02 -7.843610048294067383e-01
-2.240261882543563843e-01 5.001712962985038757e-02 -7.206034660339355469e-01
-1.133774444460868835e-01 -6.474965810775756836e-02 -6.566563844680786133e-01
1.858872771263122559e-01 -3.827037289738655090e-03 -2.128924131393432617e-01
4.663473367691040039e-02 -5.192120373249053955e-02 -7.676932215690612793e-02
-1.578395366668701172e-01 -4.551155120134353638e-02 -6.861487627029418945e-01
-5.247589200735092163e-02 7.917514443397521973e-02 -6.935229897499084473e-01
-7.773731648921966553e-02 4.434915259480476379e-02 -3.535149097442626953e-01
-1.913105100393295288e-01 5.072804912924766541e-02 -5.813990831375122070e-01
8.704204857349395752e-02 2.085787057876586914e-02 -6.453092098236083984e-01
-1.156167909502983093e-01 9.129930287599563599e-03 -8.993901610374450684e-01
-3.876695409417152405e-02 -9.700429439544677734e-02 -3.752212524414062500e-01
1.351351290941238403e-01 2.274617552757263184e-02 -4.763496518135070801e-01
-2.297424152493476868e-02 -4.879603907465934753e-02 -1.644664704799652100e-01
-9.133089333772659302e-02 -6.707495450973510742e-02 -3.504936099052429199e-01
1.319808065891265869e-01 4.730230197310447693e-03 -5.620124340057373047e-01
5.209702998399734497e-02 -1.177646219730377197e-01 -3.223750889301300049e-01
-7.735084742307662964e-02 -8.464622497558593750e-02 -4.306682050228118896e-01
-1.266381442546844482e-01 8.453887701034545898e-02 -7.341843247413635254e-01
5.053621530532836914e-02 5.595433339476585388e-02 -5.888993144035339355e-01
2.231380343437194824e-02 5.944937840104103088e-02 -3.890603482723236084e-01
3.457556292414665222e-02 -1.139594465494155884e-01 -2.863026261329650879e-01
-8.860839158296585083e-02 6.525205075740814209e-02 -8.389021754264831543e-01
1.713882833719253540e-01 2.087380737066268921e-03 -4.215688407421112061e-01
2.575271204113960266e-02 -1.129472851753234863e-01 -3.846321702003479004e-01
-3.464356809854507446e-02 -9.786738455295562744e-02 -4.869968593120574951e-01
2.087548077106475830e-01 -8.194717764854431152e-02 -3.426322638988494873e-01
1.604920476675033569e-01 2.294974401593208313e-03 -1.770745813846588135e-01
-4.397730901837348938e-02 -4.758645594120025635e-02 -7.731901407241821289e-01
-1.269496381282806396e-01 8.055126667022705078e-02 -6.087704300880432129e-01
8.323772251605987549e-02 -2.288906462490558624e-02 -7.304805517196655273e-02
1.344815492630004883e-01 -8.149556815624237061e-02 -5.113384723663330078e-01
3.866399824619293213e-02 6.021784618496894836e-02 -4.231688976287841797e-01
1.147638857364654541e-01 -1.225060820579528809e-01 -2.169866114854812622e-01
7.257994264364242554e-02 -4.757310450077056885e-02 -6.752161979675292969e-01
1.137256622314453125e-04 -1.030503362417221069e-01 -2.742519974708557129e-01
-1.601844280958175659e-01 6.889346241950988770e-02 -5.820311307907104492e-01
-2.241213768720626831e-01 8.844774216413497925e-03 -6.991668939590454102e-01
1.034703180193901062e-01 2.877303957939147949e-02 -2.475098818540573120e-01
7.730825990438461304e-02 4.417461529374122620e-02 -5.796162486076354980e-01
-1.125288754701614380e-02 5.534235015511512756e-02 -3.521600067615509033e-01
1.754717528820037842e-01 -3.586481511592864990e-02 -5.431786179542541504e-02
1.749578490853309631e-02 6.778272986412048340e-02 -4.898269772529602051e-01
1.191568300127983093e-01 3.545189648866653442e-02 -3.793383240699768066e-01
2.889409288763999939e-02 -1.140510141849517822e-01 -3.332741260528564453e-01
-7.167582865804433823e-03 -7.283149659633636475e-02 -6.774982810020446777e-01
-2.001783102750778198e-01 4.867520555853843689e-02 -8.864664435386657715e-01
7.060869038105010986e-02 -1.125007718801498413e-01 -4.302623569965362549e-01
-1.087108924984931946e-01 8.521944284439086914e-02 -6.915478706359863281e-01
-2.241124659776687622e-01 2.662159129977226257e-02 -6.632571220397949219e-01
-4.100053384900093079e-02 5.263396725058555603e-02 -3.518134057521820068e-01
4.530632123351097107e-02 6.001028791069984436e-02 -4.418984651565551758e-01
1.168221831321716309e-01 3.591699525713920593e-02 -3.641435205936431885e-01
2.632924914360046387e-02 -5.561036989092826843e-02 -9.978136420249938965e-02
2.206089943647384644e-01 -2.877441793680191040e-02 -2.030451297760009766e-01
-1.311101391911506653e-02 -7.082578726112842560e-03 -8.203086256980895996e-01
-2.051425166428089142e-02 7.328347861766815186e-02 -6.714510917663574219e-01
1.543425470590591431e-01 1.106460019946098328e-02 -2.219557017087936401e-01
-1.769880056381225586e-01 -1.946542784571647644e-02 -8.040614128112792969e-01
9.030693769454956055e-02 -8.888807892799377441e-02 -5.475022196769714355e-01
3.385887295007705688e-02 5.135435983538627625e-02 -3.343246579170227051e-01
-1.335876286029815674e-01 -4.337443038821220398e-02 -4.046198427677154541e-01
1.634402424097061157e-01 5.987739190459251404e-03 -2.091331481933593750e-01
1.228779368102550507e-02 6.406164169311523438e-02 -4.233013689517974854e-01
-1.420317739248275757e-01 5.730408802628517151e-02 -4.917793869972229004e-01
-2.066067457199096680e-01 6.658947467803955078e-02 -7.309812903404235840e-01
1.366342604160308838e-02 -2.227176539599895477e-02 -1.240090429782867432e-01
1.766610443592071533e-01 -5.715436115860939026e-02 -4.738325476646423340e-01
1.653355807065963745e-01 1.039265096187591553e-02 -3.944391012191772461e-01
1.432871967554092407e-01 2.117776498198509216e-02 -2.805656194686889648e-01
1.739231310784816742e-02 -1.107841134071350098e-01 -3.064199090003967285e-01
4.252233356237411499e-02 -1.103715449571609497e-01 -2.163115292787551880e-01
-1.901085376739501953e-01 -2.093931287527084351e-02 -7.584487199783325195e-01
8.636949956417083740e-02 -8.176700770854949951e-02 -5.565646290779113770e-02
1.398404240608215332e-01 2.545062452554702759e-02 -3.283919692039489746e-01
-6.377701461315155029e-02 -8.916853368282318115e-02 -4.081760346889495850e-01
3.388220444321632385e-02 -6.063597276806831360e-02 -6.909332871437072754e-01
7.817173004150390625e-02 -1.009404659271240234e-01 -5.048881173133850098e-01
2.236663550138473511e-01 -9.987898170948028564e-02 -1.197775602340698242e-01
-1.036684215068817139e-01 5.892721936106681824e-02 -4.395995736122131348e-01
-9.249939024448394775e-02 -4.644486680626869202e-02 -2.959218323230743408e-01
-5.150263756513595581e-02 -1.459540799260139465e-03 -8.579534292221069336e-01
7.881986349821090698e-02 1.904324069619178772e-02 -6.684494018554687500e-01
1.909799575805664062e-01 -9.578306972980499268e-02 -3.955927491188049316e-02
-6.477007269859313965e-02 -8.093024045228958130e-02 -6.150931119918823242e-01
-9.434479475021362305e-02 -2.188473567366600037e-02 -8.479720354080200195e-01
-1.145755276083946228e-01 -6.595752388238906860e-02 -6.413580179214477539e-01
-8.974336087703704834e-02 -5.430182442069053650e-02 -7.482565641403198242e-01
-2.000087648630142212e-01 7.085795700550079346e-02 -7.859026193618774414e-01
-4.231634363532066345e-02 -4.730024933815002441e-02 -1.952358782291412354e-01
9.519955515861511230e-02 -1.163114309310913086e-01 -3.835305273532867432e-01
-7.972943037748336792e-02 -3.394462540745735168e-02 -8.177969455718994141e-01
2.363291755318641663e-02 6.723423302173614502e-02 -5.436941981315612793e-01
-3.646111488342285156e-02 7.002988457679748535e-02 -4.536844193935394287e-01
8.829049766063690186e-02 4.627497121691703796e-02 -5.009865164756774902e-01
4.594123736023902893e-02 -8.260525763034820557e-03 -1.172024607658386230e-01
1.516763865947723389e-01 -1.218001991510391235e-01 -2.107656896114349365e-01
1.296176016330718994e-01 -8.988136053085327148e-02 -4.923678636550903320e-01
1.173084229230880737e-01 3.639791160821914673e-02 -4.141844213008880615e-01
-2.115365713834762573e-01 -7.161474786698818207e-03 -7.404088377952575684e-01
8.626782149076461792e-02 3.092309460043907166e-02 -6.176033616065979004e-01
1.075093224644660950e-01 -1.206338256597518921e-01 -3.216568827629089355e-01
-3.788946196436882019e-04 5.196144804358482361e-02 -7.500899434089660645e-01
6.878060102462768555e-02 -2.723040245473384857e-02 -7.440271973609924316e-02
1.714611649513244629e-01 -1.678140833973884583e-02 -1.057544350624084473e-01
4.475764930248260498e-03 5.473438277840614319e-02 -3.474417626857757568e-01
8.961634337902069092e-02 -1.193457245826721191e-01 -3.479291200637817383e-01
4.793327674269676208e-02 5.780768021941184998e-02 -4.138461351394653320e-01
1.098355054855346680e-01 -4.437340795993804932e-02 -6.236519813537597656e-01
-6.179139018058776855e-05 1.071553304791450500e-02 -1.879525184631347656e-01
1.668683588504791260e-01 1.041308417916297913e-02 -2.716961503028869629e-01
1.649305373430252075e-01 -1.190384924411773682e-01 -1.490475237369537354e-01
1.987812817096710205e-01 -1.070661097764968872e-01 -2.625527977943420410e-01
-3.097700141370296478e-02 7.200402021408081055e-02 -4.726480543613433838e-01
4.250060394406318665e-02 -1.162503510713577271e-01 -3.435575366020202637e-01
1.169917136430740356e-01 -1.153878569602966309e-01 -3.734895586967468262e-01
1.344921290874481201e-01 2.657135948538780212e-02 -3.091517686843872070e-01
-1.088566333055496216e-02 6.086918339133262634e-02 -3.858750164508819580e-01
-9.157735854387283325e-02 -3.837187960743904114e-02 -2.831501364707946777e-01
6.884923577308654785e-02 5.036536976695060730e-02 -5.628790855407714844e-01
8.998801000416278839e-03 -1.069113016128540039e-01 -2.832016348838806152e-01
-7.040169090032577515e-02 -7.495392858982086182e-02 -6.521931290626525879e-01
-4.609692096710205078e-02 -7.058821618556976318e-02 -2.394928932189941406e-01
8.375745266675949097e-02 9.107410907745361328e-03 -6.732710003852844238e-01
-8.073681592941284180e-02 7.585301995277404785e-02 -7.801876068115234375e-01
-1.554409600794315338e-02 -1.028734147548675537e-01 -3.374206721782684326e-01
8.645598590373992920e-02 2.645652741193771362e-02 -6.319813132286071777e-01
9.815075248479843140e-02 -1.018877774477005005e-01 -8.607336878776550293e-02
9.243540465831756592e-03 6.003222241997718811e-02 -6.934658288955688477e-01
5.800140276551246643e-02 -1.334730535745620728e-03 -7.285444736480712891e-01
2.058838605880737305e-01 -1.033497899770736694e-01 -7.918649911880493164e-02
2.153146080672740936e-02 -8.223153650760650635e-02 -6.281339526176452637e-01
-6.114741787314414978e-02 -4.837761074304580688e-02 -2.308889776468276978e-01
-9.809309989213943481e-02 6.942652165889739990e-02 -8.333934545516967773e-01
-1.295285522937774658e-01 -5.474371463060379028e-02 -6.990074515342712402e-01
-1.481493413448333740e-01 6.317618489265441895e-02 -8.825640678405761719e-01
-9.252016991376876831e-02 -7.816818356513977051e-02 -5.714485645294189453e-01
-8.072163909673690796e-03 -9.303699433803558350e-02 -2.314538955688476562e-01
2.031185030937194824e-01 -2.058620937168598175e-02 -1.566932797431945801e-01
-6.454662978649139404e-02 -1.737509667873382568e-02 -8.471070528030395508e-01
1.195795461535453796e-01 2.187930420041084290e-02 -2.256012558937072754e-01
9.117401391267776489e-02 -6.027396768331527710e-02 -6.272009611129760742e-01
-3.202106431126594543e-02 7.600475847721099854e-02 -6.746840476989746094e-01
4.565110430121421814e-02 -9.493109583854675293e-02 -5.573646426200866699e-01
1.564230769872665405e-01 -1.080383062362670898e-01 -3.658022880554199219e-01
-5.471856892108917236e-02 -5.511830374598503113e-02 -7.518261671066284180e-01
1.012411192059516907e-01 3.738222643733024597e-02 -3.130347132682800293e-01
1.249980479478836060e-01 4.079734906554222107e-03 -1.427843570709228516e-01
2.201670557260513306e-01 -5.741884186863899231e-02 -3.369902372360229492e-01
2.134867310523986816e-01 -1.002395004034042358e-01 -2.513920664787292480e-01
2.077885717153549194e-01 -1.096027642488479614e-01 -1.477363705635070801e-01
9.795198589563369751e-02 -8.990930020809173584e-02 -5.349230766296386719e-01
1.069040969014167786e-01 -1.188302785158157349e-01 -1.677770614624023438e-01
1.196661964058876038e-01 1.509779691696166992e-02 -5.715757012367248535e-01
2.349061667919158936e-01 -4.844728112220764160e-02 -2.283738404512405396e-01
-2.491546981036663055e-02 4.128895327448844910e-02 -8.163461685180664062e-01
2.123280614614486694e-02 1.794219762086868286e-02 -1.916797459125518799e-01
-1.299661099910736084e-01 -6.362029910087585449e-02 -5.867075920104980469e-01
1.963552385568618774e-01 -9.863261133432388306e-03 -2.119310200214385986e-01
-2.897687442600727081e-02 -9.481236338615417480e-02 -3.034770488739013672e-01
-1.031097248196601868e-01 -2.087812311947345734e-02 -2.969961464405059814e-01
1.521509289741516113e-01 -1.146604120731353760e-01 -1.029896438121795654e-01
4.175533354282379150e-02 -6.874255836009979248e-02 -6.618117094039916992e-01
1.933580189943313599e-01 -1.050470173358917236e-01 -6.930342316627502441e-02
3.028075955808162689e-02 3.478184342384338379e-02 -2.462341636419296265e-01
6.420568376779556274e-02 1.713709533214569092e-02 -1.754660904407501221e-01
-1.178420335054397583e-01 3.299321606755256653e-02 -3.782307505607604980e-01
-1.220632046461105347e-01 -5.252114683389663696e-02 -3.958364129066467285e-01
2.019825726747512817e-01 -1.079110652208328247e-01 -2.423117458820343018e-01
-1.356361992657184601e-02 -8.845287561416625977e-02 -6.021075844764709473e-01
-5.976455286145210266e-02 -4.068601503968238831e-02 -7.964957356452941895e-01
3.772754967212677002e-02 8.156808093190193176e-03 -1.571150124073028564e-01
-2.019077725708484650e-02 -8.066831529140472412e-02 -2.112058699131011963e-01
1.939716339111328125e-01 -1.145427227020263672e-01 -1.705548763275146484e-01
7.642836868762969971e-02 -1.107200831174850464e-01 -1.517849266529083252e-01
-1.283221989870071411e-01 -2.133128419518470764e-02 -3.533103466033935547e-01
-2.189105600118637085e-01 1.035330817103385925e-03 -7.469820976257324219e-01
-3.645865246653556824e-02 2.572651952505111694e-03 -2.088762819766998291e-01
2.118706852197647095e-01 -1.954897679388523102e-02 -2.442861646413803101e-01
8.101028949022293091e-02 -1.553164701908826828e-02 -6.907904744148254395e-01
1.025751307606697083e-01 -6.764294207096099854e-02 -5.953992605209350586e-01
9.977089613676071167e-02 -2.424714341759681702e-02 -6.559042334556579590e-01
-2.283736318349838257e-01 3.343500196933746338e-02 -8.171399831771850586e-01
1.313197314739227295e-01 -1.226863861083984375e-01 -2.475693970918655396e-01
-2.498837001621723175e-02 -1.021413803100585938e-01 -4.102171957492828369e-01
1.703858189284801483e-02 5.085893347859382629e-02 -3.255713582038879395e-01
1.449036598205566406e-01 2.358473092317581177e-02 -3.836391568183898926e-01
-7.469608634710311890e-02 -8.291409909725189209e-02 -5.744525194168090820e-01
1.013687029480934143e-01 -1.128091961145401001e-01 -4.100310802459716797e-01
1.625548154115676880e-01 -4.896743223071098328e-02 -5.151085853576660156e-01
-2.305997721850872040e-02 -5.103548988699913025e-02 -7.552449703216552734e-01
-1.151980087161064148e-01 -6.702797114849090576e-02 -4.527945220470428467e-01
5.750048905611038208e-02 4.953935369849205017e-02 -3.421541750431060791e-01
1.267046481370925903e-02 -1.074551194906234741e-01 -4.574643373489379883e-01
2.240618020296096802e-01 -9.120269119739532471e-02 -2.519810199737548828e-01
8.849193155765533447e-02 -1.203497946262359619e-01 -3.296030759811401367e-01
-1.770252883434295654e-01 -3.364284336566925049e-02 -7.122993469238281250e-01
-9.123544394969940186e-02 6.293876469135284424e-02 -4.433932602405548096e-01
8.226129226386547089e-03 6.598334759473800659e-03 -1.725158095359802246e-01
-1.682290434837341309e-01 5.561374500393867493e-02 -5.386289954185485840e-01
1.365229785442352295e-01 -4.602863267064094543e-02 -5.732041597366333008e-01
-1.479039788246154785e-01 6.866182386875152588e-02 -5.553752779960632324e-01
5.920452252030372620e-02 -1.129472702741622925e-01 -4.268192648887634277e-01
1.755763441324234009e-01 1.671239733695983887e-03 -3.996422886848449707e-01
9.104447066783905029e-02 2.106160670518875122e-02 -1.955202221870422363e-01
1.654877364635467529e-01 -1.203129589557647705e-01 -1.940575838088989258e-01
7.826833426952362061e-02 3.490631654858589172e-02 -2.593410015106201172e-01
-6.488033384084701538e-02 -9.128155186772346497e-03 -2.334486842155456543e-01
1.579919084906578064e-02 -7.394932955503463745e-02 -6.633386611938476562e-01
1.209911890327930450e-02 -5.637604370713233948e-02 -7.195559740066528320e-01
1.119883656501770020e-01 -1.822572946548461914e-02 -6.333956718444824219e-01
-1.844061762094497681e-01 -3.132186084985733032e-02 -6.105914711952209473e-01
1.196147873997688293e-02 -8.480933308601379395e-02 -6.203850507736206055e-01
-1.250740289688110352e-01 -6.411662697792053223e-02 -6.190867424011230469e-01
2.125332206487655640e-01 -6.874557584524154663e-02 -4.122531414031982422e-02
1.649193316698074341e-01 3.282384946942329407e-03 -1.936267614364624023e-01
-4.929326940327882767e-03 3.801159933209419250e-02 -7.923685312271118164e-01
-1.442347019910812378e-01 -2.062001638114452362e-02 -3.938284516334533691e-01
2.387519627809524536e-01 -6.226145848631858826e-02 -1.298807561397552490e-01
8.804479241371154785e-02 -1.216517984867095947e-01 -2.718105018138885498e-01
2.588807139545679092e-03 6.022447720170021057e-02 -7.088394761085510254e-01
1.298320293426513672e-02 -1.045498549938201904e-01 -2.473799139261245728e-01
2.291617393493652344e-01 -9.689784049987792969e-02 -1.429679393768310547e-01
2.049214690923690796e-01 -9.716415405273437500e-02 -3.009388446807861328e-01
-1.290231198072433472e-01 7.215297222137451172e-02 -5.433875918388366699e-01
7.318919897079467773e-02 2.559954673051834106e-02 -2.091343998908996582e-01
2.106117159128189087e-01 -4.775366932153701782e-02 -3.750655055046081543e-01
1.192676052451133728e-01 -9.345106780529022217e-02 -4.693186283111572266e-02
-1.312200427055358887e-01 7.497033476829528809e-02 -5.661106705665588379e-01
-1.017839834094047546e-01 8.387757837772369385e-02 -7.291595935821533203e-01
-9.879144281148910522e-02 3.822894394397735596e-02 -3.621106743812561035e-01
1.818646639585494995e-01 -7.888099551200866699e-02 -1.656740903854370117e-02
2.070351541042327881e-01 -1.533774286508560181e-02 -2.573124766349792480e-01
2.247977703809738159e-01 -8.660660684108734131e-02 -6.881314516067504883e-02
-1.674522645771503448e-02 -7.130871713161468506e-02 -6.860982179641723633e-01
1.502566933631896973e-01 -1.185502111911773682e-01 -1.345583796501159668e-01
7.660833746194839478e-02 -1.204275786876678467e-01 -2.636145949363708496e-01
-1.891085803508758545e-01 -6.610676646232604980e-03 -5.228780508041381836e-01
-1.027879491448402405e-01 8.445568382740020752e-02 -7.176778316497802734e-01
-2.401092648506164551e-02 2.470246329903602600e-02 -8.340175151824951172e-01
1.028495654463768005e-02 4.203440994024276733e-02 -2.813988626003265381e-01
2.023441251367330551e-03 -1.086811870336532593e-01 -3.860571086406707764e-01
1.025204584002494812e-01 1.691810041666030884e-02 -6.152747273445129395e-01
1.514955312013626099e-01 8.365076035261154175e-03 -1.958231627941131592e-01
8.228718489408493042e-02 -6.514041125774383545e-02 -4.640766978263854980e-02
9.300622344017028809e-02 4.505312815308570862e-02 -4.842369854450225830e-01
1.444388739764690399e-02 6.834822893142700195e-02 -5.942544937133789062e-01
1.657244861125946045e-01 8.664885535836219788e-03 -4.088440835475921631e-01
-1.112796440720558167e-01 4.847345873713493347e-02 -4.106006920337677002e-01
-2.561893314123153687e-02 -1.014140993356704712e-01 -3.762423992156982422e-01
2.536685019731521606e-02 -1.122765392065048218e-01 -4.014056026935577393e-01
-4.488213732838630676e-02 -1.936399564146995544e-02 -1.972308754920959473e-01
-3.226732835173606873e-02 1.875419542193412781e-02 -8.461190462112426758e-01
-1.353286653757095337e-01 -1.542813982814550400e-02 -8.583932518959045410e-01
2.284415513277053833e-01 -3.877792134881019592e-02 -1.760877668857574463e-01
9.987626224756240845e-02 -1.222348958253860474e-01 -2.430084198713302612e-01
6.861095130443572998e-02 -1.185809969902038574e-01 -3.513956069946289062e-01
-1.347272545099258423e-01 -7.896475493907928467e-03 -3.641582429409027100e-01
-1.685134321451187134e-01 -2.892465703189373016e-02 -7.754678130149841309e-01
-5.516701191663742065e-02 -9.324949979782104492e-02 -4.351798295974731445e-01
1.835982948541641235e-01 -1.170853376388549805e-01 -1.905359625816345215e-01
9.103865921497344971e-02 -1.211140751838684082e-01 -2.310956865549087524e-01
2.036711126565933228e-01 -4.462316632270812988e-02 -3.999313712120056152e-01
1.089454069733619690e-02 1.875925809144973755e-02 -1.999392211437225342e-01
-4.741108510643243790e-03 6.272579729557037354e-02 -4.001799523830413818e-01
1.967170089483261108e-01 -1.136470586061477661e-01 -1.592421233654022217e-01
-2.318684607744216919e-01 3.431257978081703186e-02 -7.451831102371215820e-01
-2.141336202621459961e-01 6.099278107285499573e-02 -8.171040415763854980e-01
-7.875419408082962036e-02 -7.962984591722488403e-02 -6.005795001983642578e-01
-1.026949435472488403e-01 -3.623003512620925903e-02 -3.058278560638427734e-01
-4.810142889618873596e-02 -4.987894743680953979e-02 -2.077563703060150146e-01
-4.216771572828292847e-02 8.070871233940124512e-03 -2.244154959917068481e-01
-4.076040536165237427e-02 7.712417840957641602e-02 -6.873177289962768555e-01
5.116692557930946350e-02 -9.483268857002258301e-02 -1.243701875209808350e-01
-2.000688165426254272e-01 5.324162915349006653e-02 -6.179196238517761230e-01
1.667059659957885742e-01 -9.304067492485046387e-02 -2.829346060752868652e-02
4.173959046602249146e-02 4.909037426114082336e-02 -3.235353231430053711e-01
-1.533723771572113037e-01 -5.151046440005302429e-02 -6.213603019714355469e-01
5.239430814981460571e-02 -1.108549237251281738e-01 -1.973647177219390869e-01
-1.695698052644729614e-01 6.121045723557472229e-02 -5.644360184669494629e-01
2.286603748798370361e-01 -6.123160198330879211e-02 -8.312371373176574707e-02
1.450780928134918213e-01 -1.184749752283096313e-01 -3.028945922851562500e-01
1.223727911710739136e-01 2.949053049087524414e-02 -4.891752302646636963e-01
8.761482685804367065e-02 4.797493293881416321e-02 -4.357926547527313232e-01
-1.513457298278808594e-01 2.344061434268951416e-02 -4.237669408321380615e-01
8.770799636840820312e-02 4.745154455304145813e-02 -4.107548296451568604e-01
1.588018983602523804e-01 -1.091920137405395508e-01 -3.540899753570556641e-01
-3.820811584591865540e-02 -9.004741907119750977e-02 -5.740340352058410645e-01
-2.031627446413040161e-01 -1.576966419816017151e-02 -6.435003876686096191e-01
-5.481597408652305603e-02 8.000002801418304443e-02 -5.637085437774658203e-01
-1.939862370491027832e-01 7.232576608657836914e-02 -7.217089533805847168e-01
7.379004266113042831e-03 6.572739779949188232e-02 -6.581023931503295898e-01
2.080221772193908691e-01 -5.183613300323486328e-02 -3.851477205753326416e-01
-2.143367379903793335e-01 2.896831929683685303e-02 -8.643331527709960938e-01
-2.083255201578140259e-01 -4.497534595429897308e-03 -7.844040393829345703e-01
1.544475704431533813e-01 1.869038864970207214e-02 -3.691482841968536377e-01
-9.357412904500961304e-02 6.184553727507591248e-02 -8.541761636734008789e-01
-1.598252505064010620e-01 7.787954807281494141e-02 -8.146541118621826172e-01
-2.230835258960723877e-01 1.316941529512405396e-02 -7.969506978988647461e-01
-1.483467370271682739e-01 -3.207301348447799683e-02 -4.243751764297485352e-01
8.165419101715087891e-02 -9.668855369091033936e-02 -5.232757925987243652e-01
2.507337182760238647e-02 6.374353170394897461e-02 -6.126957535743713379e-01
6.882492452859878540e-02 4.337647929787635803e-02 -6.145578622817993164e-01
-1.105602383613586426e-01 -7.178118824958801270e-02 -4.835107028484344482e-01
-8.549946546554565430e-02 -7.398999482393264771e-02 -3.660387694835662842e-01
1.258486658334732056e-01 2.617947757244110107e-02 -2.708031535148620605e-01
8.728286623954772949e-02 -7.946555316448211670e-02 -5.833821892738342285e-01
1.709303855895996094e-01 9.077250957489013672e-03 -3.544754087924957275e-01
1.157059445977210999e-01 3.292002156376838684e-02 -3.088272809982299805e-01
7.530883699655532837e-02 1.625070348381996155e-02 -6.810079216957092285e-01
-2.013445831835269928e-02 -1.003983616828918457e-01 -3.241948187351226807e-01
-1.297659426927566528e-01 -3.688395395874977112e-02 -3.767554163932800293e-01
1.642798036336898804e-01 -2.327485010027885437e-02 -5.115575790405273438e-01
1.467311056330800056e-03 -5.185826122760772705e-02 -7.385854721069335938e-01
1.944886147975921631e-01 -8.833035826683044434e-02 -3.660566210746765137e-01
2.512185461819171906e-02 4.250611364841461182e-02 -2.814791798591613770e-01
-6.149939075112342834e-02 4.949409142136573792e-02 -3.550396561622619629e-01
-1.879324465990066528e-01 2.093438804149627686e-02 -5.131732821464538574e-01
-1.315600723028182983e-01 -4.880145192146301270e-02 -7.344036102294921875e-01
-5.869993194937705994e-02 2.557940036058425903e-02 -2.790547907352447510e-01
-2.332239970564842224e-02 7.388098537921905518e-02 -5.001710653305053711e-01
-1.126360893249511719e-01 -3.710963577032089233e-02 -8.039494156837463379e-01
-2.266091555356979370e-01 1.258800923824310303e-02 -7.561267018318176270e-01
1.670694053173065186e-01 -2.402262762188911438e-03 -1.635704636573791504e-01
1.309312283992767334e-01 -1.086849570274353027e-01 -4.040866792201995850e-01
-1.406455934047698975e-01 -3.367405384778976440e-02 -4.030503332614898682e-01
6.246868520975112915e-02 5.615329369902610779e-02 -4.540125429630279541e-01
3.373227268457412720e-02 -1.103142499923706055e-01 -4.451405107975006104e-01
2.188890278339385986e-01 -1.043387949466705322e-01 -1.608585417270660400e-01
4.319467768073081970e-02 -1.122849434614181519e-01 -4.282442033290863037e-01
5.649999156594276428e-02 -8.468136191368103027e-02 -5.958267450332641602e-01
2.002810984849929810e-01 -7.273536920547485352e-02 -2.626121044158935547e-02
-1.696819365024566650e-01 -4.195232689380645752e-02 -6.009079813957214355e-01
-7.595469057559967041e-02 -7.257537543773651123e-02 -6.620002985000610352e-01
-1.997544020414352417e-01 1.064329221844673157e-02 -8.623490333557128906e-01
-1.790994107723236084e-01 1.823315024375915527e-02 -4.854215681552886963e-01
1.996520608663558960e-01 -3.284158185124397278e-02 -9.164702892303466797e-02
6.817679852247238159e-02 5.359407141804695129e-02 -4.228985011577606201e-01
1.897878944873809814e-02 4.530468955636024475e-02 -2.955357432365417480e-01
7.843858748674392700e-02 4.435715451836585999e-02 -3.296005725860595703e-01
1.831833273172378540e-01 -3.262820094823837280e-02 -4.622521996498107910e-01
-7.337416056543588638e-03 -1.059240996837615967e-01 -3.498470485210418701e-01
1.764644235372543335e-01 5.097564309835433960e-03 -2.641856670379638672e-01
-5.280451849102973938e-02 8.070734143257141113e-02 -6.652706861495971680e-01
-1.595176309347152710e-01 5.560897663235664368e-02 -5.194727778434753418e-01
-1.712890118360519409e-01 -5.277895368635654449e-03 -4.597703516483306885e-01
-2.300579845905303955e-01 2.128473669290542603e-02 -7.268000841140747070e-01
9.931925684213638306e-02 5.765421316027641296e-03 -1.386548280715942383e-01
3.535691276192665100e-02 -2.542004175484180450e-02 -1.008148789405822754e-01
-7.805621623992919922e-02 -1.584890112280845642e-02 -8.553386926651000977e-01
9.498646110296249390e-02 2.789292857050895691e-02 -6.032244563102722168e-01
-1.410573869943618774e-01 -5.496831983327865601e-02 -6.592177748680114746e-01
-2.291484363377094269e-02 6.972135603427886963e-02 -7.110075354576110840e-01
1.043045222759246826e-01 -1.030994672328233719e-02 -6.468201875686645508e-01
1.757918745279312134e-01 -7.324975728988647461e-02 -4.509704709053039551e-01
9.853816591203212738e-04 1.102297380566596985e-02 -8.087866306304931641e-01
-5.821374431252479553e-02 5.488484725356101990e-02 -8.330419659614562988e-01
-9.775628894567489624e-02 7.515771687030792236e-02 -5.244601964950561523e-01
8.755701780319213867e-02 3.887813165783882141e-02 -5.756747722625732422e-01
-2.783185802400112152e-02 -8.976157009601593018e-02 -5.864321589469909668e-01
-1.370119154453277588e-01 -3.375658392906188965e-02 -3.920946419239044189e-01
-6.180496141314506531e-02 7.605743408203125000e-02 -5.102836489677429199e-01
7.009319961071014404e-02 3.921320661902427673e-02 -6.310515999794006348e-01
-5.755014345049858093e-02 8.138793706893920898e-02 -5.925273895263671875e-01
1.214127764105796814e-01 3.469071164727210999e-02 -4.018913209438323975e-01
1.721115857362747192e-01 -1.228124275803565979e-02 -4.708212614059448242e-01
1.389730125665664673e-01 -1.194596141576766968e-01 -1.461774706840515137e-01
1.452557146549224854e-01 -1.208128035068511963e-01 -2.686444818973541260e-01
-1.543718762695789337e-02 6.835238635540008545e-02 -7.024235129356384277e-01
-2.354378812015056610e-02 -9.963116049766540527e-02 -4.940785169601440430e-01
-2.177923917770385742e-01 2.934499084949493408e-02 -6.305186748504638672e-01
2.096053659915924072e-01 -1.789064146578311920e-02 -2.739619016647338867e-01
1.266755163669586182e-01 3.144004568457603455e-02 -4.326683282852172852e-01
8.812384679913520813e-03 6.623744964599609375e-02 -4.432551860809326172e-01
-8.071721345186233521e-02 -3.169333562254905701e-03 -2.630151808261871338e-01
1.316529214382171631e-01 3.014455363154411316e-02 -3.817810416221618652e-01
-1.210202574729919434e-01 8.013947308063507080e-02 -5.954822897911071777e-01
-9.507261961698532104e-02 -7.920537889003753662e-02 -5.124799013137817383e-01
-6.853368133306503296e-02 8.291509747505187988e-02 -6.645600795745849609e-01
-2.493727952241897583e-02 -1.020116657018661499e-01 -4.295860528945922852e-01
-4.292747750878334045e-02 -7.941052317619323730e-03 -2.035276293754577637e-01
-1.599111557006835938e-01 5.839789286255836487e-02 -5.310251116752624512e-01
4.974179342389106750e-02 -6.953462958335876465e-02 -6.523557901382446289e-01
4.164601117372512817e-02 6.253115832805633545e-02 -5.187908411026000977e-01
-1.844345778226852417e-01 -2.197819761931896210e-02 -5.415609478950500488e-01
1.359259486198425293e-01 2.806167677044868469e-02 -3.616230487823486328e-01
-7.310124486684799194e-02 -7.177354395389556885e-02 -3.131371736526489258e-01
-3.166522085666656494e-02 7.328613102436065674e-02 -4.859239161014556885e-01
2.821605652570724487e-03 -2.768428064882755280e-02 -7.834990024566650391e-01
1.910715997219085693e-01 -1.018955409526824951e-01 -3.196964859962463379e-01
-1.576368212699890137e-01 -1.912710256874561310e-02 -4.310900568962097168e-01
-1.838027387857437134e-01 5.930890515446662903e-02 -5.924957990646362305e-01
-5.023112520575523376e-02 -8.114629983901977539e-02 -6.296070218086242676e-01
9.072677046060562134e-02 -1.090263575315475464e-01 -4.463568329811096191e-01
-2.098673731088638306e-01 8.658599108457565308e-04 -6.070961952209472656e-01
-4.568961262702941895e-02 -6.472508609294891357e-02 -7.155789136886596680e-01
2.116186171770095825e-02 -1.109566539525985718e-01 -2.910885214805603027e-01
-2.236960530281066895e-01 3.178471326828002930e-02 -8.390622138977050781e-01
-1.194228827953338623e-01 -5.973546206951141357e-02 -4.193210899829864502e-01
-5.580306518822908401e-03 1.559732854366302490e-02 -2.036054134368896484e-01
-5.929705873131752014e-02 -9.129892289638519287e-02 -4.986170530319213867e-01
1.619635149836540222e-02 4.878175631165504456e-02 -3.137745857238769531e-01
-5.474332254379987717e-03 6.827816367149353027e-02 -4.499051868915557861e-01
6.956170499324798584e-02 4.909647628664970398e-03 -1.369331479072570801e-01
-1.421497166156768799e-01 8.275435864925384521e-02 -7.677046060562133789e-01
-1.075163185596466064e-01 2.866680175065994263e-02 -3.521644175052642822e-01
1.108079925179481506e-01 -1.228158026933670044e-01 -2.487199455499649048e-01
5.336159467697143555e-02 5.908847972750663757e-02 -5.101334452629089355e-01
-2.036904990673065186e-01 6.712009012699127197e-02 -8.175232410430908203e-01
2.730710199102759361e-03 -6.923884153366088867e-02 -1.444040536880493164e-01
1.888253390789031982e-01 -1.634644344449043274e-03 -2.837376296520233154e-01
-6.722846627235412598e-02 8.264560997486114502e-02 -6.126738786697387695e-01
4.836861416697502136e-02 -9.840607643127441406e-02 -5.373116135597229004e-01
-1.921288371086120605e-01 6.556622684001922607e-02 -8.557156324386596680e-01
-4.511687532067298889e-02 -5.896234139800071716e-02 -7.374345064163208008e-01
-9.130593389272689819e-03 -1.054807901382446289e-01 -4.309916496276855469e-01
-1.469803415238857269e-02 -7.601885497570037842e-02 -1.875322163105010986e-01
-1.101378351449966431e-02 -9.849533438682556152e-02 -5.283052325248718262e-01
4.692581295967102051e-02 -1.068807095289230347e-01 -4.815497100353240967e-01
1.110324263572692871e-02 3.022220358252525330e-02 -2.350431084632873535e-01
3.473942354321479797e-02 4.379057511687278748e-02 -2.887889742851257324e-01
-1.405928432941436768e-01 -5.825941637158393860e-02 -5.448876023292541504e-01
-1.827583312988281250e-01 -2.841058745980262756e-02 -5.650690197944641113e-01
2.342110872268676758e-02 6.349794566631317139e-04 -1.490147113800048828e-01
1.826282590627670288e-01 -6.118910759687423706e-02 -2.068406343460083008e-02
2.148574441671371460e-01 -1.003917008638381958e-01 -8.512109518051147461e-02
-1.445697695016860962e-01 -5.539437755942344666e-02 -5.336185097694396973e-01
-1.364793181419372559e-01 -4.330971837043762207e-02 -7.572773694992065430e-01
5.347502976655960083e-02 -8.213293552398681641e-02 -6.078985929489135742e-01
-3.094478510320186615e-02 1.181010529398918152e-02 -2.188383042812347412e-01
-1.446520984172821045e-01 8.262774348258972168e-02 -6.744156479835510254e-01
-5.535018444061279297e-02 7.694299519062042236e-02 -5.194801092147827148e-01
-6.279556453227996826e-02 8.132910728454589844e-02 -6.880249977111816406e-01
-7.209962699562311172e-03 4.468745365738868713e-02 -2.988190650939941406e-01
-7.111007720232009888e-02 1.645489782094955444e-02 -2.754271626472473145e-01
-1.250329315662384033e-01 2.248099818825721741e-02 -9.104135036468505859e-01
-9.438151866197586060e-02 -2.222325094044208527e-02 -2.797884941101074219e-01
1.982241682708263397e-02 6.231642141938209534e-02 -6.469198465347290039e-01
-1.148664355278015137e-01 -5.284319072961807251e-02 -7.351248264312744141e-01
4.996188916265964508e-03 -8.032485097646713257e-02 -1.613766252994537354e-01
-6.491023302078247070e-02 8.273038268089294434e-02 -6.492102742195129395e-01
6.680121272802352905e-02 5.485325679183006287e-02 -4.971068501472473145e-01
4.523741081357002258e-02 2.558401599526405334e-02 -2.078131437301635742e-01
1.338840723037719727e-01 -6.776739656925201416e-02 -5.458176136016845703e-01
3.746487200260162354e-02 -1.005080044269561768e-01 -1.679661571979522705e-01
4.748288169503211975e-02 -2.138241380453109741e-02 -7.391194105148315430e-01
9.969237446784973145e-02 -9.624496102333068848e-02 -6.897622346878051758e-02
1.869132369756698608e-01 -3.829741850495338440e-03 -3.630381524562835693e-01
2.248198539018630981e-01 -8.702418208122253418e-02 -2.658662497997283936e-01
7.115530222654342651e-02 2.845788747072219849e-02 -6.649602055549621582e-01
-2.163632959127426147e-01 -3.103381022810935974e-03 -6.928064227104187012e-01
1.806928664445877075e-01 -6.186656653881072998e-02 -4.582348167896270752e-01
7.635165005922317505e-02 -1.189623773097991943e-01 -2.276196777820587158e-01
-1.436026543378829956e-01 8.187280595302581787e-02 -7.805858254432678223e-01
8.010368049144744873e-02 -1.185866594314575195e-01 -3.590202927589416504e-01
8.637053519487380981e-02 2.415052428841590881e-02 -2.074989676475524902e-01
-9.761825203895568848e-03 -3.641222789883613586e-02 -7.800977230072021484e-01
1.273177117109298706e-01 2.848177403211593628e-02 -4.699643552303314209e-01
6.804317235946655273e-02 -1.158967241644859314e-02 -7.128595113754272461e-01
1.995790153741836548e-01 -3.526540845632553101e-02 -4.083685874938964844e-01
-7.281530648469924927e-02 -3.952445089817047119e-02 -2.454464286565780640e-01
8.912745863199234009e-02 -5.367086827754974365e-02 -6.424300074577331543e-01
1.210303679108619690e-01 -1.229623258113861084e-01 -2.426229715347290039e-01
1.927875280380249023e-01 -4.083910584449768066e-02 -4.357075095176696777e-01
-1.428647935390472412e-01 -5.617934465408325195e-02 -6.300829648971557617e-01
-1.297436207532882690e-01 7.583169639110565186e-02 -8.277214765548706055e-01
-1.630988866090774536e-01 -4.081323742866516113e-02 -7.095273137092590332e-01
1.261972486972808838e-01 3.091252967715263367e-02 -3.302422761917114258e-01
-2.988418005406856537e-02 7.315185666084289551e-02 -7.003529667854309082e-01
-6.142738834023475647e-02 6.123882159590721130e-02 -4.075595438480377197e-01
-3.994319960474967957e-02 -6.834185123443603516e-02 -2.206347584724426270e-01
-1.647645086050033569e-01 -4.277396202087402344e-02 -5.519959330558776855e-01
1.620182842016220093e-01 -6.398820318281650543e-03 -4.926578402519226074e-01
6.537028402090072632e-02 -1.192272752523422241e-01 -2.760350108146667480e-01
4.663669317960739136e-02 -1.165172606706619263e-01 -3.559228181838989258e-01
-2.247689515352249146e-01 4.222325608134269714e-02 -6.925988197326660156e-01
-2.042056247591972351e-02 2.700304612517356873e-02 -2.452146857976913452e-01
1.773106604814529419e-01 -1.184079647064208984e-01 -1.791689991950988770e-01
8.275590837001800537e-03 -3.139192238450050354e-02 -7.730226516723632812e-01
1.008019149303436279e-01 3.856673836708068848e-03 -6.428306102752685547e-01
-7.180918008089065552e-02 -4.837763309478759766e-02 -2.525125145912170410e-01
-1.229483485221862793e-01 -1.369195617735385895e-02 -3.379592895507812500e-01
-3.513909876346588135e-02 -9.902888536453247070e-02 -4.526352286338806152e-01
7.487516850233078003e-02 5.084472522139549255e-02 -5.217711925506591797e-01
2.716853655874729156e-02 -8.079425245523452759e-02 -1.261619627475738525e-01
-6.245636567473411560e-02 3.869045525789260864e-02 -8.650462031364440918e-01
-5.347242578864097595e-02 -8.318394422531127930e-02 -3.075274527072906494e-01
1.096634715795516968e-01 -1.212630569934844971e-01 -3.091095685958862305e-01
-6.953930854797363281e-02 4.441520199179649353e-02 -3.446626067161560059e-01
-9.122034534811973572e-03 4.794104024767875671e-02 -7.778545618057250977e-01
-4.757402930408716202e-03 -1.069651544094085693e-01 -3.627910017967224121e-01
1.388323754072189331e-01 -5.593730881810188293e-02 -1.901078224182128906e-02
1.412847777828574181e-03 -9.935650229454040527e-02 -2.423669397830963135e-01
1.422236263751983643e-01 1.389394700527191162e-02 -4.968766570091247559e-01
-1.211562454700469971e-01 8.341071009635925293e-02 -6.389123797416687012e-01
-8.224909007549285889e-02 6.182819232344627380e-02 -4.285863637924194336e-01
-9.389121830463409424e-02 -5.874726921319961548e-02 -3.275409638881683350e-01
-9.243763983249664307e-02 -7.895986735820770264e-02 -5.570184588432312012e-01
-9.685771912336349487e-02 7.675090432167053223e-02 -5.364590287208557129e-01
3.503967076539993286e-02 1.853514835238456726e-02 -7.542189359664916992e-01
-1.760395318269729614e-01 6.557056307792663574e-02 -8.712584972381591797e-01
2.392602115869522095e-01 -6.927024573087692261e-02 -2.215478867292404175e-01
-1.578642427921295166e-01 7.425282895565032959e-02 -8.405990004539489746e-01
