1.664575785398483276e-01 -1.736880093812942505e-02 1.496362090110778809e-01
3.906446993350982666e-01 -7.295407354831695557e-02 -7.235541008412837982e-03
2.196507900953292847e-01 1.752751320600509644e-02 -2.663614787161350250e-02
1.330054700374603271e-01 1.959962770342826843e-02 -7.451508939266204834e-02
1.820694804191589355e-01 1.647795736789703369e-02 -1.052626296877861023e-01
3.103717565536499023e-01 -2.492822334170341492e-02 -1.616916656494140625e-01
2.400650084018707275e-01 1.427771151065826416e-02 -6.455711275339126587e-02
1.805791854858398438e-01 2.032874152064323425e-02 -5.930253863334655762e-02
2.551017105579376221e-01 -9.605084359645843506e-02 -5.699883401393890381e-02
3.106123208999633789e-01 -5.790691822767257690e-03 4.449132829904556274e-02
2.031596451997756958e-01 -2.607261762022972107e-02 1.618453711271286011e-01
5.646878480911254883e-02 -8.440371602773666382e-03 6.920029222965240479e-02
3.006086349487304688e-01 -1.644094660878181458e-02 -1.549432873725891113e-01
4.263764619827270508e-02 -4.628063738346099854e-02 -3.862398117780685425e-02
2.502766251564025879e-02 -1.377527974545955658e-02 -1.293677650392055511e-02
6.534877419471740723e-02 -3.932300209999084473e-02 9.423552453517913818e-02
2.379627972841262817e-01 -9.808605909347534180e-02 -1.847333833575248718e-02
2.098970562219619751e-01 1.753282919526100159e-02 -7.275945693254470825e-02
2.178557813167572021e-01 -6.171708554029464722e-02 -1.811502128839492798e-01
2.209594249725341797e-01 -2.832614257931709290e-02 -2.033581584692001343e-01
1.320796608924865723e-01 2.090962231159210205e-02 -4.184593632817268372e-02
2.306104600429534912e-01 -7.106097042560577393e-02 -1.635253280401229858e-01
7.986094057559967041e-02 1.107624918222427368e-02 -8.881495147943496704e-02
1.369054466485977173e-01 -6.112251430749893188e-02 -1.499668061733245850e-01
2.803558111190795898e-02 -3.363978490233421326e-02 -1.320138853043317795e-02
3.827157616615295410e-01 -7.152797281742095947e-02 4.654577374458312988e-02
2.616535723209381104e-01 -2.530635520815849304e-02 1.473426520824432373e-01
3.478341698646545410e-01 -1.781988330185413361e-02 3.402014076709747314e-02
1.695736944675445557e-01 6.528016179800033569e-03 9.121345728635787964e-02
2.092296928167343140e-01 -9.419411420822143555e-02 5.306509137153625488e-02
1.389433592557907104e-01 -1.908446848392486572e-02 -1.897711455821990967e-01
2.856378555297851562e-01 -2.590242773294448853e-03 6.524349004030227661e-02
3.214055895805358887e-01 -9.581136703491210938e-02 -1.921809278428554535e-02
1.087275072932243347e-01 9.637136012315750122e-03 -1.257923692464828491e-01
1.073364391922950745e-01 -7.287686318159103394e-02 -6.361874192953109741e-02
7.641507685184478760e-02 -6.497205048799514771e-02 -3.113808482885360718e-02
3.439476191997528076e-01 -4.841831326484680176e-02 1.156673654913902283e-01
2.185685485601425171e-01 1.770281791687011719e-02 -4.236995428800582886e-02
2.294307351112365723e-01 -9.361578524112701416e-02 -6.886038929224014282e-02
2.026233077049255371e-01 1.920485123991966248e-02 -2.686734497547149658e-02
5.959251523017883301e-02 -4.341267049312591553e-02 7.879289984703063965e-02
1.258231997489929199e-01 -7.979077100753784180e-02 -4.701359197497367859e-02
8.552831411361694336e-02 -6.779678910970687866e-02 -4.149842262268066406e-02
3.316100239753723145e-01 -9.092932939529418945e-02 -5.908874422311782837e-02
1.845692396163940430e-01 2.048475295305252075e-02 -4.552382230758666992e-02
1.644900739192962646e-01 -1.285273581743240356e-03 -1.746408939361572266e-01
3.336140513420104980e-01 -7.520854473114013672e-02 -1.234564259648323059e-01
2.086308747529983521e-01 -8.090537786483764648e-02 -1.287256926298141479e-01
7.278996706008911133e-02 -4.140861332416534424e-03 7.974238693714141846e-02
2.355083376169204712e-01 -9.632761776447296143e-02 5.253951996564865112e-02
2.514314651489257812e-01 7.287357002496719360e-03 4.798176139593124390e-02
2.201169431209564209e-01 -9.670821577310562134e-02 3.018679283559322357e-02
8.323301374912261963e-02 1.487221196293830872e-02 -6.531083025038242340e-03
3.031798601150512695e-01 -8.278188109397888184e-02 -1.198657080531120300e-01
3.435136079788208008e-01 -7.639291882514953613e-02 -1.114590764045715332e-01
4.365603625774383545e-02 -4.625559970736503601e-02 2.368144504725933075e-02
2.033899128437042236e-01 -2.426244318485260010e-03 -1.754361838102340698e-01
2.165287286043167114e-01 1.645507663488388062e-02 6.253842264413833618e-03
1.667436361312866211e-01 -8.886603638529777527e-03 1.351236999034881592e-01
2.142996042966842651e-01 -8.550494909286499023e-02 -1.113058775663375854e-01
2.383580058813095093e-01 -1.255331747233867645e-02 1.326922476291656494e-01
3.378054499626159668e-01 -9.012524783611297607e-02 5.490762740373611450e-02
1.333341896533966064e-01 1.859564334154129028e-02 1.561204157769680023e-02
3.655675053596496582e-02 -2.070168778300285339e-02 4.901870340108871460e-02
2.735366821289062500e-01 -2.040565386414527893e-02 -1.811508238315582275e-01
2.874049842357635498e-01 -9.762296080589294434e-02 4.110120236873626709e-02
8.064271509647369385e-02 -6.245613843202590942e-02 -7.016003131866455078e-02
2.806076109409332275e-01 -3.437586501240730286e-02 1.502547711133956909e-01
1.443455815315246582e-01 -7.998391985893249512e-02 -8.214889466762542725e-02
2.464847266674041748e-01 -8.140897378325462341e-03 1.178283169865608215e-01
1.036847755312919617e-01 1.854557171463966370e-02 -4.811345040798187256e-02
2.759019732475280762e-01 -7.744081318378448486e-03 9.707857668399810791e-02
3.300466537475585938e-01 -1.022496074438095093e-02 3.075279854238033295e-02
1.579147279262542725e-01 9.308196604251861572e-03 -1.446076780557632446e-01
2.658139765262603760e-01 -7.797343656420707703e-03 1.050907522439956665e-01
3.638229966163635254e-01 -2.442318946123123169e-02 -7.417029142379760742e-02
1.464804708957672119e-01 -3.082377649843692780e-02 -1.937081664800643921e-01
8.840534090995788574e-02 -6.997838616371154785e-02 1.758010871708393097e-02
2.168760448694229126e-01 -7.854248583316802979e-02 -1.399132311344146729e-01
1.811300963163375854e-01 6.998963654041290283e-03 -1.525786668062210083e-01
1.147712469100952148e-01 -7.798632234334945679e-02 2.949145995080471039e-02
3.578907251358032227e-02 -3.882412239909172058e-02 -5.029906332492828369e-02
2.180093675851821899e-01 -1.036018878221511841e-02 1.341122090816497803e-01
6.336434185504913330e-02 -5.118304118514060974e-02 6.657324731349945068e-02
3.469582200050354004e-01 -8.679989725351333618e-02 -6.517871469259262085e-02
3.625784814357757568e-01 -8.734260499477386475e-02 -1.686612702906131744e-02
2.273148745298385620e-01 -1.468656770884990692e-02 -1.915971934795379639e-01
2.536571621894836426e-01 8.091758936643600464e-03 -1.071626767516136169e-01
2.812628448009490967e-02 -1.609495282173156738e-02 1.725350134074687958e-02
2.500436007976531982e-01 -8.695361763238906860e-02 -1.135117039084434509e-01
3.636294007301330566e-01 -8.592878282070159912e-02 2.804622612893581390e-02
2.947510182857513428e-01 -8.233828097581863403e-02 1.194387897849082947e-01
3.229922056198120117e-01 -7.975423336029052734e-02 -1.185794845223426819e-01
9.990566968917846680e-02 -6.537147611379623413e-02 8.434411883354187012e-02
3.836009800434112549e-01 -7.732146978378295898e-02 1.505078189074993134e-02
1.790771782398223877e-01 -6.185695156455039978e-02 -1.715327799320220947e-01
3.602961599826812744e-01 -1.889199577271938324e-02 -2.704657614231109619e-02
2.217337191104888916e-01 -7.444760203361511230e-02 -1.535650640726089478e-01
2.736572027206420898e-01 -9.141254425048828125e-02 9.247770905494689941e-02
8.488389849662780762e-02 1.337579265236854553e-02 1.506584323942661285e-02
3.431565761566162109e-01 -8.169808983802795410e-02 8.675817400217056274e-02
3.040225803852081299e-01 1.083768904209136963e-03 -5.033089779317378998e-03
8.275030553340911865e-02 -1.719680801033973694e-02 -1.549606025218963623e-01
1.373453140258789062e-01 1.039038226008415222e-02 -1.365164667367935181e-01
1.426633000373840332e-01 -7.643301784992218018e-02 -1.003975719213485718e-01
8.258897066116333008e-02 -6.372842937707901001e-02 5.647963285446166992e-02
2.578008174896240234e-01 -6.213892623782157898e-02 -1.799073517322540283e-01
4.652185738086700439e-02 -4.466639459133148193e-02 -6.640559434890747070e-02
2.734212875366210938e-01 -9.928965568542480469e-02 6.986632943153381348e-04
1.787138581275939941e-01 3.170371055603027344e-03 -1.644844859838485718e-01
2.310837060213088989e-01 5.241986364126205444e-03 7.711970806121826172e-02
1.727199852466583252e-01 2.102193608880043030e-02 -2.910579741001129150e-02
1.330784112215042114e-01 2.058357372879981995e-02 -5.700588226318359375e-02
3.420071005821228027e-01 -1.984847523272037506e-02 5.829466134309768677e-02
3.228164017200469971e-01 -4.820853471755981445e-03 4.202630370855331421e-04
2.940257191658020020e-01 -2.081903815269470215e-02 -1.686508804559707642e-01
1.541944742202758789e-01 1.684128865599632263e-02 3.612220287322998047e-02
3.695389628410339355e-02 -4.322145134210586548e-02 -5.362825468182563782e-03
2.632486522197723389e-01 1.906339079141616821e-03 -1.311915963888168335e-01
3.089681863784790039e-01 -2.457477152347564697e-03 -8.497784286737442017e-02
1.904505044221878052e-01 1.870371028780937195e-02 -7.866411656141281128e-02
2.927497029304504395e-01 4.682403057813644409e-03 -4.049485549330711365e-02
2.043801099061965942e-01 -8.977711945772171021e-02 -8.153563737869262695e-02
3.682264089584350586e-01 -3.246199712157249451e-02 -9.422639012336730957e-02
1.099136099219322205e-01 -3.602433949708938599e-02 -1.715563982725143433e-01
1.618666201829910278e-01 -8.839522302150726318e-02 -3.596883267164230347e-02
1.426840126514434814e-01 -8.447211980819702148e-02 3.960534930229187012e-02
7.029421627521514893e-02 -5.958031862974166870e-02 4.599460959434509277e-02
2.571554481983184814e-01 1.142882928252220154e-02 -6.545805186033248901e-02
2.164975553750991821e-01 6.373580545186996460e-03 -1.451788097620010376e-01
1.791321784257888794e-01 -9.758515283465385437e-03 1.374993324279785156e-01
2.494756132364273071e-01 -4.753018915653228760e-02 -1.965803653001785278e-01
3.292022049427032471e-01 -8.499926328659057617e-02 -9.470038861036300659e-02
2.894333600997924805e-01 -7.778730988502502441e-02 1.321909725666046143e-01
3.327886462211608887e-01 -8.750863373279571533e-03 7.591156288981437683e-03
6.543433666229248047e-02 4.618763923645019531e-04 -1.126814708113670349e-01
1.772399544715881348e-01 1.432150602340698242e-02 -1.208110898733139038e-01
2.343719005584716797e-01 -2.257982641458511353e-02 1.526830196380615234e-01
2.061028480529785156e-01 -9.587325900793075562e-02 1.395212858915328979e-02
1.759540140628814697e-01 2.669841051101684570e-03 1.048813164234161377e-01
4.170915484428405762e-02 -2.188033238053321838e-02 6.123302876949310303e-02
1.669977903366088867e-01 -6.367184221744537354e-02 -1.623277068138122559e-01
2.232600450515747070e-01 -9.322787821292877197e-02 7.348265498876571655e-02
2.449612319469451904e-01 -9.438531100749969482e-02 -6.906510144472122192e-02
3.254873752593994141e-01 -1.474901847541332245e-02 6.561670452356338501e-02
2.928760647773742676e-01 -9.826521575450897217e-02 2.502561919391155243e-02
3.524710834026336670e-01 -1.688128523528575897e-02 -6.350762397050857544e-02
3.392387330532073975e-01 -1.037525758147239685e-02 -3.707865253090858459e-03
2.580402195453643799e-01 -9.399859607219696045e-02 -7.455115020275115967e-02
1.878266632556915283e-01 -2.666887827217578888e-02 1.624060869216918945e-01
1.888264566659927368e-01 -7.920155674219131470e-02 -1.261858344078063965e-01
3.943748772144317627e-02 -2.153452485799789429e-03 -6.487566977739334106e-02
5.828201770782470703e-02 -4.578186199069023132e-02 -9.340611845254898071e-02
3.175578117370605469e-01 -8.374297618865966797e-02 1.032217815518379211e-01
2.819926142692565918e-01 8.485317230224609375e-04 5.050998926162719727e-02
1.533227562904357910e-01 -5.823228880763053894e-02 -1.670449972152709961e-01
3.573292791843414307e-01 -3.333719074726104736e-02 7.582556456327438354e-02
3.745971918106079102e-01 -4.196400567889213562e-02 -9.917701780796051025e-02
3.122343122959136963e-02 -2.681433223187923431e-02 3.288693726062774658e-02
4.593721032142639160e-02 -4.940105602145195007e-02 9.850278496742248535e-03
3.354275226593017578e-01 -9.294073283672332764e-02 -3.284871578216552734e-02
3.054668605327606201e-01 -9.752228856086730957e-02 2.197073586285114288e-02
1.269866377115249634e-01 -9.661575779318809509e-03 1.273791790008544922e-01
1.469969153404235840e-01 -4.908131062984466553e-02 -1.792607009410858154e-01
2.832731008529663086e-01 -2.751173824071884155e-02 -1.835567951202392578e-01
1.249326020479202271e-01 -5.083195865154266357e-03 -1.709887981414794922e-01
2.508029639720916748e-01 1.165748760104179382e-02 8.730424568057060242e-03
1.969516873359680176e-01 1.973244920372962952e-02 -4.006951674818992615e-02
2.956598699092864990e-01 1.113761216402053833e-03 2.296650968492031097e-02
4.357476532459259033e-02 -7.204655557870864868e-03 4.348872601985931396e-02
3.045904934406280518e-01 -8.794086426496505737e-02 -9.838484972715377808e-02
2.132860720157623291e-01 1.534664258360862732e-02 -9.481296688318252563e-02
1.620849967002868652e-01 -8.749765157699584961e-02 -4.843448847532272339e-02
3.139796257019042969e-01 -1.584258303046226501e-02 8.622032403945922852e-02
3.298082053661346436e-01 -4.225600883364677429e-02 -1.595962792634963989e-01
2.937369048595428467e-01 -9.476933628320693970e-02 6.571463495492935181e-02
1.985050886869430542e-01 -9.478390216827392578e-02 -1.623414456844329834e-02
2.567356824874877930e-01 9.110983461141586304e-03 -9.467545151710510254e-02
2.019345909357070923e-01 1.707777753472328186e-02 -8.809045702219009399e-02
1.054355055093765259e-01 1.839713007211685181e-02 -1.181354746222496033e-02
2.957396507263183594e-01 -2.555612474679946899e-03 -1.124411970376968384e-01
3.017702996730804443e-01 -9.745559841394424438e-02 -2.493929490447044373e-02
5.232183635234832764e-02 -5.144032090902328491e-02 3.119472227990627289e-02
1.364228129386901855e-01 -5.786659196019172668e-02 1.406105309724807739e-01
1.307528465986251831e-01 1.690823584794998169e-02 3.014032728970050812e-02
3.590991497039794922e-01 -2.873970940709114075e-02 -1.043260544538497925e-01
2.506878972053527832e-01 -6.797105818986892700e-02 1.566035449504852295e-01
2.754454612731933594e-01 -6.448286026716232300e-02 -1.728363335132598877e-01
2.659742832183837891e-01 -3.917074203491210938e-02 -1.954588741064071655e-01
6.984551250934600830e-02 -5.245731025934219360e-02 -9.424073249101638794e-02
2.414356470108032227e-01 -9.613604843616485596e-02 -5.148019641637802124e-02
2.217720448970794678e-01 -8.859381079673767090e-02 1.004012450575828552e-01
1.964889466762542725e-01 -7.781216502189636230e-02 1.302966028451919556e-01
9.530450403690338135e-02 -1.505725085735321045e-03 -1.478238999843597412e-01
1.711121350526809692e-01 -7.986070215702056885e-02 1.090291216969490051e-01
3.072783052921295166e-01 -7.459940016269683838e-02 1.303209513425827026e-01
3.963978588581085205e-01 -5.760110169649124146e-02 1.375699974596500397e-02
2.251461744308471680e-01 -8.826923370361328125e-02 -1.017147600650787354e-01
1.018635034561157227e-01 -7.348028570413589478e-02 -4.087492078542709351e-02
2.030687928199768066e-01 -9.296204149723052979e-02 -5.352070182561874390e-02
3.864303231239318848e-01 -7.251172512769699097e-02 -4.665876179933547974e-02
2.013831585645675659e-01 -7.244671881198883057e-02 -1.539822667837142944e-01
2.843112647533416748e-01 -7.781377434730529785e-02 -1.420578658580780029e-01
3.299075961112976074e-01 -6.231714040040969849e-03 -2.683672681450843811e-02
2.219679653644561768e-01 -1.892551593482494354e-02 1.499042958021163940e-01
1.376149356365203857e-01 -8.398292958736419678e-02 2.863971330225467682e-02
1.223856434226036072e-01 -6.726063787937164307e-02 -1.174947544932365417e-01
2.677275836467742920e-01 -6.445319950580596924e-02 1.575734168291091919e-01
6.564362347126007080e-02 8.973039686679840088e-03 1.381256245076656342e-02
1.226345151662826538e-01 1.196611300110816956e-02 -1.240501999855041504e-01
1.828776448965072632e-01 -1.600408926606178284e-02 1.488594263792037964e-01
1.937128305435180664e-01 -5.498807877302169800e-02 -1.876191347837448120e-01
2.790182232856750488e-01 -4.279799759387969971e-04 -1.247898340225219727e-01
1.956047266721725464e-01 -9.412011504173278809e-02 3.101110644638538361e-02
3.427206277847290039e-01 -8.955848217010498047e-02 -5.284852534532546997e-02
2.833263278007507324e-01 -4.520740360021591187e-03 7.722301036119461060e-02
7.772415876388549805e-02 1.381555199623107910e-02 -5.797339975833892822e-02
1.654637157917022705e-01 -2.927891910076141357e-03 1.212915405631065369e-01
2.740064859390258789e-01 -9.916596859693527222e-02 1.560495980083942413e-02
1.432686150074005127e-01 -7.476805150508880615e-02 1.040672436356544495e-01
3.020865619182586670e-01 2.270035445690155029e-03 -2.537327632308006287e-02
2.009184956550598145e-01 1.671577990055084229e-02 2.080150507390499115e-02
2.790879309177398682e-01 -9.476692974567413330e-02 -6.750188767910003662e-02
1.965270042419433594e-01 -8.844029158353805542e-02 8.713170140981674194e-02
2.741477191448211670e-01 5.230680108070373535e-04 6.277965009212493896e-02
2.604805231094360352e-01 -2.397609315812587738e-02 -1.911602914333343506e-01
1.587795168161392212e-01 2.065819874405860901e-02 -6.551422178745269775e-02
1.566303372383117676e-01 -8.332484960556030273e-02 7.715362310409545898e-02
1.614859700202941895e-01 1.322144269943237305e-02 6.007993966341018677e-02
1.195321753621101379e-01 1.987747475504875183e-02 -5.427094548940658569e-02
1.437676250934600830e-01 -8.178725838661193848e-02 -6.821785122156143188e-02
1.062983646988868713e-01 -6.308159977197647095e-02 -1.135422140359878540e-01
2.112707346677780151e-01 1.220577955245971680e-02 -1.196321770548820496e-01
2.953428626060485840e-01 -1.579068601131439209e-02 1.057464033365249634e-01
1.416118443012237549e-01 4.093538969755172729e-03 9.730989485979080200e-02
3.631066679954528809e-01 -7.383489608764648438e-02 -9.490357339382171631e-02
2.356038540601730347e-01 1.313446462154388428e-02 1.866629533469676971e-02
7.834495604038238525e-02 2.633273601531982422e-03 6.541351228952407837e-02
3.682006001472473145e-01 -8.324483782052993774e-02 -4.319601505994796753e-02
6.557565927505493164e-02 6.891507655382156372e-03 2.839672379195690155e-02
2.439361363649368286e-01 -6.797390431165695190e-02 -1.707820296287536621e-01
1.715554296970367432e-01 2.027181908488273621e-02 -5.141004920005798340e-03
2.850540876388549805e-01 -4.505125060677528381e-02 -1.874969601631164551e-01
3.745347261428833008e-01 -6.581659615039825439e-02 7.424169778823852539e-02
3.211786150932312012e-01 -4.400752484798431396e-03 -6.360156834125518799e-02
2.788689732551574707e-01 7.947508245706558228e-03 -3.462843224406242371e-02
2.924080789089202881e-01 -4.091969504952430725e-02 1.500291228294372559e-01
1.970973759889602661e-01 5.300883203744888306e-03 9.191542863845825195e-02
1.943104267120361328e-01 6.061863154172897339e-03 -1.536622494459152222e-01
2.299672365188598633e-01 9.677890688180923462e-03 5.329429358243942261e-02
9.211184084415435791e-02 1.701182872056961060e-02 -2.158179692924022675e-02
1.243157684803009033e-01 -7.884971797466278076e-02 5.155722796916961670e-02
3.210146129131317139e-01 -6.679255515336990356e-02 1.322276890277862549e-01
2.057829946279525757e-01 9.129069745540618896e-03 -1.382180005311965942e-01
2.041544020175933838e-01 -1.616844534873962402e-02 1.481523811817169189e-01
3.370216786861419678e-01 -9.305240213871002197e-02 2.746288292109966278e-02
2.280838042497634888e-01 1.331251487135887146e-02 -9.750400483608245850e-02
1.869751513004302979e-01 1.702661812305450439e-02 2.715920098125934601e-02
3.825104832649230957e-01 -3.271591290831565857e-02 -2.732924744486808777e-02
2.702461481094360352e-01 -8.722153306007385254e-02 -1.119838282465934753e-01
1.200489327311515808e-01 8.002970367670059204e-03 7.567117363214492798e-02
3.200534880161285400e-01 -7.235346734523773193e-02 -1.397279202938079834e-01
1.184926405549049377e-01 1.570142805576324463e-03 -1.555932462215423584e-01
1.476858854293823242e-01 1.530117169022560120e-02 4.657997190952301025e-02
3.176284134387969971e-01 -1.648330874741077423e-02 -1.366889476776123047e-01
1.101541370153427124e-01 1.104995608329772949e-02 5.634324997663497925e-02
3.808428347110748291e-02 -2.751685678958892822e-04 -4.295640438795089722e-02
5.163051187992095947e-02 -5.342374742031097412e-02 -2.006544545292854309e-02
1.639833301305770874e-01 -4.598683863878250122e-02 -1.902164071798324585e-01
2.750797867774963379e-01 6.753712892532348633e-03 1.359916105866432190e-02
3.224866390228271484e-01 -5.171962082386016846e-02 1.361760348081588745e-01
1.362731009721755981e-01 -7.571771740913391113e-02 9.212783724069595337e-02
3.191831707954406738e-01 -4.627820104360580444e-02 -1.682682782411575317e-01
1.529171764850616455e-01 -5.325668677687644958e-02 1.552790850400924683e-01
1.933782547712326050e-01 1.410182565450668335e-03 1.069912761449813843e-01
3.162063360214233398e-01 -5.272548645734786987e-03 2.824202738702297211e-02
3.521344065666198730e-01 -6.125093251466751099e-02 -1.311962157487869263e-01
2.643218934535980225e-01 5.338832736015319824e-03 4.540236294269561768e-02
3.005698323249816895e-01 -6.878720223903656006e-02 1.417748183012008667e-01
2.777031660079956055e-01 -1.373228058218955994e-02 -1.675621122121810913e-01
2.437022477388381958e-01 -9.030023962259292603e-02 -9.592319279909133911e-02
3.471527695655822754e-01 -9.125109016895294189e-02 -2.243517152965068817e-02
2.400013208389282227e-01 -6.939552724361419678e-03 -1.741946786642074585e-01
3.014724254608154297e-01 9.797103703022003174e-04 7.484139874577522278e-03
2.754331231117248535e-01 8.049890398979187012e-03 -7.473908364772796631e-03
6.408724188804626465e-02 1.073772087693214417e-02 -4.991018027067184448e-02
6.785722076892852783e-02 -6.175039708614349365e-02 1.011954993009567261e-02
1.434452533721923828e-01 -8.593270182609558105e-02 -5.403803661465644836e-03
1.914873570203781128e-01 5.263574421405792236e-04 -1.703004837036132812e-01
3.259186148643493652e-01 -9.075024724006652832e-02 6.646239012479782104e-02
3.614556193351745605e-01 -8.431564271450042725e-02 4.704520851373672485e-02
1.299314945936203003e-01 -6.531435251235961914e-02 1.209069415926933289e-01
6.088405847549438477e-02 5.807969719171524048e-03 -8.448570966720581055e-02
1.915861964225769043e-01 -4.590358957648277283e-02 -1.974910497665405273e-01
1.191639527678489685e-01 1.758604869246482849e-02 1.710029505193233490e-02
1.683115810155868530e-01 -8.716558665037155151e-02 6.564472615718841553e-02
3.464328348636627197e-01 -2.688520029187202454e-02 -1.227320581674575806e-01
1.625495851039886475e-01 6.130129098892211914e-03 -1.557289659976959229e-01
3.955546617507934570e-01 -4.833554476499557495e-02 -3.203848749399185181e-02
2.384122014045715332e-01 1.099546253681182861e-02 3.525944799184799194e-02
3.046126961708068848e-01 -7.215666770935058594e-02 -1.484771966934204102e-01
1.781020909547805786e-01 -7.726377248764038086e-02 1.228752210736274719e-01
2.284207493066787720e-01 -5.453638732433319092e-04 -1.631788313388824463e-01
9.423451870679855347e-02 5.190499126911163330e-03 -1.304720491170883179e-01
2.821878194808959961e-01 -1.822038926184177399e-02 1.224922314286231995e-01
2.038770914077758789e-01 -6.692428141832351685e-02 1.555988192558288574e-01
9.216947108507156372e-02 -5.401486903429031372e-02 -1.246589422225952148e-01
6.588424742221832275e-02 -1.440312527120113373e-02 -1.360938996076583862e-01
2.596287727355957031e-01 1.177131384611129761e-02 -3.589009121060371399e-02
2.564665973186492920e-01 -7.405027747154235840e-02 -1.565954685211181641e-01
1.538257896900177002e-01 -8.042056858539581299e-02 -9.181020408868789673e-02
2.986375093460083008e-01 -2.509725093841552734e-02 1.252660155296325684e-01
3.721953034400939941e-01 -2.994481101632118225e-02 2.786778844892978668e-02
6.543460488319396973e-02 -5.887881293892860413e-02 3.251586109399795532e-02
1.540820896625518799e-01 -8.650684356689453125e-02 4.495286196470260620e-02
3.609400987625122070e-01 -7.361486554145812988e-02 8.450914919376373291e-02
2.909182310104370117e-01 4.231095314025878906e-03 -1.119646243751049042e-03
1.552643030881881714e-01 -2.318397164344787598e-04 1.130228415131568909e-01
2.115815579891204834e-01 -1.052649132907390594e-02 -1.890020966529846191e-01
1.190157979726791382e-01 1.384760439395904541e-02 4.590215533971786499e-02
3.561990857124328613e-01 -5.438593402504920959e-02 1.044273972511291504e-01
2.978663444519042969e-01 -9.593445062637329102e-02 5.328076332807540894e-02
7.482901215553283691e-02 -3.591500222682952881e-02 1.092565879225730896e-01
3.360840678215026855e-01 -5.582103878259658813e-02 -1.513422578573226929e-01
2.107998579740524292e-01 -9.220488369464874268e-02 7.283460348844528198e-02
1.266128718852996826e-01 2.009303495287895203e-02 -1.085744425654411316e-02
3.965010046958923340e-01 -4.905346035957336426e-02 -1.600043661892414093e-02
8.293400704860687256e-02 -6.648546457290649414e-02 3.653516620397567749e-02
1.292734742164611816e-01 -7.149387896060943604e-02 -1.080604493618011475e-01
3.458304405212402344e-01 -2.459097281098365784e-02 6.970604509115219116e-02
2.311962246894836426e-01 4.415567964315414429e-03 -1.452911794185638428e-01
3.517086803913116455e-02 -6.040204316377639771e-03 1.575584150850772858e-02
1.958916783332824707e-01 -8.405920118093490601e-03 1.337137520313262939e-01
2.074400782585144043e-01 5.120914429426193237e-03 -1.533360332250595093e-01
2.662633955478668213e-01 -8.817580342292785645e-02 1.078355461359024048e-01
2.229439467191696167e-01 1.232487335801124573e-02 -1.103501245379447937e-01
9.712363034486770630e-02 -6.754556298255920410e-02 -7.746084034442901611e-02
3.931959271430969238e-01 -5.412008613348007202e-02 -5.733659118413925171e-02
3.083997964859008789e-01 -9.410173445940017700e-02 -5.834510922431945801e-02
5.550408363342285156e-02 -2.151306718587875366e-03 5.111256241798400879e-02
3.236095905303955078e-01 -8.809556066989898682e-02 8.247312903404235840e-02
2.174880206584930420e-01 -9.649578481912612915e-02 -2.238550968468189240e-02
3.634122014045715332e-01 -5.502520501613616943e-02 -1.224176213145256042e-01
3.173289597034454346e-01 -2.384330332279205322e-02 1.058104336261749268e-01
3.655803799629211426e-01 -4.121192544698715210e-02 -1.155688911676406860e-01
1.434002667665481567e-01 8.022323250770568848e-03 8.316886425018310547e-02
1.477910876274108887e-01 -5.980840325355529785e-02 1.447041928768157959e-01
7.012136280536651611e-02 -1.895286515355110168e-02 1.010076031088829041e-01
1.810707002878189087e-01 -5.802133306860923767e-02 1.611167639493942261e-01
5.949306488037109375e-02 9.403079748153686523e-03 -1.384072937071323395e-02
3.657025396823883057e-01 -7.896435260772705078e-02 6.275351345539093018e-02
8.050361275672912598e-02 -4.846110939979553223e-02 -1.237529739737510681e-01
3.815112113952636719e-01 -4.350177571177482605e-02 -8.469954878091812134e-02
3.240295648574829102e-01 -9.555425494909286499e-02 2.000806666910648346e-02
9.252684563398361206e-02 -4.408232867717742920e-02 1.220260635018348694e-01
2.224472910165786743e-01 1.324210315942764282e-03 9.832166135311126709e-02
2.686113119125366211e-01 6.929583847522735596e-03 2.571284584701061249e-02
3.764350414276123047e-01 -8.004879951477050781e-02 2.933982945978641510e-02
1.950903534889221191e-01 -3.859623521566390991e-02 1.700904220342636108e-01
1.706089377403259277e-01 -7.803443819284439087e-03 -1.865512132644653320e-01
1.286571919918060303e-01 -1.274120993912220001e-02 -1.815803647041320801e-01
3.125979006290435791e-01 -3.058257699012756348e-02 1.240337416529655457e-01
3.488068580627441406e-01 -7.387548685073852539e-02 9.923074394464492798e-02
1.522649824619293213e-01 -8.446548879146575928e-02 6.193538755178451538e-02
2.641938626766204834e-01 -1.418016105890274048e-02 -1.766777038574218750e-01
3.265217840671539307e-01 -5.171764642000198364e-03 -4.121460765600204468e-02
8.229179680347442627e-02 -5.929795652627944946e-02 -9.060256183147430420e-02
2.808026075363159180e-01 -7.020734250545501709e-02 -1.611331552267074585e-01
1.871872544288635254e-01 -9.200982749462127686e-02 -4.155407473444938660e-02
2.845808863639831543e-01 5.769994109869003296e-03 -6.530974805355072021e-02
3.806020915508270264e-01 -3.370819985866546631e-02 -5.673805624246597290e-02
1.697344779968261719e-01 -9.100247919559478760e-02 2.004643902182579041e-03
2.542916238307952881e-01 -9.797789156436920166e-02 4.063542187213897705e-02
3.731773793697357178e-02 -4.311687499284744263e-02 -2.683895453810691833e-02
1.173806712031364441e-01 -6.327147036790847778e-02 1.139349713921546936e-01
8.397465944290161133e-02 1.059656590223312378e-02 3.461541980504989624e-02
3.028418421745300293e-01 -7.711412012577056885e-02 -1.373719125986099243e-01
3.769392371177673340e-01 -6.788951903581619263e-02 -8.592411130666732788e-02
2.586325407028198242e-01 -9.787149727344512939e-02 -3.645250201225280762e-02
1.355736851692199707e-01 1.981960609555244446e-02 1.439744606614112854e-03
3.627282977104187012e-01 -8.066832274198532104e-02 -7.121755927801132202e-02
1.343542039394378662e-01 -3.811492025852203369e-02 -1.847000867128372192e-01
3.170636594295501709e-01 -2.273195795714855194e-02 -1.517083495855331421e-01
1.410277187824249268e-01 -8.387950062751770020e-02 -4.099944978952407837e-02
2.334409356117248535e-01 -6.922468543052673340e-02 1.555621474981307983e-01
1.270751655101776123e-01 -5.529162660241127014e-02 -1.561108678579330444e-01
1.059392765164375305e-01 1.421120017766952515e-03 9.144745022058486938e-02
2.402645945549011230e-01 -5.457566305994987488e-02 -1.915657967329025269e-01
4.053083062171936035e-02 -3.613961488008499146e-02 -7.780677825212478638e-02
2.136350721120834351e-01 -7.572805136442184448e-02 1.410041302442550659e-01
3.333414494991302490e-01 -1.587155275046825409e-02 -1.107212975621223450e-01
1.183357834815979004e-01 -7.984197139739990234e-02 -4.806672222912311554e-03
3.355354070663452148e-02 -3.663938865065574646e-02 2.157861553132534027e-02
2.396099269390106201e-01 -9.849789738655090332e-02 -6.477788090705871582e-03
3.116387426853179932e-01 -5.640529841184616089e-02 -1.680558472871780396e-01
4.267050325870513916e-02 1.923494040966033936e-03 -4.845483228564262390e-03
1.742282658815383911e-01 1.431614160537719727e-02 5.216905474662780762e-02
6.613010168075561523e-02 1.042606681585311890e-02 -6.318599730730056763e-02
3.401794433593750000e-01 -9.312927722930908203e-02 1.212766207754611969e-02
2.402999103069305420e-01 -8.879750967025756836e-02 1.045059412717819214e-01
2.317499071359634399e-01 -2.336892113089561462e-02 -1.992108076810836792e-01
1.494954377412796021e-01 1.624883711338043213e-02 -1.098575666546821594e-01
3.788974583148956299e-01 -4.542762786149978638e-02 5.903545767068862915e-02
2.444598674774169922e-01 1.394939422607421875e-02 -1.510586682707071304e-02
1.920969188213348389e-01 -3.346320241689682007e-03 1.215529218316078186e-01
1.668594926595687866e-01 -3.181536495685577393e-02 -1.997681409120559692e-01
3.304595351219177246e-01 -3.772507607936859131e-02 1.186387166380882263e-01
3.887508809566497803e-01 -3.831052035093307495e-02 -1.443226169794797897e-02
1.674282252788543701e-01 -8.481296896934509277e-02 -8.013077825307846069e-02
4.949495196342468262e-02 -4.734235629439353943e-02 4.278913885354995728e-02
5.710652470588684082e-02 -2.224097400903701782e-02 8.736985176801681519e-02
2.349483519792556763e-01 -8.743587881326675415e-02 -1.088820993900299072e-01
2.151122242212295532e-01 -5.957093834877014160e-02 1.658579856157302856e-01
1.719776988029479980e-01 -8.363600820302963257e-02 9.271130710840225220e-02
2.454510331153869629e-01 1.424819231033325195e-03 -1.476590931415557861e-01
2.350046038627624512e-01 -7.586142420768737793e-02 1.437538564205169678e-01
3.712128698825836182e-01 -3.635945543646812439e-02 5.607321858406066895e-02
1.221307814121246338e-01 -7.279825210571289062e-02 8.647364377975463867e-02
2.831170558929443359e-01 -9.641215205192565918e-02 5.678701400756835938e-02
3.044479489326477051e-01 -9.136078506708145142e-02 -8.037953823804855347e-02
2.267347574234008789e-01 -9.632043540477752686e-02 -3.855088353157043457e-02
3.676975071430206299e-01 -2.945293299853801727e-02 4.010418802499771118e-02
2.909990549087524414e-01 -9.873855113983154297e-02 -5.283566191792488098e-03
2.244093269109725952e-01 1.640490442514419556e-02 -6.430961191654205322e-02
3.057216107845306396e-01 -3.638175129890441895e-02 1.375342160463333130e-01
1.143222600221633911e-01 -7.385461777448654175e-02 6.736720353364944458e-02
1.804753541946411133e-01 2.035546302795410156e-02 -1.498271524906158447e-02
2.568207383155822754e-01 -9.909330308437347412e-02 -7.648658007383346558e-03
1.973700225353240967e-01 1.253442466259002686e-02 5.597008019685745239e-02
2.608780562877655029e-01 -9.691555798053741455e-02 5.515890568494796753e-02
2.184287309646606445e-01 -2.702336758375167847e-03 1.135864183306694031e-01
1.844400912523269653e-01 -8.372040092945098877e-02 -1.028507277369499207e-01
7.203345000743865967e-02 -3.012808039784431458e-02 -1.416491866111755371e-01
2.265146374702453613e-01 -9.760538488626480103e-02 -1.066534221172332764e-02
1.410024315118789673e-01 -8.269228041172027588e-02 5.530653148889541626e-02
3.364664912223815918e-01 -2.348423004150390625e-02 8.113203197717666626e-02
3.491419553756713867e-01 -6.928323209285736084e-02 -1.223713308572769165e-01
2.436588108539581299e-01 -8.215576410293579102e-02 1.285998225212097168e-01
1.898552477359771729e-01 -1.932465471327304840e-02 -1.998955458402633667e-01
2.453965991735458374e-01 7.979597896337509155e-03 -1.173452362418174744e-01
1.434211730957031250e-01 -7.114389538764953613e-02 -1.242778897285461426e-01
2.823396921157836914e-01 -8.385288715362548828e-02 1.194094046950340271e-01
3.697034120559692383e-01 -4.958350956439971924e-02 8.242643624544143677e-02
3.200603723526000977e-01 -7.811218500137329102e-02 1.160444244742393494e-01
9.798532724380493164e-02 -6.393162906169891357e-02 -9.785971790552139282e-02
3.483258485794067383e-01 -6.274554133415222168e-02 1.121328994631767273e-01
1.241009682416915894e-01 -3.267451748251914978e-02 1.486172080039978027e-01
1.027065292000770569e-01 -1.088483631610870361e-02 1.174873188138008118e-01
3.454186916351318359e-01 -5.065602809190750122e-02 -1.450943201780319214e-01
1.143128350377082825e-01 -7.622493058443069458e-02 -5.208671092987060547e-02
2.013795971870422363e-01 1.871230080723762512e-02 -8.022551424801349640e-03
1.133209466934204102e-01 -7.618460804224014282e-02 4.665580391883850098e-02
3.046087026596069336e-01 -8.674667030572891235e-02 1.010865718126296997e-01
2.264146506786346436e-01 -8.394897729158401489e-02 -1.223105490207672119e-01
9.639742970466613770e-02 -7.319591194391250610e-02 3.868343308568000793e-03
1.059177666902542114e-01 -6.214347481727600098e-02 1.039162501692771912e-01
1.826480031013488770e-01 -8.797416090965270996e-02 -7.476570457220077515e-02
9.728801250457763672e-02 -2.016199007630348206e-02 -1.676708161830902100e-01
1.105306893587112427e-01 1.703033223748207092e-02 -8.360173553228378296e-02
1.840572208166122437e-01 1.921698823571205139e-02 3.666751086711883545e-03
3.955527544021606445e-01 -6.001621484756469727e-02 -4.346487298607826233e-02
3.156111836433410645e-01 -9.992130100727081299e-03 5.948141962289810181e-02
1.069867908954620361e-01 -5.294267088174819946e-03 -1.620985120534896851e-01
3.525392413139343262e-01 -7.616695016622543335e-02 -1.022907122969627380e-01
1.650005877017974854e-01 -7.141359150409698486e-02 -1.398917734622955322e-01
1.697597950696945190e-01 1.911620050668716431e-02 -8.512397855520248413e-02
3.022659718990325928e-01 -9.331479668617248535e-03 7.580710947513580322e-02
1.730262637138366699e-01 -2.990290522575378418e-02 1.634559184312820435e-01
2.522986531257629395e-01 1.140317693352699280e-02 -7.891535758972167969e-02
2.200378775596618652e-01 1.701476424932479858e-02 -1.060269400477409363e-02
3.703729510307312012e-01 -8.483313024044036865e-02 -2.775155007839202881e-04
1.410025954246520996e-01 -2.142226696014404297e-02 1.487416028976440430e-01
2.824178934097290039e-01 4.256960004568099976e-03 -8.949384838342666626e-02
1.160169914364814758e-01 -5.755560100078582764e-02 1.252564042806625366e-01
1.365121006965637207e-01 1.648847386240959167e-02 -1.049538701772689819e-01
2.281192094087600708e-01 -9.143047034740447998e-02 8.777547627687454224e-02
3.136638998985290527e-01 -9.532682597637176514e-02 -4.097214341163635254e-02
2.510682344436645508e-01 -8.816946297883987427e-02 -2.080517113208770752e-01
3.144119083881378174e-01 -9.752637892961502075e-02 -3.264253437519073486e-01
3.242791295051574707e-01 -1.073352545499801636e-01 -2.385463714599609375e-01
3.654342889785766602e-01 -9.164691716432571411e-02 -2.913194000720977783e-01
1.559610068798065186e-01 -1.219031661748886108e-01 -3.074081242084503174e-01
1.436448097229003906e-01 -8.686564862728118896e-02 -2.133429050445556641e-01
1.966797113418579102e-01 -2.260112017393112183e-02 -2.569015920162200928e-01
1.593155860900878906e-01 -3.067205473780632019e-02 -2.417414188385009766e-01
2.098924070596694946e-01 -1.009065508842468262e-01 -3.333199620246887207e-01
1.464458107948303223e-01 -9.518413990736007690e-02 -3.190032839775085449e-01
2.463952600955963135e-01 -5.225238949060440063e-02 -2.115408778190612793e-01
3.013153672218322754e-01 -8.592563867568969727e-02 -3.305988907814025879e-01
2.316851466894149780e-01 -2.246214449405670166e-02 -2.741411328315734863e-01
2.766062319278717041e-01 -1.345271021127700806e-01 -3.059875071048736572e-01
2.012541294097900391e-01 -3.284982219338417053e-02 -2.993047833442687988e-01
1.737097799777984619e-01 -1.297720670700073242e-01 -3.048231899738311768e-01
2.573761045932769775e-01 -1.139331683516502380e-01 -3.303546011447906494e-01
1.836830973625183105e-01 -6.091414391994476318e-02 -3.232222795486450195e-01
2.235162258148193359e-01 -2.231423929333686829e-02 -2.515479028224945068e-01
3.041094839572906494e-01 -3.874573111534118652e-02 -2.959196865558624268e-01
1.522053182125091553e-01 -1.077315211296081543e-01 -3.169888556003570557e-01
1.816702038049697876e-01 -2.542691677808761597e-02 -2.470936477184295654e-01
1.426900327205657959e-01 -3.563483431935310364e-02 -2.403280287981033325e-01
1.737657189369201660e-01 -8.365276455879211426e-02 -2.066651880741119385e-01
3.226531445980072021e-01 -4.456898942589759827e-02 -2.470278739929199219e-01
1.932163089513778687e-01 -1.023650020360946655e-01 -3.304369151592254639e-01
9.801542758941650391e-02 -9.989088028669357300e-02 -2.470896393060684204e-01
3.497748374938964844e-01 -1.075558587908744812e-01 -3.013097643852233887e-01
1.766097843647003174e-01 -3.021065518260002136e-02 -2.347168177366256714e-01
1.599531024694442749e-01 -2.791333571076393127e-02 -2.633766829967498779e-01
1.925424933433532715e-01 -9.165830165147781372e-02 -2.067473381757736206e-01
2.912621200084686279e-01 -1.060361415147781372e-01 -2.238432914018630981e-01
2.044183760881423950e-01 -2.453751116991043091e-02 -2.429627031087875366e-01
2.171815037727355957e-01 -2.486756816506385803e-02 -2.839481234550476074e-01
2.370306253433227539e-01 -5.928163975477218628e-02 -3.282408118247985840e-01
2.202058732509613037e-01 -3.054670989513397217e-02 -2.977500259876251221e-01
2.849472761154174805e-01 -1.325029432773590088e-01 -2.522255182266235352e-01
1.798161268234252930e-01 -1.363153606653213501e-01 -2.935330867767333984e-01
1.798470616340637207e-01 -2.823210135102272034e-02 -2.832165956497192383e-01
3.541731834411621094e-01 -7.161010801792144775e-02 -3.019211590290069580e-01
2.332374751567840576e-01 -5.677860975265502930e-02 -2.080867290496826172e-01
2.273954749107360840e-01 -1.424561589956283569e-01 -2.885188460350036621e-01
1.447668075561523438e-01 -1.161632910370826721e-01 -3.076938390731811523e-01
3.583396077156066895e-01 -8.622334152460098267e-02 -3.029031753540039062e-01
3.410369753837585449e-01 -6.092489510774612427e-02 -2.439102828502655029e-01
2.820127308368682861e-01 -7.185958325862884521e-02 -3.311600089073181152e-01
2.606554627418518066e-01 -9.928181767463684082e-02 -2.131411880254745483e-01
1.366692632436752319e-01 -7.280656695365905762e-02 -2.141477912664413452e-01
1.910982877016067505e-01 -1.213805899024009705e-01 -3.200334012508392334e-01
1.182107627391815186e-01 -1.047734618186950684e-01 -3.001341819763183594e-01
3.180480897426605225e-01 -4.959145560860633850e-02 -2.368981540203094482e-01
2.254596799612045288e-01 -8.454766869544982910e-02 -2.049658298492431641e-01
1.970017105340957642e-01 -1.414489746093750000e-01 -2.728796303272247314e-01
1.631011366844177246e-01 -8.729909360408782959e-02 -3.253008723258972168e-01
1.828605234622955322e-01 -1.313288956880569458e-01 -2.415774613618850708e-01
1.362371444702148438e-01 -1.275538206100463867e-01 -2.636643946170806885e-01
1.733677983283996582e-01 -9.332983195781707764e-02 -3.278116583824157715e-01
1.507518142461776733e-01 -1.302096247673034668e-01 -2.889258265495300293e-01
3.602440357208251953e-01 -6.365171819925308228e-02 -2.707679271697998047e-01
1.927444040775299072e-01 -8.807520568370819092e-02 -3.321467041969299316e-01
1.153142377734184265e-01 -1.154658198356628418e-01 -2.520478069782257080e-01
3.070054948329925537e-01 -3.475132584571838379e-02 -2.553202211856842041e-01
1.555953919887542725e-01 -7.496311515569686890e-02 -3.213615417480468750e-01
2.687371671199798584e-01 -5.854767188429832458e-02 -3.264345228672027588e-01
9.633377194404602051e-02 -8.252632617950439453e-02 -2.882854938507080078e-01
2.153539061546325684e-01 -1.332482993602752686e-01 -2.405237406492233276e-01
3.531616032123565674e-01 -1.065632626414299011e-01 -2.626782953739166260e-01
2.082272022962570190e-01 -6.639181077480316162e-02 -2.044935226440429688e-01
9.091205894947052002e-02 -9.431526064872741699e-02 -2.753052711486816406e-01
1.093454584479331970e-01 -9.300599992275238037e-02 -2.990248799324035645e-01
1.761070936918258667e-01 -1.233495771884918213e-01 -2.307857722043991089e-01
1.332629323005676270e-01 -8.461832255125045776e-02 -3.141575455665588379e-01
2.127310335636138916e-01 -6.028963997960090637e-02 -3.273730278015136719e-01
2.971111834049224854e-01 -6.746840476989746094e-02 -2.180478572845458984e-01
2.308481633663177490e-01 -1.373049318790435791e-01 -3.056168556213378906e-01
1.872405856847763062e-01 -1.209002435207366943e-01 -2.259488254785537720e-01
2.597130239009857178e-01 -7.338163256645202637e-02 -3.338439166545867920e-01
2.222323864698410034e-01 -1.147034913301467896e-01 -2.185536623001098633e-01
2.355642616748809814e-01 -3.414439037442207336e-02 -2.250842154026031494e-01
2.673049271106719971e-01 -1.306476742029190063e-01 -2.423453629016876221e-01
2.944276034832000732e-01 -3.663497790694236755e-02 -2.400161325931549072e-01
2.201171815395355225e-01 -7.392575591802597046e-02 -3.335290253162384033e-01
9.659147262573242188e-02 -1.042337045073509216e-01 -2.602895200252532959e-01
1.649472415447235107e-01 -7.232341170310974121e-02 -2.073629796504974365e-01
2.107611298561096191e-01 -1.412106007337570190e-01 -2.908060550689697266e-01
1.026029586791992188e-01 -5.136145651340484619e-02 -2.595508992671966553e-01
1.270149946212768555e-01 -5.139043927192687988e-02 -2.944658696651458740e-01
2.110558599233627319e-01 -1.384312659502029419e-01 -2.522987127304077148e-01
1.872589141130447388e-01 -5.504524335265159607e-02 -2.086737900972366333e-01
2.315589636564254761e-01 -3.853061050176620483e-02 -3.103208243846893311e-01
2.570956349372863770e-01 -2.428935840725898743e-02 -2.764907777309417725e-01
1.140496805310249329e-01 -4.593579471111297607e-02 -2.464322298765182495e-01
1.970489472150802612e-01 -1.043091267347335815e-01 -2.118979096412658691e-01
3.350324928760528564e-01 -1.233243122696876526e-01 -2.809247672557830811e-01
2.180819958448410034e-01 -5.346976965665817261e-02 -2.085551023483276367e-01
2.508241534233093262e-01 -1.427410393953323364e-01 -2.790176868438720703e-01
1.263299137353897095e-01 -9.464954584836959839e-02 -2.221922725439071655e-01
3.233912885189056396e-01 -1.237137243151664734e-01 -3.022230565547943115e-01
2.243694812059402466e-01 -1.412143409252166748e-01 -2.606264650821685791e-01
2.299227714538574219e-01 -1.049982979893684387e-01 -3.339757621288299561e-01
3.379534184932708740e-01 -1.200384348630905151e-01 -2.687863111495971680e-01
1.494750827550888062e-01 -1.216042041778564453e-01 -2.369563579559326172e-01
3.322514891624450684e-01 -5.493581295013427734e-02 -3.038949072360992432e-01
8.730925619602203369e-02 -7.995806634426116943e-02 -2.736119925975799561e-01
3.365868628025054932e-01 -4.993744567036628723e-02 -2.523856759071350098e-01
2.206153124570846558e-01 -4.750924184918403625e-02 -3.191557824611663818e-01
1.285379827022552490e-01 -1.079956963658332825e-01 -2.305245995521545410e-01
3.115000724792480469e-01 -3.466021642088890076e-02 -2.720406949520111084e-01
2.041824311017990112e-01 -5.033322796225547791e-02 -2.100397050380706787e-01
2.488678097724914551e-01 -1.380686759948730469e-01 -2.531134188175201416e-01
1.315919160842895508e-01 -4.346624016761779785e-02 -2.331922054290771484e-01
2.517260015010833740e-01 -3.369473293423652649e-02 -3.026958107948303223e-01
1.670232117176055908e-01 -4.870570451021194458e-02 -3.102589845657348633e-01
1.193485185503959656e-01 -8.163335919380187988e-02 -2.212796658277511597e-01
2.104744315147399902e-01 -4.032908752560615540e-02 -3.109944462776184082e-01
3.415637612342834473e-01 -7.715845853090286255e-02 -3.140569329261779785e-01
2.797687649726867676e-01 -3.687049448490142822e-02 -2.325583845376968384e-01
1.086118295788764954e-01 -8.850980550050735474e-02 -2.290256470441818237e-01
3.523055315017700195e-01 -1.122746467590332031e-01 -2.861325442790985107e-01
1.353040784597396851e-01 -5.051060020923614502e-02 -2.234033942222595215e-01
2.098873853683471680e-01 -2.223951742053031921e-02 -2.704575955867767334e-01
1.472487598657608032e-01 -5.348817259073257446e-02 -2.168941497802734375e-01
1.594226807355880737e-01 -1.107323542237281799e-01 -2.216382026672363281e-01
2.887459099292755127e-01 -8.077178895473480225e-02 -2.146474719047546387e-01
2.030433416366577148e-01 -1.256968379020690918e-01 -2.299082577228546143e-01
3.169656693935394287e-01 -1.306763440370559692e-01 -2.826189100742340088e-01
3.151664137840270996e-01 -1.297872066497802734e-01 -2.683753967285156250e-01
2.369543462991714478e-01 -1.368103921413421631e-01 -2.482448220252990723e-01
3.173869848251342773e-01 -8.023955672979354858e-02 -2.247608900070190430e-01
1.928079277276992798e-01 -3.632384538650512695e-02 -2.220861911773681641e-01
1.736212819814682007e-01 -2.524903789162635803e-02 -2.615900039672851562e-01
2.584150135517120361e-01 -1.409024298191070557e-01 -2.660335302352905273e-01
1.284896135330200195e-01 -1.166501194238662720e-01 -2.412773370742797852e-01
2.657674252986907959e-01 -2.583031728863716125e-02 -2.511581778526306152e-01
2.540261447429656982e-01 -6.325402855873107910e-02 -3.301257193088531494e-01
2.489297688007354736e-01 -2.310034260153770447e-02 -2.550095021724700928e-01
2.958699464797973633e-01 -1.360279619693756104e-01 -2.727744579315185547e-01
3.413727283477783203e-01 -7.877156138420104980e-02 -2.379245311021804810e-01
2.258302867412567139e-01 -7.077343761920928955e-02 -2.044261395931243896e-01
1.860458850860595703e-01 -6.950219720602035522e-02 -2.049932628870010376e-01
1.679311990737915039e-01 -1.348024457693099976e-01 -2.898783981800079346e-01
2.634638845920562744e-01 -1.352311819791793823e-01 -3.077652454376220703e-01
1.041252762079238892e-01 -5.981669574975967407e-02 -2.842532694339752197e-01
1.928810477256774902e-01 -1.317764669656753540e-01 -3.085709214210510254e-01
2.499418854713439941e-01 -7.403324544429779053e-02 -2.065464556217193604e-01
3.334018290042877197e-01 -4.350371658802032471e-02 -2.716616690158843994e-01
1.892439574003219604e-01 -4.720308631658554077e-02 -3.145990967750549316e-01
2.353402227163314819e-01 -1.277326494455337524e-01 -2.326631397008895874e-01
2.961163520812988281e-01 -1.188593655824661255e-01 -3.212270140647888184e-01
1.373212039470672607e-01 -1.269005239009857178e-01 -2.833235859870910645e-01
