-1.858463883399963379e-01 5.836221203207969666e-02 8.322496414184570312e-01
-1.406583636999130249e-01 6.661446392536163330e-02 7.383537292480468750e-01
1.828809529542922974e-01 -2.243524789810180664e-02 1.294027864933013916e-01
6.467816233634948730e-02 -1.345877535641193390e-02 2.074773013591766357e-01
1.531303822994232178e-01 -2.736739441752433777e-02 1.138042509555816650e-01
1.033695489168167114e-01 1.839421316981315613e-02 4.867521822452545166e-01
-1.319699883460998535e-01 1.684298552572727203e-02 4.600965976715087891e-01
-8.438384532928466797e-02 3.888132423162460327e-02 5.371756553649902344e-01
1.631931215524673462e-01 -5.125897005200386047e-02 6.832912564277648926e-02
8.318565785884857178e-02 3.803199529647827148e-02 5.113996267318725586e-01
1.626213788986206055e-01 3.893167711794376373e-03 2.720969319343566895e-01
-5.190421268343925476e-02 -9.318515658378601074e-03 4.558131992816925049e-01
1.534496843814849854e-01 -4.780850186944007874e-02 5.059403181076049805e-02
1.225707679986953735e-01 -4.643417522311210632e-02 1.429534852504730225e-01
-1.080245152115821838e-01 1.083926856517791748e-02 5.874067544937133789e-01
-2.770270705223083496e-01 6.641995906829833984e-02 8.615861535072326660e-01
-8.462209254503250122e-02 4.324548318982124329e-02 5.619719028472900391e-01
-7.667422294616699219e-02 -2.692042291164398193e-02 3.231467604637145996e-01
-5.766751244664192200e-03 6.407033652067184448e-05 4.878919422626495361e-01
-3.634309768676757812e-02 5.181093886494636536e-02 6.000602245330810547e-01
-7.252944260835647583e-02 -1.465355418622493744e-02 4.271991252899169922e-01
-1.989517807960510254e-01 5.559626966714859009e-02 6.999806165695190430e-01
-2.259409576654434204e-01 5.338299274444580078e-02 8.262563347816467285e-01
3.307634219527244568e-02 -2.943006902933120728e-02 1.670525670051574707e-01
-1.262853145599365234e-01 4.969374462962150574e-02 7.722512483596801758e-01
-2.968437783420085907e-02 5.055846273899078369e-02 7.063791751861572266e-01
1.704771816730499268e-01 -4.385941103100776672e-02 1.314389109611511230e-01
1.857266426086425781e-01 -2.989527210593223572e-02 2.030948996543884277e-01
-2.414702475070953369e-01 4.237913340330123901e-02 7.782188057899475098e-01
1.880561858415603638e-01 -9.837349876761436462e-03 1.939242482185363770e-01
-2.853606343269348145e-01 5.037527531385421753e-02 7.675830125808715820e-01
1.681741774082183838e-01 -7.146075367927551270e-04 2.444650530815124512e-01
-2.555471658706665039e-01 3.412043303251266479e-02 7.307616472244262695e-01
-2.982236444950103760e-03 1.674404181540012360e-02 5.655372142791748047e-01
-8.800027891993522644e-03 4.008891060948371887e-02 5.148481130599975586e-01
2.058881223201751709e-01 -3.219338506460189819e-02 1.698607206344604492e-01
5.666593462228775024e-02 -1.745589636266231537e-02 3.620950579643249512e-01
-1.626036763191223145e-01 -7.608726620674133301e-03 4.578266739845275879e-01
2.306581288576126099e-02 5.140163004398345947e-02 6.354308128356933594e-01
-1.270292103290557861e-01 7.199023663997650146e-02 7.885782718658447266e-01
-1.672102138400077820e-03 4.840612784028053284e-02 5.712977051734924316e-01
1.158482134342193604e-01 -5.027858540415763855e-02 1.074560284614562988e-01
8.517455309629440308e-02 3.629062324762344360e-02 4.924573004245758057e-01
-1.379685401916503906e-01 1.097869779914617538e-02 4.413495063781738281e-01
1.820174455642700195e-01 -2.495208755135536194e-03 2.362733930349349976e-01
1.401796936988830566e-01 -1.884449645876884460e-02 1.543248295783996582e-01
-1.893502920866012573e-01 5.533040314912796021e-02 6.915985345840454102e-01
-2.213848195970058441e-02 3.754297643899917603e-02 5.031164288520812988e-01
-1.112959012389183044e-01 5.947563052177429199e-02 6.751155853271484375e-01
1.452552229166030884e-01 -4.403244704008102417e-03 2.241191416978836060e-01
1.400121599435806274e-01 -3.313944116234779358e-02 9.591856598854064941e-02
7.897073030471801758e-02 1.640103198587894440e-02 3.511176109313964844e-01
-1.386668533086776733e-01 4.443028569221496582e-02 7.582610845565795898e-01
-2.508462071418762207e-01 5.621809512376785278e-02 8.411276936531066895e-01
-2.061677277088165283e-01 1.059050951153039932e-02 5.156197547912597656e-01
2.537291124463081360e-02 -8.097073063254356384e-03 2.505008578300476074e-01
1.134545803070068359e-01 -2.096962183713912964e-02 1.541949212551116943e-01
-1.668848991394042969e-01 2.974282763898372650e-02 7.029238939285278320e-01
-2.053894102573394775e-01 4.184824973344802856e-02 7.710627317428588867e-01
-1.170822381973266602e-01 4.662856832146644592e-02 5.977083444595336914e-01
1.252117902040481567e-01 -3.515436872839927673e-02 2.197986990213394165e-01
-2.467910759150981903e-02 4.911883920431137085e-02 5.787733793258666992e-01
-2.600812315940856934e-01 5.536851659417152405e-02 7.537204623222351074e-01
-1.134097203612327576e-02 2.081874758005142212e-03 5.010007023811340332e-01
1.813155561685562134e-01 -2.315362170338630676e-02 2.418728917837142944e-01
-1.295809447765350342e-01 4.181177169084548950e-02 5.781075358390808105e-01
2.264985293149948120e-01 -3.723716363310813904e-02 7.345077395439147949e-02
2.507829666137695312e-02 3.318910300731658936e-02 4.633505046367645264e-01
-1.758483983576297760e-02 -1.256314665079116821e-02 4.246853888034820557e-01
8.312828093767166138e-02 -3.676423430442810059e-02 2.324915379285812378e-01
-2.157883346080780029e-02 2.461439371109008789e-02 6.110920310020446777e-01
1.126748323440551758e-02 -8.278487250208854675e-03 2.576957941055297852e-01
2.208191305398941040e-01 -4.178743809461593628e-02 5.895131826400756836e-02
-1.247497648000717163e-01 5.491332709789276123e-02 6.510831117630004883e-01
-2.480445429682731628e-02 -2.202104404568672180e-02 3.686542212963104248e-01
1.197182685136795044e-01 -2.935161069035530090e-02 2.577748894691467285e-01
-1.307941377162933350e-01 7.285991311073303223e-02 8.106131553649902344e-01
3.005371615290641785e-02 -1.110220327973365784e-04 2.834918797016143799e-01
-9.954557567834854126e-02 -1.067736931145191193e-02 4.569407403469085693e-01
-9.880626946687698364e-02 -6.242601200938224792e-03 4.859943985939025879e-01
-2.374408394098281860e-01 4.945392906665802002e-02 8.113223910331726074e-01
-2.164326459169387817e-01 2.582169324159622192e-02 6.893984675407409668e-01
-1.015080735087394714e-01 -8.444372564554214478e-03 3.417147696018218994e-01
-4.223681241273880005e-02 6.115848198533058167e-02 6.807974576950073242e-01
5.863688886165618896e-03 3.178159706294536591e-03 4.971960186958312988e-01
-7.315490394830703735e-02 -1.992699131369590759e-02 3.899210095405578613e-01
-1.484142709523439407e-02 3.235443308949470520e-02 4.700824320316314697e-01
1.870283931493759155e-01 -3.043346852064132690e-02 9.385597705841064453e-02
-7.436072826385498047e-02 -2.029605209827423096e-03 3.399812579154968262e-01
-1.999115347862243652e-01 7.956883870065212250e-03 5.010318160057067871e-01
-9.125700592994689941e-02 5.587552860379219055e-02 6.431369781494140625e-01
6.778279691934585571e-02 6.118327844887971878e-03 4.706727564334869385e-01
1.084528267383575439e-01 -1.142049208283424377e-02 1.983616650104522705e-01
1.703463941812515259e-01 -2.646433934569358826e-02 2.352526783943176270e-01
-7.662095129489898682e-02 8.268142119050025940e-04 3.526485562324523926e-01
1.136255115270614624e-01 -7.948368787765502930e-03 3.725621998310089111e-01
-4.503169655799865723e-02 4.394960775971412659e-02 5.499918460845947266e-01
5.522852391004562378e-02 1.857095211744308472e-02 3.691494762897491455e-01
1.499560326337814331e-01 1.140159554779529572e-03 2.544918954372406006e-01
-3.969557583332061768e-03 8.135223761200904846e-03 5.266915559768676758e-01
9.596403688192367554e-03 3.648489341139793396e-02 6.326384544372558594e-01
-2.406192868947982788e-01 3.508512675762176514e-02 7.400388717651367188e-01
-2.201083153486251831e-01 3.687024861574172974e-02 6.230276226997375488e-01
-6.248340755701065063e-02 1.825606822967529297e-02 4.192284643650054932e-01
-2.635273896157741547e-02 8.631285279989242554e-03 3.533254265785217285e-01
-2.449562400579452515e-01 5.598317831754684448e-02 7.409578561782836914e-01
2.089326381683349609e-01 -1.115456409752368927e-02 1.931757330894470215e-01
-1.847359165549278259e-02 6.541169714182615280e-03 5.269291996955871582e-01
1.264648586511611938e-01 -2.342289686203002930e-02 1.389697492122650146e-01
-3.480074927210807800e-03 5.013916268944740295e-02 5.849536657333374023e-01
1.440602093935012817e-01 1.934412866830825806e-02 3.784239590167999268e-01
-2.310714125633239746e-01 7.358604669570922852e-02 8.503684401512145996e-01
6.294662505388259888e-02 1.352801173925399780e-02 5.054926872253417969e-01
-8.796653151512145996e-02 2.588620781898498535e-02 6.537936925888061523e-01
-7.799031585454940796e-02 2.935305610299110413e-02 6.642208099365234375e-01
-3.135684132575988770e-02 -8.437894284725189209e-04 3.146125674247741699e-01
-1.590508818626403809e-01 3.665550798177719116e-02 5.710120201110839844e-01
1.028572916984558105e-01 -1.817509904503822327e-02 1.703075468540191650e-01
1.446348875761032104e-01 -3.430262953042984009e-02 2.119487226009368896e-01
8.265954256057739258e-02 -4.822451993823051453e-02 1.373072266578674316e-01
-8.089229464530944824e-03 -6.726665422320365906e-03 4.533343911170959473e-01
-5.330531671643257141e-02 5.092446878552436829e-02 5.976870656013488770e-01
9.067308902740478516e-02 -1.941297948360443115e-02 3.313910365104675293e-01
1.104614436626434326e-01 -1.546069234609603882e-02 3.385870158672332764e-01
1.680094599723815918e-01 -3.127880766987800598e-02 9.404435753822326660e-02
6.370237469673156738e-02 -2.469458431005477905e-02 3.173503875732421875e-01
-1.154107227921485901e-01 1.810806803405284882e-02 6.278803348541259766e-01
1.704074442386627197e-01 -7.654909044504165649e-03 2.048212587833404541e-01
-1.079171746969223022e-01 3.310074657201766968e-02 6.957278251647949219e-01
-1.953013539314270020e-01 2.680832147598266602e-02 6.938257217407226562e-01
-1.062210872769355774e-01 3.925342112779617310e-02 5.507924556732177734e-01
-2.796694636344909668e-01 6.289574503898620605e-02 8.264453411102294922e-01
-3.448953852057456970e-02 -3.333084285259246826e-02 2.262850254774093628e-01
1.574439704418182373e-01 7.721558213233947754e-03 2.959311902523040771e-01
3.953959792852401733e-03 -4.077669233083724976e-02 2.049172222614288330e-01
8.966088294982910156e-03 9.333186782896518707e-03 5.246932506561279297e-01
-1.136660724878311157e-01 5.405850335955619812e-02 6.404909491539001465e-01
-3.710192441940307617e-02 6.753050722181797028e-03 5.373805165290832520e-01
-4.176870733499526978e-02 1.236137561500072479e-02 3.793900310993194580e-01
7.147619873285293579e-02 -4.831781238317489624e-02 1.302138268947601318e-01
-4.308661818504333496e-02 6.000792980194091797e-02 6.679798364639282227e-01
-4.388423264026641846e-02 3.688384220004081726e-02 5.073909759521484375e-01
7.363331317901611328e-02 1.758526638150215149e-02 5.123507976531982422e-01
-1.480127032846212387e-02 -2.741696685552597046e-02 3.293976783752441406e-01
1.459831893444061279e-01 -3.123405575752258301e-02 2.288324385881423950e-01
-2.493243664503097534e-01 3.088683634996414185e-02 7.133727073669433594e-01
-2.388591170310974121e-01 6.172752007842063904e-02 7.683636546134948730e-01
2.011502534151077271e-01 -1.437512598931789398e-02 2.589472532272338867e-01
7.088746130466461182e-02 2.030054479837417603e-02 3.755569159984588623e-01
-2.899636030197143555e-01 5.285669118165969849e-02 7.938400506973266602e-01
-6.566391885280609131e-02 2.789135463535785675e-02 4.688045084476470947e-01
8.763372153043746948e-02 3.748720139265060425e-02 5.318576693534851074e-01
1.109181195497512817e-01 3.134873509407043457e-02 4.922802746295928955e-01
5.278056859970092773e-02 9.922689758241176605e-03 3.230891823768615723e-01
3.252920135855674744e-02 -4.040605202317237854e-02 2.202900201082229614e-01
-1.919135600328445435e-01 8.244083262979984283e-03 5.805144906044006348e-01
3.862997889518737793e-02 3.507612273097038269e-03 4.790353477001190186e-01
-4.268452525138854980e-03 3.804516047239303589e-02 5.007756352424621582e-01
-2.554345428943634033e-01 6.212110817432403564e-02 7.872557640075683594e-01
8.381234109401702881e-02 -2.955026924610137939e-02 2.779379487037658691e-01
-5.633686855435371399e-02 5.025837570428848267e-02 7.281760573387145996e-01
-5.410587042570114136e-02 -3.190791979432106018e-02 2.725364863872528076e-01
5.239412933588027954e-02 -3.127684816718101501e-02 2.822244465351104736e-01
-3.063214942812919617e-02 2.667736634612083435e-02 4.451547265052795410e-01
-2.552257776260375977e-01 4.311624914407730103e-02 6.886965036392211914e-01
-2.419758960604667664e-02 5.829524993896484375e-02 6.566084623336791992e-01
2.662213146686553955e-02 3.786832466721534729e-02 4.935255646705627441e-01
-1.337265372276306152e-01 4.472172260284423828e-02 5.963959097862243652e-01
1.537766754627227783e-01 5.721390713006258011e-03 2.822617888450622559e-01
-5.745644122362136841e-02 3.478031605482101440e-02 5.014684200286865234e-01
6.371878087520599365e-03 1.452826708555221558e-02 3.653468191623687744e-01
6.908467411994934082e-02 9.675608016550540924e-03 4.848639070987701416e-01
4.934313893318176270e-02 -6.229450926184654236e-03 2.464190721511840820e-01
2.191741019487380981e-03 -3.476905450224876404e-02 2.709761857986450195e-01
-1.497119963169097900e-01 1.448320876806974411e-02 6.184835433959960938e-01
-2.362990379333496094e-01 6.518455594778060913e-02 7.879378795623779297e-01
5.553417652845382690e-02 1.931433007121086121e-02 5.341402292251586914e-01
7.580893486738204956e-02 -4.547951370477676392e-02 1.679260730743408203e-01
-6.571725010871887207e-02 -8.890839293599128723e-03 4.624053835868835449e-01
7.011392712593078613e-02 -3.143100440502166748e-02 2.733031809329986572e-01
-8.808344602584838867e-02 7.924699224531650543e-03 3.896964490413665771e-01
9.937450289726257324e-02 -4.646258801221847534e-02 1.525071561336517334e-01
3.637533634901046753e-02 1.069095730781555176e-02 5.130816698074340820e-01
5.689151585102081299e-02 -2.256181463599205017e-02 1.751217842102050781e-01
1.367806270718574524e-02 2.597814798355102539e-02 4.236911237239837646e-01
2.028049230575561523e-01 -3.883834555745124817e-02 1.345986723899841309e-01
3.884965926408767700e-02 -2.755193039774894714e-02 3.116589188575744629e-01
-6.314648687839508057e-02 2.148180268704891205e-03 5.246953964233398438e-01
-2.025744020938873291e-01 5.084963887929916382e-02 6.763581037521362305e-01
-1.680857986211776733e-01 -3.708191215991973877e-04 4.386397600173950195e-01
-5.708497762680053711e-02 3.831465542316436768e-02 5.211726427078247070e-01
1.123224943876266479e-01 -3.217320889234542847e-02 2.458797395229339600e-01
-1.791094616055488586e-02 5.508581548929214478e-02 6.259015798568725586e-01
-5.516633391380310059e-02 -1.777286455035209656e-02 4.034804999828338623e-01
1.106269955635070801e-01 -2.422226592898368835e-02 1.419766545295715332e-01
-7.658768445253372192e-02 -5.704246461391448975e-03 4.845115244388580322e-01
2.929224073886871338e-02 -5.157720297574996948e-03 4.423601925373077393e-01
-2.212325781583786011e-01 2.328979223966598511e-02 6.738238334655761719e-01
-1.971095800399780273e-01 6.054583936929702759e-02 7.280538082122802734e-01
7.345594465732574463e-03 3.236649185419082642e-02 4.628219008445739746e-01
-5.741985142230987549e-02 -1.313978433609008789e-02 2.875127792358398438e-01
8.193702250719070435e-02 -2.057116478681564331e-03 4.236407577991485596e-01
-1.645997762680053711e-01 2.346838638186454773e-02 6.703696250915527344e-01
-2.238666713237762451e-01 3.972354158759117126e-02 7.640386819839477539e-01
9.436108171939849854e-03 4.909115657210350037e-02 5.775738954544067383e-01
-8.219875395298004150e-02 -1.636456511914730072e-02 4.162546992301940918e-01
2.001243084669113159e-01 -4.358159750699996948e-02 1.055303514003753662e-01
-2.112797945737838745e-01 7.225745916366577148e-02 8.782232999801635742e-01
5.910174548625946045e-02 4.100330546498298645e-02 5.882743000984191895e-01
-1.293248087167739868e-01 6.851591169834136963e-02 7.503988146781921387e-01
1.224837824702262878e-02 3.943195939064025879e-02 5.060743689537048340e-01
1.719879657030105591e-01 -4.917474463582038879e-03 2.201824933290481567e-01
3.255578503012657166e-02 -1.370706036686897278e-02 3.954893350601196289e-01
1.421922445297241211e-01 -1.712283305823802948e-02 3.060915768146514893e-01
5.485086888074874878e-02 2.401038631796836853e-02 4.008621275424957275e-01
1.321496218442916870e-01 9.343890473246574402e-03 3.033871948719024658e-01
-1.899137347936630249e-01 2.804841846227645874e-03 4.780904054641723633e-01
5.862580984830856323e-02 -1.241557113826274872e-02 3.879629969596862793e-01
-5.282289534807205200e-02 2.555798925459384918e-02 6.338910460472106934e-01
-1.900900900363922119e-02 5.872637405991554260e-02 6.948478221893310547e-01
1.871371567249298096e-01 -3.416605293750762939e-02 7.908535003662109375e-02
-1.970670819282531738e-01 5.147247761487960815e-02 8.105619549751281738e-01
-1.667413562536239624e-01 4.935994744300842285e-02 6.425989866256713867e-01
-8.406691253185272217e-02 6.829044222831726074e-02 7.644641995429992676e-01
8.255932480096817017e-03 -2.822088822722434998e-02 1.890878081321716309e-01
-2.163051441311836243e-02 4.485963657498359680e-02 6.844895482063293457e-01
1.410131007432937622e-01 -4.587114229798316956e-02 5.878251791000366211e-02
-2.191517353057861328e-01 1.972604356706142426e-02 5.569193363189697266e-01
2.220753282308578491e-01 -1.903688348829746246e-02 2.089692056179046631e-01
2.095086127519607544e-01 -2.279476821422576904e-02 1.286586523056030273e-01
-8.629910647869110107e-02 -9.329916909337043762e-03 4.642466902732849121e-01
-9.777359664440155029e-02 3.780133649706840515e-02 7.105457782745361328e-01
-8.379674702882766724e-02 4.803918302059173584e-02 7.408691644668579102e-01
-7.875832915306091309e-02 2.290972694754600525e-02 4.512549042701721191e-01
-9.024960547685623169e-02 -1.234413124620914459e-02 4.448690116405487061e-01
-9.740874916315078735e-02 5.945759639143943787e-02 6.701000332832336426e-01
-2.424496710300445557e-01 7.158298790454864502e-02 8.421226739883422852e-01
2.033912986516952515e-01 -3.531638532876968384e-02 1.551396250724792480e-01
-1.934973150491714478e-01 4.771983623504638672e-02 6.527255773544311523e-01
-2.446475774049758911e-01 5.295244231820106506e-02 7.243921160697937012e-01
-5.580797791481018066e-02 3.222094476222991943e-02 4.866892099380493164e-01
1.698649674654006958e-01 -4.278228059411048889e-02 5.469295382499694824e-02
1.246986389160156250e-01 1.537135150283575058e-02 3.412255346775054932e-01
1.101794838905334473e-01 1.157237589359283447e-02 4.567790031433105469e-01
-1.257586926221847534e-01 -4.651216790080070496e-03 3.771324455738067627e-01
-1.069211736321449280e-01 -1.849418692290782928e-02 3.944919109344482422e-01
9.699582308530807495e-02 -3.524388000369071960e-02 2.355806678533554077e-01
-1.830181926488876343e-01 1.205641962587833405e-02 6.074635386466979980e-01
1.949069350957870483e-01 -2.505008876323699951e-02 1.166796088218688965e-01
-1.323949545621871948e-01 4.556272178888320923e-03 5.579269528388977051e-01
5.397286266088485718e-02 3.696911782026290894e-02 4.864347279071807861e-01
-2.117276750504970551e-02 -3.665408119559288025e-02 2.454344034194946289e-01
2.007658332586288452e-01 -4.025449976325035095e-03 2.356341481208801270e-01
-4.582474753260612488e-02 -2.936118841171264648e-02 3.149097561836242676e-01
-1.435811519622802734e-01 2.294822037220001221e-02 4.954860806465148926e-01
-1.075845286250114441e-01 5.527139455080032349e-02 7.797896265983581543e-01
-1.364896297454833984e-01 -7.495865225791931152e-03 4.777291715145111084e-01
-1.325307488441467285e-01 6.941957771778106689e-02 8.272861242294311523e-01
9.508135169744491577e-02 -1.551916450262069702e-02 3.489409685134887695e-01
1.706574857234954834e-02 -3.396756574511528015e-02 2.750999629497528076e-01
5.580645054578781128e-03 -1.758390478789806366e-02 3.860466182231903076e-01
-2.062130272388458252e-01 4.668262600898742676e-02 7.931034564971923828e-01
1.865793913602828979e-01 -3.917270153760910034e-02 1.487880051136016846e-01
-1.669917553663253784e-01 6.428337097167968750e-02 8.414607048034667969e-01
9.889531135559082031e-02 1.109667029231786728e-02 3.168802857398986816e-01
7.643938809633255005e-02 -1.090654358267784119e-02 3.846794366836547852e-01
-3.797563910484313965e-02 1.266005821526050568e-02 5.668079853057861328e-01
-6.195708736777305603e-02 -4.251511767506599426e-03 4.886283874511718750e-01
1.110747084021568298e-02 4.252880811691284180e-02 6.485310196876525879e-01
-5.640403181314468384e-02 5.768150463700294495e-02 6.473729610443115234e-01
-5.403655022382736206e-02 -1.475671119987964630e-02 4.229629039764404297e-01
-1.553695648908615112e-01 7.059656083583831787e-02 7.767582535743713379e-01
-1.768124699592590332e-01 7.070777937769889832e-04 5.287246108055114746e-01
-1.519447267055511475e-01 2.539710327982902527e-02 6.768524646759033203e-01
2.177353799343109131e-01 -3.775025531649589539e-02 1.229773759841918945e-01
-9.818303585052490234e-02 4.250013083219528198e-02 5.643914341926574707e-01
1.669085174798965454e-01 -7.558977231383323669e-03 3.263726532459259033e-01
-4.863767325878143311e-02 -2.569293603301048279e-02 2.471616119146347046e-01
7.474283128976821899e-02 -2.194685116410255432e-02 3.270745575428009033e-01
-2.780448794364929199e-01 4.536117613315582275e-02 7.839151620864868164e-01
1.058739721775054932e-01 -4.551039636135101318e-02 7.930746674537658691e-02
-1.329825520515441895e-01 5.651228129863739014e-02 6.651724576950073242e-01
4.303436726331710815e-03 -2.793659269809722900e-02 3.212505280971527100e-01
2.306054905056953430e-02 3.107310272753238678e-03 4.868408739566802979e-01
1.734154224395751953e-01 -3.442314267158508301e-02 8.073365688323974609e-02
-1.422251760959625244e-01 7.275569718331098557e-03 5.756766200065612793e-01
-2.879682928323745728e-02 -1.075094752013683319e-02 2.737709283828735352e-01
-1.130480095744132996e-01 -1.389207877218723297e-02 4.325812757015228271e-01
2.168019860982894897e-01 -3.259265422821044922e-02 8.580332994461059570e-02
3.916920721530914307e-02 -4.528416320681571960e-02 1.584290862083435059e-01
-2.540966272354125977e-01 3.690095990896224976e-02 7.476422786712646484e-01
6.179416924715042114e-02 3.424736671149730682e-03 2.867437601089477539e-01
-8.423522114753723145e-02 -2.410706505179405212e-02 3.508269786834716797e-01
2.318497449159622192e-01 -2.164846286177635193e-02 1.503935158252716064e-01
-1.193395927548408508e-01 2.283336408436298370e-02 4.771371185779571533e-01
-1.870008558034896851e-01 7.147745788097381592e-02 7.986949682235717773e-01
-8.908673375844955444e-02 1.119578909128904343e-02 5.826042890548706055e-01
-1.031846925616264343e-02 -9.702743962407112122e-03 2.652283012866973877e-01
-1.132171079516410828e-01 -5.993768572807312012e-03 4.893547594547271729e-01
-1.177728250622749329e-01 2.743515186011791229e-03 5.444695353507995605e-01
-1.641706377267837524e-01 3.103701584041118622e-02 5.479972362518310547e-01
-6.865526735782623291e-02 -1.814459450542926788e-02 4.027392268180847168e-01
-4.496778547763824463e-02 4.963447153568267822e-02 5.867223143577575684e-01
3.035835549235343933e-02 3.750953823328018188e-03 3.014854788780212402e-01
-2.053644359111785889e-01 6.261312216520309448e-02 7.467787861824035645e-01
2.196322083473205566e-01 -2.030134201049804688e-02 1.453127264976501465e-01
1.177656054496765137e-01 6.853315047919750214e-03 4.319990575313568115e-01
-1.746963858604431152e-01 1.515874452888965607e-02 6.260875463485717773e-01
1.446718126535415649e-01 1.035137288272380829e-02 3.107137680053710938e-01
-8.581484854221343994e-02 6.100631784647703171e-03 5.544058680534362793e-01
4.208302497863769531e-02 -4.492560401558876038e-03 4.382581114768981934e-01
-1.470313034951686859e-02 -2.949551492929458618e-02 3.141878545284271240e-01
-1.971125751733779907e-01 1.745259389281272888e-02 6.403911113739013672e-01
1.790239065885543823e-01 -4.653974995017051697e-02 1.040774583816528320e-01
-2.614895105361938477e-01 3.429623693227767944e-02 6.640227437019348145e-01
3.167863562703132629e-02 -1.017383858561515808e-02 4.149718284606933594e-01
1.767272949218750000e-01 -5.012133717536926270e-02 7.147601246833801270e-02
1.971704810857772827e-01 -2.462987974286079407e-02 2.183287590742111206e-01
5.410201102495193481e-02 -4.409502819180488586e-02 1.840164065361022949e-01
2.098564356565475464e-01 -4.655371978878974915e-02 5.314332246780395508e-02
-1.578146591782569885e-02 -3.869356587529182434e-03 2.922260761260986328e-01
1.617026031017303467e-01 1.628371514379978180e-02 3.869773149490356445e-01
9.615425765514373779e-02 -1.369757764041423798e-02 1.925689280033111572e-01
-6.427948176860809326e-02 2.199901454150676727e-02 4.383929371833801270e-01
6.307499855756759644e-02 -3.361193463206291199e-02 1.343507170677185059e-01
-2.238938957452774048e-01 4.895300790667533875e-02 6.841328144073486328e-01
-2.510890737175941467e-02 -2.158884331583976746e-02 2.347655594348907471e-01
2.033859342336654663e-01 -3.797990083694458008e-02 6.418374180793762207e-02
-3.259703889489173889e-02 -7.894719019532203674e-03 2.871800661087036133e-01
-8.107964694499969482e-02 1.819637231528759003e-02 6.143835186958312988e-01
4.697814583778381348e-02 4.683399945497512817e-02 5.817471742630004883e-01
1.607432514429092407e-01 -2.054717019200325012e-02 1.414912641048431396e-01
1.387320160865783691e-01 2.259529568254947662e-02 4.057992696762084961e-01
1.477034091949462891e-01 2.033232152462005615e-02 3.950247168540954590e-01
3.490379825234413147e-02 2.964374236762523651e-02 5.885617733001708984e-01
9.345329552888870239e-02 -5.001984536647796631e-02 1.069447100162506104e-01
-2.266482263803482056e-01 3.336761146783828735e-02 7.313921451568603516e-01
-1.464564204216003418e-01 6.936946511268615723e-02 7.628940343856811523e-01
2.861917018890380859e-02 -3.725792840123176575e-02 1.520445942878723145e-01
1.931513249874114990e-01 7.265703752636909485e-04 2.649177908897399902e-01
-8.970548957586288452e-02 2.263723872601985931e-03 5.345069169998168945e-01
-5.427669733762741089e-03 5.520056560635566711e-02 6.318429708480834961e-01
-1.032595410943031311e-01 3.181722946465015411e-03 5.435962080955505371e-01
9.879937767982482910e-02 -4.497569054365158081e-03 2.346159368753433228e-01
1.354561746120452881e-01 -3.859257325530052185e-02 1.916494369506835938e-01
7.025188207626342773e-02 3.560786694288253784e-02 5.676407814025878906e-01
1.605162024497985840e-01 -3.831132873892784119e-02 1.759065985679626465e-01
1.580735743045806885e-01 -4.320470988750457764e-02 1.454807221889495850e-01
4.010823369026184082e-02 -3.681289032101631165e-02 2.481958121061325073e-01
1.309642344713211060e-01 -5.150042846798896790e-02 8.337631821632385254e-02
-2.180024534463882446e-01 7.539014518260955811e-02 8.667767047882080078e-01
2.145618647336959839e-01 -1.459626480937004089e-02 2.380476593971252441e-01
1.261955350637435913e-01 -1.239778473973274231e-03 2.440086603164672852e-01
1.977286785840988159e-01 -2.123053744435310364e-02 2.337728738784790039e-01
-1.208991929888725281e-01 2.642124518752098083e-02 4.949336647987365723e-01
-1.478991508483886719e-01 7.301898300647735596e-02 8.003557920455932617e-01
-9.133172780275344849e-02 1.424752920866012573e-02 5.991531610488891602e-01
-1.588231027126312256e-01 -1.156244426965713501e-03 4.244346916675567627e-01
-3.026102483272552490e-02 4.328072816133499146e-02 5.410619974136352539e-01
-1.181355044245719910e-01 1.249419152736663818e-02 4.311473667621612549e-01
1.412552595138549805e-02 -4.157721996307373047e-02 1.707334816455841064e-01
-4.187364503741264343e-02 6.473766639828681946e-03 3.526803553104400635e-01
9.186477214097976685e-02 2.329182624816894531e-02 3.920483887195587158e-01
-1.631085872650146484e-01 -1.926232129335403442e-03 5.134741067886352539e-01
-2.082593142986297607e-01 1.779231056571006775e-02 5.370148420333862305e-01
-2.141378074884414673e-02 2.561943233013153076e-02 4.353851675987243652e-01
-1.085533052682876587e-01 -2.022870630025863647e-02 3.735162615776062012e-01
1.697433739900588989e-01 -3.444298729300498962e-02 1.918960511684417725e-01
6.234566867351531982e-02 -3.555563092231750488e-02 2.496530115604400635e-01
1.442515552043914795e-01 2.034794911742210388e-02 4.325035214424133301e-01
-5.664027854800224304e-02 -1.734369248151779175e-02 2.741595506668090820e-01
1.774704605340957642e-01 -2.753835543990135193e-02 2.232598066329956055e-01
-4.964300990104675293e-02 -1.180276274681091309e-03 5.013329982757568359e-01
-6.079511716961860657e-02 4.608574137091636658e-02 5.688738822937011719e-01
1.747801527380943298e-02 -1.971082389354705811e-02 3.684878945350646973e-01
-1.416901946067810059e-01 6.097001954913139343e-02 6.983855962753295898e-01
-4.429586976766586304e-02 4.693378880620002747e-02 7.090066671371459961e-01
-8.127158880233764648e-02 -2.568089403212070465e-03 5.043207406997680664e-01
-1.091862916946411133e-01 -4.501583054661750793e-03 3.609834313392639160e-01
-1.467531174421310425e-01 9.930422529578208923e-03 5.920014381408691406e-01
2.441061288118362427e-02 2.223566733300685883e-02 5.697551965713500977e-01
-2.283774167299270630e-01 4.203940182924270630e-02 6.545678973197937012e-01
2.085837423801422119e-01 -3.272729925811290741e-03 2.563305497169494629e-01
-1.178861409425735474e-01 5.629858002066612244e-02 7.895569205284118652e-01
9.068449586629867554e-02 -7.737914100289344788e-03 2.219270765781402588e-01
-1.731026321649551392e-01 7.153841853141784668e-02 7.923136353492736816e-01
7.888481020927429199e-03 -2.315257489681243896e-02 2.044879496097564697e-01
7.177996635437011719e-02 -2.889815717935562134e-02 2.881597578525543213e-01
-9.474679827690124512e-04 2.785978652536869049e-02 4.394422173500061035e-01
9.099394828081130981e-02 3.208915516734123230e-02 4.565128982067108154e-01
-2.127269208431243896e-01 2.847842872142791748e-02 7.044150829315185547e-01
2.342602238059043884e-03 4.328373447060585022e-02 6.588382124900817871e-01
-1.331392675638198853e-03 5.760980304330587387e-03 3.264771699905395508e-01
4.996829479932785034e-02 1.270395889878273010e-02 3.386672735214233398e-01
2.304992228746414185e-01 -3.259483724832534790e-02 1.322530508041381836e-01
5.139195173978805542e-02 -4.103954136371612549e-02 2.121476531028747559e-01
3.687845170497894287e-02 3.954846411943435669e-02 5.047229528427124023e-01
-3.180911391973495483e-02 2.493759058415889740e-02 6.188419461250305176e-01
-1.931461878120899200e-02 -5.849445238709449768e-03 4.631685614585876465e-01
2.165235951542854309e-02 -3.645725175738334656e-02 2.549910545349121094e-01
4.025119543075561523e-02 -1.595718972384929657e-02 3.791403770446777344e-01
2.039563283324241638e-02 1.250007469207048416e-02 5.317906141281127930e-01
2.135840207338333130e-01 -7.248336449265480042e-03 2.267791777849197388e-01
-1.359770447015762329e-01 -1.441355049610137939e-02 4.109348356723785400e-01
7.851912081241607666e-02 -4.634767398238182068e-02 1.002009212970733643e-01
-2.694306969642639160e-01 5.771500244736671448e-02 8.456223011016845703e-01
1.165595650672912598e-02 1.603839918971061707e-02 5.530307292938232422e-01
1.013372689485549927e-01 2.495441213250160217e-02 5.072921514511108398e-01
-6.998232007026672363e-02 6.490671634674072266e-02 7.135193943977355957e-01
1.243202835321426392e-01 -6.698442623019218445e-03 2.163512408733367920e-01
2.099748402833938599e-01 -2.700128033757209778e-02 1.086899340152740479e-01
2.752727270126342773e-02 5.024757236242294312e-02 6.001541018486022949e-01
-2.754587531089782715e-01 5.097153037786483765e-02 8.144472837448120117e-01
-1.288683991879224777e-02 7.236503064632415771e-03 3.394607901573181152e-01
-7.698385715484619141e-01 9.443678706884384155e-02 -2.817589044570922852e-01
-6.648664474487304688e-01 7.649423182010650635e-02 4.160562902688980103e-02
-7.650408148765563965e-01 -6.525626778602600098e-02 1.600083895027637482e-02
-7.615548372268676758e-01 -1.865210384130477905e-02 1.843841671943664551e-01
-6.736083030700683594e-01 1.082571297883987427e-01 1.346455812454223633e-01
-6.708482503890991211e-01 1.208047568798065186e-01 -1.813521832227706909e-01
-7.142722606658935547e-01 1.665171086788177490e-01 2.341261357069015503e-01
-7.387493848800659180e-01 1.714692562818527222e-01 -2.605667710304260254e-01
-7.714101076126098633e-01 3.859254717826843262e-02 2.507926225662231445e-01
-7.815239429473876953e-01 1.676807999610900879e-01 2.230668962001800537e-01
-7.112725973129272461e-01 2.562512755393981934e-01 -1.300532184541225433e-02
-7.781872749328613281e-01 9.459050744771957397e-02 2.649737894535064697e-01
-6.601166725158691406e-01 9.177565574645996094e-02 -7.032065838575363159e-02
-6.706205010414123535e-01 1.999778449535369873e-01 4.300868511199951172e-02
-6.732689142227172852e-01 2.010031193494796753e-01 -1.045291274785995483e-01
-8.037252426147460938e-01 1.329778730869293213e-01 -1.866152584552764893e-01
-6.681686639785766602e-01 7.402807474136352539e-02 7.018413394689559937e-02
-8.168214559555053711e-01 1.665683090686798096e-01 -2.885629981756210327e-02
-6.866242885589599609e-01 -1.004375517368316650e-03 -2.095292136073112488e-02
-7.856572270393371582e-01 1.317793428897857666e-01 2.453782111406326294e-01
-7.983099222183227539e-01 3.863323852419853210e-02 -2.252783477306365967e-01
-8.159012794494628906e-01 2.915270626544952393e-02 -1.614276319742202759e-01
-8.194881677627563477e-01 3.702832758426666260e-02 1.546813845634460449e-01
-8.314008116722106934e-01 1.139099895954132080e-01 2.042932249605655670e-02
-6.686522364616394043e-01 1.133192032575607300e-01 -1.695566922426223755e-01
-7.567269802093505859e-01 2.370917797088623047e-02 2.410503178834915161e-01
-7.553883790969848633e-01 8.848039060831069946e-02 2.761057913303375244e-01
-6.700598597526550293e-01 2.021497339010238647e-01 -6.732372194528579712e-02
-7.489950656890869141e-01 -5.686928331851959229e-02 6.185315549373626709e-02
-7.574025988578796387e-01 2.483901679515838623e-01 6.586576998233795166e-02
-6.936086416244506836e-01 9.800156950950622559e-02 -2.545549869537353516e-01
-6.629723310470581055e-01 1.146342754364013672e-01 -1.309197247028350830e-01
-7.008562088012695312e-01 -1.633189618587493896e-02 5.235194414854049683e-02
-8.142247796058654785e-01 1.648710370063781738e-01 -7.082357257604598999e-02
-6.931657791137695312e-01 1.644460558891296387e-01 1.947311162948608398e-01
-7.947978973388671875e-01 -3.921994566917419434e-02 1.011887863278388977e-01
-7.427796721458435059e-01 2.308302074670791626e-01 1.618828177452087402e-01
-6.942982077598571777e-01 3.885124623775482178e-02 1.581115722656250000e-01
-6.977341771125793457e-01 2.117461711168289185e-01 -1.768235415220260620e-01
-6.988662481307983398e-01 6.211207062005996704e-02 -2.524771094322204590e-01
-7.015857696533203125e-01 2.456248700618743896e-01 6.093194335699081421e-02
-8.134860992431640625e-01 1.296830475330352783e-01 -1.484403163194656372e-01
-7.143434286117553711e-01 2.278160154819488525e-01 1.542322486639022827e-01
-7.721547484397888184e-01 2.399778217077255249e-01 -1.915608532726764679e-02
-7.437890768051147461e-01 -6.261782348155975342e-02 -1.539466902613639832e-02
-8.197069168090820312e-01 9.904515743255615234e-02 1.635807156562805176e-01
-7.309797406196594238e-01 1.597971022129058838e-01 2.546614706516265869e-01
-6.897375583648681641e-01 3.521367907524108887e-04 -1.129324883222579956e-01
-8.269100189208984375e-01 2.966652810573577881e-02 1.047647222876548767e-01
-6.794132590293884277e-01 1.801804155111312866e-01 -1.765900552272796631e-01
-6.603260636329650879e-01 1.519539952278137207e-01 -8.853749185800552368e-02
-6.994469761848449707e-01 1.186370849609375000e-02 -1.959926933050155640e-01
-6.587707400321960449e-01 1.230502277612686157e-01 -8.433546870946884155e-02
-7.050882577896118164e-01 1.583204716444015503e-01 2.244156748056411743e-01
-7.019300460815429688e-01 1.639989018440246582e-02 -2.116600871086120605e-01
-7.449515461921691895e-01 7.773558050394058228e-02 -2.984618246555328369e-01
-6.634186506271362305e-01 1.097656115889549255e-01 6.914805620908737183e-02
-8.264353871345520020e-01 7.423735409975051880e-02 -1.169865429401397705e-01
-6.834700107574462891e-01 1.455289572477340698e-01 1.749466359615325928e-01
-6.962427496910095215e-01 2.452374249696731567e-01 -4.594250023365020752e-02
-7.189728617668151855e-01 5.153663456439971924e-03 1.768441051244735718e-01
-8.232229948043823242e-01 1.480468064546585083e-01 -1.943871751427650452e-02
-7.549619674682617188e-01 2.069512605667114258e-01 2.037776708602905273e-01
-8.113435506820678711e-01 1.585254371166229248e-01 1.369714289903640747e-01
-6.595382094383239746e-01 9.321101009845733643e-02 -1.235488895326852798e-02
-7.180420160293579102e-01 -3.981761634349822998e-03 -2.160782814025878906e-01
-8.349940776824951172e-01 7.582179456949234009e-02 -9.345510974526405334e-03
-7.244315147399902344e-01 2.560147643089294434e-01 5.995383858680725098e-02
-6.809577941894531250e-01 1.847870349884033203e-01 1.369463950395584106e-01
-7.829509377479553223e-01 -5.358691513538360596e-02 -1.067674085497856140e-01
-6.766883730888366699e-01 2.588108181953430176e-02 1.729284785687923431e-02
-8.286051154136657715e-01 1.259878724813461304e-01 4.792253673076629639e-02
-7.636034488677978516e-01 -5.315232276916503906e-02 9.278589487075805664e-02
-7.070990800857543945e-01 -1.843233406543731689e-02 -1.484905630350112915e-01
-8.139809370040893555e-01 7.505717128515243530e-02 -1.818875819444656372e-01
-6.678165197372436523e-01 1.796486377716064453e-01 -1.162323951721191406e-01
-7.870118021965026855e-01 -1.710100471973419189e-02 1.714031249284744263e-01
-7.425621151924133301e-01 6.394902616739273071e-02 -2.958867847919464111e-01
-7.093222141265869141e-01 2.031379342079162598e-01 1.905670613050460815e-01
-6.575379371643066406e-01 1.370235085487365723e-01 -4.783987998962402344e-02
-6.989097595214843750e-01 2.455839812755584717e-01 -6.285297125577926636e-02
-6.889598965644836426e-01 -3.423899412155151367e-03 6.538791581988334656e-03
-8.072136640548706055e-01 5.004480481147766113e-03 1.636472195386886597e-01
-7.047859430313110352e-01 -5.143508315086364746e-04 -1.887561082839965820e-01
-6.654170155525207520e-01 1.096252202987670898e-01 8.553301542997360229e-02
-7.904722094535827637e-01 -3.421407938003540039e-02 -1.528639048337936401e-01
-8.315068483352661133e-01 8.265821635723114014e-02 -6.848832964897155762e-02
-8.240237832069396973e-01 -8.555285632610321045e-03 1.742525398731231689e-02
-8.317447900772094727e-01 1.035123765468597412e-01 5.974304676055908203e-02
-7.097225189208984375e-01 -3.570321202278137207e-02 -6.468936800956726074e-02
-7.106436491012573242e-01 -3.457897901535034180e-02 1.993923448026180267e-02
-8.138145804405212402e-01 1.734470725059509277e-01 6.602865457534790039e-02
-8.101103305816650391e-01 4.861008003354072571e-02 1.963053792715072632e-01
-6.886598467826843262e-01 1.107149869203567505e-01 1.935579627752304077e-01
-6.880931854248046875e-01 1.534379124641418457e-01 1.866019517183303833e-01
-6.928365230560302734e-01 2.084189951419830322e-01 1.443574577569961548e-01
-7.911268472671508789e-01 1.854901611804962158e-01 1.727537065744400024e-01
-7.835958003997802734e-01 -1.754175126552581787e-02 -2.008522748947143555e-01
-7.828794121742248535e-01 2.116879373788833618e-01 1.372151821851730347e-01
-7.066835761070251465e-01 6.720983982086181641e-02 -2.699643075466156006e-01
-6.697707176208496094e-01 1.050128042697906494e-01 1.123270615935325623e-01
-7.046250700950622559e-01 2.254672050476074219e-01 1.413953304290771484e-01
-6.723377704620361328e-01 1.950398385524749756e-01 7.308216392993927002e-02
-7.715274691581726074e-01 2.307520508766174316e-01 -9.130068123340606689e-02
-6.683791875839233398e-01 1.416872590780258179e-01 1.081501394510269165e-01
-7.705135941505432129e-01 2.267347574234008789e-01 -1.121512725949287415e-01
-6.881208419799804688e-01 1.233425065875053406e-01 -2.410757243633270264e-01
-6.890159845352172852e-01 2.316825091838836670e-02 -1.762738227844238281e-01
-7.535613179206848145e-01 2.489605545997619629e-01 -6.328713893890380859e-02
-8.085372447967529297e-01 1.880281269550323486e-01 -1.606634631752967834e-02
-6.811309456825256348e-01 1.384443789720535278e-02 1.214246265590190887e-02
-8.135163187980651855e-01 -1.746625453233718872e-02 9.190696477890014648e-02
-8.220363855361938477e-01 3.267203271389007568e-02 -1.332146972417831421e-01
-8.275720477104187012e-01 2.720169723033905029e-03 -1.402608305215835571e-02
-7.464247345924377441e-01 -4.484269022941589355e-02 1.096636727452278137e-01
-8.071885108947753906e-01 -3.317831456661224365e-02 -8.786299824714660645e-02
-7.195798158645629883e-01 2.447837144136428833e-01 -1.179811134934425354e-01
-7.431578040122985840e-01 1.616543531417846680e-02 -2.673452198505401611e-01
-6.786578893661499023e-01 1.889112144708633423e-01 1.212866753339767456e-01
-8.353182077407836914e-01 6.058138981461524963e-02 1.848585717380046844e-02
-8.078218698501586914e-01 -1.359117031097412109e-02 -1.403385400772094727e-01
-8.223668336868286133e-01 9.221413731575012207e-02 -1.351440399885177612e-01
-7.371713519096374512e-01 2.458567321300506592e-01 -1.127349287271499634e-01
-6.832621097564697266e-01 1.131385713815689087e-01 1.763295531272888184e-01
-8.223509192466735840e-01 1.353621482849121094e-02 -1.099780276417732239e-01
-8.095975518226623535e-01 3.308819979429244995e-02 -1.888817697763442993e-01
-6.671026945114135742e-01 1.704903542995452881e-01 7.772101461887359619e-02
-8.044828176498413086e-01 4.819851368665695190e-02 -2.121967524290084839e-01
-6.997970342636108398e-01 3.740687668323516846e-02 1.743757724761962891e-01
-7.102339863777160645e-01 2.388788163661956787e-01 -1.287663877010345459e-01
-7.255699038505554199e-01 -7.363781332969665527e-04 -2.337982803583145142e-01
-8.346564769744873047e-01 5.153153836727142334e-02 -1.953371800482273102e-02
-6.894020438194274902e-01 7.731418311595916748e-02 1.810306310653686523e-01
-6.811619400978088379e-01 9.860742837190628052e-02 1.638572812080383301e-01
-7.731760740280151367e-01 -5.461782217025756836e-02 8.305922895669937134e-02
-6.753173470497131348e-01 2.118257880210876465e-01 4.494103789329528809e-02
-6.614754199981689453e-01 1.275861561298370361e-01 5.689238011837005615e-02
-7.770614624023437500e-01 2.178203314542770386e-01 -1.193101704120635986e-01
-8.162173032760620117e-01 1.512759625911712646e-01 1.205811500549316406e-01
-6.601320505142211914e-01 1.193349659442901611e-01 -1.031931042671203613e-01
-6.632827520370483398e-01 1.290185302495956421e-01 7.385822385549545288e-02
-8.322419524192810059e-01 3.742620721459388733e-02 -4.962960630655288696e-02
-7.890253663063049316e-01 1.018755286931991577e-01 2.503527700901031494e-01
-7.464995384216308594e-01 -6.031113862991333008e-02 -8.690543472766876221e-02
-7.427548766136169434e-01 2.869434654712677002e-02 2.397881597280502319e-01
-6.636665463447570801e-01 1.733289957046508789e-01 3.962229192256927490e-02
-6.866813302040100098e-01 4.846763610839843750e-02 -2.057722806930541992e-01
-7.028479576110839844e-01 1.245374828577041626e-01 2.298254072666168213e-01
-7.868792414665222168e-01 1.485114991664886475e-01 2.317264676094055176e-01
-7.977853417396545410e-01 1.652827858924865723e-01 1.852210462093353271e-01
-7.884204983711242676e-01 -4.052695631980895996e-02 1.128829419612884521e-01
-8.122019171714782715e-01 -1.457180827856063843e-02 1.072142124176025391e-01
-7.527679800987243652e-01 1.519196480512619019e-01 2.636236548423767090e-01
-8.200037479400634766e-01 4.870411008596420288e-02 -1.528155803680419922e-01
-7.493807077407836914e-01 2.535393238067626953e-01 -4.116339981555938721e-02
-8.130806088447570801e-01 -7.292181253433227539e-03 -1.282449215650558472e-01
-6.769223809242248535e-01 2.214417755603790283e-01 -2.663584798574447632e-02
-6.734273433685302734e-01 3.129359334707260132e-02 -6.345629692077636719e-02
-8.333942890167236328e-01 9.678035974502563477e-02 3.697909414768218994e-02
-8.285260796546936035e-01 1.312381029129028320e-02 5.459337681531906128e-02
-8.080487251281738281e-01 -2.519605308771133423e-02 -1.110036820173263550e-01
-7.964371442794799805e-01 -5.539320409297943115e-03 -1.912309527397155762e-01
-6.846845746040344238e-01 1.982591599225997925e-01 1.329335570335388184e-01
-7.029197216033935547e-01 9.745716303586959839e-02 -2.721107304096221924e-01
-8.268498182296752930e-01 1.268172860145568848e-01 7.724045217037200928e-02
-6.646052598953247070e-01 1.043706238269805908e-01 -1.401996612548828125e-01
-7.880010008811950684e-01 2.165031135082244873e-01 9.167873859405517578e-02
-7.157830595970153809e-01 9.151814132928848267e-02 -2.881001830101013184e-01
-6.843836307525634766e-01 3.206975758075714111e-03 -3.719521313905715942e-02
-8.084767460823059082e-01 1.894813477993011475e-01 1.726997084915637970e-02
-7.746451497077941895e-01 -6.280446052551269531e-02 3.021777607500553131e-02
-8.179067373275756836e-01 9.476196020841598511e-02 -1.577100306749343872e-01
-6.931762695312500000e-01 1.600642204284667969e-01 -2.348733246326446533e-01
-8.196441531181335449e-01 1.850236952304840088e-02 1.341506689786911011e-01
-6.751305460929870605e-01 2.098391354084014893e-01 -8.829320222139358521e-02
-7.880097627639770508e-01 1.534956097602844238e-01 -2.129324525594711304e-01
-6.974483132362365723e-01 2.388656437397003174e-01 7.710056751966476440e-02
-8.272970914840698242e-01 8.441957086324691772e-02 1.254547983407974243e-01
-7.416886091232299805e-01 -2.127626538276672363e-02 1.663393527269363403e-01
-8.335883617401123047e-01 8.872461318969726562e-02 5.201048403978347778e-02
-8.022683262825012207e-01 8.961240202188491821e-02 2.255602329969406128e-01
-8.058773875236511230e-01 1.876361668109893799e-01 8.722638338804244995e-02
-7.784377336502075195e-01 -5.959124863147735596e-02 -8.527604490518569946e-02
-7.570239305496215820e-01 -2.400763332843780518e-02 1.729441881179809570e-01
-6.789711117744445801e-01 5.720340460538864136e-02 1.168991625308990479e-01
-6.946904063224792480e-01 -5.032330751419067383e-03 5.775167793035507202e-02
-7.995235323905944824e-01 -4.992900788784027100e-02 -3.844191133975982666e-02
-7.448741793632507324e-01 2.221782952547073364e-01 1.811697334051132202e-01
-8.094499707221984863e-01 7.232330739498138428e-02 -1.992220431566238403e-01
-8.131004571914672852e-01 -2.327717840671539307e-02 7.426598668098449707e-02
-7.233243584632873535e-01 2.594856023788452148e-01 9.387278929352760315e-03
-7.652532458305358887e-01 -5.858951807022094727e-02 6.733138114213943481e-02
-7.229465246200561523e-01 6.293880939483642578e-02 2.459487468004226685e-01
-6.633888483047485352e-01 9.074098616838455200e-02 4.999229311943054199e-02
-7.278564572334289551e-01 2.421543896198272705e-01 1.290320754051208496e-01
-8.182977437973022461e-01 -2.314812690019607544e-02 -1.305948570370674133e-02
-7.041271328926086426e-01 -5.646586418151855469e-03 -1.743057370185852051e-01
-8.058783411979675293e-01 1.048458516597747803e-01 -2.012340873479843140e-01
-6.583210229873657227e-01 1.498512625694274902e-01 -8.810576051473617554e-03
-7.339332103729248047e-01 2.149807810783386230e-01 -1.999836564064025879e-01
-8.014915585517883301e-01 -4.569828510284423828e-02 3.840763121843338013e-02
-7.322357892990112305e-01 2.576382756233215332e-01 4.914663732051849365e-02
-8.310840129852294922e-01 1.894060522317886353e-02 -1.855863071978092194e-02
-7.670469880104064941e-01 1.368017047643661499e-01 -2.673373222351074219e-01
-7.028834223747253418e-01 1.446086168289184570e-01 2.260660082101821899e-01
-6.759596467018127441e-01 1.140370666980743408e-01 -2.038140445947647095e-01
-6.667323708534240723e-01 1.966255605220794678e-01 -1.638020575046539307e-02
-7.312629222869873047e-01 2.349058389663696289e-01 1.520641744136810303e-01
-7.416751384735107422e-01 2.544200122356414795e-01 -5.882807821035385132e-02
-8.251136541366577148e-01 1.034149676561355591e-01 1.295658349990844727e-01
-7.743130922317504883e-01 8.185090124607086182e-02 -2.775865793228149414e-01
-8.260313272476196289e-01 8.508197963237762451e-03 7.127579301595687866e-02
-7.916912436485290527e-01 -5.061979591846466064e-02 6.234630197286605835e-02
-7.372035384178161621e-01 -1.164533197879791260e-02 1.796046942472457886e-01
-7.777022719383239746e-01 9.304382652044296265e-02 -2.714490592479705811e-01
