8.388611674308776855e-02 -4.649119079113006592e-02 4.234663210809230804e-03
-1.516309231519699097e-01 -1.663496531546115875e-02 -5.933959409594535828e-02
-1.348192244768142700e-01 -3.293406963348388672e-02 -1.645345985889434814e-02
1.006325408816337585e-01 -4.035724699497222900e-02 8.252423256635665894e-02
1.825932264328002930e-01 -3.901097923517227173e-02 6.636167317628860474e-02
2.597757875919342041e-01 1.456634327769279480e-02 1.001288816332817078e-01
4.933968558907508850e-02 -4.839506000280380249e-02 3.993131220340728760e-03
-1.143706291913986206e-01 -3.760315477848052979e-02 -4.513050429522991180e-03
9.615501761436462402e-02 -2.919472940266132355e-02 -3.958845511078834534e-02
1.992520987987518311e-01 5.041750520467758179e-02 5.513869971036911011e-02
8.479674905538558960e-02 2.568444423377513885e-02 1.005499064922332764e-01
3.945330157876014709e-02 -3.915539383888244629e-02 -3.282142803072929382e-02
1.836431622505187988e-01 2.118606865406036377e-02 1.095446646213531494e-01
2.128268033266067505e-01 4.893013834953308105e-02 7.345921359956264496e-03
2.194140553474426270e-01 2.848799340426921844e-02 -2.339954301714897156e-02
-8.828710019588470459e-02 4.620564728975296021e-02 -5.413413420319557190e-02
2.441481053829193115e-01 6.252860184758901596e-03 -1.149430777877569199e-02
1.035075262188911438e-01 5.829057097434997559e-02 3.934110328555107117e-02
9.373824298381805420e-02 -2.974879182875156403e-02 1.001534536480903625e-01
3.008239865303039551e-01 1.210372522473335266e-02 6.353361159563064575e-02
1.317266225814819336e-01 -2.190240845084190369e-02 -3.925088047981262207e-02
2.505433857440948486e-01 3.001143783330917358e-02 -1.646067947149276733e-03
1.530791223049163818e-01 3.086932189762592316e-02 -5.163900181651115417e-02
1.136917918920516968e-01 -3.726764023303985596e-02 -1.704929023981094360e-02
-2.282388135790824890e-02 5.636300891637802124e-02 -3.797514736652374268e-02
1.079706102609634399e-01 5.238308757543563843e-02 -4.004171863198280334e-02
-7.712027430534362793e-02 4.521633684635162354e-02 -6.186488643288612366e-02
1.513968557119369507e-01 -2.903445996344089508e-02 -2.003234997391700745e-02
1.247626543045043945e-01 -4.324637353420257568e-03 1.168015077710151672e-01
1.601098179817199707e-01 -3.866773843765258789e-02 1.032628212124109268e-02
-3.566617146134376526e-02 5.550211668014526367e-02 3.323064185678958893e-03
1.446480453014373779e-01 3.373572230339050293e-02 9.735815227031707764e-02
2.820789441466331482e-02 -4.318417608737945557e-02 -2.315196022391319275e-02
-1.195544153451919556e-01 1.463238336145877838e-02 4.280899837613105774e-02
1.155726015567779541e-01 5.614915490150451660e-02 4.877542704343795776e-02
-6.458128988742828369e-02 3.094269894063472748e-02 5.339758470654487610e-02
1.140142232179641724e-01 4.476177692413330078e-02 -5.150245502591133118e-02
-9.661392867565155029e-02 -2.802040241658687592e-02 4.668951407074928284e-02
5.843874067068099976e-02 -3.882832080125808716e-02 -2.975573390722274780e-02
-6.715422868728637695e-02 -2.684359811246395111e-02 -6.327362358570098877e-02
-7.350954413414001465e-02 5.151688307523727417e-02 -9.364751167595386505e-03
2.186124771833419800e-01 1.959739439189434052e-02 1.072456017136573792e-01
-5.865945294499397278e-02 -2.422266639769077301e-02 6.904701143503189087e-02
2.752897143363952637e-01 3.426590561866760254e-02 4.336040467023849487e-02
1.295169889926910400e-01 2.236603945493698120e-02 1.080222949385643005e-01
1.080146431922912598e-01 -4.433755576610565186e-02 4.325616173446178436e-03
-1.867102086544036865e-01 1.575481891632080078e-02 -3.649087250232696533e-02
-4.809318855404853821e-02 -2.914430573582649231e-03 -8.765737712383270264e-02
2.148314937949180603e-02 -5.008480697870254517e-02 2.080606296658515930e-02
1.541716009378433228e-01 4.232662916183471680e-02 -4.098683595657348633e-02
3.133192658424377441e-02 -1.058306917548179626e-02 -7.562453299760818481e-02
6.676332652568817139e-02 -1.350812427699565887e-02 1.084402054548263550e-01
-2.413007244467735291e-02 5.301903188228607178e-02 -5.201726034283638000e-02
1.614129990339279175e-01 5.788726359605789185e-02 2.522287331521511078e-02
1.955438703298568726e-01 -3.663681447505950928e-02 3.259456902742385864e-02
1.729998365044593811e-02 -1.421544328331947327e-02 -7.459488511085510254e-02
2.891229987144470215e-01 -8.022136986255645752e-03 5.584418401122093201e-02
-1.438118070363998413e-01 3.579826653003692627e-02 -1.742023229598999023e-02
9.068214893341064453e-02 5.111161619424819946e-02 -4.745803773403167725e-02
9.443391859531402588e-02 1.880005374550819397e-02 -7.291006296873092651e-02
2.269833236932754517e-01 2.724006399512290955e-02 9.852138906717300415e-02
2.461101561784744263e-01 3.943565487861633301e-02 6.887964159250259399e-02
1.788659766316413879e-02 -1.096273958683013916e-02 9.962152689695358276e-02
1.304880231618881226e-01 2.579437196254730225e-02 -6.146759167313575745e-02
2.231404632329940796e-01 4.934275150299072266e-02 3.450358286499977112e-02
2.510722726583480835e-03 -6.846292875707149506e-03 -8.212246745824813843e-02
-1.130977645516395569e-02 -2.094889804720878601e-02 8.772012591361999512e-02
2.001427114009857178e-02 9.560866281390190125e-03 9.835325181484222412e-02
-2.866256609559059143e-02 2.026978880167007446e-02 7.828462123870849609e-02
9.787004441022872925e-02 6.143559515476226807e-02 1.634009182453155518e-02
1.934361830353736877e-02 6.090863049030303955e-02 -1.354747917503118515e-02
-1.638605296611785889e-01 2.572157606482505798e-02 -9.598606266081333160e-03
-7.684448361396789551e-02 -6.775695830583572388e-03 6.986676901578903198e-02
1.993836462497711182e-02 -4.275049269199371338e-02 6.632830202579498291e-02
1.972248777747154236e-02 -3.539550118148326874e-03 -8.200490474700927734e-02
-8.343592286109924316e-02 -4.190509021282196045e-02 1.511005405336618423e-02
-2.888683602213859558e-02 -2.413585036993026733e-02 7.998836040496826172e-02
-1.424830853939056396e-01 -1.206826977431774139e-02 -6.931445747613906860e-02
1.668201535940170288e-01 1.412219088524580002e-02 1.144138276576995850e-01
1.899957656860351562e-01 -2.134176343679428101e-02 -1.516306307166814804e-02
1.438064575195312500e-01 -2.856225334107875824e-02 1.028429269790649414e-01
-5.080590024590492249e-02 -1.177858002483844757e-02 7.904524356126785278e-02
1.840095072984695435e-01 -1.260812208056449890e-02 -2.957407757639884949e-02
-6.994521617889404297e-02 1.509812474250793457e-02 6.668227165937423706e-02
2.722172439098358154e-01 2.621804550290107727e-02 8.180949091911315918e-02
1.493703946471214294e-02 5.588772892951965332e-02 3.014510497450828552e-02
1.447295770049095154e-02 4.740010201930999756e-02 5.460597202181816101e-02
1.836076825857162476e-01 2.294604666531085968e-02 -4.315056651830673218e-02
-4.886729642748832703e-02 -4.372999072074890137e-02 -2.000399678945541382e-02
-1.366446018218994141e-01 3.326212987303733826e-02 -6.225210055708885193e-02
9.900923818349838257e-03 9.572075679898262024e-03 -8.780777454376220703e-02
9.210743010044097900e-04 4.172046482563018799e-02 -7.466357201337814331e-02
4.593866318464279175e-02 3.431896865367889404e-02 8.443388342857360840e-02
-1.600750088691711426e-01 -2.461152523756027222e-02 -2.889322862029075623e-02
-8.338668942451477051e-02 -4.250016063451766968e-02 -5.883385427296161652e-03
1.410320401191711426e-01 -1.088212616741657257e-02 -4.828315600752830505e-02
1.770345121622085571e-01 -2.550374530255794525e-02 -1.464691478759050369e-02
-1.651112139225006104e-01 -1.867851614952087402e-02 -4.561698809266090393e-02
-1.392374336719512939e-01 4.999656230211257935e-04 -7.952708750963211060e-02
1.496145129203796387e-01 -3.462634235620498657e-02 9.255147725343704224e-02
1.816923916339874268e-01 -3.734580427408218384e-02 2.140828967094421387e-02
-7.379433512687683105e-02 1.116360165178775787e-02 -9.124936908483505249e-02
-7.268646359443664551e-02 -2.681043930351734161e-02 6.044173613190650940e-02
6.731761991977691650e-02 -4.715317487716674805e-02 1.742186956107616425e-03
2.935908921062946320e-02 -3.437040001153945923e-02 -4.520348832011222839e-02
7.323954999446868896e-02 -4.379130154848098755e-02 -1.113189850002527237e-02
-9.831522405147552490e-02 4.569778591394424438e-02 -2.442010678350925446e-03
6.145602092146873474e-02 5.247808527201414108e-03 -7.877355068922042847e-02
-9.335911273956298828e-02 3.885310143232345581e-02 2.423227205872535706e-02
1.441974639892578125e-01 -2.406487613916397095e-02 -3.154189139604568481e-02
2.572410106658935547e-01 4.059610515832901001e-02 4.900567606091499329e-02
-1.678192466497421265e-01 -3.953983075916767120e-03 -6.535834819078445435e-02
-4.805441573262214661e-02 5.152896791696548462e-02 -5.166288837790489197e-02
2.543126419186592102e-02 -4.658611118793487549e-02 5.512336269021034241e-02
-8.079092204570770264e-02 4.521102644503116608e-03 6.715770810842514038e-02
-6.996417045593261719e-02 5.027949064970016479e-02 -4.748889803886413574e-02
1.091594099998474121e-01 2.416875958442687988e-02 -6.811245530843734741e-02
3.573211282491683960e-02 4.205437004566192627e-02 -7.109681516885757446e-02
-8.263587951660156250e-04 3.833975642919540405e-02 6.666636466979980469e-02
-8.509737253189086914e-02 2.195928804576396942e-02 5.440904572606086731e-02
9.326629340648651123e-03 5.184654891490936279e-02 4.169502481818199158e-02
1.468884497880935669e-01 5.307498574256896973e-02 5.848779901862144470e-02
-1.391603350639343262e-01 -2.780477143824100494e-02 1.437774021178483963e-02
7.073862105607986450e-02 -4.938432574272155762e-02 2.107370644807815552e-02
1.322497725486755371e-01 4.074785113334655762e-02 8.683303743600845337e-02
2.380019128322601318e-01 3.085713461041450500e-02 -1.006502937525510788e-02
4.660036042332649231e-02 2.539479732513427734e-02 9.412926435470581055e-02
-5.634590983390808105e-03 -1.810256205499172211e-02 -7.338663190603256226e-02
2.341749072074890137e-01 3.407358378171920776e-02 8.684163540601730347e-02
-8.817988634109497070e-02 -3.706439584493637085e-02 3.336430341005325317e-02
1.220212429761886597e-01 5.377038568258285522e-02 -3.203301504254341125e-02
2.566437125205993652e-01 -5.342973396182060242e-03 5.570206791162490845e-03
2.527906000614166260e-01 -1.361853815615177155e-02 1.404921151697635651e-02
-7.249000668525695801e-02 -4.108815640211105347e-02 -2.517271414399147034e-02
-6.918568909168243408e-02 5.284947156906127930e-02 -2.156929299235343933e-02
1.651527583599090576e-01 -5.846001207828521729e-03 -4.354121536016464233e-02
1.081023663282394409e-01 5.871488153934478760e-02 -1.995204389095306396e-02
-1.209513545036315918e-01 -2.639155276119709015e-02 -5.404441431164741516e-02
-4.242413863539695740e-02 -4.677351564168930054e-02 4.289867356419563293e-04
7.125523686408996582e-02 9.499751962721347809e-03 1.086010113358497620e-01
7.718696445226669312e-02 -4.822082072496414185e-02 5.248338729143142700e-02
-5.543928220868110657e-02 2.089336700737476349e-02 -9.053902328014373779e-02
4.637091234326362610e-02 -5.155954509973526001e-03 -7.688069343566894531e-02
-2.421028912067413330e-03 2.570416592061519623e-02 -8.715404570102691650e-02
-7.367490231990814209e-02 -3.865613043308258057e-02 3.843017295002937317e-02
5.998057499527931213e-02 -2.264889888465404510e-02 1.025617867708206177e-01
4.955478385090827942e-02 3.426648676395416260e-02 -7.617361098527908325e-02
-7.101467251777648926e-02 -4.301784187555313110e-02 2.173943072557449341e-02
-8.737910538911819458e-03 4.308858513832092285e-02 5.589272826910018921e-02
1.157816872000694275e-02 3.195965662598609924e-02 -8.267039060592651367e-02
-1.496137678623199463e-01 -1.682640798389911652e-02 2.358334884047508240e-02
-1.014625653624534607e-02 5.601479113101959229e-02 1.807158440351486206e-02
2.081589102745056152e-01 -3.217427432537078857e-02 8.100213855504989624e-02
-4.466648772358894348e-02 2.770047262310981750e-02 -8.776272088289260864e-02
-5.446175113320350647e-02 -4.562368988990783691e-02 1.790396124124526978e-02
4.570022970438003540e-02 -5.014233291149139404e-02 3.132526576519012451e-02
1.459375619888305664e-01 -4.477149993181228638e-02 4.370534420013427734e-02
-7.053068280220031738e-02 4.380490630865097046e-02 2.628565952181816101e-02
1.337662711739540100e-02 -3.230235725641250610e-02 8.382243663072586060e-02
1.919572651386260986e-01 4.209705442190170288e-02 -2.409144863486289978e-02
7.626306265592575073e-02 8.238337934017181396e-03 -7.647235691547393799e-02
2.129302546381950378e-02 -2.884808368980884552e-02 -5.620953068137168884e-02
-1.056225895881652832e-01 6.769635714590549469e-03 -8.801191300153732300e-02
-1.085974276065826416e-01 4.397908598184585571e-02 -4.871346801519393921e-02
7.383736222982406616e-02 6.214678287506103516e-02 1.185890287160873413e-03
-1.418693512678146362e-01 -2.254486642777919769e-02 -5.329965427517890930e-02
-2.075526490807533264e-02 5.180796235799789429e-02 2.946935966610908508e-02
2.352619320154190063e-01 -2.931083925068378448e-02 6.465955823659896851e-02
2.064260393381118774e-01 -3.602659702301025391e-02 5.260751768946647644e-02
-6.078145280480384827e-02 5.353666096925735474e-02 -3.269876539707183838e-02
-3.541623428463935852e-02 -4.573588818311691284e-02 -1.235113386064767838e-02
1.935977637767791748e-01 4.726151376962661743e-02 6.857232749462127686e-02
2.740998864173889160e-01 -1.548964716494083405e-02 7.213786244392395020e-02
1.720489710569381714e-01 5.680871754884719849e-02 1.459542382508516312e-02
1.343957185745239258e-01 9.699684567749500275e-03 1.154498681426048279e-01
-1.286360323429107666e-01 3.182112053036689758e-02 1.395772024989128113e-02
1.113513112068176270e-01 -1.030894927680492401e-04 1.157893165946006775e-01
1.414473056793212891e-01 5.874146521091461182e-02 3.134540468454360962e-02
1.250704377889633179e-01 -1.721374131739139557e-02 1.127750724554061890e-01
8.846212178468704224e-02 -3.771574050188064575e-02 8.777238428592681885e-02
2.281522303819656372e-01 4.745959490537643433e-02 2.006377093493938446e-02
2.103398442268371582e-01 -1.528101507574319839e-03 -2.652019634842872620e-02
1.423668116331100464e-01 5.273018777370452881e-02 -2.670795843005180359e-02
1.281288117170333862e-01 6.053484231233596802e-02 1.124280784279108047e-02
1.090896502137184143e-01 4.851947724819183350e-02 7.051583379507064819e-02
1.287696808576583862e-01 5.334503017365932465e-03 -6.196478381752967834e-02
-1.992679014801979065e-02 -3.409665822982788086e-02 -5.063659325242042542e-02
-1.186707466840744019e-01 3.145264089107513428e-02 2.241298183798789978e-02
2.608309984207153320e-01 2.940720878541469574e-02 6.504858843982219696e-03
-1.264783740043640137e-01 4.178071767091751099e-02 -3.207106515765190125e-02
1.342681795358657837e-01 -4.019583761692047119e-02 7.907506078481674194e-04
1.831300854682922363e-01 5.658167414367198944e-03 1.169516220688819885e-01
-5.655892193317413330e-03 -3.780364990234375000e-02 -4.166626557707786560e-02
-3.196082636713981628e-02 -8.186747319996356964e-03 8.627040684223175049e-02
9.327584505081176758e-02 4.307083040475845337e-02 7.962894439697265625e-02
-8.036073297262191772e-03 -4.890870302915573120e-02 7.127579301595687866e-03
1.194807291030883789e-01 -4.422058165073394775e-02 6.855183094739913940e-02
5.363803356885910034e-02 5.996467173099517822e-02 2.341071143746376038e-02
1.214500516653060913e-01 3.546600788831710815e-02 -5.890096351504325867e-02
9.720680117607116699e-02 3.472164273262023926e-02 9.253332018852233887e-02
-1.263811290264129639e-01 -7.508107461035251617e-03 4.506159201264381409e-02
9.628376364707946777e-02 -1.650929823517799377e-02 -5.655423924326896667e-02
8.628727495670318604e-02 3.952123969793319702e-02 -6.466762721538543701e-02
1.166204065084457397e-01 3.671813756227493286e-02 9.189160913228988647e-02
-1.407889649271965027e-02 3.179547935724258423e-02 -8.464152365922927856e-02
1.417978852987289429e-01 3.666567802429199219e-02 -5.144862458109855652e-02
-1.273289471864700317e-01 4.714980255812406540e-03 4.370685294270515442e-02
-1.500599086284637451e-01 6.190595682710409164e-03 -7.751999795436859131e-02
-1.037775129079818726e-01 -7.511575706303119659e-03 5.739995092153549194e-02
1.315854340791702271e-01 5.745478719472885132e-02 4.215794056653976440e-02
-7.502847909927368164e-02 3.608853742480278015e-02 4.043821617960929871e-02
-1.791344210505485535e-02 -4.685349017381668091e-02 -9.070663712918758392e-03
5.742586404085159302e-02 8.442428894340991974e-03 1.066252812743186951e-01
-1.118498295545578003e-01 -3.317836672067642212e-02 2.605772390961647034e-02
6.721194833517074585e-02 5.934566259384155273e-02 -2.832807600498199463e-02
9.467095136642456055e-02 -4.702033847570419312e-02 1.238291803747415543e-02
1.881125420331954956e-01 5.486071854829788208e-02 1.773081719875335693e-02
1.371843814849853516e-01 4.616045951843261719e-02 -4.195901751518249512e-02
2.232999354600906372e-01 1.140339020639657974e-02 -2.507756277918815613e-02
3.381362184882164001e-02 -1.732038706541061401e-02 1.008947864174842834e-01
6.038699671626091003e-02 6.177666783332824707e-02 9.220927953720092773e-03
-8.592462539672851562e-02 5.008900910615921021e-02 -1.874762773513793945e-02
8.938837051391601562e-02 -4.051846265792846680e-02 -1.669558510184288025e-02
-1.817845925688743591e-02 4.684659838676452637e-02 -6.735087931156158447e-02
2.728889882564544678e-01 1.983339339494705200e-02 9.936323389410972595e-03
-2.429872378706932068e-02 -2.124008908867835999e-02 -7.120925933122634888e-02
1.663432717323303223e-01 -3.252795338630676270e-02 9.434904903173446655e-02
2.001324594020843506e-01 2.819729596376419067e-02 1.017808169126510620e-01
-1.472166776657104492e-01 -2.961300872266292572e-02 -1.098225545138120651e-02
-4.125390574336051941e-02 3.897214680910110474e-02 -7.818114757537841797e-02
1.639977544546127319e-01 2.819700539112091064e-02 1.038499474525451660e-01
-1.355173885822296143e-01 -2.182489633560180664e-02 2.921356260776519775e-02
1.336533874273300171e-01 -4.236412048339843750e-02 7.341323792934417725e-02
2.477139830589294434e-01 4.364167153835296631e-02 3.554677963256835938e-02
2.881117761135101318e-01 1.741511281579732895e-03 2.994760870933532715e-02
-2.997318282723426819e-02 -3.991977870464324951e-02 -3.654672950506210327e-02
-1.055536046624183655e-02 5.911852419376373291e-02 -9.166651405394077301e-03
1.126872450113296509e-01 6.087911874055862427e-02 2.000120468437671661e-02
4.704177007079124451e-02 6.180645525455474854e-02 2.436920069158077240e-03
1.082493513822555542e-01 -3.162476420402526855e-02 9.869677573442459106e-02
7.965265959501266479e-02 6.096018105745315552e-02 2.153947204351425171e-02
3.090552985668182373e-03 -4.838058352470397949e-02 -8.269138634204864502e-04
1.593268513679504395e-01 5.364431440830230713e-02 -1.566744595766067505e-02
1.696822345256805420e-01 -2.753078006207942963e-03 1.179214939475059509e-01
2.666798606514930725e-02 4.979006201028823853e-02 -6.061139330267906189e-02
5.194529891014099121e-02 4.804205149412155151e-02 -6.062598899006843567e-02
1.703588664531707764e-01 5.089095979928970337e-02 6.250266730785369873e-02
1.124402210116386414e-01 -1.916483417153358459e-02 -4.899686574935913086e-02
2.823606133460998535e-01 1.840449124574661255e-02 8.487573266029357910e-02
-1.824243068695068359e-01 1.702611893415451050e-02 -1.937317848205566406e-02
-1.831371486186981201e-01 -1.215561293065547943e-02 -3.742444142699241638e-02
-5.416380986571311951e-02 -4.022965580224990845e-02 -3.335740789771080017e-02
-7.972636818885803223e-02 -2.802039496600627899e-02 -6.005041673779487610e-02
-1.910527497529983521e-01 -3.507722169160842896e-03 -1.978245750069618225e-02
2.384773455560207367e-02 -4.833290725946426392e-02 -8.174572139978408813e-04
3.416596353054046631e-02 2.652337960898876190e-02 9.039483219385147095e-02
-1.265807598829269409e-01 3.725942969322204590e-02 1.243799924850463867e-03
2.621871232986450195e-01 3.675128519535064697e-02 2.278345264494419098e-02
-1.415174305438995361e-01 1.094151288270950317e-02 3.162245452404022217e-02
2.799663841724395752e-01 2.948880894109606743e-03 9.270005673170089722e-02
1.486632674932479858e-01 4.704879224300384521e-02 7.489970326423645020e-02
-8.276413381099700928e-02 -1.653119735419750214e-02 -7.606896013021469116e-02
1.999314278364181519e-01 -3.654393553733825684e-02 6.506668776273727417e-02
2.360679209232330322e-01 -1.028069481253623962e-02 -3.673001192510128021e-03
1.263706684112548828e-01 5.735860019922256470e-02 -1.840741932392120361e-02
1.423093527555465698e-01 -1.317948102951049805e-02 1.153396293520927429e-01
2.175116166472434998e-02 -2.717112936079502106e-02 9.144733101129531860e-02
-1.027823388576507568e-01 4.108741134405136108e-02 1.135521475225687027e-02
2.154835313558578491e-02 2.804731950163841248e-02 8.588641136884689331e-02
1.948636472225189209e-01 5.403266847133636475e-02 3.054049983620643616e-02
-1.654758676886558533e-02 6.729283835738897324e-03 -8.976749330759048462e-02
-1.410999521613121033e-02 -4.841252416372299194e-02 2.809458784759044647e-02
7.978843152523040771e-02 5.044903606176376343e-02 6.262542307376861572e-02
-1.569451540708541870e-01 1.602957397699356079e-02 -7.265195250511169434e-02
-9.388846158981323242e-02 -3.995299339294433594e-02 -1.885470747947692871e-02
2.814841866493225098e-01 6.068452727049589157e-03 1.867717877030372620e-02
-1.862982809543609619e-01 1.221559569239616394e-02 -4.919667541980743408e-02
-6.416910886764526367e-02 -4.502134025096893311e-02 3.618617542088031769e-03
1.014031469821929932e-02 4.728409647941589355e-02 -6.621432304382324219e-02
-4.763895645737648010e-02 5.521132051944732666e-02 -3.038234636187553406e-02
-9.607520699501037598e-02 9.035423398017883301e-03 5.851273611187934875e-02
-1.193796470761299133e-02 -4.687067121267318726e-02 4.088016226887702942e-02
2.289118766784667969e-01 4.761666059494018555e-02 4.520409926772117615e-02
-1.665591597557067871e-01 2.829572744667530060e-02 -3.084216639399528503e-02
-6.067611649632453918e-02 3.498627990484237671e-02 -8.137054741382598877e-02
-1.194299757480621338e-01 -1.824859343469142914e-02 4.393756762146949768e-02
2.570905089378356934e-01 3.450294584035873413e-02 7.517907768487930298e-02
2.784158587455749512e-01 2.645188383758068085e-02 2.193331718444824219e-02
-1.127758473157882690e-01 2.338234335184097290e-04 5.288917198777198792e-02
-6.948250532150268555e-02 2.600949257612228394e-02 -8.774150907993316650e-02
1.645361632108688354e-01 4.738333821296691895e-02 7.315775752067565918e-02
1.424049586057662964e-02 -4.944254457950592041e-02 3.371109813451766968e-02
8.368453383445739746e-02 -4.924792796373367310e-03 1.126584857702255249e-01
2.503914535045623779e-01 -1.686930656433105469e-02 9.347577393054962158e-02
-1.063587367534637451e-01 -2.075624652206897736e-02 4.945537447929382324e-02
5.240672454237937927e-02 6.035862118005752563e-02 -2.473632246255874634e-02
2.130698710680007935e-01 -3.084074705839157104e-03 1.143203154206275940e-01
-2.545152232050895691e-02 -4.691942036151885986e-02 3.314926475286483765e-02
1.038265079259872437e-01 9.739703498780727386e-03 1.128967702388763428e-01
-7.965905964374542236e-02 4.586634784936904907e-02 1.400627009570598602e-02
2.050425857305526733e-01 -1.447355374693870544e-02 -1.703169569373130798e-02
-1.827385127544403076e-01 -1.512719783931970596e-03 -5.542561784386634827e-02
4.219165444374084473e-02 -3.421116620302200317e-03 1.057981848716735840e-01
-1.153582185506820679e-01 -3.319298475980758667e-02 -3.760101273655891418e-02
1.990160346031188965e-02 5.938823521137237549e-02 1.441630069166421890e-02
-2.909514680504798889e-02 -1.260338723659515381e-02 -8.035339415073394775e-02
-1.509511619806289673e-01 2.605254575610160828e-02 5.597222596406936646e-03
-5.196567997336387634e-02 5.385154485702514648e-02 -7.505025714635848999e-04
7.200508564710617065e-02 -1.440506987273693085e-02 -6.461257487535476685e-02
1.410039812326431274e-01 5.884591490030288696e-02 -1.210927963256835938e-03
-4.336422309279441833e-02 -3.825178742408752441e-02 -4.061878100037574768e-02
-2.815760299563407898e-02 -4.810865968465805054e-02 1.522863656282424927e-02
2.599710524082183838e-01 -1.926521398127079010e-02 8.030427992343902588e-02
6.655400246381759644e-02 5.392500013113021851e-02 -4.650024324655532837e-02
1.099628582596778870e-01 6.135769188404083252e-02 4.860963672399520874e-03
-2.901979163289070129e-02 -4.285257309675216675e-02 4.950246959924697876e-02
2.424506545066833496e-01 -1.198122277855873108e-02 1.030082404613494873e-01
1.290936022996902466e-03 5.434770137071609497e-02 3.052079677581787109e-02
-3.592927008867263794e-03 1.138628460466861725e-02 9.145213663578033447e-02
-1.430678069591522217e-01 -2.977213822305202484e-02 9.247520938515663147e-04
-1.237878501415252686e-01 -2.679856680333614349e-02 3.067255020141601562e-02
2.340587377548217773e-01 1.030902378261089325e-02 -1.885091513395309448e-02
-6.114091351628303528e-02 4.438003152608871460e-02 -6.770414113998413086e-02
1.147374659776687622e-01 2.509770169854164124e-02 1.046033352613449097e-01
9.159424901008605957e-02 -1.674502715468406677e-02 1.103830784559249878e-01
-1.013062298297882080e-01 3.354772925376892090e-02 -7.651998847723007202e-02
1.887157708406448364e-01 -3.359359502792358398e-02 8.604465425014495850e-02
-2.957785502076148987e-02 2.470452804118394852e-03 -8.936067670583724976e-02
-3.930285945534706116e-02 -2.732050977647304535e-02 -6.329028308391571045e-02
3.805453330278396606e-02 6.045038253068923950e-02 1.478933170437812805e-02
8.329518139362335205e-03 -2.596436627209186554e-02 -6.220776215195655823e-02
2.691965103149414062e-01 4.460362717509269714e-03 7.784047164022922516e-03
2.380892038345336914e-01 -2.610266394913196564e-02 3.247280046343803406e-02
-1.237361505627632141e-02 2.757986262440681458e-02 7.685235142707824707e-02
9.841418266296386719e-02 -4.936403594911098480e-03 -6.560952961444854736e-02
8.005362004041671753e-03 -3.661740571260452271e-02 -4.326576367020606995e-02
-6.273429095745086670e-02 -3.511822223663330078e-02 5.283470079302787781e-02
1.311409026384353638e-01 -4.576774686574935913e-02 5.310935899615287781e-02
-1.648801192641258240e-02 -4.181137681007385254e-02 -3.095536306500434875e-02
-1.532781571149826050e-01 1.045524422079324722e-02 2.331771329045295715e-02
-4.027964547276496887e-02 2.368046157062053680e-02 7.132337987422943115e-02
-4.518581554293632507e-02 -2.692244015634059906e-02 7.172404974699020386e-02
-1.769070699810981750e-02 5.817782133817672729e-02 -2.592822164297103882e-02
-6.984058022499084473e-02 -3.537611663341522217e-02 -4.539206251502037048e-02
1.762249767780303955e-01 5.517945438623428345e-02 4.099701717495918274e-02
-2.323091402649879456e-02 -3.254505246877670288e-02 7.286938279867172241e-02
1.649407595396041870e-01 1.691970415413379669e-02 -5.149162188172340393e-02
-1.425259113311767578e-01 -2.901983819901943207e-02 -3.283301740884780884e-02
-5.983260646462440491e-02 5.047146230936050415e-02 1.112624537199735641e-02
-9.872128069400787354e-02 -2.116806805133819580e-02 -6.845308095216751099e-02
1.727822870016098022e-01 -4.152004420757293701e-02 4.884003475308418274e-02
2.257758527994155884e-01 -1.767086237668991089e-02 1.005055382847785950e-04
2.233095020055770874e-01 -9.704813361167907715e-03 1.101058050990104675e-01
2.376186847686767578e-01 -1.879833824932575226e-02 1.101852487772703171e-02
-9.088255465030670166e-04 -4.479832947254180908e-02 5.409806221723556519e-02
2.112679332494735718e-01 4.518187791109085083e-02 -6.242134608328342438e-03
1.510153859853744507e-01 5.888976901769638062e-02 1.222150493413209915e-02
-1.703008860349655151e-01 -6.259360350668430328e-03 1.187968719750642776e-02
2.237265855073928833e-01 -3.330227918922901154e-04 -2.020731940865516663e-02
-3.112631663680076599e-02 5.739060044288635254e-02 -1.455682795494794846e-02
-1.645684838294982910e-01 -1.688782125711441040e-02 8.422818034887313843e-03
-4.273391142487525940e-02 -4.094749689102172852e-02 4.889638349413871765e-02
1.714276373386383057e-01 3.999770432710647583e-02 -3.672040626406669617e-02
-8.228267729282379150e-02 -1.801809482276439667e-02 6.356598436832427979e-02
-8.191716670989990234e-02 2.116750553250312805e-02 -8.902541548013687134e-02
-1.263551861047744751e-01 4.082828015089035034e-02 -4.439995810389518738e-02
6.311316788196563721e-02 2.013643831014633179e-02 -7.958523929119110107e-02
6.942681968212127686e-03 -4.575851559638977051e-02 -1.568186283111572266e-02
3.153980523347854614e-02 5.665793269872665405e-02 -4.289992898702621460e-02
1.932680308818817139e-01 -2.967591397464275360e-02 3.661777824163436890e-03
5.910497158765792847e-02 -3.242748975753784180e-02 -4.333639144897460938e-02
-1.828979328274726868e-02 1.575795933604240417e-02 8.477069437503814697e-02
7.156085222959518433e-03 -3.945785015821456909e-02 7.061618566513061523e-02
-1.145346015691757202e-01 -9.520581923425197601e-03 -7.882372289896011353e-02
1.889758259057998657e-01 4.657381214201450348e-03 -3.972827270627021790e-02
4.478676989674568176e-02 5.692971497774124146e-02 3.580302745103836060e-02
1.901712566614151001e-01 3.822369128465652466e-02 8.910054713487625122e-02
-1.191598325967788696e-01 -1.888245716691017151e-02 -6.762927770614624023e-02
2.967486381530761719e-01 9.001522324979305267e-03 7.581873983144760132e-02
7.401591539382934570e-02 4.138145595788955688e-02 -6.544756144285202026e-02
-3.073294833302497864e-02 5.409435182809829712e-02 1.506248209625482559e-02
-1.831241697072982788e-01 3.928133752197027206e-03 -3.067848272621631622e-03
-1.017263829708099365e-01 3.007928654551506042e-02 3.570331260561943054e-02
3.767736256122589111e-02 -4.914938658475875854e-02 4.359877109527587891e-02
2.247664034366607666e-01 -2.755502052605152130e-02 8.547733724117279053e-02
2.526378631591796875e-01 -4.454584792256355286e-03 1.041476875543594360e-01
-2.085037529468536377e-03 5.079272389411926270e-02 -5.968945845961570740e-02
1.150464117527008057e-01 -7.212387397885322571e-03 -5.947928503155708313e-02
2.566193640232086182e-01 1.513667311519384384e-02 -4.610127769410610199e-03
2.383081167936325073e-01 -2.252014912664890289e-02 8.989720046520233154e-02
9.805083274841308594e-03 5.976062268018722534e-02 5.257980898022651672e-03
2.358067780733108521e-01 1.332897972315549850e-02 1.078658029437065125e-01
1.265405267477035522e-01 -2.992289699614048004e-02 1.013855785131454468e-01
2.589651644229888916e-01 -2.138872258365154266e-02 4.456942155957221985e-02
2.023253142833709717e-01 1.884966716170310974e-02 1.098547652363777161e-01
4.563702642917633057e-02 -4.620213806629180908e-02 6.073147803544998169e-02
-2.196109667420387268e-02 5.786003172397613525e-02 -4.437840543687343597e-03
2.208732217550277710e-01 -3.291099518537521362e-02 6.062744557857513428e-02
-1.709723919630050659e-01 -1.854333654046058655e-02 -4.945089109241962433e-03
2.262338548898696899e-01 4.486525058746337891e-02 6.310310214757919312e-02
2.096293419599533081e-01 -2.965331263840198517e-02 1.571323908865451813e-02
-1.253502517938613892e-01 -3.171207010746002197e-02 1.761437579989433289e-02
2.177029401063919067e-01 -3.226187080144882202e-02 3.557182103395462036e-02
2.877506315708160400e-01 2.350930124521255493e-02 3.172712400555610657e-02
-4.120505228638648987e-02 4.023569822311401367e-02 4.876838997006416321e-02
2.422246150672435760e-02 3.178549930453300476e-02 -8.140165358781814575e-02
-4.508479312062263489e-02 -2.001184038817882538e-02 -7.336730509996414185e-02
2.717172503471374512e-01 -1.062346063554286957e-02 8.816730976104736328e-02
2.378844767808914185e-01 4.418954253196716309e-02 5.678752064704895020e-02
2.900641858577728271e-01 -3.439721651375293732e-03 4.096890240907669067e-02
-4.575922712683677673e-02 4.693128168582916260e-02 -6.490427255630493164e-02
-4.254754260182380676e-02 4.850781708955764771e-02 2.887992188334465027e-02
1.409413814544677734e-01 -2.175697498023509979e-02 -2.770621180534362793e-01
1.497995704412460327e-01 -3.893571346998214722e-02 -2.438398748636245728e-01
1.408953219652175903e-01 -3.818950057029724121e-02 -2.194206118583679199e-01
7.483163475990295410e-02 -4.721734300255775452e-02 -2.338487505912780762e-01
1.041401177644729614e-01 -3.803061693906784058e-02 -2.312297821044921875e-01
1.055822074413299561e-01 -3.340226039290428162e-02 -2.434782236814498901e-01
1.743134856224060059e-01 -2.343019098043441772e-02 -2.677514553070068359e-01
7.750236988067626953e-02 -4.905119165778160095e-02 -2.526768445968627930e-01
1.061446368694305420e-01 -4.412126168608665466e-02 -2.204774469137191772e-01
6.488670408725738525e-02 -4.880279302597045898e-02 -2.487435042858123779e-01
1.165146455168724060e-01 -3.276828676462173462e-02 -2.376503497362136841e-01
1.330526620149612427e-01 -2.991813421249389648e-02 -2.367052137851715088e-01
1.198265478014945984e-01 -3.967181220650672913e-02 -2.668122649192810059e-01
1.490726023912429810e-01 -2.127927355468273163e-02 -2.632553577423095703e-01
1.164861246943473816e-01 -4.457911103963851929e-02 -2.514192759990692139e-01
1.019777655601501465e-01 -4.364030808210372925e-02 -2.636119723320007324e-01
9.163576364517211914e-02 -3.868587687611579895e-02 -2.382582724094390869e-01
8.196696639060974121e-02 -3.751154989004135132e-02 -2.523247897624969482e-01
1.288685798645019531e-01 -4.242406412959098816e-02 -2.505019307136535645e-01
1.213856637477874756e-01 -2.804953977465629578e-02 -2.509960830211639404e-01
1.216168627142906189e-01 -2.555206045508384705e-02 -2.645669579505920410e-01
1.823920160531997681e-01 -2.223887853324413300e-02 -2.577042877674102783e-01
1.345612108707427979e-01 -4.369958862662315369e-02 -2.349607050418853760e-01
1.566141843795776367e-01 -3.018135577440261841e-02 -2.689298689365386963e-01
1.600128859281539917e-01 -3.368247672915458679e-02 -2.243776619434356689e-01
1.710768789052963257e-01 -3.289431333541870117e-02 -2.330120205879211426e-01
7.475537061691284180e-02 -3.817938640713691711e-02 -2.648440897464752197e-01
1.203944236040115356e-01 -4.685415327548980713e-02 -2.283750176429748535e-01
1.099364683032035828e-01 -3.628140315413475037e-02 -2.787102162837982178e-01
8.822774142026901245e-02 -5.038617551326751709e-02 -2.281169742345809937e-01
9.769962728023529053e-02 -3.951102867722511292e-02 -2.754601240158081055e-01
1.546902656555175781e-01 -2.269448712468147278e-02 -2.512959837913513184e-01
2.361020147800445557e-01 8.204802125692367554e-02 -5.848709866404533386e-02
2.932947874069213867e-02 9.412789344787597656e-02 7.881608791649341583e-03
8.476553559303283691e-01 -1.172974929213523865e-01 2.518774010241031647e-02
5.781385302543640137e-01 -1.040678024291992188e-01 -2.729139849543571472e-02
2.390117645263671875e-01 2.652844041585922241e-02 -6.760240346193313599e-02
9.765461683273315430e-01 -5.609188694506883621e-03 7.127501070499420166e-02
5.280047655105590820e-01 -5.323901772499084473e-02 7.796781510114669800e-02
9.781558513641357422e-01 -1.159950569272041321e-01 1.035279873758554459e-02
8.374679088592529297e-02 -3.274819254875183105e-02 2.397611923515796661e-02
6.689056158065795898e-01 -4.136173054575920105e-02 -7.909569889307022095e-02
9.371906518936157227e-01 -1.142225936055183411e-01 -1.966041885316371918e-02
3.642189204692840576e-01 8.997569978237152100e-02 6.366968899965286255e-02
5.881398320198059082e-01 8.692139387130737305e-02 6.466547399759292603e-02
8.156929016113281250e-01 9.993311762809753418e-02 3.354983031749725342e-02
5.564177632331848145e-01 3.288900014013051987e-03 8.875848352909088135e-02
4.317142367362976074e-01 1.282792687416076660e-01 -3.062529675662517548e-02
9.752857685089111328e-02 1.076418682932853699e-01 1.702212169766426086e-02
1.513780653476715088e-01 -5.426941439509391785e-02 1.103186234831809998e-02
5.176554322242736816e-01 -1.088438779115676880e-01 9.784466587007045746e-03
4.381464123725891113e-01 -7.232112437486648560e-02 -4.886990785598754883e-02
5.711847543716430664e-01 -7.488358765840530396e-02 -5.844158306717872620e-02
4.828648567199707031e-01 -1.036101058125495911e-01 -8.831896819174289703e-03
9.537329077720642090e-01 -9.216162562370300293e-02 -4.843962937593460083e-02
1.127006769180297852e+00 -2.188293728977441788e-03 5.095765367150306702e-02
2.816522121429443359e-01 1.269178241491317749e-01 1.893753930926322937e-02
6.989098787307739258e-01 -1.036839634180068970e-01 4.790797084569931030e-02
3.470284044742584229e-01 9.067230671644210815e-02 -6.313054263591766357e-02
7.666335701942443848e-01 -1.983157917857170105e-02 8.486139774322509766e-02
5.011631846427917480e-01 5.887810885906219482e-02 -8.051432669162750244e-02
4.245758652687072754e-01 1.067461147904396057e-01 -5.630157142877578735e-02
3.442823290824890137e-01 -6.659448891878128052e-02 5.594652518630027771e-02
5.966761708259582520e-01 -7.371944934129714966e-02 -6.075304374098777771e-02
9.402105212211608887e-01 8.867010474205017090e-02 2.357359789311885834e-02
7.058926820755004883e-01 -5.787565559148788452e-02 7.851351052522659302e-02
6.461939811706542969e-01 2.824909612536430359e-02 -8.706086128950119019e-02
1.132085561752319336e+00 -7.913378626108169556e-02 3.719237446784973145e-02
9.631335139274597168e-01 3.914510831236839294e-02 -7.128025591373443604e-02
3.314234614372253418e-01 1.135353967547416687e-01 -4.589216783642768860e-02
1.180082798004150391e+00 3.188497573137283325e-02 -3.475955873727798462e-02
8.233318328857421875e-01 8.285861462354660034e-02 -6.162782013416290283e-02
1.117899417877197266e-01 8.043751865625381470e-02 4.870919883251190186e-02
8.148397803306579590e-01 3.516350639984011650e-03 8.241599798202514648e-02
1.765471696853637695e-01 -1.205890998244285583e-02 -5.068758130073547363e-02
5.561581850051879883e-01 5.221517011523246765e-02 -8.298003673553466797e-02
9.350155591964721680e-01 5.486541427671909332e-03 7.373766601085662842e-02
2.879350185394287109e-01 7.984586060047149658e-02 -6.394163519144058228e-02
1.048956751823425293e+00 -1.097836494445800781e-01 -9.766205213963985443e-03
5.654817223548889160e-01 -6.585837900638580322e-02 7.347649335861206055e-02
7.464681267738342285e-01 1.076809987425804138e-01 -4.486570507287979126e-02
7.447198629379272461e-01 5.565516650676727295e-02 -7.997261732816696167e-02
6.920995116233825684e-01 -5.233416706323623657e-02 -7.541488111019134521e-02
7.476542592048645020e-01 -1.142866536974906921e-01 3.282716497778892517e-02
2.319309115409851074e-01 2.007133886218070984e-02 7.537186145782470703e-02
5.083158016204833984e-01 8.970958739519119263e-02 6.483665108680725098e-02
1.269565582275390625e+00 -4.919937346130609512e-03 -1.969216950237751007e-02
1.123726844787597656e+00 6.002500280737876892e-02 -9.480662993155419827e-04
5.883265733718872070e-01 9.070016443729400635e-02 -6.828445196151733398e-02
2.236918509006500244e-01 -4.265769198536872864e-02 -4.090483859181404114e-02
1.189661741256713867e+00 -1.884356327354907990e-02 -5.107945576310157776e-02
8.996502161026000977e-01 4.001354798674583435e-02 6.776399910449981689e-02
1.874620020389556885e-01 -2.013350278139114380e-02 6.269941478967666626e-02
9.920121431350708008e-01 -1.151731908321380615e-01 9.567204862833023071e-03
7.571023702621459961e-01 4.450187832117080688e-02 -8.268000185489654541e-02
1.165346980094909668e+00 2.017967961728572845e-02 3.428947553038597107e-02
6.541258096694946289e-02 2.047488931566476822e-03 4.825621470808982849e-02
7.705039978027343750e-01 3.320600092411041260e-02 -8.455082029104232788e-02
9.045730829238891602e-01 1.007973551750183105e-01 7.789379917085170746e-03
6.374353170394897461e-01 1.255268603563308716e-01 1.480343006551265717e-02
3.625286221504211426e-01 -1.087943464517593384e-02 -7.312572747468948364e-02
8.803867697715759277e-01 8.804488182067871094e-02 3.748749941587448120e-02
2.398357093334197998e-01 5.089962854981422424e-03 7.514818757772445679e-02
7.734428048133850098e-01 -3.286600485444068909e-02 8.325726538896560669e-02
8.986757397651672363e-01 -1.163580492138862610e-01 -1.762732490897178650e-02
6.888193488121032715e-01 1.043144091963768005e-01 4.420822858810424805e-02
4.189770221710205078e-01 1.257357895374298096e-01 -3.494266420602798462e-02
9.411866664886474609e-01 -5.318139865994453430e-02 -7.134524732828140259e-02
5.734961032867431641e-01 8.801121264696121216e-02 6.445055454969406128e-02
5.039259195327758789e-01 1.023083999752998352e-01 5.577956512570381165e-02
1.194896697998046875e+00 -7.688685785979032516e-03 3.797715902328491211e-02
5.881749987602233887e-01 -1.020693480968475342e-01 4.405654594302177429e-02
5.148226022720336914e-02 -1.493085548281669617e-02 -1.622622273862361908e-02
5.683162212371826172e-01 1.262173354625701904e-01 2.240341342985630035e-02
8.589282035827636719e-01 -7.851067185401916504e-02 -6.204198300838470459e-02
9.920004010200500488e-01 -5.385033320635557175e-03 -7.623063027858734131e-02
2.841582894325256348e-01 1.060369312763214111e-01 -4.888012632727622986e-02
3.909277021884918213e-01 1.138780862092971802e-01 4.515961185097694397e-02
5.542731881141662598e-01 -1.110980808734893799e-01 -2.252119593322277069e-03
6.368265748023986816e-01 -8.983440697193145752e-02 -5.003388971090316772e-02
1.620449721813201904e-01 4.027047753334045410e-02 6.744687259197235107e-02
1.119183182716369629e+00 5.788493156433105469e-02 -2.571840398013591766e-02
2.228374779224395752e-01 1.185922771692276001e-01 2.774075232446193695e-02
6.555093526840209961e-01 -1.034781560301780701e-01 -3.574285656213760376e-02
6.259191632270812988e-01 3.316446766257286072e-02 -8.654720336198806763e-02
9.291687011718750000e-01 1.901438273489475250e-02 -7.895433157682418823e-02
1.913501918315887451e-01 4.092264547944068909e-02 7.041934132575988770e-02
7.698678374290466309e-01 3.606778010725975037e-02 7.884424179792404175e-02
4.876990914344787598e-01 1.191143989562988281e-01 -4.516893625259399414e-02
4.203891158103942871e-01 1.051591560244560242e-01 5.385598540306091309e-02
9.035801291465759277e-01 3.766551986336708069e-02 -7.682092487812042236e-02
3.047429621219635010e-01 9.934768825769424438e-02 5.510690063238143921e-02
-3.676676750183105469e-02 4.137106612324714661e-02 -4.712779074907302856e-03
9.949398040771484375e-01 8.301942795515060425e-02 -3.108881972730159760e-02
4.193072319030761719e-01 2.413535676896572113e-02 8.562226593494415283e-02
7.189638018608093262e-01 1.047556400299072266e-01 4.065577685832977295e-02
1.040767192840576172e+00 -6.603237707167863846e-03 -7.193344831466674805e-02
1.072221636772155762e+00 4.403918236494064331e-02 4.103295505046844482e-02
1.031441092491149902e-01 1.030188202857971191e-01 2.738326974213123322e-02
1.064086079597473145e+00 -1.089320406317710876e-01 -6.044929381459951401e-03
1.581705212593078613e-01 4.395606927573680878e-03 6.582788378000259399e-02
5.808496475219726562e-01 1.313587725162506104e-01 1.049552578479051590e-03
7.621583938598632812e-01 -9.604644030332565308e-02 -4.868585988879203796e-02
9.640100002288818359e-01 -9.159268811345100403e-03 -7.823962718248367310e-02
8.206166028976440430e-01 -5.148736760020256042e-02 -7.579594850540161133e-02
1.170256018638610840e+00 -9.261339902877807617e-02 -7.785758003592491150e-03
4.580534994602203369e-01 -5.218427255749702454e-02 7.522593438625335693e-02
9.217141866683959961e-01 -1.103432849049568176e-01 3.385426476597785950e-02
4.455757737159729004e-01 1.084911376237869263e-01 -5.542659386992454529e-02
5.186512470245361328e-01 7.736838608980178833e-02 7.167450338602066040e-02
7.518048882484436035e-01 -9.448355436325073242e-02 5.768386274576187134e-02
3.663216531276702881e-01 2.795349247753620148e-02 -7.832320034503936768e-02
5.301892757415771484e-02 -2.270710282027721405e-02 2.243813127279281616e-02
4.164023697376251221e-01 4.907963797450065613e-02 -7.953161746263504028e-02
4.287536144256591797e-01 -9.846412390470504761e-02 2.244602888822555542e-02
9.532696008682250977e-02 3.095363965258002281e-03 5.522765591740608215e-02
1.002864003181457520e+00 -1.425970159471035004e-02 -7.518453896045684814e-02
8.163464069366455078e-02 4.715773835778236389e-02 5.547736957669258118e-02
1.132890701293945312e+00 3.087686002254486084e-02 3.608685359358787537e-02
6.876814961433410645e-01 -6.668543070554733276e-02 -6.850986182689666748e-02
7.859601974487304688e-01 -1.128955855965614319e-01 3.581074997782707214e-02
2.768158912658691406e-01 1.166213750839233398e-01 3.661856800317764282e-02
6.035888195037841797e-01 1.058961078524589539e-02 8.838064968585968018e-02
1.691450476646423340e-01 7.897299528121948242e-02 5.694343149662017822e-02
4.290767312049865723e-01 1.157014593482017517e-01 4.353420063853263855e-02
6.106051802635192871e-01 2.372097782790660858e-02 8.693616837263107300e-02
7.369701266288757324e-01 2.358646877110004425e-02 -8.662031590938568115e-02
1.081369996070861816e+00 -5.813509970903396606e-02 5.526977404952049255e-02
1.450051069259643555e-01 4.501197114586830139e-02 6.483647972345352173e-02
8.734617233276367188e-01 3.270479664206504822e-02 7.268372923135757446e-02
4.535512924194335938e-01 4.068785160779953003e-02 -8.217465877532958984e-02
2.102457880973815918e-01 4.943682625889778137e-02 7.073643803596496582e-02
-6.383597850799560547e-03 4.924323782324790955e-02 3.384663909673690796e-02
2.178425788879394531e-01 1.055323332548141479e-01 4.351696744561195374e-02
1.097999811172485352e+00 1.068793144077062607e-02 5.257270857691764832e-02
1.940813362598419189e-01 1.355519704520702362e-02 -6.082936376333236694e-02
5.225703716278076172e-01 7.120382040739059448e-03 -8.507348597049713135e-02
3.201911151409149170e-01 -3.633681312203407288e-02 7.181343436241149902e-02
6.551631093025207520e-01 -4.062011092901229858e-02 -7.907983660697937012e-02
6.283794641494750977e-01 -7.602886110544204712e-02 -6.073467433452606201e-02
6.019393801689147949e-01 2.538290619850158691e-02 -8.703198283910751343e-02
1.082229733467102051e+00 -1.048736199736595154e-01 -1.451024319976568222e-02
6.969170570373535156e-01 -7.631000131368637085e-02 7.022968679666519165e-02
1.902133524417877197e-01 1.233409568667411804e-01 4.708159249275922775e-03
3.443049788475036621e-01 1.263617575168609619e-01 2.606697380542755127e-02
8.219740986824035645e-01 -6.290708482265472412e-02 -7.107762992382049561e-02
3.447830975055694580e-01 7.338555157184600830e-02 7.142082601785659790e-02
8.005627989768981934e-01 -1.092985570430755615e-01 4.129332676529884338e-02
7.919917106628417969e-01 1.126820147037506104e-01 1.461054291576147079e-02
2.687993645668029785e-01 -7.727355509996414185e-02 1.774993725121021271e-02
8.009850382804870605e-01 -1.212252750992774963e-01 -3.130210679955780506e-04
4.852056503295898438e-03 6.706704944372177124e-02 -2.133088745176792145e-02
3.556477427482604980e-01 1.242157444357872009e-02 8.362289518117904663e-02
4.059543311595916748e-01 -4.329678416252136230e-02 -6.481763720512390137e-02
1.055820703506469727e+00 1.551034301519393921e-02 -6.772840023040771484e-02
5.446724891662597656e-01 -7.771518826484680176e-02 -5.443791672587394714e-02
1.234032988548278809e+00 -2.455809712409973145e-02 2.986512705683708191e-02
7.144046425819396973e-01 -1.035138592123985291e-01 -3.902945294976234436e-02
2.362386882305145264e-01 1.197938993573188782e-01 2.759749628603458405e-02
2.240321934223175049e-01 7.078500837087631226e-02 6.563234329223632812e-02
2.721686065196990967e-01 -6.239952147006988525e-02 4.794050380587577820e-02
7.662652730941772461e-01 -1.205538399517536163e-02 -8.573334664106369019e-02
4.052790403366088867e-01 8.773364126682281494e-02 6.590683758258819580e-02
1.165771603584289551e+00 -2.929866872727870941e-02 4.662266001105308533e-02
5.030785799026489258e-01 -9.361449629068374634e-02 -3.365520015358924866e-02
5.947206020355224609e-01 3.146838396787643433e-02 8.588418364524841309e-02
6.775450706481933594e-01 8.446635305881500244e-02 6.204011291265487671e-02
5.326684117317199707e-01 -8.025559037923812866e-02 -5.135319381952285767e-02
2.671045362949371338e-01 1.238862127065658569e-01 -2.569358237087726593e-02
5.115149021148681641e-01 -3.248843923211097717e-02 -7.661671936511993408e-02
3.455990552902221680e-02 6.149666849523782730e-03 -2.623610757291316986e-02
8.102999329566955566e-01 1.141867414116859436e-01 -1.284398883581161499e-02
9.462994337081909180e-01 7.772681117057800293e-02 -5.021607875823974609e-02
5.699906349182128906e-01 7.268431037664413452e-02 -7.706391066312789917e-02
5.874780416488647461e-01 -1.138694584369659424e-01 1.662556780502200127e-03
8.185657262802124023e-01 -8.411998301744461060e-02 -5.885056778788566589e-02
2.825558185577392578e-03 1.057386957108974457e-02 3.131537139415740967e-02
