1.929639130830764771e-01 -6.528070569038391113e-02 7.732939124107360840e-01
-1.644238643348217010e-02 1.221243143081665039e-01 -7.145662307739257812e-01
-9.575818479061126709e-02 1.707019656896591187e-01 -6.205847859382629395e-01
-5.036789774894714355e-01 2.092592269182205200e-01 -3.853542208671569824e-01
-3.041657805442810059e-01 -1.810269504785537720e-01 -3.341822624206542969e-01
-4.535220861434936523e-01 1.951288133859634399e-01 -4.731065630912780762e-01
2.941569089889526367e-01 -2.369462698698043823e-01 3.560490906238555908e-01
-2.854721546173095703e-01 -1.477742493152618408e-01 5.107239484786987305e-01
5.804157257080078125e-02 -9.105806238949298859e-03 -8.063971996307373047e-01
3.928950428962707520e-01 -2.023454606533050537e-01 -4.809630811214447021e-01
3.668477758765220642e-02 -2.533147931098937988e-01 -1.110713481903076172e-01
-4.082031846046447754e-01 2.537769973278045654e-01 -1.699587404727935791e-01
1.907988488674163818e-01 2.322067618370056152e-01 3.593083843588829041e-02
-2.090296298265457153e-01 -2.182171791791915894e-01 -1.729277372360229492e-01
-6.199058294296264648e-01 9.086526185274124146e-02 5.254414081573486328e-01
-6.407025456428527832e-01 1.124512106180191040e-01 -4.843546152114868164e-01
-6.990031003952026367e-01 1.666429191827774048e-01 -2.944999933242797852e-01
-3.614940643310546875e-01 -1.909324526786804199e-01 -9.312687069177627563e-02
1.243217587471008301e-01 -1.974628567695617676e-01 -5.327061414718627930e-01
3.280162215232849121e-01 -2.533215582370758057e-01 -2.194703221321105957e-01
3.562622070312500000e-01 -2.163556963205337524e-01 4.426092207431793213e-01
2.605448961257934570e-01 -1.163886263966560364e-01 -7.101132273674011230e-01
-6.673526167869567871e-01 -7.199537754058837891e-02 2.074806690216064453e-01
-1.881864219903945923e-01 2.589599192142486572e-01 1.917539089918136597e-01
-3.836029171943664551e-01 -1.864709854125976562e-01 -6.363940984010696411e-02
1.041375994682312012e-01 -2.213026881217956543e-01 4.308720827102661133e-01
-1.634699404239654541e-01 1.318656206130981445e-01 -7.018989324569702148e-01
6.979271769523620605e-02 -1.670066714286804199e-01 -6.184248924255371094e-01
5.449675917625427246e-01 1.027594693005084991e-02 -5.929681062698364258e-01
4.841302633285522461e-01 -2.566188201308250427e-02 -6.637030243873596191e-01
1.563312858343124390e-02 2.226483821868896484e-01 3.922473788261413574e-01
4.112498760223388672e-01 1.808637976646423340e-01 -1.652045398950576782e-01
-3.475145697593688965e-01 2.290332764387130737e-01 -3.894721865653991699e-01
4.994277954101562500e-01 -2.442338168621063232e-01 1.649710685014724731e-01
-7.921270728111267090e-01 1.011319234967231750e-01 2.249554693698883057e-01
3.756515383720397949e-01 -2.569245100021362305e-01 1.495420783758163452e-01
1.922243461012840271e-02 1.475860476493835449e-01 -6.587211489677429199e-01
-7.876840829849243164e-01 6.833292543888092041e-02 -2.514523565769195557e-01
3.062462806701660156e-01 3.307076916098594666e-02 7.315911054611206055e-01
3.404917716979980469e-01 1.924070566892623901e-01 -2.312580347061157227e-01
1.736710220575332642e-01 2.262559384107589722e-01 -2.107011079788208008e-01
-4.454547166824340820e-01 1.653012186288833618e-01 -5.575934648513793945e-01
-2.500725984573364258e-01 2.628428637981414795e-01 -1.413340419530868530e-01
1.392117738723754883e-01 1.408255845308303833e-01 -6.365074515342712402e-01
-2.734261751174926758e-01 -2.012476772069931030e-01 2.302101552486419678e-01
-7.324144244194030762e-04 -2.012373059988021851e-01 4.874455630779266357e-01
-5.762117505073547363e-01 -1.176749542355537415e-01 1.839182674884796143e-01
5.285447090864181519e-02 -1.478426754474639893e-01 -6.623243093490600586e-01
-4.776579737663269043e-01 9.533112496137619019e-02 -6.392733454704284668e-01
-4.648751020431518555e-01 2.545120418071746826e-01 -3.375928848981857300e-02
6.317973732948303223e-01 1.136908084154129028e-01 -4.052041098475456238e-03
-2.123254984617233276e-01 2.952949330210685730e-02 7.793974876403808594e-01
-8.877103775739669800e-02 -2.412660866975784302e-01 -8.007250726222991943e-02
-5.581681132316589355e-01 -8.908859640359878540e-02 3.871207237243652344e-01
7.859205007553100586e-01 -1.642998605966567993e-01 -6.935130804777145386e-02
1.464813202619552612e-02 -1.768988817930221558e-01 -5.782563090324401855e-01
-6.845171451568603516e-01 2.080160230398178101e-01 2.839409559965133667e-02
-2.079046145081520081e-02 -1.343418359756469727e-01 -6.772747635841369629e-01
7.501051425933837891e-01 -1.668236851692199707e-01 -2.092400938272476196e-01
-1.915531307458877563e-01 -1.521389931440353394e-01 -5.630366206169128418e-01
4.996635317802429199e-01 -2.258136272430419922e-01 3.134059906005859375e-01
-1.911471486091613770e-01 2.625428140163421631e-01 -1.416666656732559204e-01
-2.488587945699691772e-01 2.666173577308654785e-01 -3.984005376696586609e-02
7.188445925712585449e-01 -1.907560676336288452e-01 -1.578635722398757935e-01
3.832527399063110352e-01 1.794148981571197510e-01 2.537621557712554932e-01
6.527305245399475098e-01 -1.717402338981628418e-01 -3.726656436920166016e-01
5.504203438758850098e-01 1.270650625228881836e-01 2.592855691909790039e-01
-7.192768454551696777e-01 1.169243454933166504e-01 -3.699969351291656494e-01
1.479884386062622070e-01 -2.086168825626373291e-01 4.955365955829620361e-01
-3.946744203567504883e-01 -1.800182461738586426e-01 1.435999572277069092e-01
1.148727312684059143e-01 -4.192786291241645813e-02 -7.944645285606384277e-01
1.608279943466186523e-01 1.511089950799942017e-01 -6.002615094184875488e-01
-6.921035647392272949e-01 -5.245887860655784607e-02 -2.341319024562835693e-01
5.983573198318481445e-01 -2.345907241106033325e-01 3.939250484108924866e-03
6.928553581237792969e-01 -2.094317078590393066e-01 -2.437474578619003296e-02
-2.513685226440429688e-01 -1.824010610580444336e-01 -3.931105136871337891e-01
-7.183703184127807617e-01 1.950338631868362427e-01 -9.690294973552227020e-05
-5.469471812248229980e-01 1.175362057983875275e-02 5.916591882705688477e-01
1.603671908378601074e-01 -1.064710095524787903e-01 -7.368069291114807129e-01
1.053318474441766739e-02 -2.533443272113800049e-01 2.988858334720134735e-02
-8.008032441139221191e-01 1.099240686744451523e-02 4.058924689888954163e-02
-4.980033040046691895e-01 -1.463993042707443237e-01 1.831053793430328369e-01
-1.623999476432800293e-01 2.342032939195632935e-01 3.854577839374542236e-01
8.414194732904434204e-02 -2.513393461704254150e-01 2.015052586793899536e-01
-2.051677554845809937e-01 2.390730381011962891e-01 -3.609416484832763672e-01
5.556389093399047852e-01 -2.066350579261779785e-01 3.571331799030303955e-01
-5.298823118209838867e-01 1.825447976589202881e-01 4.565493464469909668e-01
6.538912057876586914e-01 4.007823765277862549e-02 4.102039635181427002e-01
-2.791820466518402100e-02 2.584847807884216309e-01 1.543896645307540894e-02
-7.208393812179565430e-01 1.710830181837081909e-01 2.292540520429611206e-01
-1.348419040441513062e-01 2.433505840599536896e-02 -7.953913211822509766e-01
6.827542185783386230e-01 -1.562928706407546997e-01 3.758817017078399658e-01
-1.881543546915054321e-01 2.499753534793853760e-01 -2.830993831157684326e-01
9.482260793447494507e-02 2.038634270429611206e-01 -4.453242421150207520e-01
-6.362478733062744141e-01 2.191184759140014648e-01 1.157616674900054932e-01
3.660442829132080078e-01 -1.344071775674819946e-01 -6.544804573059082031e-01
-9.029604494571685791e-02 2.622127234935760498e-01 5.255494266748428345e-02
-1.406776607036590576e-01 2.498009055852890015e-01 -2.749235332012176514e-01
-7.076155543327331543e-01 1.251234114170074463e-01 -3.776557147502899170e-01
2.854866385459899902e-01 2.128685563802719116e-01 1.125788465142250061e-01
-6.241575479507446289e-01 1.661415547132492065e-01 -4.081353545188903809e-01
8.107624650001525879e-01 -1.479543447494506836e-01 1.027338020503520966e-02
-2.504234313964843750e-01 -2.091203033924102783e-01 1.940924823284149170e-01
-1.500694602727890015e-01 2.130215913057327271e-01 -4.871792495250701904e-01
4.619188308715820312e-01 -2.231930345296859741e-01 3.580021560192108154e-01
-7.847653031349182129e-01 1.526817083358764648e-01 8.072314411401748657e-02
-1.925365440547466278e-02 5.607487633824348450e-02 7.903965711593627930e-01
1.417393684387207031e-01 2.370496094226837158e-01 1.182398498058319092e-01
8.351241946220397949e-01 -3.216359391808509827e-02 -2.453449368476867676e-02
-1.165467798709869385e-01 2.171237953007221222e-02 -7.983738183975219727e-01
7.775344252586364746e-01 -1.522530019283294678e-01 1.924700736999511719e-01
-4.123015403747558594e-01 2.359143644571304321e-01 -3.183438777923583984e-01
-5.864807963371276855e-01 1.519574373960494995e-01 4.808709919452667236e-01
-1.088408678770065308e-01 -2.399175614118576050e-01 -2.607858972623944283e-03
-5.385179072618484497e-03 2.489664703607559204e-01 1.964107155799865723e-01
5.308853983879089355e-01 1.437916159629821777e-01 1.768343001604080200e-01
-1.353685930371284485e-02 2.241601943969726562e-01 3.984388113021850586e-01
-6.168772578239440918e-01 -3.471663966774940491e-02 -4.473939836025238037e-01
5.807535648345947266e-01 1.273668855428695679e-01 -1.588596403598785400e-01
-6.784763336181640625e-01 1.088925227522850037e-01 -4.409980475902557373e-01
6.948944926261901855e-02 2.321254760026931763e-01 2.890936732292175293e-01
8.804833889007568359e-02 2.460114359855651855e-01 -6.856541335582733154e-02
-7.820937633514404297e-01 1.570843011140823364e-01 5.373208597302436829e-02
-6.831410527229309082e-01 -6.950679421424865723e-02 -1.584050357341766357e-01
6.029050946235656738e-01 -1.201762929558753967e-01 -5.302068591117858887e-01
1.508840620517730713e-01 2.380007952451705933e-01 5.207772925496101379e-02
6.537840366363525391e-01 1.135121379047632217e-02 -4.667138457298278809e-01
3.792703747749328613e-01 -2.250299602746963501e-01 -3.924549520015716553e-01
4.139661192893981934e-01 -1.200244724750518799e-01 -6.556479334831237793e-01
2.583935260772705078e-01 -2.460152357816696167e-01 2.999932765960693359e-01
4.622929170727729797e-02 1.184316799044609070e-01 7.099298238754272461e-01
4.775360822677612305e-01 1.602045148611068726e-01 1.862800568342208862e-01
-4.448276162147521973e-01 2.275265455245971680e-01 -3.445063531398773193e-01
5.303623080253601074e-01 4.541694186627864838e-03 6.112614274024963379e-01
6.951860785484313965e-01 2.057603001594543457e-02 3.822258114814758301e-01
7.625749111175537109e-01 3.950177505612373352e-02 8.653136342763900757e-02
6.412904858589172363e-01 -1.605553328990936279e-01 -4.177350997924804688e-01
4.730874896049499512e-01 -1.853081732988357544e-01 -4.951067268848419189e-01
3.734848499298095703e-01 1.621409654617309570e-01 3.818956315517425537e-01
-6.090748310089111328e-01 1.912630647420883179e-01 -3.464753627777099609e-01
1.084241271018981934e-01 5.942334607243537903e-02 -7.732959985733032227e-01
4.364923238754272461e-01 -1.911406368017196655e-01 -4.978199601173400879e-01
5.524155497550964355e-01 -1.309051923453807831e-02 -6.048327684402465820e-01
6.468740701675415039e-01 9.690599143505096436e-02 1.808796226978302002e-01
-5.564085245132446289e-01 2.398580610752105713e-01 -7.312608510255813599e-02
-6.530660390853881836e-01 -3.455097973346710205e-02 3.899150192737579346e-01
4.747413992881774902e-01 -3.015966154634952545e-02 6.712176799774169922e-01
1.520119011402130127e-01 -2.463787496089935303e-01 -2.830174267292022705e-01
1.046077609062194824e-01 -2.590217590332031250e-01 -8.719404786825180054e-02
2.720408439636230469e-01 1.800108551979064941e-01 -4.146901965141296387e-01
2.934806942939758301e-01 2.009091526269912720e-01 2.466475665569305420e-01
-2.754419445991516113e-01 -2.077933996915817261e-01 1.421599686145782471e-01
-1.067674010992050171e-01 -2.382905334234237671e-01 9.974488615989685059e-02
1.410630047321319580e-01 1.922895759344100952e-01 4.671337604522705078e-01
-8.283310532569885254e-01 7.343771308660507202e-02 4.421844705939292908e-02
-5.636687874794006348e-01 -1.104508042335510254e-01 2.757855057716369629e-01
6.774840354919433594e-01 -2.145616263151168823e-01 6.570376921445131302e-03
8.260567188262939453e-01 -2.117125689983367920e-02 -6.722374260425567627e-02
3.547799587249755859e-02 -2.081454694271087646e-01 -4.692360460758209229e-01
3.444930911064147949e-01 1.570418328046798706e-01 4.412101209163665771e-01
2.983828186988830566e-01 2.129403650760650635e-01 -1.212454400956630707e-03
-4.984013736248016357e-02 2.599026858806610107e-01 -3.901082649827003479e-02
7.167680263519287109e-01 6.824541091918945312e-02 9.982886910438537598e-02
9.136923402547836304e-02 2.464576512575149536e-01 1.454892009496688843e-02
5.185976028442382812e-01 -2.460666894912719727e-01 -9.306920319795608521e-02
-7.481023073196411133e-01 1.118026599287986755e-01 -3.227095901966094971e-01
-4.416906237602233887e-01 -5.225127935409545898e-02 6.118593811988830566e-01
-3.116363286972045898e-01 -2.028397321701049805e-01 -8.281065523624420166e-02
1.917372196912765503e-01 -1.914095282554626465e-01 -5.570020675659179688e-01
-4.788576364517211914e-01 1.631188392639160156e-01 -5.425723791122436523e-01
2.677568197250366211e-01 -2.027285248041152954e-01 5.155918002128601074e-01
-7.066456675529479980e-01 1.909350305795669556e-01 -1.528897136449813843e-01
1.244738139212131500e-02 2.485525906085968018e-01 1.805577129125595093e-01
2.261233329772949219e-01 -2.630266845226287842e-01 9.509096294641494751e-02
5.443238615989685059e-01 1.471801102161407471e-01 -1.564438454806804657e-02
-2.649656534194946289e-01 -1.652970165014266968e-01 -4.599472880363464355e-01
-5.578731298446655273e-01 2.325151860713958740e-01 -1.774534732103347778e-01
1.879251599311828613e-01 -1.811146736145019531e-01 5.898558497428894043e-01
7.895457148551940918e-01 -1.421887334436178207e-02 2.336689531803131104e-01
8.856300264596939087e-03 -2.372194677591323853e-01 2.844926714897155762e-01
2.716572284698486328e-01 -2.072027921676635742e-01 4.988300502300262451e-01
-6.775465607643127441e-01 1.715141534805297852e-01 3.163461685180664062e-01
4.115313887596130371e-01 7.663667201995849609e-02 6.112739443778991699e-01
-1.422271579504013062e-01 2.503275275230407715e-01 2.692715823650360107e-01
-2.949531674385070801e-01 -1.902708262205123901e-01 -2.838896214962005615e-01
-5.687284469604492188e-01 2.096382975578308105e-01 3.164640367031097412e-01
-8.068110346794128418e-01 1.973748020827770233e-02 5.162681266665458679e-02
-6.124395728111267090e-01 -2.270931750535964966e-02 -4.767047464847564697e-01
-3.462517261505126953e-01 -5.482018366456031799e-02 -6.749888062477111816e-01
-6.355275511741638184e-01 -1.009514406323432922e-01 6.122395768761634827e-02
8.648603409528732300e-02 1.907491534948348999e-01 -5.067204833030700684e-01
-5.742059350013732910e-01 2.148213386535644531e-01 -2.824691534042358398e-01
-6.446784734725952148e-01 1.830440312623977661e-01 3.275993168354034424e-01
-5.786176919937133789e-01 1.121452450752258301e-01 -5.477360486984252930e-01
7.131364345550537109e-01 5.421126633882522583e-02 -2.268392741680145264e-01
-1.610803008079528809e-01 -2.125225812196731567e-01 -3.079438805580139160e-01
-4.003780335187911987e-02 1.437934488058090210e-01 6.764202117919921875e-01
6.935821771621704102e-01 -1.231995671987533569e-01 -4.248480796813964844e-01
1.635277122259140015e-01 -1.986122317612171173e-02 7.943617701530456543e-01
4.598439931869506836e-01 1.704213619232177734e-01 1.185584813356399536e-01
1.706663966178894043e-01 2.355794459581375122e-01 1.325176283717155457e-02
5.766288638114929199e-01 -2.218805998563766479e-01 -2.466923892498016357e-01
5.150662064552307129e-01 1.255692541599273682e-01 3.439073264598846436e-01
-1.344496458768844604e-01 1.915453523397445679e-01 5.624281167984008789e-01
-1.277240067720413208e-01 7.508525252342224121e-02 -7.731658816337585449e-01
4.495092630386352539e-01 -2.395981997251510620e-01 -2.636837661266326904e-01
8.450353741645812988e-01 -8.403407782316207886e-02 -6.077264249324798584e-02
3.954864740371704102e-01 -2.320775538682937622e-01 -3.477403819561004639e-01
1.925500184297561646e-01 -2.590818405151367188e-01 -1.581023633480072021e-01
2.195791304111480713e-01 1.706175506114959717e-01 -5.015649199485778809e-01
-1.252430677413940430e-01 -2.363902181386947632e-01 8.100487291812896729e-02
6.724513173103332520e-01 -2.155447304248809814e-01 -4.091668501496315002e-02
5.133028626441955566e-01 1.536244899034500122e-01 -1.269019097089767456e-01
6.002450361847877502e-02 2.497592568397521973e-01 -4.651952534914016724e-02
-7.746561765670776367e-01 -1.682602241635322571e-02 -1.977459900081157684e-02
-4.315153360366821289e-01 1.076719490811228752e-03 -6.749857664108276367e-01
-1.001848652958869934e-01 -5.728055164217948914e-02 -7.707574963569641113e-01
-3.920453786849975586e-01 -1.796739101409912109e-01 1.587829142808914185e-01
-2.445107847452163696e-01 -2.169824540615081787e-01 7.105256617069244385e-02
-8.109790086746215820e-01 3.758915513753890991e-02 1.156021133065223694e-01
-2.140021473169326782e-01 -1.873522400856018066e-01 4.085895717144012451e-01
-1.908961683511734009e-01 -2.247705310583114624e-01 1.179483681917190552e-01
-4.767942428588867188e-01 -1.593227833509445190e-01 9.302377700805664062e-02
-7.240326404571533203e-01 9.433847665786743164e-02 -3.841091394424438477e-01
1.639364510774612427e-01 1.361956894397735596e-01 -6.369534730911254883e-01
7.862877845764160156e-01 -1.528419852256774902e-01 -1.566222906112670898e-01
1.325179487466812134e-01 -1.900909245014190674e-01 -5.586682558059692383e-01
2.732992768287658691e-01 -2.576676309108734131e-01 -1.850250214338302612e-01
4.856452941894531250e-01 1.426255702972412109e-01 3.056799173355102539e-01
-1.055035367608070374e-01 -1.505395621061325073e-01 -6.118979454040527344e-01
3.006908893585205078e-01 -1.254615932703018188e-01 -6.881544589996337891e-01
4.865404367446899414e-01 -1.893694251775741577e-01 -4.745163321495056152e-01
1.681108027696609497e-01 -2.544357776641845703e-01 -2.104180753231048584e-01
-3.978097438812255859e-01 2.277032732963562012e-01 3.720958828926086426e-01
-3.730033636093139648e-01 -1.660217195749282837e-01 3.237825632095336914e-01
-5.681591629981994629e-01 1.355390846729278564e-01 5.268115997314453125e-01
-6.238454580307006836e-01 2.021957486867904663e-01 2.756282091140747070e-01
-3.415732383728027344e-01 -1.927516460418701172e-01 -1.482901275157928467e-01
-1.438921391963958740e-01 2.404361516237258911e-01 -3.459090888500213623e-01
3.367882966995239258e-01 -1.791073381900787354e-01 -5.710939764976501465e-01
2.339407950639724731e-01 -2.101299613714218140e-01 4.915971755981445312e-01
1.338643133640289307e-01 1.888115406036376953e-01 -4.879065454006195068e-01
4.309704899787902832e-01 1.672347784042358398e-01 -2.502957582473754883e-01
-7.460508495569229126e-02 -2.393396198749542236e-01 1.605350673198699951e-01
2.964533567428588867e-01 1.383497714996337891e-01 5.517834424972534180e-01
8.343086242675781250e-01 -5.216244980692863464e-02 1.239155754446983337e-01
5.594228506088256836e-01 -1.059601679444313049e-01 -5.829905867576599121e-01
-8.243190050125122070e-01 4.957874864339828491e-02 1.229903474450111389e-02
-3.637275099754333496e-01 -1.168725918978452682e-02 -7.078016996383666992e-01
3.937309384346008301e-01 1.608172506093978882e-01 3.600158095359802246e-01
5.336754322052001953e-01 1.416811048984527588e-01 -1.901932954788208008e-01
2.377392649650573730e-01 2.244828343391418457e-01 1.511421613395214081e-02
4.180753231048583984e-01 -2.470020502805709839e-01 2.294964492321014404e-01
7.860183119773864746e-01 -1.502325236797332764e-01 -1.706279814243316650e-01
3.945191949605941772e-02 1.225509028881788254e-02 8.066251873970031738e-01
-4.416804909706115723e-01 -1.102450713515281677e-01 -4.768034517765045166e-01
7.618558406829833984e-01 3.549488633871078491e-02 1.311746984720230103e-01
-5.590258836746215820e-01 -4.567053169012069702e-02 5.048263669013977051e-01
-6.138004064559936523e-01 -9.932339191436767578e-02 -2.012987434864044189e-01
-8.004742264747619629e-01 1.061278060078620911e-01 -1.884579509496688843e-01
2.135526090860366821e-01 -1.832631081342697144e-01 5.827010273933410645e-01
6.318078637123107910e-01 7.914967834949493408e-02 3.263230621814727783e-01
3.281718492507934570e-02 -2.375504523515701294e-01 2.991493046283721924e-01
5.122279524803161621e-01 1.307973861694335938e-01 3.217244148254394531e-01
-1.241860389709472656e-01 -6.234474480152130127e-02 7.614572644233703613e-01
-9.497270733118057251e-02 -2.395599335432052612e-01 -1.044727936387062073e-01
5.128443241119384766e-01 -1.228213161230087280e-01 5.983594655990600586e-01
-3.503543138504028320e-01 -1.797061711549758911e-01 -2.651329338550567627e-01
7.218207716941833496e-01 1.678619347512722015e-02 3.372314870357513428e-01
-4.947583079338073730e-01 4.211608320474624634e-02 6.463086009025573730e-01
9.893094003200531006e-02 -2.242588847875595093e-01 4.142192304134368896e-01
-6.452607512474060059e-01 2.184029519557952881e-01 8.648395538330078125e-02
-6.737460494041442871e-01 -7.581895589828491211e-02 1.502825468778610229e-01
3.219083547592163086e-01 1.907898187637329102e-01 -2.820110619068145752e-01
7.070608139038085938e-01 -1.206219047307968140e-01 -4.095955193042755127e-01
-4.077229499816894531e-01 -1.676865369081497192e-01 -2.398829162120819092e-01
-3.017553687095642090e-01 -1.594335138797760010e-01 4.506143629550933838e-01
-7.691618055105209351e-02 4.268364235758781433e-02 -7.966914176940917969e-01
5.179453492164611816e-01 -2.373098284006118774e-01 2.102639973163604736e-01
3.200811743736267090e-01 2.057576477527618408e-01 1.112836152315139771e-01
1.282057911157608032e-01 -1.516232937574386597e-01 -6.607264876365661621e-01
-6.468482613563537598e-01 -7.138100266456604004e-02 2.745058834552764893e-01
-6.524639725685119629e-01 -9.349919110536575317e-02 4.504974186420440674e-02
4.115444421768188477e-01 -6.193892657756805420e-02 7.046568393707275391e-01
-3.693063855171203613e-01 -1.777622252702713013e-01 -2.412148416042327881e-01
-1.796794310212135315e-02 1.705407649278640747e-01 6.084811091423034668e-01
7.620233893394470215e-01 3.635274618864059448e-02 -1.237163692712783813e-01
-2.710198760032653809e-01 2.601403892040252686e-01 1.763582676649093628e-01
-1.773190647363662720e-01 -2.149163037538528442e-01 -2.671087980270385742e-01
-5.538610816001892090e-01 -7.535591721534729004e-02 4.394446313381195068e-01
-1.851007938385009766e-01 -2.175173461437225342e-01 -2.300723046064376831e-01
7.371240258216857910e-01 5.730729177594184875e-02 7.938151806592941284e-02
-3.808109760284423828e-01 2.615493535995483398e-01 5.893710628151893616e-02
6.835632771253585815e-02 5.884036421775817871e-02 -7.807251214981079102e-01
-4.473199248313903809e-01 1.052834838628768921e-01 -6.488263607025146484e-01
-4.119971990585327148e-01 7.632233947515487671e-02 -6.892785429954528809e-01
-7.976591587066650391e-03 2.553285360336303711e-01 -9.008854627609252930e-02
5.461036562919616699e-01 -2.326597869396209717e-01 2.105588167905807495e-01
3.069208264350891113e-01 -2.520443499088287354e-01 2.413348406553268433e-01
1.482046395540237427e-01 2.281206995248794556e-01 -2.324021458625793457e-01
-4.871742725372314453e-01 -1.384292989969253540e-01 -2.774205505847930908e-01
6.577541828155517578e-01 7.900148630142211914e-02 2.639445364475250244e-01
-7.347795367240905762e-01 -3.552865236997604370e-02 1.660582423210144043e-01
1.130460500717163086e-01 1.755917370319366455e-01 -5.487703084945678711e-01
2.209682166576385498e-01 -1.697059869766235352e-01 -6.164785027503967285e-01
4.023496806621551514e-02 -1.339057832956314087e-01 6.910026669502258301e-01
-4.989479780197143555e-01 -1.418717056512832642e-01 2.234965562820434570e-01
-2.565932273864746094e-01 2.315621674060821533e-01 3.987057805061340332e-01
3.528899550437927246e-01 -2.595613002777099609e-01 -1.227243095636367798e-01
1.934193074703216553e-01 1.621447354555130005e-01 5.480191707611083984e-01
-2.818408608436584473e-01 -2.009630948305130005e-01 2.149292379617691040e-01
-9.758587926626205444e-02 2.629222273826599121e-01 -3.665775805711746216e-02
-1.361501365900039673e-01 1.360194832086563110e-01 6.957512497901916504e-01
-3.851467370986938477e-02 -2.168446928262710571e-01 -3.892202973365783691e-01
-3.833901882171630859e-01 5.497046932578086853e-02 -7.118854522705078125e-01
-4.530283212661743164e-01 2.549531757831573486e-01 -7.030787318944931030e-02
-3.368116617202758789e-01 1.432772576808929443e-01 -6.478472948074340820e-01
-4.204446673393249512e-01 2.578393816947937012e-01 7.877227663993835449e-02
8.657211810350418091e-02 -2.140932828187942505e-01 4.607225358486175537e-01
-1.719757728278636932e-02 2.555222213268280029e-01 -1.055372878909111023e-01
-6.969633698463439941e-01 -6.659015268087387085e-02 1.098886430263519287e-01
2.551463246345520020e-01 1.859848499298095703e-01 4.006359577178955078e-01
4.714826345443725586e-01 1.541588008403778076e-01 -2.591372728347778320e-01
-3.829503059387207031e-01 2.524905502796173096e-01 -2.082000076770782471e-01
-7.773697376251220703e-01 8.471972495317459106e-02 -2.786402106285095215e-01
2.349164336919784546e-02 -1.020116060972213745e-01 -7.400463223457336426e-01
2.192467749118804932e-01 1.137695685029029846e-01 6.596435904502868652e-01
2.447943538427352905e-01 -1.668053865432739258e-01 -6.208739876747131348e-01
-2.277112156152725220e-01 -1.272651106119155884e-01 -6.101593971252441406e-01
3.384974002838134766e-01 1.951162368059158325e-01 -2.080520987510681152e-01
5.508921742439270020e-01 -1.938183605670928955e-01 -4.108676612377166748e-01
4.662500619888305664e-01 1.557281613349914551e-01 2.580565810203552246e-01
-7.834963798522949219e-01 -5.400439724326133728e-03 -7.487100362777709961e-02
-3.251481652259826660e-01 1.853037476539611816e-01 -5.590455532073974609e-01
-3.715561628341674805e-01 2.544406652450561523e-01 1.945732086896896362e-01
5.951125025749206543e-01 8.905608952045440674e-02 -3.606264591217041016e-01
3.619770407676696777e-01 -1.693958193063735962e-01 -5.875566005706787109e-01
2.118393480777740479e-01 -2.403809726238250732e-01 3.399913907051086426e-01
-1.109572499990463257e-01 -1.338554769754409790e-01 6.526142954826354980e-01
1.119502633810043335e-01 1.810541898012161255e-01 5.290073156356811523e-01
1.989959925413131714e-01 -1.951747834682464600e-01 -5.446966886520385742e-01
-1.562966704368591309e-01 6.304795295000076294e-02 -7.782662510871887207e-01
3.068449348211288452e-02 -9.098219871520996094e-02 -7.550600171089172363e-01
6.187359690666198730e-01 -1.199567969888448715e-02 -5.376180410385131836e-01
3.125220537185668945e-01 -2.616321444511413574e-01 1.127345785498619080e-01
6.564432978630065918e-01 -1.853914111852645874e-01 -3.198074102401733398e-01
1.418949961662292480e-01 1.705104857683181763e-01 5.499399304389953613e-01
-5.134733319282531738e-01 2.482944428920745850e-01 -1.925367675721645355e-02
-3.251751512289047241e-02 -2.469909638166427612e-01 -1.049540042877197266e-01
2.570662200450897217e-01 2.176738977432250977e-01 1.265873014926910400e-01
1.590206772089004517e-01 -2.469926625490188599e-01 2.823987007141113281e-01
-1.677830666303634644e-01 2.038394212722778320e-01 -5.232035517692565918e-01
-3.086895942687988281e-01 2.579349875450134277e-01 -1.928931474685668945e-01
7.718324065208435059e-01 1.231875550001859665e-02 -2.126128971576690674e-01
-1.990407854318618774e-01 2.424361109733581543e-01 3.380120098590850830e-01
-1.490946859121322632e-03 -2.430045604705810547e-01 -2.159772217273712158e-01
-4.119520783424377441e-01 6.383877992630004883e-02 6.951441168785095215e-01
-7.551772594451904297e-01 8.853518962860107422e-02 3.291477262973785400e-01
-4.897404313087463379e-01 -4.127352684736251831e-02 -5.851271152496337891e-01
-7.166790962219238281e-01 -5.929643660783767700e-02 7.291708607226610184e-03
6.061109304428100586e-01 2.924037165939807892e-02 -5.019522309303283691e-01
6.363809704780578613e-01 1.070692911744117737e-01 1.244084313511848450e-01
7.047442793846130371e-01 -9.107489883899688721e-02 -4.426088929176330566e-01
1.727365255355834961e-01 -2.633782029151916504e-01 3.745274618268013000e-02
3.121844120323657990e-02 -2.424937933683395386e-01 2.547508478164672852e-01
5.314841866493225098e-01 1.565454341471195221e-02 -5.998300313949584961e-01
-4.356494545936584473e-01 -7.452043890953063965e-02 -5.754526853561401367e-01
-4.237504601478576660e-01 2.421680837869644165e-01 -2.672193944454193115e-01
-2.764770388603210449e-01 2.085251063108444214e-01 -4.969805479049682617e-01
2.981466650962829590e-01 1.645759791135787964e-01 -4.586306512355804443e-01
-7.933841347694396973e-01 1.319549381732940674e-01 -1.516024470329284668e-01
-1.389290578663349152e-02 1.467670351266860962e-01 6.662621498107910156e-01
5.250914096832275391e-01 -2.253703773021697998e-01 -2.889732420444488525e-01
4.685840606689453125e-01 -1.077777240425348282e-02 -6.689779162406921387e-01
-2.755045518279075623e-02 -2.476978451013565063e-01 1.033360213041305542e-01
-1.425194144248962402e-01 1.181525737047195435e-01 7.240768671035766602e-01
3.461947441101074219e-01 1.752269119024276733e-01 3.477975428104400635e-01
-1.356175839900970459e-01 -2.081585228443145752e-01 3.669080734252929688e-01
5.462237000465393066e-01 1.399353593587875366e-01 1.598529070615768433e-01
-2.704252004623413086e-01 -4.663106799125671387e-02 7.259675860404968262e-01
-1.103615313768386841e-01 2.636991441249847412e-01 -2.671316079795360565e-02
7.041765451431274414e-01 -1.308206021785736084e-01 3.987182974815368652e-01
-4.226418137550354004e-01 -1.301455050706863403e-01 4.306234121322631836e-01
5.312691926956176758e-01 1.482308357954025269e-01 -1.176191121339797974e-01
-4.778975248336791992e-01 2.419353574514389038e-01 2.137224525213241577e-01
2.728753089904785156e-01 1.840860247611999512e-01 3.914092183113098145e-01
-7.771394252777099609e-01 9.710825234651565552e-02 2.720907032489776611e-01
4.750996232032775879e-01 3.030127100646495819e-02 -6.314278244972229004e-01
-2.016177773475646973e-02 1.879069954156875610e-01 5.560922622680664062e-01
2.865610122680664062e-01 2.146801203489303589e-01 5.492287129163742065e-02
7.071716189384460449e-01 7.444555312395095825e-02 -9.025225788354873657e-02
5.641105175018310547e-01 1.398971229791641235e-01 -3.857067599892616272e-02
-7.135760188102722168e-01 1.365951597690582275e-01 3.476477563381195068e-01
-1.819926053285598755e-01 1.027973964810371399e-01 7.401316761970520020e-01
-2.099592387676239014e-01 2.635155022144317627e-01 1.268926560878753662e-01
5.787872076034545898e-01 6.309897452592849731e-02 4.671434462070465088e-01
7.863746285438537598e-01 -1.606280952692031860e-01 -1.047922819852828979e-01
-9.663633257150650024e-02 2.615662515163421631e-01 8.809023350477218628e-02
-6.616201996803283691e-02 2.546058595180511475e-01 1.830344945192337036e-01
-5.941720008850097656e-01 -5.334403738379478455e-02 4.398359358310699463e-01
3.123049139976501465e-01 9.898996353149414062e-02 -6.385797858238220215e-01
-3.350543975830078125e-01 2.611613869667053223e-01 -1.315820366144180298e-01
-1.728230118751525879e-01 7.188932597637176514e-02 7.701215147972106934e-01
4.114508256316184998e-02 -1.582769304513931274e-01 -6.359738707542419434e-01
-2.885472178459167480e-01 -8.800560981035232544e-02 -6.578460931777954102e-01
-5.933128297328948975e-02 -2.381579577922821045e-01 -1.997833251953125000e-01
2.715625762939453125e-01 1.052768994122743607e-02 -7.599977850914001465e-01
-4.403886795043945312e-01 -8.464853465557098389e-02 -5.487921237945556641e-01
-3.184478878974914551e-01 2.312780767679214478e-01 3.867727816104888916e-01
-7.357898950576782227e-01 -2.518312819302082062e-02 2.168144136667251587e-01
5.110163092613220215e-01 -1.079995278269052505e-02 -6.380405426025390625e-01
4.447621703147888184e-01 1.607763618230819702e-01 2.685645520687103271e-01
1.946545392274856567e-01 1.892460137605667114e-01 4.410148859024047852e-01
7.233492732048034668e-01 3.992305696010589600e-02 2.602961361408233643e-01
1.718808859586715698e-01 -2.636038064956665039e-01 6.943497806787490845e-03
-7.231490612030029297e-01 1.573567837476730347e-01 -2.763115465641021729e-01
8.284271359443664551e-01 -1.255583167076110840e-01 -6.227671727538108826e-02
-1.180237233638763428e-01 -1.636523604393005371e-01 5.702387094497680664e-01
-5.515503883361816406e-01 -6.431598961353302002e-02 4.727128148078918457e-01
-8.225044012069702148e-01 1.091476529836654663e-01 -3.767287731170654297e-02
5.002581477165222168e-01 -1.238185390830039978e-01 6.051992177963256836e-01
2.035066783428192139e-01 -1.846304535865783691e-01 -5.774003267288208008e-01
-9.258335083723068237e-02 -2.282388806343078613e-01 -2.606621682643890381e-01
3.014417923986911774e-02 2.280643582344055176e-01 -3.518390059471130371e-01
4.367522597312927246e-01 5.267884582281112671e-02 -6.320530772209167480e-01
-9.537937492132186890e-02 2.498767673969268799e-01 2.549597918987274170e-01
3.128877878189086914e-01 -2.540343105792999268e-01 -2.174279391765594482e-01
4.098688960075378418e-01 -1.855980157852172852e-01 -5.269166827201843262e-01
-1.194659620523452759e-01 -2.144306749105453491e-01 3.420172631740570068e-01
7.674190402030944824e-01 -6.514112465083599091e-03 -2.820322215557098389e-01
1.054724529385566711e-01 9.450834989547729492e-02 -7.341408729553222656e-01
-8.025349378585815430e-01 1.200008485466241837e-02 -8.932694792747497559e-03
2.541000489145517349e-03 2.550196051597595215e-01 -7.008007168769836426e-02
-4.539749026298522949e-01 -1.641276925802230835e-01 1.327623426914215088e-01
4.278369545936584473e-01 1.460094749927520752e-01 -3.869768381118774414e-01
-3.243917822837829590e-01 -1.972845047712326050e-01 -1.392822563648223877e-01
-3.121756315231323242e-01 2.252314388751983643e-01 4.184714853763580322e-01
-5.411071330308914185e-02 -1.895809024572372437e-01 -5.087723731994628906e-01
4.993250966072082520e-01 1.617395728826522827e-01 -3.087673895061016083e-02
2.614641189575195312e-01 -2.408656030893325806e-01 -3.337288498878479004e-01
-3.912445902824401855e-01 2.443821579217910767e-01 2.728340327739715576e-01
-5.776087194681167603e-02 2.409961968660354614e-01 3.109259307384490967e-01
-3.639630675315856934e-01 1.884501129388809204e-01 5.363176465034484863e-01
-5.884415507316589355e-01 -1.221327036619186401e-01 1.383144408464431763e-02
-5.496784448623657227e-01 -9.534696489572525024e-02 3.777227997779846191e-01
-2.574894428253173828e-01 -1.759488284587860107e-01 4.216215312480926514e-01
-2.453637123107910156e-02 -1.844038814306259155e-02 -8.040515780448913574e-01
-5.690425038337707520e-01 -7.991048693656921387e-02 4.014442563056945801e-01
1.965127885341644287e-01 -1.487118601799011230e-01 6.669335365295410156e-01
-4.783719778060913086e-01 2.333912253379821777e-01 -2.810027301311492920e-01
-5.385355353355407715e-01 2.383533120155334473e-01 1.517760306596755981e-01
1.015271469950675964e-01 2.154345959424972534e-01 3.776504695415496826e-01
-1.181008964776992798e-01 -3.769848123192787170e-02 -7.821438908576965332e-01
-4.625495672225952148e-01 2.395824939012527466e-01 2.509400844573974609e-01
-4.718234539031982422e-01 -1.486061066389083862e-01 -2.396023571491241455e-01
-8.673649281263351440e-02 -1.602780371904373169e-01 5.946467518806457520e-01
6.541825532913208008e-01 -2.115901559591293335e-01 1.767667382955551147e-01
-2.799804210662841797e-01 1.211365014314651489e-01 6.982134580612182617e-01
3.764425516128540039e-01 1.735234707593917847e-01 -3.123382925987243652e-01
-5.263577103614807129e-01 1.668986529111862183e-01 5.003448128700256348e-01
4.966515302658081055e-01 1.159924939274787903e-01 4.159263968467712402e-01
6.183255910873413086e-01 1.176123321056365967e-01 7.781718671321868896e-02
6.045081615447998047e-01 -2.254184782505035400e-01 1.678744107484817505e-01
1.127865239977836609e-01 -9.084389358758926392e-02 7.588396668434143066e-01
-8.772248774766921997e-02 2.477245926856994629e-01 -2.724077403545379639e-01
4.225717186927795410e-01 1.136000081896781921e-01 5.138055682182312012e-01
-1.485827267169952393e-01 2.653672099113464355e-01 1.705547235906124115e-02
-7.602854371070861816e-01 2.671214565634727478e-02 -2.870800197124481201e-01
5.764037370681762695e-01 -2.362850606441497803e-01 -9.816702455282211304e-02
2.235140949487686157e-01 -2.082626968622207642e-01 -4.973459243774414062e-01
1.791776567697525024e-01 1.507777869701385498e-01 5.908163189888000488e-01
-5.043988227844238281e-01 -1.352458745241165161e-01 2.606717646121978760e-01
3.000598549842834473e-01 -2.343093752861022949e-01 -3.681289255619049072e-01
-2.285390049219131470e-01 -1.772208213806152344e-01 -4.416335821151733398e-01
-2.582882046699523926e-01 2.588695287704467773e-01 1.948733627796173096e-01
7.873739004135131836e-01 -6.865528225898742676e-02 3.011844754219055176e-01
-7.565765082836151123e-02 1.158214956521987915e-01 -7.289264202117919922e-01
-5.597820878028869629e-01 1.632585227489471436e-01 4.811227023601531982e-01
6.504033207893371582e-01 -1.703067496418952942e-02 -5.040240883827209473e-01
-2.548280358314514160e-01 -1.948521733283996582e-01 -3.127979934215545654e-01
-1.940044909715652466e-01 2.557053565979003906e-01 2.297225296497344971e-01
3.804731965065002441e-01 1.406863778829574585e-01 4.674989581108093262e-01
-2.079666405916213989e-01 -1.842176169157028198e-01 -4.276616871356964111e-01
-4.915140271186828613e-01 2.404888272285461426e-01 -2.103967517614364624e-01
4.741187691688537598e-01 -2.531057298183441162e-01 -5.194699764251708984e-02
-3.286058902740478516e-01 -1.475342959165573120e-01 4.711331129074096680e-01
-6.310070157051086426e-01 -7.369004935026168823e-02 -3.017761707305908203e-01
-2.074731327593326569e-02 2.565359175205230713e-01 -8.619771897792816162e-02
-5.276166200637817383e-01 1.959424018859863281e-01 -4.160882234573364258e-01
3.660874366760253906e-01 -2.389444112777709961e-01 3.217004835605621338e-01
-5.799195915460586548e-02 7.609586417675018311e-02 -7.753842473030090332e-01
3.366678208112716675e-02 -2.550536990165710449e-01 -4.844083264470100403e-02
-6.899299621582031250e-01 1.394815742969512939e-01 -3.803836703300476074e-01
-3.815661072731018066e-01 3.902583569288253784e-02 -7.149180173873901367e-01
1.650639027357101440e-01 3.992991149425506592e-02 -7.758096456527709961e-01
7.394018769264221191e-01 -7.798035629093647003e-03 -3.507737517356872559e-01
2.360475063323974609e-01 1.603002995252609253e-01 5.257662534713745117e-01
-1.854578852653503418e-01 2.655380070209503174e-01 6.647001206874847412e-02
7.329970598220825195e-01 -1.824813187122344971e-01 1.730927079916000366e-01
-2.420826107263565063e-01 2.624868750572204590e-01 1.465657204389572144e-01
-2.579820901155471802e-02 2.388186454772949219e-01 -3.113600611686706543e-01
-5.095901489257812500e-01 1.743832379579544067e-01 4.946361482143402100e-01
5.165249705314636230e-01 -1.885333508253097534e-01 4.579550027847290039e-01
6.481787562370300293e-01 6.627243757247924805e-02 -3.431527614593505859e-01
-6.039522290229797363e-01 1.790301948785781860e-01 -3.950526118278503418e-01
1.251748204231262207e-01 -2.354702651500701904e-01 -3.542672097682952881e-01
-3.346132040023803711e-01 -1.708277761936187744e-01 -3.521041572093963623e-01
5.689427256584167480e-01 6.925169378519058228e-02 -4.656306207180023193e-01
-3.104147911071777344e-01 -1.919894069433212280e-01 2.426965087652206421e-01
6.351417303085327148e-01 -2.228258252143859863e-01 -1.069660559296607971e-01
-4.678267240524291992e-01 1.701876968145370483e-01 -5.334223508834838867e-01
-6.098222732543945312e-01 7.425856590270996094e-02 -5.429232716560363770e-01
-3.245959877967834473e-01 1.738578528165817261e-01 5.882675647735595703e-01
-2.839920520782470703e-01 -1.643912196159362793e-01 -4.452387392520904541e-01
9.338642656803131104e-02 1.245830953121185303e-01 6.868929266929626465e-01
4.399118423461914062e-01 7.618997246026992798e-02 5.887849926948547363e-01
3.263288736343383789e-01 1.540343165397644043e-01 4.723958671092987061e-01
1.212978437542915344e-01 -8.316145092248916626e-02 -7.653579711914062500e-01
3.369556069374084473e-01 -2.544160485267639160e-01 2.063331604003906250e-01
4.658657908439636230e-01 1.617357730865478516e-01 2.070108205080032349e-01
-2.436140030622482300e-01 2.206842601299285889e-01 -4.533300399780273438e-01
-3.617953658103942871e-01 1.518905013799667358e-01 6.230366230010986328e-01
-7.947946339845657349e-02 -1.655392199754714966e-01 5.821207165718078613e-01
-5.770846009254455566e-01 3.802831051871180534e-03 -5.539504885673522949e-01
8.035112619400024414e-01 -1.234027743339538574e-01 2.030410468578338623e-01
-6.901268959045410156e-01 -5.399630405008792877e-03 -3.843234181404113770e-01
4.162915349006652832e-01 1.419531255960464478e-01 4.199531078338623047e-01
1.981235146522521973e-01 -7.427623122930526733e-02 -7.652786374092102051e-01
-1.786461621522903442e-01 -2.093975841999053955e-01 -3.096821308135986328e-01
5.695478618144989014e-02 -2.540326118469238281e-01 1.320608854293823242e-01
6.145359873771667480e-01 2.269809599965810776e-03 -5.288709402084350586e-01
1.117037683725357056e-01 -2.417729198932647705e-01 3.079965114593505859e-01
6.990703344345092773e-01 -1.903259605169296265e-01 -2.166915535926818848e-01
7.889561653137207031e-01 -7.857912033796310425e-02 -2.963302433490753174e-01
8.407302498817443848e-01 -8.328622579574584961e-02 1.022317260503768921e-01
-6.502028107643127441e-01 2.190156579017639160e-01 -3.223304450511932373e-02
-6.746589541435241699e-01 3.929376602172851562e-03 -4.264348447322845459e-01
1.170252040028572083e-01 2.432388216257095337e-01 -1.113755395635962486e-03
-2.384698987007141113e-01 -9.028512984514236450e-02 6.824333667755126953e-01
2.609387636184692383e-01 -2.164348363876342773e-01 4.635798633098602295e-01
-3.558824658393859863e-01 -1.929298639297485352e-01 7.858046144247055054e-02
8.082386851310729980e-01 3.270893124863505363e-03 -3.717552125453948975e-02
1.769469380378723145e-01 2.234571725130081177e-01 -2.355325818061828613e-01
1.965237706899642944e-01 1.308540701866149902e-01 -6.342723965644836426e-01
5.370405912399291992e-01 6.101230159401893616e-02 -5.243226885795593262e-01
1.131796389818191528e-01 -1.220801007002592087e-02 8.021247982978820801e-01
4.271301627159118652e-01 1.818053573369979858e-01 -6.639463454484939575e-02
2.791760563850402832e-01 7.279801368713378906e-02 7.003480792045593262e-01
4.861300587654113770e-01 1.652509719133377075e-01 5.562332645058631897e-02
5.286000967025756836e-01 1.270766556262969971e-01 3.094840943813323975e-01
-5.373597145080566406e-02 -1.299861520528793335e-01 6.795404553413391113e-01
-2.117829918861389160e-01 1.850279122591018677e-01 5.807868838310241699e-01
3.631221055984497070e-01 1.913190335035324097e-01 1.840799897909164429e-01
6.631245613098144531e-01 6.432576477527618408e-02 3.172779977321624756e-01
-1.766910552978515625e-01 2.370903044939041138e-01 -3.714578151702880859e-01
8.417609333992004395e-01 -9.259713441133499146e-02 8.158440887928009033e-02
8.354750871658325195e-01 -3.750307485461235046e-02 -6.657108664512634277e-02
-6.576178669929504395e-01 -4.075081087648868561e-04 -4.469206631183624268e-01
-5.664311647415161133e-01 -8.116322010755538940e-02 -3.996422886848449707e-01
-3.240044713020324707e-01 1.314387768507003784e-01 6.707688570022583008e-01
7.523596882820129395e-01 -1.451602280139923096e-01 -2.821675240993499756e-01
4.346534013748168945e-01 -2.390061318874359131e-01 2.818334102630615234e-01
-7.123976349830627441e-01 -6.139551475644111633e-02 -3.622499108314514160e-02
-7.463327050209045410e-01 1.535324454307556152e-01 -2.337252646684646606e-01
-4.348466992378234863e-01 -1.456812024116516113e-01 3.390791118144989014e-01
3.016484379768371582e-01 -2.400624155998229980e-01 3.351225256919860840e-01
-7.876422405242919922e-01 1.440236927010118961e-03 -9.719254076480865479e-02
4.795704483985900879e-01 1.222539693117141724e-01 -4.168452024459838867e-01
-9.979452937841415405e-02 -8.474528044462203979e-02 7.419725060462951660e-01
3.994746208190917969e-01 1.419449895620346069e-01 4.409365355968475342e-01
4.192799329757690430e-01 -1.641998589038848877e-01 5.783134698867797852e-01
-8.109804987907409668e-01 1.304191350936889648e-01 -5.774741992354393005e-03
-6.463530063629150391e-01 -6.790872663259506226e-02 -2.902486324310302734e-01
-5.289736986160278320e-01 2.424402087926864624e-01 -1.180952861905097961e-01
2.053918689489364624e-01 2.004902213811874390e-01 3.720959126949310303e-01
-4.505559802055358887e-01 2.537784874439239502e-01 1.042790189385414124e-01
2.671195268630981445e-01 2.122869938611984253e-01 -1.821482181549072266e-01
-8.967760950326919556e-02 -2.422402054071426392e-01 -3.155397996306419373e-02
-3.203500509262084961e-01 2.256540209054946899e-01 -4.152204692363739014e-01
7.363083362579345703e-01 -7.324068248271942139e-02 4.021731317043304443e-01
6.897715330123901367e-01 -7.270044088363647461e-02 4.711257517337799072e-01
-7.006388306617736816e-01 8.419352769851684570e-02 -4.269468188285827637e-01
-5.160081386566162109e-01 -3.967327624559402466e-02 5.635170936584472656e-01
4.675047397613525391e-01 -2.460624575614929199e-01 -1.872790306806564331e-01
7.322782278060913086e-01 -1.686324179172515869e-01 2.479291111230850220e-01
-3.497701138257980347e-02 5.008571967482566833e-02 -7.942893505096435547e-01
1.662237197160720825e-01 -2.526530027389526367e-01 2.317885309457778931e-01
5.058991909027099609e-01 -2.431391328573226929e-01 -1.655873954296112061e-01
-6.887462735176086426e-01 1.225426271557807922e-01 -4.103180766105651855e-01
3.414506316184997559e-01 -2.313107103109359741e-01 3.760719299316406250e-01
-5.573799610137939453e-01 -9.679189324378967285e-02 -3.559210598468780518e-01
-7.527268677949905396e-02 -2.400065958499908447e-01 -1.455865800380706787e-01
2.120232582092285156e-01 -2.616021633148193359e-01 -1.207504272460937500e-01
-3.241188526153564453e-01 1.907530277967453003e-01 5.430021286010742188e-01
2.516406774520874023e-01 -1.936725676059722900e-01 5.479427576065063477e-01
-1.273209601640701294e-01 -2.331510633230209351e-01 1.465883105993270874e-01
-2.783954143524169922e-01 -9.842944145202636719e-02 -6.442176103591918945e-01
3.498837947845458984e-01 1.873909533023834229e-01 -2.570430934429168701e-01
-1.957761794328689575e-01 2.599270045757293701e-01 -1.822991818189620972e-01
6.302530765533447266e-01 -1.601622700691223145e-01 -4.312959611415863037e-01
5.078987479209899902e-01 1.591969132423400879e-01 1.602493412792682648e-02
1.780222803354263306e-01 2.211771309375762939e-01 -2.561246156692504883e-01
-3.501145243644714355e-01 2.368208765983581543e-01 -3.458964228630065918e-01
-6.512699127197265625e-01 1.370553970336914062e-01 -4.378994405269622803e-01
-5.705689787864685059e-01 -8.788689970970153809e-02 3.698358237743377686e-01
6.893384456634521484e-01 8.669400215148925781e-02 -1.449847966432571411e-02
2.291705757379531860e-01 1.505141705274581909e-01 5.622745156288146973e-01
-3.877382278442382812e-01 2.332779318094253540e-01 -3.485139012336730957e-01
3.256240487098693848e-01 1.983342319726943970e-01 -2.043919712305068970e-01
5.800245404243469238e-01 -1.953199505805969238e-01 3.786795735359191895e-01
-4.931530728936195374e-02 -2.345580160617828369e-01 2.539945542812347412e-01
-4.677417874336242676e-02 -2.391560822725296021e-01 -2.053436636924743652e-01
-4.920228123664855957e-01 -9.189345687627792358e-02 4.744166731834411621e-01
-6.820858120918273926e-01 1.146239638328552246e-01 4.301415383815765381e-01
-6.407028436660766602e-01 -3.936007991433143616e-02 -3.981879055500030518e-01
-1.703452765941619873e-01 1.385553032159805298e-01 -6.899518966674804688e-01
1.199959591031074524e-01 5.737411603331565857e-02 7.725452780723571777e-01
7.123355865478515625e-01 -1.793444007635116577e-01 -2.443152368068695068e-01
-7.897034883499145508e-01 9.423299692571163177e-03 -1.314669400453567505e-01
1.796673834323883057e-01 1.323051899671554565e-01 6.380681395530700684e-01
4.956587553024291992e-01 1.518622040748596191e-01 -2.145047783851623535e-01
8.123587816953659058e-02 -8.432164043188095093e-02 7.660491466522216797e-01
-2.968770861625671387e-01 -1.658139675855636597e-01 4.275621473789215088e-01
-2.585117816925048828e-01 1.283902674913406372e-01 6.930001378059387207e-01
6.985527276992797852e-01 -1.715166419744491577e-01 -3.037458062171936035e-01
4.755296707153320312e-01 4.337621107697486877e-02 6.139448285102844238e-01
-2.831640839576721191e-01 2.474260330200195312e-01 2.962205410003662109e-01
