1.389914304018020630e-01 -6.780107319355010986e-02 -3.688979148864746094e-02
3.647701442241668701e-01 -1.644380688667297363e-01 1.426457464694976807e-01
4.881156980991363525e-02 -1.182206571102142334e-01 -5.939367413520812988e-02
3.821032047271728516e-01 -7.963767647743225098e-02 2.882459163665771484e-01
1.142832785844802856e-01 -7.192935049533843994e-02 2.755228579044342041e-01
1.017910465598106384e-01 -1.713970303535461426e-01 2.348887175321578979e-01
1.353121697902679443e-01 -1.871266812086105347e-01 2.084792554378509521e-01
1.146937087178230286e-01 -9.353285282850265503e-02 -1.315557509660720825e-01
1.611166447401046753e-01 -5.529217422008514404e-02 2.788755893707275391e-01
3.638319969177246094e-01 -7.736847549676895142e-02 1.114992052316665649e-01
1.281966567039489746e-01 -6.775635480880737305e-02 2.907170057296752930e-01
2.083243429660797119e-01 -5.540912598371505737e-02 3.582497239112854004e-01
1.474875956773757935e-01 -1.980246901512145996e-01 8.891761302947998047e-02
2.818017005920410156e-01 -8.123975992202758789e-02 4.751049876213073730e-01
1.596293002367019653e-01 -1.619907617568969727e-01 -1.986117511987686157e-01
2.860110402107238770e-01 -4.651314020156860352e-02 1.946473717689514160e-01
2.189512252807617188e-01 -1.562015116214752197e-01 4.279529452323913574e-01
9.134684503078460693e-02 -1.139558479189872742e-01 -1.543270200490951538e-01
3.776995241641998291e-01 -8.093509078025817871e-02 1.553901433944702148e-01
3.497037589550018311e-01 -1.237655431032180786e-01 -4.011499881744384766e-02
3.705323338508605957e-01 -1.594563424587249756e-01 1.259567886590957642e-01
3.411637246608734131e-01 -7.675737142562866211e-02 4.271239787340164185e-02
2.252994477748870850e-01 -4.347047209739685059e-02 1.899711638689041138e-01
2.968302667140960693e-01 -1.876433491706848145e-01 3.593495488166809082e-02
3.658053874969482422e-01 -1.643273234367370605e-01 1.587270200252532959e-01
3.803208470344543457e-02 -1.334249675273895264e-01 1.109526902437210083e-01
3.880447149276733398e-01 -1.416982263326644897e-01 1.260754168033599854e-01
1.843518316745758057e-01 -1.932235509157180786e-01 -7.921932637691497803e-02
1.237321570515632629e-01 -6.866726279258728027e-02 -1.793108880519866943e-02
1.631106734275817871e-01 -5.181583762168884277e-02 8.774531632661819458e-02
4.790061712265014648e-02 -1.410599648952484131e-01 1.644234359264373779e-01
1.866641640663146973e-01 -6.838773190975189209e-02 -7.326178252696990967e-02
2.111600339412689209e-01 -1.956617236137390137e-01 -4.883256554603576660e-02
1.507986783981323242e-01 -5.406302213668823242e-02 2.277002334594726562e-01
1.149843558669090271e-01 -7.959002256393432617e-02 -7.324673235416412354e-02
1.628093421459197998e-01 -8.181597292423248291e-02 -1.255135685205459595e-01
3.124247193336486816e-01 -6.394233554601669312e-02 4.894099384546279907e-02
3.515690267086029053e-01 -6.932381540536880493e-02 1.206794157624244690e-01
2.512857913970947266e-01 -1.957965493202209473e-01 6.313145160675048828e-03
1.158449202775955200e-01 -1.023428961634635925e-01 3.691757023334503174e-01
1.800717562437057495e-01 -1.013910844922065735e-01 -1.839742511510848999e-01
2.685985267162322998e-01 -4.542003571987152100e-02 2.710321545600891113e-01
1.564717888832092285e-01 -1.249824762344360352e-01 -2.142224162817001343e-01
3.103207945823669434e-01 -1.280657351016998291e-01 4.762321114540100098e-01
2.181513011455535889e-01 -7.637968659400939941e-02 -1.060344874858856201e-01
9.787631779909133911e-02 -9.124294668436050415e-02 -9.958788752555847168e-02
2.171751260757446289e-01 -1.910621821880340576e-01 -8.122555911540985107e-02
3.781549930572509766e-01 -1.434284448623657227e-01 3.296680450439453125e-01
3.517048358917236328e-01 -6.232958287000656128e-02 2.188270390033721924e-01
7.622626423835754395e-02 -7.934041321277618408e-02 1.359645277261734009e-01
2.477491497993469238e-01 -4.409170150756835938e-02 2.542764544486999512e-01
3.930011391639709473e-01 -1.419538557529449463e-01 1.937652975320816040e-01
1.410466283559799194e-01 -6.295697391033172607e-02 -2.417668700218200684e-03
2.509814202785491943e-01 -4.352713376283645630e-02 2.217229455709457397e-01
1.085900291800498962e-01 -1.538458168506622314e-01 3.156868219375610352e-01
3.188341259956359863e-01 -1.330378651618957520e-01 4.629331827163696289e-01
4.028429687023162842e-01 -1.071179807186126709e-01 2.567684352397918701e-01
2.179791182279586792e-01 -5.747622251510620117e-02 -8.295431733131408691e-03
8.842027187347412109e-02 -9.645567834377288818e-02 2.959449887275695801e-01
3.590377271175384521e-01 -1.224309504032135010e-01 -1.644317805767059326e-02
3.156731128692626953e-01 -8.192585408687591553e-02 4.608075618743896484e-01
5.383564531803131104e-02 -1.092091649770736694e-01 1.952559947967529297e-01
2.781829237937927246e-01 -1.832079589366912842e-01 3.018430471420288086e-01
2.758917808532714844e-01 -6.929659843444824219e-02 -3.580580651760101318e-02
2.983457148075103760e-01 -1.899462044239044189e-01 1.768651604652404785e-01
1.396406143903732300e-01 -1.600015461444854736e-01 3.489606976509094238e-01
3.945673704147338867e-01 -9.079438447952270508e-02 2.251769602298736572e-01
2.902444005012512207e-01 -1.114462241530418396e-01 -1.333221942186355591e-01
2.834395766258239746e-01 -1.904735565185546875e-01 2.222501635551452637e-01
2.149877548217773438e-01 -2.016900479793548584e-01 1.035619527101516724e-01
1.919650882482528687e-01 -1.964989006519317627e-01 -4.913704097270965576e-02
3.580378592014312744e-01 -1.629674136638641357e-01 7.240877300500869751e-02
3.592326641082763672e-01 -6.579460203647613525e-02 2.812468409538269043e-01
4.034211635589599609e-01 -1.211659461259841919e-01 2.276164293289184570e-01
3.186283409595489502e-01 -1.129605621099472046e-01 4.831997752189636230e-01
6.486217677593231201e-02 -9.771689027547836304e-02 -4.490405321121215820e-02
2.000443041324615479e-01 -2.012951076030731201e-01 1.234962269663810730e-01
2.850890755653381348e-01 -1.310729384422302246e-01 -1.516752392053604126e-01
1.864674687385559082e-01 -6.532488763332366943e-02 3.866924643516540527e-01
6.459340453147888184e-02 -1.700737774372100830e-01 -2.625603973865509033e-02
2.738662362098693848e-01 -1.930060982704162598e-01 2.061884999275207520e-01
1.499896049499511719e-01 -6.735628843307495117e-02 -4.684369266033172607e-02
3.848283886909484863e-01 -1.484197974205017090e-01 1.465048938989639282e-01
1.477519869804382324e-01 -1.983864307403564453e-01 7.245078682899475098e-02
3.011820316314697266e-01 -1.713522523641586304e-01 3.536415994167327881e-01
9.620933979749679565e-02 -9.555827826261520386e-02 -1.132468134164810181e-01
8.355756103992462158e-02 -1.817359179258346558e-01 5.572297424077987671e-02
9.086950123310089111e-02 -1.686207205057144165e-01 2.200654745101928711e-01
3.706273734569549561e-01 -1.591361612081527710e-01 2.505646049976348877e-01
1.376313567161560059e-01 -1.755557209253311157e-01 2.853252887725830078e-01
2.289012968540191650e-01 -1.546679884195327759e-01 -1.904026716947555542e-01
1.109259277582168579e-01 -1.770008206367492676e-01 2.256858646869659424e-01
5.990429222583770752e-02 -1.484283357858657837e-01 1.991267502307891846e-01
5.787770450115203857e-02 -1.287534832954406738e-01 2.263495624065399170e-01
2.239406108856201172e-01 -1.796073168516159058e-01 3.398924469947814941e-01
1.139145642518997192e-01 -8.933839201927185059e-02 -1.156993061304092407e-01
3.243547976016998291e-01 -5.888586491346359253e-02 1.198329627513885498e-01
1.115585565567016602e-01 -6.403346359729766846e-02 1.790564507246017456e-01
3.039271235466003418e-01 -1.180552765727043152e-01 4.893314838409423828e-01
2.419506013393402100e-01 -5.443976819515228271e-02 2.376208454370498657e-02
3.944900631904602051e-01 -9.185350686311721802e-02 2.838042378425598145e-01
1.640213429927825928e-01 -1.858554929494857788e-01 -1.236793249845504761e-01
1.468348205089569092e-01 -1.976808309555053711e-01 9.263738989830017090e-03
2.801751494407653809e-01 -1.937329769134521484e-01 6.768576800823211670e-02
2.235304564237594604e-01 -1.501260697841644287e-01 4.450473785400390625e-01
1.298330575227737427e-01 -5.746893584728240967e-02 1.628217697143554688e-01
3.474614322185516357e-01 -1.642004251480102539e-01 3.234539180994033813e-02
1.179815381765365601e-01 -6.378320604562759399e-02 2.176909744739532471e-01
3.083492517471313477e-01 -4.971926659345626831e-02 2.240039855241775513e-01
1.824094504117965698e-01 -1.483750045299530029e-01 4.248107075691223145e-01
2.149943411350250244e-01 -1.941581070423126221e-01 2.359640598297119141e-01
2.209796160459518433e-01 -2.012308835983276367e-01 5.301507562398910522e-02
2.169950604438781738e-01 -1.956403553485870361e-01 2.207928001880645752e-01
1.214188784360885620e-01 -6.140809878706932068e-02 2.002920657396316528e-01
8.576251566410064697e-02 -1.371663212776184082e-01 3.010388016700744629e-01
3.782840669155120850e-01 -7.582776248455047607e-02 2.366464734077453613e-01
3.140997588634490967e-01 -1.595072895288467407e-01 -7.585108280181884766e-02
2.701896727085113525e-01 -1.950776576995849609e-01 1.767169237136840820e-01
3.391757607460021973e-01 -1.769820153713226318e-01 1.999271064996719360e-01
2.078951001167297363e-01 -1.914778649806976318e-01 2.579468488693237305e-01
1.259442269802093506e-01 -6.167677044868469238e-02 2.291383743286132812e-01
3.630729317665100098e-01 -1.609541773796081543e-01 8.531841635704040527e-02
2.917252779006958008e-01 -6.505355983972549438e-02 6.307065486907958984e-03
2.805797755718231201e-01 -1.893359571695327759e-01 2.947732806205749512e-03
1.234621182084083557e-01 -8.143758773803710938e-02 3.417948782444000244e-01
3.618085086345672607e-01 -9.707356989383697510e-02 4.274740815162658691e-01
3.585573434829711914e-01 -7.093358039855957031e-02 1.370231062173843384e-01
1.634787768125534058e-01 -4.980853199958801270e-02 1.816461235284805298e-01
1.146715432405471802e-01 -1.378275305032730103e-01 3.593895435333251953e-01
1.721046268939971924e-01 -1.962392628192901611e-01 -4.953560233116149902e-02
6.707523763179779053e-02 -1.601711362600326538e-01 1.816998869180679321e-01
1.211713775992393494e-01 -1.011286377906799316e-01 -1.599391251802444458e-01
2.539086043834686279e-01 -1.085047498345375061e-01 4.998586773872375488e-01
3.960773348808288574e-01 -9.915453940629959106e-02 1.698078960180282593e-01
3.015230596065521240e-01 -4.904799908399581909e-02 1.909245103597640991e-01
2.625979185104370117e-01 -7.402075082063674927e-02 -6.977115571498870850e-02
2.469111829996109009e-01 -4.415211081504821777e-02 1.608584225177764893e-01
2.179625034332275391e-01 -1.834247410297393799e-01 3.171331882476806641e-01
4.649744927883148193e-02 -1.230702102184295654e-01 1.754646301269531250e-01
1.209092885255813599e-01 -1.778909564018249512e-01 -1.327349692583084106e-01
6.760761141777038574e-02 -1.499425470829010010e-01 -1.244541257619857788e-01
3.844211101531982422e-01 -8.661075681447982788e-02 3.320220708847045898e-01
2.652925848960876465e-01 -9.767814725637435913e-02 4.972211718559265137e-01
3.740916252136230469e-01 -7.389155030250549316e-02 2.106267362833023071e-01
8.697508275508880615e-02 -9.185877442359924316e-02 -8.082963526248931885e-02
2.705518305301666260e-01 -1.552533209323883057e-01 -1.516535729169845581e-01
3.196661472320556641e-01 -1.775584965944290161e-01 2.803066670894622803e-01
2.856172025203704834e-01 -4.943608492612838745e-02 1.282072514295578003e-01
3.434640467166900635e-01 -1.624607741832733154e-01 3.338631391525268555e-01
1.732521355152130127e-01 -1.632840931415557861e-01 3.772280216217041016e-01
2.603884935379028320e-01 -8.342805504798889160e-02 -1.052296012639999390e-01
3.112330436706542969e-01 -1.433647274971008301e-01 4.478422403335571289e-01
3.472490608692169189e-01 -7.647383958101272583e-02 6.050063669681549072e-02
4.070608317852020264e-02 -1.455207765102386475e-01 9.609003365039825439e-02
2.505488991737365723e-01 -5.917537957429885864e-02 -4.175513982772827148e-03
3.176011741161346436e-01 -1.831843852996826172e-01 2.190329730510711670e-01
3.494253158569335938e-01 -1.093856841325759888e-01 -3.001670539379119873e-02
1.692374348640441895e-01 -8.889642357826232910e-02 4.320035576820373535e-01
2.416209280490875244e-01 -7.980829477310180664e-02 -1.072825938463211060e-01
1.216632127761840820e-01 -1.217841058969497681e-01 3.855576515197753906e-01
2.229990959167480469e-01 -6.315660476684570312e-02 4.106813073158264160e-01
1.866105347871780396e-01 -1.988011300563812256e-01 1.645684838294982910e-01
2.021874934434890747e-01 -1.670214086771011353e-01 3.859203457832336426e-01
1.399274170398712158e-01 -5.536366254091262817e-02 1.070939153432846069e-01
3.320678770542144775e-01 -8.261866867542266846e-02 4.469001293182373047e-01
3.117091059684753418e-01 -5.607584863901138306e-02 3.502105474472045898e-01
3.184538483619689941e-01 -1.850334554910659790e-01 1.600933372974395752e-01
2.614147663116455078e-01 -9.483624249696731567e-02 -1.349247545003890991e-01
2.999452352523803711e-01 -4.833787679672241211e-02 2.100809514522552490e-01
3.009380102157592773e-01 -5.485184490680694580e-02 9.770880639553070068e-02
8.743277192115783691e-02 -8.213044703006744385e-02 -2.668975293636322021e-02
9.604670107364654541e-02 -1.742546111345291138e-01 -1.117245405912399292e-01
3.432646691799163818e-01 -1.638709157705307007e-01 1.513278484344482422e-02
2.128325998783111572e-01 -4.449408501386642456e-02 2.313941270112991333e-01
3.598303198814392090e-01 -1.531400829553604126e-01 2.875070273876190186e-02
-1.283433437347412109e-01 -3.730388730764389038e-02 -4.531176686286926270e-01
1.637179255485534668e-01 -5.362734943628311157e-02 -2.728406786918640137e-01
3.295365571975708008e-01 -6.170643493533134460e-02 1.108928918838500977e-01
2.199560403823852539e-03 -6.402719765901565552e-02 -1.750346422195434570e-01
7.733016461133956909e-02 1.119472086429595947e-03 -3.752275705337524414e-01
1.711590439081192017e-01 -8.021765947341918945e-02 -2.713677287101745605e-02
-1.277326345443725586e-01 5.770493298768997192e-03 -6.033811569213867188e-01
5.445725470781326294e-02 -6.115278229117393494e-03 -3.188436925411224365e-01
1.555768847465515137e-01 -1.808733120560646057e-02 -1.817709058523178101e-01
2.591466903686523438e-01 -1.520122587680816650e-02 -2.138130813837051392e-01
-8.240928500890731812e-02 -4.970096796751022339e-02 -3.538604974746704102e-01
3.756691515445709229e-01 -6.736911088228225708e-02 1.266466081142425537e-01
1.978826075792312622e-01 -1.376644149422645569e-02 -3.798048496246337891e-01
3.176959455013275146e-01 -7.358258962631225586e-02 -9.867340326309204102e-03
-2.014813572168350220e-02 -5.680495500564575195e-02 -3.154533207416534424e-01
2.484835386276245117e-01 -2.128735557198524475e-02 -1.373001635074615479e-01
1.254634559154510498e-02 3.050867468118667603e-03 -4.233739972114562988e-01
2.635804414749145508e-01 -3.536667302250862122e-02 -3.336314857006072998e-02
1.309411227703094482e-01 -7.119093835353851318e-02 -1.611967086791992188e-01
1.223702207207679749e-01 -5.007454752922058105e-02 -3.205768465995788574e-01
9.267683327198028564e-02 -1.132320612668991089e-03 -3.464218080043792725e-01
-7.012501358985900879e-03 8.222069591283798218e-03 -4.997304677963256836e-01
-2.488193660974502563e-02 9.472973644733428955e-03 -5.717482566833496094e-01
1.000659093260765076e-01 -4.326925054192543030e-02 -8.238536119461059570e-02
5.847740918397903442e-02 -4.263617843389511108e-02 -3.991385698318481445e-01
7.483647763729095459e-02 -5.724611133337020874e-02 -2.989058494567871094e-01
2.701919674873352051e-01 -1.799763739109039307e-02 -1.817694753408432007e-01
1.169943138957023621e-01 -4.499763250350952148e-03 -3.058888912200927734e-01
4.322990030050277710e-02 -8.381305262446403503e-03 -3.086352944374084473e-01
1.803243905305862427e-02 7.569387555122375488e-03 -5.508338809013366699e-01
2.087279260158538818e-01 -8.780924603343009949e-03 -2.645720839500427246e-01
3.755428493022918701e-01 -4.744105041027069092e-02 3.244516253471374512e-02
1.523246169090270996e-01 -4.102477058768272400e-02 -5.474138259887695312e-02
2.706311643123626709e-02 -6.791596114635467529e-02 -1.715041697025299072e-01
2.295131534337997437e-01 -4.605624079704284668e-02 1.089644432067871094e-02
1.868607103824615479e-01 -8.915392681956291199e-03 -2.540870904922485352e-01
3.898818790912628174e-02 -5.012493208050727844e-02 -3.624435365200042725e-01
1.301531493663787842e-01 -7.735550403594970703e-02 -7.649140059947967529e-02
-1.548035144805908203e-01 -1.407715119421482086e-02 -5.987107753753662109e-01
-7.578975707292556763e-02 -4.813009127974510193e-02 -3.833506703376770020e-01
-2.099076658487319946e-02 -3.828905150294303894e-02 -2.111877202987670898e-01
1.366296112537384033e-01 -4.926412925124168396e-02 -3.160125911235809326e-01
-1.026154384016990662e-01 -2.088235504925251007e-02 -5.708513259887695312e-01
-1.265913844108581543e-01 -4.034998267889022827e-02 -3.948275446891784668e-01
3.789086043834686279e-01 -5.971353501081466675e-02 -1.544593274593353271e-02
-1.090590730309486389e-01 -1.461344957351684570e-02 -4.076946973800659180e-01
3.546903133392333984e-01 -4.773195832967758179e-02 4.567340016365051270e-02
1.683819144964218140e-01 -6.183236837387084961e-02 -2.181352525949478149e-01
2.900618910789489746e-01 -5.909954383969306946e-02 9.028866887092590332e-02
8.873475342988967896e-02 -6.297401338815689087e-02 -4.201830923557281494e-02
2.190039157867431641e-01 -4.464542120695114136e-02 -6.382018327713012695e-04
-4.105605185031890869e-03 -6.287302076816558838e-02 -2.422912418842315674e-01
-8.096288889646530151e-02 -4.510200768709182739e-02 -4.115591943264007568e-01
2.438968718051910400e-01 -3.559379652142524719e-02 -2.851559519767761230e-01
1.467992067337036133e-01 -5.975347012281417847e-03 -2.855719327926635742e-01
1.237500384449958801e-01 -6.974269449710845947e-02 -1.776901036500930786e-01
2.552433013916015625e-01 -1.378267258405685425e-02 -2.410118430852890015e-01
2.799832224845886230e-01 -6.450875103473663330e-02 1.032941341400146484e-01
1.682129055261611938e-01 -1.442310772836208344e-02 -2.048951983451843262e-01
-9.242735803127288818e-03 -1.796551607549190521e-02 -2.879426181316375732e-01
7.579248398542404175e-02 -5.341566726565361023e-02 -7.107356190681457520e-02
1.010932773351669312e-02 -3.128249570727348328e-02 -2.064160406589508057e-01
-1.549522280693054199e-01 -1.053388230502605438e-02 -6.126049757003784180e-01
4.706174135208129883e-02 7.563941180706024170e-03 -4.928046166896820068e-01
8.583004772663116455e-02 -7.313144207000732422e-02 -1.364980041980743408e-01
2.965467870235443115e-01 -2.173941954970359802e-02 -1.610152274370193481e-01
-1.616276800632476807e-01 -1.623861305415630341e-02 -5.850211977958679199e-01
5.502298474311828613e-03 4.195433109998703003e-03 -5.776652097702026367e-01
2.099136561155319214e-01 -8.004787564277648926e-02 -2.924883365631103516e-02
-8.199896663427352905e-02 -5.045210197567939758e-02 -3.381217122077941895e-01
-3.349906951189041138e-02 2.376545220613479614e-03 -4.480322003364562988e-01
2.224614620208740234e-01 -3.073213994503021240e-02 -7.365864515304565430e-02
-1.174268200993537903e-01 -3.320707008242607117e-02 -4.974635243415832520e-01
2.331659644842147827e-01 -5.068353563547134399e-02 -2.334466278553009033e-01
-1.026036962866783142e-01 -4.622650146484375000e-02 -3.651727139949798584e-01
1.846605390310287476e-01 -4.244451969861984253e-02 -3.144400715827941895e-01
-4.522309452295303345e-02 -5.376760661602020264e-02 -3.385210037231445312e-01
-5.775067955255508423e-02 -1.467341184616088867e-02 -5.838373899459838867e-01
-6.682539731264114380e-02 4.948604851961135864e-03 -5.018390417098999023e-01
2.651204168796539307e-01 -7.140494138002395630e-02 -7.832796871662139893e-02
-1.084517166018486023e-01 -5.078114569187164307e-03 -4.630589485168457031e-01
1.029996797442436218e-01 -5.692867934703826904e-02 -2.885064482688903809e-01
-7.169707864522933960e-02 -1.644100993871688843e-02 -3.555966317653656006e-01
4.208436608314514160e-02 -6.920358538627624512e-02 -1.734545230865478516e-01
1.945990175008773804e-01 -8.074092119932174683e-02 -2.070032060146331787e-02
1.569552123546600342e-01 -3.724192082881927490e-02 -3.599273264408111572e-01
7.614368945360183716e-02 -6.331922858953475952e-02 -2.503425478935241699e-01
-1.488141715526580811e-01 -2.526834979653358459e-02 -5.393630266189575195e-01
3.189146518707275391e-04 1.123081892728805542e-03 -4.122801423072814941e-01
2.000997960567474365e-01 -6.590926647186279297e-02 -1.687554866075515747e-01
3.395006060600280762e-02 4.025556147098541260e-03 -4.235036373138427734e-01
1.069211959838867188e-02 -2.258965373039245605e-02 -2.465718984603881836e-01
-1.502882242202758789e-01 -2.254674211144447327e-02 -5.562870502471923828e-01
1.564783602952957153e-02 8.008114993572235107e-03 -4.885095357894897461e-01
1.790968179702758789e-01 -6.789685040712356567e-02 -1.673247516155242920e-01
2.307955920696258545e-02 -6.036537140607833862e-02 -1.217186301946640015e-01
5.942327529191970825e-02 2.871662378311157227e-03 -4.007477760314941406e-01
-1.620721220970153809e-01 -6.915424019098281860e-03 -5.312640666961669922e-01
-4.655704647302627563e-02 8.382160216569900513e-03 -5.276985168457031250e-01
1.119824275374412537e-01 -1.287179812788963318e-02 -2.381681054830551147e-01
-6.426764279603958130e-02 -1.114321686327457428e-02 -5.983969569206237793e-01
-1.562636345624923706e-02 -3.234601765871047974e-02 -4.886783957481384277e-01
-7.037997245788574219e-03 -3.308559954166412354e-02 -2.152440398931503296e-01
-3.435074537992477417e-02 9.204037487506866455e-03 -5.342375040054321289e-01
-5.465894937515258789e-03 -3.511468321084976196e-02 -4.699859619140625000e-01
1.273509263992309570e-01 -1.408067904412746429e-02 -2.223396003246307373e-01
1.081602275371551514e-01 -3.887156769633293152e-02 -9.416832029819488525e-02
3.156817257404327393e-01 -2.535748854279518127e-02 -1.776455938816070557e-01
-6.517582386732101440e-02 -2.253279462456703186e-02 -3.191923201084136963e-01
3.425292372703552246e-01 -3.117846138775348663e-02 -1.127700954675674438e-01
-4.812955111265182495e-02 -3.053222596645355225e-02 -5.096391439437866211e-01
1.532656699419021606e-01 -7.825595885515213013e-02 -6.731069087982177734e-02
-1.770484447479248047e-01 -1.137642376124858856e-02 -5.430344343185424805e-01
1.947956234216690063e-01 -6.300577893853187561e-03 -2.945882678031921387e-01
1.287615597248077393e-01 -7.747170329093933105e-02 -3.218297660350799561e-02
1.379538178443908691e-01 -1.410983502864837646e-03 -3.404630422592163086e-01
1.996153742074966431e-01 -3.454237431287765503e-02 -3.333970606327056885e-01
2.314177155494689941e-02 -4.162561148405075073e-03 -3.530627489089965820e-01
-1.119479313492774963e-01 -1.236137002706527710e-03 -6.370762586593627930e-01
9.869043529033660889e-02 3.321748226881027222e-03 -4.070277214050292969e-01
2.228346765041351318e-01 -7.659468054771423340e-02 -6.416693329811096191e-02
-4.789941757917404175e-02 9.817730635404586792e-03 -5.670034885406494141e-01
-1.102387830615043640e-01 -2.721510827541351318e-02 -3.564057350158691406e-01
-4.509399086236953735e-02 -2.797625958919525146e-03 -4.149047732353210449e-01
1.373803615570068359e-01 -2.885507047176361084e-02 -1.240466386079788208e-01
1.603307276964187622e-01 -7.091686129570007324e-02 -1.521050930023193359e-01
2.631269991397857666e-01 -4.296874254941940308e-02 9.518384933471679688e-03
1.034884527325630188e-01 -7.704980671405792236e-03 -2.819144427776336670e-01
2.871755510568618774e-02 8.348885923624038696e-03 -5.029949545860290527e-01
3.584569394588470459e-01 -4.308129847049713135e-02 1.237481832504272461e-02
-2.582741528749465942e-02 4.963397979736328125e-03 -4.679737687110900879e-01
5.260977894067764282e-02 6.372336298227310181e-03 -5.164297819137573242e-01
1.252062022686004639e-01 -7.403783500194549561e-02 -1.306675225496292114e-01
1.101928949356079102e-02 -6.149806827306747437e-02 -2.720164060592651367e-01
2.937567532062530518e-01 -6.542220711708068848e-02 -9.381629526615142822e-02
6.810059398412704468e-02 -4.085990041494369507e-02 -1.173490434885025024e-01
2.279944717884063721e-02 -1.887890696525573730e-02 -2.566349506378173828e-01
1.271785199642181396e-01 -1.003310829401016235e-02 -4.642214775085449219e-01
-3.998542577028274536e-02 -1.769611798226833344e-02 -3.172134160995483398e-01
-1.347936987876892090e-01 -1.414165273308753967e-02 -6.026430130004882812e-01
-9.197717159986495972e-02 7.336262613534927368e-03 -5.595551729202270508e-01
-7.560118287801742554e-02 -4.595372825860977173e-03 -4.304805397987365723e-01
-1.337546408176422119e-01 -2.797221764922142029e-02 -5.286886692047119141e-01
3.852293789386749268e-01 -5.612687021493911743e-02 7.982075214385986328e-02
1.348366588354110718e-01 -3.526693210005760193e-02 -9.252840280532836914e-02
7.207112014293670654e-02 4.888653755187988281e-03 -4.285968542098999023e-01
4.951015487313270569e-02 -1.520634256303310394e-02 -2.588308751583099365e-01
1.756637394428253174e-01 -7.807098329067230225e-02 -6.869687139987945557e-02
1.674913167953491211e-01 -1.275679469108581543e-02 -2.187801748514175415e-01
-7.400639355182647705e-03 -4.721546545624732971e-02 -3.965213298797607422e-01
-1.005561649799346924e-02 -2.780993469059467316e-02 -2.401086390018463135e-01
1.891112327575683594e-01 -6.882466375827789307e-02 -1.539666652679443359e-01
3.673070669174194336e-02 -7.526576519012451172e-05 -3.796811103820800781e-01
-2.977453917264938354e-02 -3.279428184032440186e-02 -2.394232898950576782e-01
1.231059432029724121e-04 -3.809513151645660400e-02 -4.513496756553649902e-01
6.214818358421325684e-02 -5.464400351047515869e-02 -3.225494623184204102e-01
-7.500744611024856567e-02 -3.946449980139732361e-02 -2.748756408691406250e-01
4.112124443054199219e-03 -1.357944868505001068e-02 -5.556904077529907227e-01
3.148709833621978760e-01 -5.532705038785934448e-02 8.305266499519348145e-02
2.326247096061706543e-01 -2.104540914297103882e-02 -1.395767629146575928e-01
2.423586845397949219e-01 -1.606336422264575958e-02 -1.874500960111618042e-01
1.953980773687362671e-01 -8.160315454006195068e-02 8.803695440292358398e-03
3.644741475582122803e-01 -4.074745625257492065e-02 -1.341368257999420166e-02
-1.658948361873626709e-01 -2.383940666913986206e-02 -5.304884910583496094e-01
-6.767868250608444214e-02 -5.022104829549789429e-03 -4.196937382221221924e-01
9.389717876911163330e-02 -4.868719354271888733e-02 -6.832072138786315918e-02
3.906267583370208740e-01 -6.651036441326141357e-02 4.926833510398864746e-02
-1.592207551002502441e-01 -2.094309590756893158e-02 -4.594225287437438965e-01
1.405413746833801270e-01 -6.461677700281143188e-02 -2.140358835458755493e-01
1.244891658425331116e-01 1.796524971723556519e-03 -3.939009904861450195e-01
3.599119782447814941e-01 -5.967900156974792480e-02 1.052548587322235107e-01
-5.746971815824508667e-02 -1.836969144642353058e-02 -3.309635221958160400e-01
2.842141687870025635e-01 -4.660448431968688965e-02 3.458681702613830566e-02
-1.067135557532310486e-01 -2.448944374918937683e-02 -5.530343055725097656e-01
1.415525972843170166e-01 -2.253637462854385376e-02 -1.587178856134414673e-01
-8.995325118303298950e-02 7.400773465633392334e-04 -4.858812987804412842e-01
-4.066547006368637085e-02 -2.281631901860237122e-02 -2.924209237098693848e-01
-1.808909326791763306e-02 -5.879884213209152222e-02 -2.927443683147430420e-01
-5.616611987352371216e-02 -5.015253275632858276e-02 -3.724074959754943848e-01
2.619498372077941895e-01 -1.606103219091892242e-02 -2.721004486083984375e-01
3.863202631473541260e-01 -6.944175809621810913e-02 6.245133280754089355e-02
1.918254792690277100e-01 -7.656553387641906738e-02 -8.135402202606201172e-02
-8.756805211305618286e-02 -3.557781875133514404e-02 -4.857481718063354492e-01
2.963723242282867432e-01 -2.611369639635086060e-02 -1.040152162313461304e-01
3.658938705921173096e-01 -5.451645702123641968e-02 8.079490065574645996e-02
5.336940288543701172e-03 -3.628716245293617249e-02 -1.910388469696044922e-01
-4.030302911996841431e-02 6.677418947219848633e-03 -4.985759258270263672e-01
-5.024630576372146606e-02 -5.516732484102249146e-02 -3.151298761367797852e-01
1.317887902259826660e-01 -1.752143725752830505e-02 -4.473195075988769531e-01
2.958246171474456787e-01 -6.226394325494766235e-02 1.031104326248168945e-01
1.240435466170310974e-01 -3.783028945326805115e-02 -3.824341893196105957e-01
2.233209013938903809e-01 -8.110528439283370972e-02 6.817591190338134766e-02
1.954503953456878662e-01 -7.782183587551116943e-02 5.776166915893554688e-02
2.663575410842895508e-01 -6.321702152490615845e-02 9.331813454627990723e-02
-6.163082271814346313e-02 -1.612264849245548248e-02 -3.468059301376342773e-01
2.100141197443008423e-01 -8.162210881710052490e-02 4.695811867713928223e-02
1.812656819820404053e-01 -2.313998714089393616e-02 -1.371473520994186401e-01
-2.947004884481430054e-02 -4.801907762885093689e-02 -3.940366804599761963e-01
2.870738506317138672e-01 -2.368625253438949585e-02 -1.243085861206054688e-01
2.913419902324676514e-01 -8.057581633329391479e-02 3.493168950080871582e-02
5.240922421216964722e-02 1.102700829505920410e-03 -5.397779941558837891e-01
9.080868959426879883e-02 4.837077111005783081e-03 -4.583577811717987061e-01
-3.337623924016952515e-02 -3.812661394476890564e-02 -4.622595012187957764e-01
3.517000079154968262e-01 -3.847795352339744568e-02 -2.127422392368316650e-02
1.816821396350860596e-01 -4.692646116018295288e-02 -2.955684661865234375e-01
2.324288487434387207e-01 -1.685325987637042999e-02 -1.768230199813842773e-01
3.326995372772216797e-01 -3.294032812118530273e-02 -5.872513353824615479e-02
8.939136564731597900e-02 -7.458655536174774170e-02 -9.490786492824554443e-02
1.395937651395797729e-01 -1.542309857904911041e-02 -2.073370516300201416e-01
1.033147796988487244e-01 -1.656530797481536865e-02 -2.170447558164596558e-01
2.751660943031311035e-01 -5.825913697481155396e-02 -1.546024084091186523e-01
8.415606617927551270e-02 3.200452774763107300e-03 -4.966506958007812500e-01
8.297827839851379395e-02 -2.035759389400482178e-04 -5.097970962524414062e-01
2.635040879249572754e-01 -8.114899694919586182e-02 1.825240254402160645e-02
1.291613727807998657e-01 -4.103030636906623840e-02 -7.007932662963867188e-02
2.533832788467407227e-01 -1.851218380033969879e-02 -2.995667457580566406e-01
2.622924745082855225e-01 -7.506670057773590088e-02 -5.022795498371124268e-02
-1.214847341179847717e-01 -3.087752126157283783e-02 -5.129146575927734375e-01
1.019444912672042847e-01 2.281859517097473145e-03 -4.757871031761169434e-01
1.743098199367523193e-01 -2.812088094651699066e-02 -1.089263111352920532e-01
2.957567274570465088e-01 -8.130843937397003174e-02 5.125182867050170898e-02
6.046050414443016052e-02 -6.262357532978057861e-02 -2.601813375949859619e-01
2.716597616672515869e-01 -2.100613526999950409e-02 -1.453056931495666504e-01
-6.274376064538955688e-02 -5.128305032849311829e-02 -3.562818765640258789e-01
-1.571092754602432251e-02 -4.363735765218734741e-02 -1.901667714118957520e-01
8.603217452764511108e-02 -6.156965345144271851e-02 -2.617404162883758545e-01
-4.093020409345626831e-02 -2.408809028565883636e-02 -5.388008356094360352e-01
-1.852376013994216919e-02 1.593604683876037598e-03 -4.295880794525146484e-01
2.246011495590209961e-01 -8.223834633827209473e-02 1.888307929039001465e-02
-1.246573850512504578e-01 -2.332283928990364075e-02 -5.590759515762329102e-01
-8.838678151369094849e-02 5.507335066795349121e-03 -5.304434895515441895e-01
1.782404035329818726e-01 -6.405562162399291992e-02 -1.964160352945327759e-01
-1.534298062324523926e-01 -1.427887938916683197e-02 -4.736905097961425781e-01
5.086591467261314392e-02 -5.060155317187309265e-02 -3.546045124530792236e-01
1.530358791351318359e-01 -4.704796522855758667e-02 -2.927643060684204102e-02
1.007638126611709595e-02 -4.917341843247413635e-02 -1.482901871204376221e-01
2.968953847885131836e-01 -3.595611080527305603e-02 -2.495676279067993164e-02
1.830500960350036621e-01 -7.954794168472290039e-02 -4.450239241123199463e-02
3.266349136829376221e-01 -5.460771918296813965e-02 -1.164513677358627319e-01
-1.030276715755462646e-02 -6.536524742841720581e-03 -3.593494892120361328e-01
3.020624518394470215e-01 -8.200085908174514771e-02 7.528311014175415039e-02
1.254431158304214478e-01 -9.380675852298736572e-03 -2.595627307891845703e-01
-6.812880188226699829e-02 -3.548308834433555603e-02 -4.854068160057067871e-01
1.494926810264587402e-01 -7.634352147579193115e-02 1.243284344673156738e-02
-7.677792757749557495e-02 -4.943730309605598450e-02 -3.666036725044250488e-01
1.334659755229949951e-02 -5.572455376386642456e-02 -3.276896476745605469e-01
2.514840662479400635e-01 -5.096253007650375366e-02 4.254400730133056641e-02
5.954059585928916931e-02 -1.790258847177028656e-02 -2.355157732963562012e-01
1.824191808700561523e-01 -6.372286006808280945e-03 -2.846629619598388672e-01
2.864847183227539062e-01 -7.878616452217102051e-02 1.210870146751403809e-01
4.008752852678298950e-02 1.780841499567031860e-03 -3.961224555969238281e-01
2.401210367679595947e-02 -5.073605477809906006e-02 -3.633866012096405029e-01
3.311816751956939697e-01 -8.062739670276641846e-02 1.080634593963623047e-01
-9.705290943384170532e-02 -3.732890263199806213e-02 -4.721437394618988037e-01
5.886770039796829224e-02 6.501112133264541626e-03 -5.031743049621582031e-01
5.905541777610778809e-02 -5.455085635185241699e-02 -8.495624363422393799e-02
1.911971569061279297e-01 -4.758596420288085938e-03 -3.344715833663940430e-01
1.548987925052642822e-01 -1.255382224917411804e-02 -2.238299846649169922e-01
-2.332321554422378540e-02 -1.251751184463500977e-02 -3.312532305717468262e-01
-9.507451206445693970e-02 -2.572782710194587708e-02 -3.411220312118530273e-01
-1.509926468133926392e-02 9.601335972547531128e-03 -5.385036468505859375e-01
-5.899330228567123413e-02 -5.732966586947441101e-03 -4.065199494361877441e-01
2.504683136940002441e-01 -2.492592483758926392e-02 -1.073437780141830444e-01
1.504480540752410889e-01 -9.191906079649925232e-03 -2.538369297981262207e-01
3.217653930187225342e-01 -5.919880792498588562e-02 1.001855134963989258e-01
1.385933905839920044e-02 -9.844148531556129456e-03 -3.185499012470245361e-01
-1.304473876953125000e-01 -1.554501429200172424e-02 -4.314815998077392578e-01
1.037326157093048096e-01 -4.300688207149505615e-02 -3.709684610366821289e-01
9.314587712287902832e-02 -6.327143311500549316e-02 -2.454105913639068604e-01
1.221874356269836426e-02 -2.778783440589904785e-03 -3.711789250373840332e-01
3.506783843040466309e-01 -5.753967911005020142e-02 -7.088397443294525146e-02
1.061607971787452698e-01 -2.143035829067230225e-02 -1.848261207342147827e-01
8.991383016109466553e-03 -3.236833214759826660e-02 -4.777399897575378418e-01
-7.167499512434005737e-02 -2.944572642445564270e-02 -5.214722156524658203e-01
-1.454440057277679443e-01 -2.600792795419692993e-03 -5.322386026382446289e-01
-5.879100412130355835e-02 -1.649282872676849365e-03 -4.358516931533813477e-01
2.858473360538482666e-01 -5.018961057066917419e-02 -1.837863028049468994e-01
-1.683041453361511230e-03 -2.279594726860523224e-02 -2.561396956443786621e-01
2.088564634323120117e-01 -5.395685136318206787e-02 -2.370854616165161133e-01
2.988571524620056152e-01 -6.791129708290100098e-02 -7.223618030548095703e-02
2.103461027145385742e-01 -2.769751101732254028e-02 -3.443025648593902588e-01
-1.191208288073539734e-01 -2.009497396647930145e-02 -3.952883481979370117e-01
-1.793442964553833008e-01 -1.232903450727462769e-02 -5.775337219238281250e-01
2.505623400211334229e-01 -8.062158524990081787e-02 1.067221164703369141e-03
9.858794510364532471e-03 -1.510742865502834320e-02 -2.884942591190338135e-01
2.359083294868469238e-02 -4.798386245965957642e-02 -3.822534084320068359e-01
3.344122767448425293e-01 -7.550890743732452393e-02 2.739462256431579590e-02
-1.208689734339714050e-01 -1.806851476430892944e-03 -5.021271705627441406e-01
2.514077425003051758e-01 -8.290658146142959595e-02 5.121934413909912109e-02
4.698415100574493408e-02 -5.549758672714233398e-02 -3.217606842517852783e-01
1.899983286857604980e-01 -7.866173237562179565e-02 -5.636295676231384277e-02
7.827570289373397827e-02 -7.626483216881752014e-03 -2.942357659339904785e-01
1.386172622442245483e-01 -3.785445541143417358e-02 -3.715660572052001953e-01
2.889176905155181885e-01 -2.467389404773712158e-02 -2.436456233263015747e-01
2.839085459709167480e-01 -2.806923538446426392e-02 -8.292970061302185059e-02
3.297494947910308838e-01 -4.762720689177513123e-02 4.766267538070678711e-02
1.631701737642288208e-01 -2.085771411657333374e-03 -3.462524712085723877e-01
-3.472971171140670776e-02 -2.611543983221054077e-02 -2.715288400650024414e-01
3.192296326160430908e-01 -7.861880958080291748e-02 4.124888777732849121e-02
5.564810708165168762e-02 -6.466486304998397827e-02 -2.414875328540802002e-01
1.599245220422744751e-01 -7.224546745419502258e-03 -2.714974880218505859e-01
3.335944116115570068e-01 -6.142257153987884521e-02 -7.337360084056854248e-02
2.873035967350006104e-01 -2.000723592936992645e-02 -2.286278158426284790e-01
1.399823129177093506e-01 -7.370787858963012695e-02 -1.319236755371093750e-01
3.218544125556945801e-01 -3.094181790947914124e-02 -7.061497867107391357e-02
1.575730293989181519e-01 -4.971962422132492065e-03 -4.244751930236816406e-01
-1.162725761532783508e-01 -2.821476757526397705e-02 -5.314087867736816406e-01
-6.879112869501113892e-02 7.134519517421722412e-03 -5.296388864517211914e-01
3.097975254058837891e-01 -3.857634216547012329e-02 -1.959704607725143433e-01
3.198899328708648682e-02 7.875733077526092529e-03 -5.271606445312500000e-01
-2.802228182554244995e-02 -1.986689865589141846e-03 -4.068722128868103027e-01
3.173917531967163086e-01 -5.993159115314483643e-02 -1.008396893739700317e-01
5.805402994155883789e-02 -8.184041827917098999e-03 -3.010633587837219238e-01
7.405740022659301758e-02 -1.669874787330627441e-02 -2.334150224924087524e-01
2.136338204145431519e-01 -2.947184070944786072e-02 -8.451701700687408447e-02
6.464321166276931763e-02 -1.170046068727970123e-02 -2.720544040203094482e-01
1.561051011085510254e-01 -6.154397130012512207e-02 -2.276882529258728027e-01
2.530494332313537598e-01 -5.769699811935424805e-02 6.925714015960693359e-02
-5.619163066148757935e-02 -9.847979992628097534e-03 -3.772507309913635254e-01
-1.765339076519012451e-01 -1.522911339998245239e-02 -5.239714384078979492e-01
2.946284711360931396e-01 -7.842361927032470703e-02 1.157996058464050293e-02
-8.621435612440109253e-02 -3.714449703693389893e-04 -4.727753996849060059e-01
2.843708544969558716e-02 -1.309944503009319305e-02 -2.868226170539855957e-01
2.288490533828735352e-01 -4.080704972147941589e-02 -1.468688249588012695e-02
2.630140483379364014e-01 -3.532015159726142883e-02 -2.645254433155059814e-01
2.869832217693328857e-01 -3.105777129530906677e-02 -5.977340042591094971e-02
-5.798932164907455444e-02 -3.236650675535202026e-02 -2.722123265266418457e-01
-9.436561912298202515e-02 -4.416930675506591797e-02 -4.129213988780975342e-01
1.319249719381332397e-01 -7.785342633724212646e-02 -6.300239264965057373e-02
4.717256128787994385e-02 -4.429414495825767517e-02 -1.236875057220458984e-01
-4.301699250936508179e-02 -5.217134952545166016e-02 -3.566955029964447021e-01
-6.894149631261825562e-02 -5.311587080359458923e-02 -3.139775991439819336e-01
4.406560212373733521e-02 -4.308247193694114685e-02 -4.038232564926147461e-01
-9.192179888486862183e-02 6.096810102462768555e-03 -6.289918422698974609e-01
3.670786023139953613e-01 -6.222469359636306763e-02 -2.259436249732971191e-02
2.630126178264617920e-01 -2.846494689583778381e-02 -7.968461513519287109e-02
3.653926551342010498e-01 -5.980991944670677185e-02 -3.793425858020782471e-02
-1.190171316266059875e-01 -4.233213514089584351e-02 -3.789116144180297852e-01
1.762863397598266602e-01 -3.171823918819427490e-02 -8.738474547863006592e-02
6.701149046421051025e-02 4.329003393650054932e-03 -5.133944749832153320e-01
7.670438289642333984e-02 3.982685506343841553e-03 -4.133821129798889160e-01
1.761577576398849487e-01 -5.325140431523323059e-02 -2.661415338516235352e-01
2.815932631492614746e-01 -2.265363000333309174e-02 -2.547307610511779785e-01
-3.897411376237869263e-02 -4.937143251299858093e-02 -3.831526041030883789e-01
1.426912248134613037e-01 -4.681516438722610474e-03 -2.997674942016601562e-01
3.936979174613952637e-01 -6.934912502765655518e-02 9.453463554382324219e-02
2.075371891260147095e-02 -8.271262049674987793e-05 -5.684052705764770508e-01
1.742513775825500488e-01 -2.539437636733055115e-02 -1.255187094211578369e-01
2.558405995368957520e-01 -6.847660243511199951e-02 -1.080292314291000366e-01
3.887777775526046753e-02 -6.687124818563461304e-02 -2.133120596408843994e-01
3.203372955322265625e-01 -3.631854429841041565e-02 -2.416992187500000000e-02
1.767754405736923218e-01 -5.904516577720642090e-02 -2.309553921222686768e-01
8.832400292158126831e-02 -1.878299750387668610e-02 -2.116179466247558594e-01
-1.232973709702491760e-01 6.124664098024368286e-03 -6.180896162986755371e-01
1.852857768535614014e-01 -5.678774043917655945e-02 2.650982141494750977e-02
1.977081596851348877e-01 -1.343002170324325562e-02 -2.082944512367248535e-01
6.262646615505218506e-02 -5.936346948146820068e-03 -5.295697450637817383e-01
2.815156579017639160e-01 -7.262942194938659668e-02 -5.416125059127807617e-02
2.379416823387145996e-01 -1.194752007722854614e-02 -3.030830919742584229e-01
-3.268910199403762817e-02 -5.872212350368499756e-04 -4.217782318592071533e-01
2.150753438472747803e-01 -7.393683493137359619e-02 -9.460407495498657227e-02
1.332628726959228516e-01 -4.635317251086235046e-02 -3.340610265731811523e-01
8.428570628166198730e-02 -7.334615290164947510e-02 -7.296188175678253174e-02
1.301143467426300049e-01 -1.164174638688564301e-02 -2.396172881126403809e-01
3.559090495109558105e-01 -3.624814376235008240e-02 -5.179046094417572021e-02
7.630537450313568115e-02 -7.335190474987030029e-02 -1.082873344421386719e-01
1.958663463592529297e-01 -8.135371655225753784e-02 2.994787693023681641e-02
-2.956549078226089478e-02 5.355034023523330688e-03 -6.017884016036987305e-01
-3.911081701517105103e-02 -6.414664909243583679e-03 -3.838946819305419922e-01
1.228090152144432068e-01 1.963045448064804077e-03 -4.363657236099243164e-01
1.021941006183624268e-02 -6.255039945244789124e-03 -3.461011648178100586e-01
2.924381941556930542e-02 -5.544144660234451294e-02 -3.270866870880126953e-01
9.407489001750946045e-02 -1.765656284987926483e-02 -4.797642827033996582e-01
1.645509451627731323e-01 -4.125434905290603638e-02 -3.361854553222656250e-01
2.549898922443389893e-01 -7.420944422483444214e-02 -6.367702782154083252e-02
3.138823062181472778e-02 -6.831812858581542969e-02 -1.491939276456832886e-01
-1.577002406120300293e-01 -1.064114272594451904e-03 -5.711189508438110352e-01
2.089969068765640259e-01 -7.116303592920303345e-02 -1.224856078624725342e-01
3.521486520767211914e-01 -6.096546724438667297e-02 -5.151811242103576660e-02
-1.078211590647697449e-01 -3.356625139713287354e-02 -3.358560800552368164e-01
1.382423937320709229e-01 -6.207032501697540283e-02 -2.341735661029815674e-01
-1.080064103007316589e-01 -3.272071480751037598e-04 -4.976663589477539062e-01
1.280070841312408447e-01 -6.804112344980239868e-02 -1.917434185743331909e-01
4.528430849313735962e-02 -2.402944862842559814e-02 -2.114367038011550903e-01
2.794836759567260742e-01 -8.266505599021911621e-02 8.973270654678344727e-02
1.385930180549621582e-01 -5.884351581335067749e-02 -2.707436680793762207e-03
1.952568590641021729e-01 -7.453426718711853027e-03 -2.755678594112396240e-01
3.875601291656494141e-01 -5.007407441735267639e-02 -2.783264219760894775e-02
-1.297838091850280762e-01 -5.620662122964859009e-03 -4.866894483566284180e-01
1.137131750583648682e-01 -7.570117712020874023e-02 -3.803609311580657959e-02
2.437688112258911133e-01 -6.395883858203887939e-02 8.342736959457397461e-02
3.285063505172729492e-01 -4.138845577836036682e-02 -1.617075502872467041e-01
-3.189934045076370239e-02 9.810972958803176880e-03 -5.534880161285400391e-01
2.280604243278503418e-01 -5.350591242313385010e-02 4.118615388870239258e-02
2.000290900468826294e-01 -5.726898461580276489e-02 3.770408034324645996e-02
1.072909608483314514e-01 -5.180249363183975220e-02 -4.749307036399841309e-02
3.199085891246795654e-01 -4.488377273082733154e-02 3.180608153343200684e-02
2.395360171794891357e-01 -6.931754946708679199e-02 -1.150659769773483276e-01
2.100137472152709961e-01 -3.281268477439880371e-02 -6.590339541435241699e-02
2.366031408309936523e-01 -1.120754145085811615e-02 -2.569668591022491455e-01
-8.677212148904800415e-02 -4.795640334486961365e-02 -2.988388538360595703e-01
-8.288994431495666504e-03 -2.532845735549926758e-02 -5.188988447189331055e-01
1.491398662328720093e-01 -2.707397565245628357e-02 -4.049081504344940186e-01
1.334872245788574219e-01 -5.879066511988639832e-02 -2.596680521965026855e-01
2.209215760231018066e-01 -4.080257564783096313e-02 -2.892877459526062012e-01
9.682598710060119629e-02 -6.705169379711151123e-02 -2.111478745937347412e-01
1.271069347858428955e-01 -6.203431636095046997e-02 -2.402619272470474243e-01
7.258574664592742920e-02 -7.269385457038879395e-02 -9.519283473491668701e-02
-2.614886313676834106e-02 -5.584409832954406738e-02 -1.929983198642730713e-01
1.064455658197402954e-01 -6.123877316713333130e-02 -2.560232579708099365e-01
2.041698992252349854e-01 -4.735662415623664856e-02 3.560364246368408203e-03
1.325835585594177246e-01 1.012720167636871338e-04 -3.629672825336456299e-01
3.208662867546081543e-01 -6.516349315643310547e-02 -6.649208068847656250e-02
3.003408014774322510e-01 -2.430554479360580444e-02 -2.188591808080673218e-01
2.225995361804962158e-01 -1.426807232201099396e-02 -3.443337976932525635e-01
2.685891687870025635e-01 -1.670289225876331329e-02 -2.017305344343185425e-01
-1.119094565510749817e-01 2.879351377487182617e-03 -5.312269330024719238e-01
-1.630152016878128052e-02 -2.259593456983566284e-03 -3.956060409545898438e-01
1.334192156791687012e-01 -3.235982730984687805e-02 -1.078598201274871826e-01
-6.563857197761535645e-03 -2.059645950794219971e-03 -5.873430967330932617e-01
5.491003021597862244e-02 -7.082088291645050049e-02 -1.525283604860305786e-01
-6.148282438516616821e-02 -2.651479654014110565e-02 -2.980733811855316162e-01
3.641232252120971680e-01 -7.408332079648971558e-02 1.355650126934051514e-01
-5.314480513334274292e-02 5.324419587850570679e-03 -6.160457134246826172e-01
1.192949265241622925e-01 -3.157227486371994019e-02 -1.207335144281387329e-01
1.011934131383895874e-01 -7.468771934509277344e-02 -1.158940792083740234e-01
-1.917555928230285645e-03 -6.409108638763427734e-02 -2.123209238052368164e-01
3.492998778820037842e-01 -4.395693913102149963e-02 -1.220686584711074829e-01
1.790830641984939575e-01 -5.589284747838973999e-02 -2.487020343542098999e-01
-2.490263432264328003e-02 -5.239485204219818115e-02 -3.578106760978698730e-01
7.896929979324340820e-03 -2.620647102594375610e-02 -2.311672121286392212e-01
2.574818432331085205e-01 -1.409174315631389618e-02 -2.582147419452667236e-01
-1.324470937252044678e-01 -2.721175551414489746e-04 -5.309176445007324219e-01
1.447352468967437744e-01 -3.888132795691490173e-02 -6.922690570354461670e-02
3.753659129142761230e-01 -4.179652035236358643e-02 -5.658222734928131104e-02
3.281183838844299316e-01 -3.026544302701950073e-02 -8.376222848892211914e-02
-1.378121376037597656e-01 3.471050411462783813e-03 -5.811907649040222168e-01
6.903168559074401855e-02 2.254266291856765747e-03 -3.906807601451873779e-01
1.217435523867607117e-01 -2.096229046583175659e-02 -1.788676381111145020e-01
1.913887858390808105e-01 -5.422968417406082153e-03 -3.609340488910675049e-01
2.027036249637603760e-02 4.503186792135238647e-03 -4.352004230022430420e-01
1.110696718096733093e-01 -6.436904519796371460e-02 -2.295934855937957764e-01
3.389350473880767822e-01 -6.410868465900421143e-02 -5.126963555812835693e-02
-5.482407659292221069e-02 8.801940828561782837e-03 -6.009519100189208984e-01
1.136411130428314209e-01 2.978697419166564941e-03 -4.154202938079833984e-01
-2.848640829324722290e-02 -1.052058488130569458e-02 -5.833212137222290039e-01
-1.434476077556610107e-01 -3.292441740632057190e-02 -4.794983267784118652e-01
6.315873563289642334e-02 -4.694443941116333008e-02 -1.006486117839813232e-01
1.595783233642578125e-01 -2.983685582876205444e-03 -3.247505426406860352e-01
