-8.387088775634765625e-01 8.681845664978027344e-02 -1.837511658668518066e-01
-8.312159776687622070e-01 7.239378243684768677e-02 -2.454793453216552734e-01
-8.894243836402893066e-01 8.580151200294494629e-02 1.211185231804847717e-01
-8.365957140922546387e-01 8.446211367845535278e-02 1.371740698814392090e-01
-8.534171581268310547e-01 7.221382111310958862e-02 1.841311454772949219e-01
-8.231464028358459473e-01 7.006480544805526733e-02 -1.432417482137680054e-01
-8.569119572639465332e-01 7.271979749202728271e-02 -2.246705293655395508e-01
-8.155177831649780273e-01 7.403160631656646729e-02 -2.634167075157165527e-01
-8.535484671592712402e-01 7.014249265193939209e-02 2.759274095296859741e-02
-8.158676028251647949e-01 6.892169266939163208e-02 -7.480684667825698853e-03
-9.040406942367553711e-01 7.776280492544174194e-02 3.407301753759384155e-02
-8.998494744300842285e-01 8.384722471237182617e-02 -2.899638712406158447e-01
-8.595905900001525879e-01 8.494795858860015869e-02 1.683796048164367676e-01
-8.187870383262634277e-01 6.887617707252502441e-02 2.199321240186691284e-02
-9.135053753852844238e-01 8.314268290996551514e-02 -1.915672123432159424e-01
-8.566059470176696777e-01 8.851280808448791504e-02 -1.495421081781387329e-01
-8.573578596115112305e-01 8.866849541664123535e-02 -9.626378118991851807e-02
-9.064337611198425293e-01 8.662024885416030884e-02 -2.184653580188751221e-01
-9.174978733062744141e-01 8.452555537223815918e-02 -9.350217878818511963e-02
-8.950114846229553223e-01 8.854381740093231201e-02 -2.213441021740436554e-02
-8.607400059700012207e-01 8.840593695640563965e-02 -1.952953636646270752e-01
-8.920353651046752930e-01 8.909372240304946899e-02 -1.425376385450363159e-01
-8.305174708366394043e-01 8.633884042501449585e-02 -1.240803450345993042e-01
-7.997687458992004395e-01 6.974878907203674316e-02 6.104081869125366211e-03
-8.768975734710693359e-01 7.329953461885452271e-02 -1.520900428295135498e-01
-8.416452407836914062e-01 6.955765187740325928e-02 -6.016143038868904114e-02
-8.824716210365295410e-01 8.437070995569229126e-02 1.691389083862304688e-01
-8.033037781715393066e-01 8.083027601242065430e-02 -1.846621930599212646e-01
-8.415558338165283203e-01 8.582979440689086914e-02 -2.626646459102630615e-01
-8.327760100364685059e-01 8.252182602882385254e-02 1.875533163547515869e-01
-8.786823749542236328e-01 8.139382302761077881e-02 -3.490291833877563477e-01
-8.603898286819458008e-01 8.862434327602386475e-02 -3.723948448896408081e-02
-8.857198357582092285e-01 8.487784862518310547e-02 -3.254972994327545166e-01
-8.508474826812744141e-01 8.758699893951416016e-02 -2.116508185863494873e-01
-8.359236121177673340e-01 7.187199592590332031e-02 -2.269063591957092285e-01
-8.253206014633178711e-01 8.478446304798126221e-02 -2.109545767307281494e-01
-9.053399562835693359e-01 7.749333977699279785e-02 -3.558713942766189575e-02
-8.841382861137390137e-01 8.920548111200332642e-02 -5.937444046139717102e-02
-8.600870966911315918e-01 7.127975672483444214e-02 1.043047085404396057e-01
-8.513593673706054688e-01 8.100877702236175537e-02 -3.635669648647308350e-01
-8.221645355224609375e-01 8.537968993186950684e-02 -8.200538158416748047e-02
-8.933285474777221680e-01 7.491737604141235352e-02 -5.745672434568405151e-02
-8.770552873611450195e-01 8.594506233930587769e-02 1.379749476909637451e-01
-8.703019618988037109e-01 7.162568718194961548e-02 -1.716945320367813110e-02
-8.802968263626098633e-01 8.930234611034393311e-02 -7.651584595441818237e-02
-9.096493721008300781e-01 8.047653734683990479e-02 5.133739858865737915e-02
-8.360750675201416016e-01 6.913653016090393066e-02 1.372674107551574707e-02
-8.722774982452392578e-01 7.188706099987030029e-02 1.251003891229629517e-02
-8.931304216384887695e-01 7.548961043357849121e-02 6.117232888936996460e-02
-9.075660705566406250e-01 7.866210490465164185e-02 -1.356109678745269775e-01
-8.254566788673400879e-01 7.187077403068542480e-02 2.105764150619506836e-01
-7.866952419281005859e-01 7.453806698322296143e-02 6.258001178503036499e-02
-7.985332012176513672e-01 8.111322671175003052e-02 -6.195734441280364990e-02
-7.960620522499084473e-01 7.166573405265808105e-02 -1.236812695860862732e-01
-7.867121696472167969e-01 7.272595912218093872e-02 -4.624734446406364441e-02
-8.691486120223999023e-01 8.153405785560607910e-02 2.295906245708465576e-01
-8.812379837036132812e-01 8.773664385080337524e-02 6.427468359470367432e-02
-8.531093597412109375e-01 7.006485015153884888e-02 -1.577321439981460571e-03
-8.796811699867248535e-01 8.356028795242309570e-02 1.884827315807342529e-01
-7.897617220878601074e-01 7.212392985820770264e-02 -7.753534615039825439e-02
-8.398042321205139160e-01 8.736478537321090698e-02 -1.034236252307891846e-01
-8.174335956573486328e-01 8.298676460981369019e-02 1.015528962016105652e-01
-8.434054255485534668e-01 6.976254284381866455e-02 -7.831484079360961914e-02
-8.386195302009582520e-01 8.717948943376541138e-02 -4.996132850646972656e-02
-8.300154805183410645e-01 8.515726029872894287e-02 7.058255374431610107e-02
-9.059259891510009766e-01 8.540569990873336792e-02 -2.472610175609588623e-01
-9.002953767776489258e-01 7.646940648555755615e-02 -9.729052335023880005e-02
-8.161576986312866211e-01 7.222661375999450684e-02 -2.236726880073547363e-01
-8.748570680618286133e-01 7.265640795230865479e-02 7.777301222085952759e-02
-9.113487005233764648e-01 8.710157126188278198e-02 -7.771543413400650024e-02
-7.997554540634155273e-01 7.052017748355865479e-02 1.019085869193077087e-01
-8.815145492553710938e-01 8.684645593166351318e-02 1.027328297495841980e-01
-8.668243288993835449e-01 8.842114359140396118e-02 -2.174950838088989258e-01
-8.765884041786193848e-01 7.240790128707885742e-02 -4.851124435663223267e-02
-7.974689006805419922e-01 7.667057961225509644e-02 1.504064798355102539e-01
-8.246549367904663086e-01 8.266209065914154053e-02 1.545296013355255127e-01
-8.456628322601318359e-01 7.826257497072219849e-02 2.636919021606445312e-01
-8.120858669281005859e-01 6.972613930702209473e-02 -1.022697240114212036e-01
-8.079178333282470703e-01 7.408088445663452148e-02 -2.412757575511932373e-01
-8.514231443405151367e-01 8.806321024894714355e-02 -1.678395271301269531e-01
-8.148234486579895020e-01 7.839624583721160889e-02 -2.927504777908325195e-01
-8.612431883811950684e-01 7.086466997861862183e-02 -6.225255504250526428e-02
-8.230899572372436523e-01 8.529174327850341797e-02 -1.484506577253341675e-02
-8.028585314750671387e-01 7.255315780639648438e-02 1.758638024330139160e-01
-8.280183076858520508e-01 6.983703374862670898e-02 1.336714327335357666e-01
-8.546296954154968262e-01 7.369276881217956543e-02 -2.659183144569396973e-01
-8.906754851341247559e-01 7.575809955596923828e-02 -1.825180351734161377e-01
-8.844745755195617676e-01 7.566092163324356079e-02 -2.239659428596496582e-01
-7.916246056556701660e-01 7.857818156480789185e-02 -1.068474724888801575e-01
-8.927887082099914551e-01 8.671106398105621338e-02 8.367825299501419067e-02
7.431943714618682861e-02 -8.143956214189529419e-02 -7.766586542129516602e-02
1.286752372980117798e-01 -1.083863973617553711e-01 -5.182660371065139771e-02
2.339179217815399170e-01 -8.354569971561431885e-02 -8.587056398391723633e-02
1.817449927330017090e-03 -1.077296137809753418e-01 -7.188432663679122925e-02
1.148226112127304077e-02 -1.012240573763847351e-01 -9.068454056978225708e-02
2.557429373264312744e-01 -8.756465464830398560e-02 -7.887703925371170044e-02
1.794490069150924683e-01 -9.621381014585494995e-02 -9.482228755950927734e-02
2.169193029403686523e-01 -1.037909835577011108e-01 -5.477176606655120850e-02
2.237723171710968018e-01 -9.917167574167251587e-02 -8.643129467964172363e-02
1.548843085765838623e-01 -1.044874042272567749e-01 -5.158372968435287476e-02
1.431978493928909302e-01 -8.456991612911224365e-02 -6.826284527778625488e-02
1.959311962127685547e-01 -1.055614426732063293e-01 -5.292683839797973633e-02
2.339317649602890015e-01 -1.035406291484832764e-01 -5.718740448355674744e-02
9.515069425106048584e-03 -8.809252083301544189e-02 -7.607360184192657471e-02
9.924352169036865234e-02 -8.586743474006652832e-02 -6.785447895526885986e-02
1.596605926752090454e-01 -7.732537388801574707e-02 -8.988064527511596680e-02
2.687307596206665039e-01 -9.511435776948928833e-02 -7.068690657615661621e-02
2.174587845802307129e-01 -8.119186013936996460e-02 -8.386990427970886230e-02
4.297041147947311401e-02 -8.580968528985977173e-02 -7.350239902734756470e-02
1.220800429582595825e-01 -8.455813676118850708e-02 -6.873414665460586548e-02
2.274155765771865845e-01 -8.974091708660125732e-02 -6.513714045286178589e-02
7.077806442975997925e-02 -1.053083315491676331e-01 -8.946379274129867554e-02
9.166553616523742676e-02 -9.282792359590530396e-02 -1.013900637626647949e-01
1.458565443754196167e-01 -9.422872960567474365e-02 -9.879820793867111206e-02
9.312760829925537109e-02 -7.718868553638458252e-02 -9.043150395154953003e-02
1.612210124731063843e-01 -1.141909658908843994e-01 -6.489718705415725708e-02
1.216437667608261108e-01 -1.128441691398620605e-01 -7.494333386421203613e-02
1.260109990835189819e-01 -7.739224284887313843e-02 -8.554285019636154175e-02
2.833177894353866577e-02 -1.104255095124244690e-01 -7.512807846069335938e-02
4.599253833293914795e-02 -1.048443764448165894e-01 -8.909393846988677979e-02
5.300040543079376221e-02 -8.305308222770690918e-02 -1.017298251390457153e-01
1.565044373273849487e-01 -1.045701056718826294e-01 -8.810918033123016357e-02
9.697979688644409180e-02 -1.083344221115112305e-01 -8.502583950757980347e-02
5.165765434503555298e-02 -9.499903023242950439e-02 -6.170938909053802490e-02
3.843884915113449097e-02 -8.020060509443283081e-02 -8.963915705680847168e-02
1.841593235731124878e-01 -1.106853783130645752e-01 -7.426960766315460205e-02
7.428763806819915771e-02 -9.064225107431411743e-02 -6.367031484842300415e-02
1.648001968860626221e-01 -8.982387930154800415e-02 -6.130671501159667969e-02
-2.343803644180297852e-02 -9.571085870265960693e-02 -8.810798078775405884e-02
-1.923098415136337280e-02 -2.360618859529495239e-02 -3.126184642314910889e-01
2.072881311178207397e-01 -9.424274787306785583e-03 -2.639189362525939941e-01
5.774277448654174805e-02 -3.817532956600189209e-02 -3.487817347049713135e-01
7.294990122318267822e-02 -4.738824814558029175e-02 -1.577562093734741211e-01
5.452406406402587891e-02 -5.581602081656455994e-02 -2.918192148208618164e-01
1.894380748271942139e-01 -1.345892995595932007e-02 -1.720631122589111328e-01
1.205028593540191650e-02 -5.213813483715057373e-02 -1.927785873413085938e-01
-2.452902495861053467e-03 -1.204081065952777863e-02 -2.403277158737182617e-01
2.011514455080032349e-02 -5.746957659721374512e-02 -2.506141364574432373e-01
-2.045615762472152710e-02 -5.244456231594085693e-02 -2.318134009838104248e-01
1.595240235328674316e-01 -2.681063488125801086e-03 -2.242905795574188232e-01
6.401401758193969727e-02 -4.992473870515823364e-03 -2.822079360485076904e-01
1.432399451732635498e-01 -1.320315338671207428e-02 -1.561257541179656982e-01
7.739847898483276367e-02 -1.256958022713661194e-02 -1.623035073280334473e-01
-4.508568346500396729e-02 -4.023317992687225342e-02 -2.940390706062316895e-01
1.809435188770294189e-01 -4.395325854420661926e-02 -2.890204191207885742e-01
-2.315200865268707275e-03 -4.171581938862800598e-02 -1.707611680030822754e-01
2.639979124069213867e-02 -5.153954774141311646e-02 -1.825592666864395142e-01
4.778017848730087280e-02 -5.835210531949996948e-02 -2.570948600769042969e-01
1.361424028873443604e-01 -3.365535661578178406e-02 -3.418014943599700928e-01
9.705168008804321289e-02 -5.336795374751091003e-02 -1.842038482427597046e-01
6.582105904817581177e-02 -2.052049338817596436e-02 -3.456632792949676514e-01
2.358624190092086792e-01 -1.845447719097137451e-02 -2.400525957345962524e-01
1.519278734922409058e-01 -4.474123939871788025e-02 -1.655828654766082764e-01
1.276508867740631104e-01 -4.298305138945579529e-03 -2.903611660003662109e-01
1.828216016292572021e-01 -4.016493633389472961e-02 -1.706050634384155273e-01
4.081264883279800415e-02 -7.140282541513442993e-03 -2.835383713245391846e-01
1.935365796089172363e-01 -4.592651873826980591e-02 -2.310272008180618286e-01
1.491837054491043091e-01 -5.230565369129180908e-02 -2.661153972148895264e-01
8.510060608386993408e-03 -2.261402085423469543e-02 -1.692053675651550293e-01
1.903848350048065186e-01 -4.552368447184562683e-02 -2.095989435911178589e-01
1.810497045516967773e-01 -1.758494786918163300e-02 -3.173233866691589355e-01
1.994625478982925415e-01 -1.464959233999252319e-02 -2.973989546298980713e-01
2.115936577320098877e-01 -3.250262141227722168e-02 -2.909728884696960449e-01
2.385727465152740479e-01 -2.379844523966312408e-02 -2.238450199365615845e-01
-3.025249391794204712e-02 -1.850679516792297363e-02 -2.507830560207366943e-01
2.099713981151580811e-01 -3.938032686710357666e-02 -2.011426389217376709e-01
1.472513079643249512e-01 -1.807011663913726807e-03 -2.467089891433715820e-01
9.858618676662445068e-02 -4.883658140897750854e-02 -3.214762508869171143e-01
1.715079993009567261e-01 -3.685498610138893127e-03 -2.578631043434143066e-01
3.477894514799118042e-02 -4.214630275964736938e-02 -1.539092361927032471e-01
4.749573022127151489e-02 -2.596309408545494080e-02 -1.451701223850250244e-01
1.095738932490348816e-01 -3.669419139623641968e-02 -1.379840075969696045e-01
-9.986899793148040771e-03 -3.229703381657600403e-02 -3.312094211578369141e-01
2.019189596176147461e-01 -3.474255651235580444e-02 -1.730048954486846924e-01
1.348268240690231323e-01 -4.974501579999923706e-02 -3.010219633579254150e-01
-5.747912824153900146e-02 -3.799631074070930481e-02 -2.616253495216369629e-01
1.594256460666656494e-01 -6.144545972347259521e-03 -1.884909719228744507e-01
1.689980477094650269e-01 -1.964507624506950378e-02 -1.501957327127456665e-01
1.727912724018096924e-01 -4.953432083129882812e-02 -2.536933124065399170e-01
2.929873391985893250e-02 -3.246159851551055908e-02 -3.475996851921081543e-01
1.794251054525375366e-02 -1.037144847214221954e-02 -2.871520221233367920e-01
3.574519604444503784e-02 -6.247885525226593018e-03 -2.391606271266937256e-01
1.048901379108428955e-01 -2.018505707383155823e-03 -2.230409383773803711e-01
1.567586362361907959e-01 -3.211228176951408386e-02 -3.346283435821533203e-01
-5.206602811813354492e-02 -3.146209567785263062e-02 -2.804258763790130615e-01
-4.299747943878173828e-02 -2.347545512020587921e-02 -2.668791115283966064e-01
3.944744542241096497e-02 -5.809685587882995605e-02 -2.326218336820602417e-01
8.683219552040100098e-02 -4.683000966906547546e-03 -1.995223015546798706e-01
-3.959922492504119873e-02 -3.917604312300682068e-02 -2.023892700672149658e-01
8.312760293483734131e-02 -9.722057729959487915e-03 -3.193157911300659180e-01
7.975371181964874268e-02 -5.040612816810607910e-02 -3.195233345031738281e-01
2.116792201995849609e-01 -1.528242230415344238e-02 -1.851831972599029541e-01
5.207569524645805359e-02 -1.506422273814678192e-02 -3.310158252716064453e-01
-2.573380619287490845e-02 -4.346818849444389343e-02 -1.929500997066497803e-01
1.809606254100799561e-01 -3.290028870105743408e-02 -1.544414609670639038e-01
3.488967195153236389e-02 -5.758522078394889832e-02 -2.682274878025054932e-01
8.847817033529281616e-02 -2.535484731197357178e-03 -2.659710049629211426e-01
1.413409262895584106e-01 -1.249633170664310455e-02 -3.240229487419128418e-01
-1.432586461305618286e-02 -1.750859431922435760e-02 -2.940747141838073730e-01
1.221119314432144165e-01 -1.482222788035869598e-02 -1.502982079982757568e-01
-3.587502241134643555e-02 -4.969314485788345337e-02 -2.602711021900177002e-01
3.080803900957107544e-02 -1.565673388540744781e-02 -3.246639966964721680e-01
1.204171553254127502e-01 -5.303671956062316895e-02 -2.901473641395568848e-01
5.153640732169151306e-02 -4.924736917018890381e-02 -1.662739217281341553e-01
1.109704375267028809e-02 -1.129393093287944794e-02 -2.151680290699005127e-01
9.111117571592330933e-02 -4.648081213235855103e-02 -1.550265848636627197e-01
1.417375206947326660e-01 -8.090103045105934143e-03 -1.736681014299392700e-01
4.741445556282997131e-02 -1.138874143362045288e-02 -1.797051727771759033e-01
1.156383156776428223e-01 -5.619203299283981323e-02 -2.237813472747802734e-01
8.975411951541900635e-02 -3.792316466569900513e-02 -3.480846285820007324e-01
1.162220314145088196e-01 -6.088333204388618469e-03 -3.034014105796813965e-01
2.073476016521453857e-01 -4.222010448575019836e-02 -2.472258359193801880e-01
1.669067293405532837e-01 -5.022309720516204834e-03 -2.784108221530914307e-01
1.547402143478393555e-01 -3.610307350754737854e-02 -1.465766280889511108e-01
1.329894065856933594e-01 -5.245956033468246460e-02 -1.947011351585388184e-01
1.386188864707946777e-01 -3.005530685186386108e-03 -2.758232355117797852e-01
7.991521805524826050e-02 -5.569672957062721252e-02 -1.973675787448883057e-01
9.499662369489669800e-02 -1.780027523636817932e-03 -2.474472373723983765e-01
6.971669942140579224e-02 -7.435046136379241943e-03 -3.046340644359588623e-01
1.320331692695617676e-01 -2.324209548532962799e-02 -1.382229030132293701e-01
3.620648384094238281e-02 -5.574790760874748230e-02 -2.898369133472442627e-01
-8.739873766899108887e-03 -4.847151041030883789e-02 -1.918193101882934570e-01
1.085340827703475952e-01 -5.592242628335952759e-02 -2.714317142963409424e-01
1.543958783149719238e-01 -4.376444593071937561e-02 -3.134170770645141602e-01
3.189248591661453247e-02 -5.669737607240676880e-02 -2.145467996597290039e-01
1.530227661132812500e-01 -5.075309053063392639e-02 -1.991143971681594849e-01
1.760466843843460083e-01 -7.976494729518890381e-03 -1.860416978597640991e-01
6.756864488124847412e-03 -5.398089438676834106e-02 -2.896922230720520020e-01
2.190680801868438721e-01 -3.873076662421226501e-02 -2.289026379585266113e-01
1.452165096998214722e-02 -4.871397092938423157e-02 -3.196684122085571289e-01
1.225710734724998474e-01 -1.723119989037513733e-03 -2.613978385925292969e-01
1.652550697326660156e-01 -4.914377629756927490e-02 -2.748073339462280273e-01
5.318352580070495605e-02 -4.379956051707267761e-03 -2.528630197048187256e-01
2.924462780356407166e-02 -7.290342822670936584e-03 -2.665091454982757568e-01
6.389912962913513184e-02 -3.224664181470870972e-02 -1.384647190570831299e-01
8.327894657850265503e-02 -5.658726394176483154e-02 -2.797875702381134033e-01
5.069992691278457642e-02 -4.771923273801803589e-02 -3.300937116146087646e-01
1.053175702691078186e-01 -3.409700468182563782e-03 -2.836469113826751709e-01
2.344731986522674561e-01 -2.226062491536140442e-02 -2.597073912620544434e-01
7.577456533908843994e-02 -2.763919532299041748e-03 -2.375090420246124268e-01
-2.838832885026931763e-02 -3.821627050638198853e-02 -3.162955939769744873e-01
1.890185177326202393e-01 -6.718117743730545044e-03 -2.701565027236938477e-01
1.154333055019378662e-01 -4.986219853162765503e-02 -1.708938330411911011e-01
-4.079312086105346680e-03 -1.239776238799095154e-02 -2.638509571552276611e-01
1.677732914686203003e-02 -1.536649651825428009e-02 -1.844097673892974854e-01
1.006661057472229004e-01 -5.332533642649650574e-02 -2.990817725658416748e-01
1.061954051256179810e-01 -1.890812069177627563e-02 -3.437791466712951660e-01
3.485766425728797913e-02 -1.094829663634300232e-02 -3.069298565387725830e-01
2.243578433990478516e-01 -3.540534526109695435e-02 -2.124929428100585938e-01
7.073134183883666992e-03 -5.502972751855850220e-02 -2.168930768966674805e-01
8.404342830181121826e-02 -4.655318334698677063e-03 -2.898609042167663574e-01
1.429024487733840942e-01 -2.139341086149215698e-03 -2.210198640823364258e-01
1.233273744583129883e-01 -1.193187572062015533e-02 -3.264606595039367676e-01
8.308482915163040161e-02 -3.435343876481056213e-02 -1.364098042249679565e-01
1.420509666204452515e-01 -5.395185947418212891e-02 -2.508451640605926514e-01
-2.366508543491363525e-02 -2.673179283738136292e-02 -1.894865334033966064e-01
1.398308277130126953e-01 -5.213036388158798218e-02 -2.806286513805389404e-01
6.300933659076690674e-03 -3.897306695580482483e-02 -3.367901146411895752e-01
5.193754658102989197e-02 -5.617288500070571899e-02 -2.020874321460723877e-01
9.267914295196533203e-02 -9.746490046381950378e-03 -1.687364876270294189e-01
1.250660717487335205e-01 -1.927323639392852783e-03 -2.201367914676666260e-01
7.784928381443023682e-02 -5.833710730075836182e-02 -2.489648014307022095e-01
1.006906703114509583e-01 -1.965779997408390045e-02 -1.417826116085052490e-01
-5.202345550060272217e-02 -4.190672561526298523e-02 -2.339472323656082153e-01
-7.100412994623184204e-02 -1.319422870874404907e-01 5.342211574316024780e-02
1.563050895929336548e-01 -5.479942262172698975e-02 -3.841859847307205200e-02
1.070557311177253723e-01 -8.206991851329803467e-02 4.812887869775295258e-03
7.581698894500732422e-02 -8.663693070411682129e-02 -7.544599939137697220e-03
2.006430029869079590e-01 -4.935802519321441650e-02 -2.167485468089580536e-02
2.364234030246734619e-01 -3.986633569002151489e-02 -3.641812503337860107e-02
3.022957444190979004e-01 -1.394335180521011353e-02 -7.464958727359771729e-02
1.749511808156967163e-02 -1.052563861012458801e-01 3.793808445334434509e-02
1.992962956428527832e-01 -4.218074679374694824e-02 -5.301061272621154785e-02
1.237297207117080688e-01 -7.139377295970916748e-02 -2.472929656505584717e-02
1.524453014135360718e-01 -6.469535827636718750e-02 -3.835255280137062073e-03
-1.773444563150405884e-02 -1.126798987388610840e-01 3.959370404481887817e-02
3.580316901206970215e-03 -1.065838485956192017e-01 1.443870738148689270e-02
3.881007432937622070e-02 -9.696014225482940674e-02 2.865283563733100891e-02
2.509393393993377686e-01 -3.114468976855278015e-02 -4.502460360527038574e-02
2.453152835369110107e-02 -1.020208671689033508e-01 9.800024330615997314e-03
1.826338618993759155e-01 -5.802831798791885376e-02 -2.334420010447502136e-02
1.032071188092231750e-01 -7.805281132459640503e-02 -1.718087680637836456e-02
5.864568054676055908e-02 -9.265434741973876953e-02 2.586254850029945374e-02
4.728652536869049072e-02 -9.345296025276184082e-02 -1.443997025489807129e-03
-4.920748621225357056e-02 -1.236259266734123230e-01 3.772370517253875732e-02
8.451259136199951172e-02 -8.897542208433151245e-02 1.142860576510429382e-02
2.371149510145187378e-01 -3.341488912701606750e-02 -6.414423882961273193e-02
2.713803350925445557e-01 -2.822314202785491943e-02 -5.311067402362823486e-02
-3.307435661554336548e-02 -1.182166486978530884e-01 4.569154977798461914e-02
1.797694861888885498e-01 -5.062352120876312256e-02 -4.812882468104362488e-02
1.338209211826324463e-01 -7.373220473527908325e-02 -2.603242639452219009e-03
-3.128292784094810486e-02 6.557440757751464844e-02 -5.153599381446838379e-02
-1.524694561958312988e-01 9.579274058341979980e-02 -3.437985777854919434e-01
-3.648095428943634033e-01 8.942259103059768677e-02 -3.634461760520935059e-01
-1.385343819856643677e-01 9.369091689586639404e-02 -2.616008520126342773e-01
-3.283559679985046387e-01 1.173222437500953674e-01 -8.919479846954345703e-01
-4.667810201644897461e-01 9.987850487232208252e-02 -8.732106685638427734e-01
-2.516991794109344482e-01 8.592223376035690308e-02 -1.658141613006591797e-02
-2.582746744155883789e-01 1.215764731168746948e-01 -2.119506895542144775e-01
2.466736435890197754e-01 -9.858962893486022949e-02 -1.863239705562591553e-01
-3.659561276435852051e-03 -3.263678401708602905e-02 -1.639121770858764648e-01
2.807523310184478760e-02 -5.634780973196029663e-02 -1.119035243988037109e+00
9.223949909210205078e-02 -5.901280045509338379e-02 -1.373313367366790771e-01
-3.148713707923889160e-01 1.154329255223274231e-01 -8.701159954071044922e-01
-1.566085517406463623e-01 9.871555119752883911e-02 -1.080146431922912598e-01
-3.664043843746185303e-01 9.855457395315170288e-02 -3.034669756889343262e-01
3.094105124473571777e-01 -1.028559356927871704e-01 -1.259092688560485840e-01
7.858236134052276611e-02 1.584102027118206024e-02 -4.904986917972564697e-01
-9.756734222173690796e-02 8.279404789209365845e-02 -7.267355918884277344e-03
-2.015975862741470337e-02 -5.433271080255508423e-02 -1.083868741989135742e+00
-2.696928977966308594e-01 2.209868654608726501e-02 -1.292017221450805664e+00
1.016240566968917847e-01 -6.284023821353912354e-02 -1.542140841484069824e-01
-2.901721596717834473e-01 1.131028980016708374e-01 -8.069737553596496582e-01
2.368163168430328369e-01 -9.029290825128555298e-02 -7.401447296142578125e-01
-4.296542704105377197e-01 7.687370479106903076e-02 -1.052281856536865234e+00
-1.436241418123245239e-01 9.920833632349967957e-03 -2.216963171958923340e-01
-3.889277577400207520e-03 -5.025406926870346069e-02 -4.388093948364257812e-01
1.014387160539627075e-01 -6.920289248228073120e-02 -2.504851818084716797e-01
-9.758888185024261475e-02 2.087882906198501587e-02 4.038572311401367188e-02
-3.585926592350006104e-01 6.299762427806854248e-02 -6.298526525497436523e-01
8.925636112689971924e-02 -1.990999467670917511e-02 2.118854522705078125e-01
-4.480184912681579590e-01 1.290295571088790894e-01 -4.687778353691101074e-01
-9.670831263065338135e-02 2.619232982397079468e-04 -1.250852108001708984e+00
2.741776406764984131e-02 -6.891753524541854858e-02 -7.275300025939941406e-01
2.037155628204345703e-02 -5.639252066612243652e-02 -4.219925403594970703e-01
-1.384332627058029175e-01 -2.249928005039691925e-02 -1.186275124549865723e+00
3.080227077007293701e-01 -9.500411152839660645e-02 -2.795690298080444336e-02
-2.266719043254852295e-01 1.955445855855941772e-03 -9.015217423439025879e-01
2.400791049003601074e-01 -1.034434512257575989e-01 -3.085449337959289551e-01
-1.257289648056030273e-01 9.116121381521224976e-02 -9.755712747573852539e-02
-2.963760197162628174e-01 2.446544356644153595e-02 -9.822794198989868164e-01
-1.225594431161880493e-01 -2.655411325395107269e-02 -7.246309518814086914e-01
-2.735570445656776428e-02 6.441655755043029785e-02 -7.839179039001464844e-02
3.468624502420425415e-02 -7.037942111492156982e-02 -9.494915008544921875e-01
-7.179291546344757080e-02 -1.064264029264450073e-02 -1.672199666500091553e-01
-1.039327681064605713e-01 -3.650838881731033325e-02 -9.730173945426940918e-01
-1.246250495314598083e-01 8.334624022245407104e-02 -4.828188717365264893e-01
-2.494267672300338745e-01 1.158586144447326660e-01 -5.242720842361450195e-01
-4.127560257911682129e-01 1.435676664113998413e-01 -4.012850224971771240e-01
2.068217098712921143e-01 -1.912298984825611115e-02 -1.877726316452026367e-01
6.832703948020935059e-04 5.041876807808876038e-02 -3.300839662551879883e-01
2.144682407379150391e-01 -1.909063942730426788e-02 1.202987432479858398e-01
3.328288793563842773e-01 -8.671205490827560425e-02 -2.378868460655212402e-01
-3.609729409217834473e-01 1.113471165299415588e-01 -1.068064093589782715e+00
-3.490624427795410156e-01 5.720259994268417358e-02 -6.583179831504821777e-01
-2.506884336471557617e-01 1.193918138742446899e-01 -1.737175285816192627e-01
1.513810008764266968e-01 -9.436664730310440063e-02 -5.679926276206970215e-01
-2.041415274143218994e-01 -1.481115818023681641e-03 -1.244393825531005859e+00
1.735957860946655273e-01 -8.478417247533798218e-02 -2.096360623836517334e-01
-2.709951400756835938e-01 2.749990485608577728e-02 -6.414853334426879883e-01
-6.891635060310363770e-02 -4.380349069833755493e-02 -7.683514356613159180e-01
-3.130289614200592041e-01 6.303250044584274292e-02 -3.802283406257629395e-01
-4.935597479343414307e-01 1.133138909935951233e-01 -1.044090986251831055e+00
2.361380457878112793e-01 -1.001366078853607178e-01 -2.505361139774322510e-01
-3.629122301936149597e-02 3.468426316976547241e-02 -8.145455121994018555e-01
2.746986448764801025e-01 -1.010802909731864929e-01 -1.528391540050506592e-01
-1.160719096660614014e-01 -1.903608255088329315e-02 -5.039227604866027832e-01
7.632318139076232910e-02 -4.802080243825912476e-02 -1.060371160507202148e+00
-1.771844178438186646e-02 -5.671688169240951538e-02 -7.106509804725646973e-01
-1.976272612810134888e-01 3.478698432445526123e-03 -5.966644883155822754e-01
4.717382788658142090e-02 -6.879949569702148438e-02 -5.379045605659484863e-01
6.662313640117645264e-02 6.172120571136474609e-03 -6.954723596572875977e-01
-2.473437488079071045e-01 5.247750878334045410e-02 -2.045748233795166016e-01
1.526471823453903198e-01 -1.000508666038513184e-03 -2.735082209110260010e-01
1.767629086971282959e-01 -9.075547009706497192e-02 -3.058924674987792969e-01
-2.134913802146911621e-01 9.620021283626556396e-02 -7.419158220291137695e-01
-2.948800921440124512e-01 3.411115333437919617e-02 -6.871520280838012695e-01
-1.953633725643157959e-01 1.137986965477466583e-02 -4.481967985630035400e-01
-6.135594844818115234e-02 -4.799837619066238403e-02 -9.210592508316040039e-01
-3.513688966631889343e-02 2.793467603623867035e-02 -8.868823647499084473e-01
-3.710711374878883362e-02 -5.348334461450576782e-02 -8.108384609222412109e-01
-6.718093156814575195e-02 6.892600655555725098e-02 -4.100669026374816895e-01
-1.026675179600715637e-01 -3.557743132114410400e-02 -8.410228490829467773e-01
-3.186586797237396240e-01 1.253333985805511475e-01 -7.077944278717041016e-01
-9.704077988862991333e-02 -3.783388435840606689e-02 -1.044473886489868164e+00
-3.138493299484252930e-01 1.162486001849174500e-01 -8.533570170402526855e-01
2.447272837162017822e-01 -5.179262906312942505e-02 -4.616529643535614014e-01
-4.069423675537109375e-01 1.441556662321090698e-01 -6.798717379570007324e-01
-1.939391046762466431e-01 6.773784011602401733e-02 5.370324850082397461e-02
-1.319165080785751343e-01 8.885376900434494019e-02 -3.884292244911193848e-01
-1.175078600645065308e-01 -8.184177801012992859e-03 -3.357037305831909180e-01
-1.395592987537384033e-01 -1.712331734597682953e-02 -6.204761862754821777e-01
3.059670925140380859e-01 -1.099729016423225403e-01 -2.803896367549896240e-01
2.041686475276947021e-01 -1.029695495963096619e-01 -4.982181787490844727e-01
1.656967997550964355e-01 -7.154886424541473389e-02 -9.060416817665100098e-01
-7.998652011156082153e-02 -4.281717538833618164e-02 -8.980810046195983887e-01
-5.079717636108398438e-01 1.284932196140289307e-01 -8.757786750793457031e-01
-3.003987669944763184e-01 9.198236465454101562e-02 -1.200062036514282227e-01
-3.827267289161682129e-01 1.414495855569839478e-01 -6.338847279548645020e-01
-2.093408256769180298e-02 3.278033435344696045e-02 -7.702673077583312988e-01
-3.246480822563171387e-01 3.424942493438720703e-02 -1.149209022521972656e+00
9.930416941642761230e-03 -5.062196403741836548e-02 -3.701295852661132812e-01
-8.078794181346893311e-02 1.449617929756641388e-02 4.135733842849731445e-02
-3.977810218930244446e-02 -4.764337092638015747e-02 -6.179805397987365723e-01
-4.124491214752197266e-01 8.365038037300109863e-02 -6.822591423988342285e-01
-2.985159456729888916e-01 1.168996170163154602e-01 -7.777066826820373535e-01
-1.086577624082565308e-01 -1.304732821881771088e-02 -3.631684780120849609e-01
7.355415821075439453e-02 1.326030679047107697e-02 -5.621523261070251465e-01
-2.926473617553710938e-01 6.430903077125549316e-02 -1.294980645179748535e+00
-4.944682866334915161e-02 -5.094685405492782593e-02 -8.780363798141479492e-01
-3.089764416217803955e-01 1.156796291470527649e-01 -1.038492321968078613e-01
-4.454973042011260986e-01 8.742681890726089478e-02 -1.177207589149475098e+00
-4.624852836132049561e-01 1.045970544219017029e-01 -7.496330738067626953e-01
1.766518354415893555e-01 -3.124615177512168884e-03 6.850534677505493164e-02
1.400584578514099121e-01 -8.432774245738983154e-02 -9.258074760437011719e-01
-1.435576975345611572e-01 8.826833218336105347e-02 7.473486661911010742e-02
4.860781133174896240e-02 -6.668115407228469849e-02 -4.750315248966217041e-01
9.727703034877777100e-02 -4.725768417119979858e-02 1.638311147689819336e-02
1.301314383745193481e-01 -2.333375252783298492e-02 -7.327467203140258789e-01
2.735776603221893311e-01 -1.056043058633804321e-01 -2.405368387699127197e-01
2.719256281852722168e-02 4.791123420000076294e-02 2.209860086441040039e-02
1.283815205097198486e-01 7.331743836402893066e-05 -4.380436241626739502e-01
8.395791053771972656e-03 -3.031754866242408752e-03 1.498770713806152344e-01
-2.633600234985351562e-01 4.044820368289947510e-02 -4.015762209892272949e-01
-4.769335091114044189e-01 1.449933946132659912e-01 -8.677440881729125977e-01
8.291520178318023682e-03 3.414204344153404236e-02 -6.051456332206726074e-01
-1.364951729774475098e-01 9.397033601999282837e-02 -1.167556643486022949e-01
1.274224668741226196e-01 -9.037362784147262573e-02 -6.226580739021301270e-01
-3.623925149440765381e-01 1.030476614832878113e-01 -2.630395293235778809e-01
-8.656043559312820435e-02 3.578773885965347290e-02 -9.965106248855590820e-01
2.891676723957061768e-01 -5.347509682178497314e-02 -1.014966368675231934e-01
-4.030641317367553711e-01 1.105876788496971130e-01 -3.729519844055175781e-01
-2.600353956222534180e-01 1.099734157323837280e-01 -7.231414914131164551e-01
-2.287799268960952759e-01 9.053679555654525757e-02 -8.940964937210083008e-01
3.128559291362762451e-01 -1.066861972212791443e-01 -4.486969709396362305e-01
-2.037085592746734619e-01 1.037277206778526306e-01 -5.382835865020751953e-03
-4.385595023632049561e-01 1.490447670221328735e-01 -5.523116588592529297e-01
1.184997260570526123e-01 -6.105070561170578003e-02 -7.136222720146179199e-02
6.200274825096130371e-02 -7.294143736362457275e-02 -5.458006262779235840e-01
-3.625456392765045166e-01 1.019337475299835205e-01 -1.162380814552307129e+00
1.074625402688980103e-01 2.093058452010154724e-02 -9.787127375602722168e-02
2.497428357601165771e-01 -3.937660902738571167e-02 -2.294070422649383545e-01
1.018766164779663086e-01 -4.572440683841705322e-02 4.465395212173461914e-02
7.768124341964721680e-03 5.213027447462081909e-02 -1.951707899570465088e-01
-1.509402990341186523e-01 5.573796480894088745e-02 -1.018935441970825195e+00
-2.399728745222091675e-01 9.255250915884971619e-03 -8.034541606903076172e-01
2.387219965457916260e-01 -6.724132597446441650e-02 -6.385577321052551270e-01
-8.822561055421829224e-02 7.668970525264739990e-02 -3.715542554855346680e-01
-1.488500684499740601e-01 -1.741028763353824615e-02 -7.004564404487609863e-01
-1.380956321954727173e-01 3.653516620397567749e-02 3.378242254257202148e-02
2.586129903793334961e-01 -5.959440767765045166e-02 1.886395812034606934e-01
-1.040556207299232483e-01 7.237435132265090942e-02 1.571492552757263184e-01
-1.418896466493606567e-01 4.785138368606567383e-02 -1.065304994583129883e+00
2.624361515045166016e-01 -3.910085558891296387e-02 -2.884203195571899414e-02
4.650987684726715088e-02 -5.878344178199768066e-02 -3.288471698760986328e-01
-2.183005809783935547e-01 7.591526955366134644e-02 -1.032102465629577637e+00
2.297417819499969482e-01 -2.541126869618892670e-02 1.130064129829406738e-01
-2.004221826791763306e-01 -1.036684960126876831e-03 -1.262545228004455566e+00
-5.031621083617210388e-02 1.271173171699047089e-02 -1.076172351837158203e+00
-1.689932942390441895e-01 3.843932971358299255e-02 -1.211312532424926758e+00
-4.198886156082153320e-01 1.328314244747161865e-01 -9.525151252746582031e-01
3.054488301277160645e-01 -8.092183619737625122e-02 -4.001806378364562988e-01
-3.213510215282440186e-01 6.317711621522903442e-02 -1.327824592590332031e+00
-2.298396676778793335e-01 5.700396373867988586e-03 -1.240693807601928711e+00
-1.393552869558334351e-02 -5.897869914770126343e-02 -9.960071444511413574e-01
-3.035753220319747925e-02 3.824339061975479126e-02 -7.423787117004394531e-01
9.987343847751617432e-02 -4.527624696493148804e-02 -9.939528703689575195e-01
-9.184061735868453979e-02 8.108235895633697510e-02 -2.447525560855865479e-01
1.904599368572235107e-01 -9.728182107210159302e-03 -9.220027923583984375e-02
-2.137975692749023438e-01 2.848326414823532104e-02 -3.113142848014831543e-01
4.803024232387542725e-03 -5.147606134414672852e-05 -1.001651763916015625e+00
-2.660680115222930908e-01 1.026808470487594604e-01 -8.704184293746948242e-01
-2.053942382335662842e-01 9.534796327352523804e-02 -7.168183922767639160e-01
3.477902710437774658e-02 3.699663281440734863e-02 2.204709053039550781e-01
1.745963394641876221e-01 -7.138586789369583130e-02 -2.239227294921875000e-02
3.773138672113418579e-02 -7.017713040113449097e-02 -6.631672382354736328e-01
-5.106474161148071289e-01 1.321830898523330688e-01 -9.367449283599853516e-01
1.675731539726257324e-01 -6.605142354965209961e-02 1.736867427825927734e-02
5.754847824573516846e-02 3.012191876769065857e-02 -3.583660721778869629e-01
-1.560276448726654053e-01 9.884020686149597168e-02 -1.351750195026397705e-01
-3.844107389450073242e-01 1.369495838880538940e-01 -7.636184692382812500e-01
-9.939050674438476562e-02 8.255411684513092041e-02 -2.777019143104553223e-01
6.336683034896850586e-02 -7.226280122995376587e-02 -1.009531974792480469e+00
3.356865644454956055e-01 -1.021811962127685547e-01 -1.432541310787200928e-01
2.985923290252685547e-01 -1.022403538227081299e-01 -5.285540819168090820e-01
-5.996858328580856323e-02 5.813061445951461792e-02 -5.897289514541625977e-01
1.923932135105133057e-01 -7.662215083837509155e-02 -3.426545858383178711e-02
-1.306713819503784180e-01 1.755266822874546051e-02 -1.244835853576660156e+00
-1.650676131248474121e-01 7.077071815729141235e-02 -9.012147188186645508e-01
1.144407540559768677e-01 -7.674251496791839600e-02 -9.855753779411315918e-01
5.884310603141784668e-02 -7.402014732360839844e-02 -6.058644652366638184e-01
-2.661454379558563232e-01 4.932503402233123779e-02 -3.126439452171325684e-01
1.492919921875000000e-01 -4.757045954465866089e-02 -8.540383577346801758e-01
-4.135237336158752441e-01 1.151803582906723022e-01 -1.137101292610168457e+00
2.681453227996826172e-01 -1.095129027962684631e-01 -5.533742308616638184e-01
-2.486259117722511292e-02 1.861546188592910767e-04 -1.089703679084777832e+00
-3.162912130355834961e-01 1.284525543451309204e-01 -6.190372109413146973e-01
2.449541985988616943e-01 -5.929252505302429199e-02 -5.416499972343444824e-01
2.561959028244018555e-01 -4.331523925065994263e-02 1.824764013290405273e-01
4.386083781719207764e-02 4.288095235824584961e-02 2.292990684509277344e-04
-1.630377769470214844e-02 -3.817742317914962769e-02 -2.948944568634033203e-01
-3.074591606855392456e-02 5.295015126466751099e-02 -5.078337788581848145e-01
-1.253824234008789062e-01 -1.853778026998043060e-02 -5.528916716575622559e-01
-5.006645247340202332e-02 4.364447295665740967e-02 -7.617099881172180176e-01
-2.621004879474639893e-01 1.162640452384948730e-01 -5.994476675987243652e-01
-2.707676887512207031e-01 6.451918929815292358e-02 -1.259027242660522461e+00
2.643311023712158203e-02 4.821124672889709473e-02 -6.356126070022583008e-02
1.659998893737792969e-01 7.062535732984542847e-04 8.454710245132446289e-02
-1.874803006649017334e-01 -3.428846597671508789e-03 -6.690443754196166992e-01
-1.844738125801086426e-01 8.208803832530975342e-02 -8.297395706176757812e-01
-1.009917259216308594e-01 -1.430421508848667145e-02 -3.437815606594085693e-01
5.981913208961486816e-02 1.985377445816993713e-02 -5.384038090705871582e-01
-3.426305949687957764e-01 4.964222013950347900e-02 -7.491981983184814453e-01
-1.947486102581024170e-01 1.062636971473693848e-01 -7.890269160270690918e-02
4.737573862075805664e-02 -6.054476648569107056e-02 -1.094866037368774414e+00
5.312809348106384277e-02 -6.594494730234146118e-02 -1.063271403312683105e+00
-2.531408071517944336e-01 9.432613849639892578e-02 -9.360543489456176758e-01
-2.693635821342468262e-01 5.757661908864974976e-02 -2.451191544532775879e-01
-4.023495614528656006e-01 7.674196362495422363e-02 -7.171138525009155273e-01
2.830616384744644165e-02 -7.011982798576354980e-02 -8.795151114463806152e-01
1.862702667713165283e-01 -5.895438045263290405e-02 1.251536011695861816e-01
-2.133676558732986450e-01 1.048959121108055115e-01 -5.671830177307128906e-01
-2.402913942933082581e-02 6.062045693397521973e-02 -2.559883594512939453e-01
-1.150583177804946899e-01 -2.630797214806079865e-02 -6.534535884857177734e-01
1.886976957321166992e-01 -1.123791374266147614e-02 -1.718999743461608887e-01
8.699350059032440186e-03 -2.232774533331394196e-02 -5.596637725830078125e-03
-8.025518059730529785e-02 5.927853286266326904e-02 2.011509537696838379e-01
-4.855422973632812500e-01 1.440614312887191772e-01 -8.893460035324096680e-01
-2.691774070262908936e-01 7.245656847953796387e-02 -1.292248964309692383e-01
-4.326263666152954102e-01 1.097730398178100586e-01 -1.196099638938903809e+00
-4.720075130462646484e-01 1.450438201427459717e-01 -5.690200328826904297e-01
-2.076197713613510132e-01 7.032461464405059814e-02 -1.055877923965454102e+00
1.759836673736572266e-01 -1.035363599658012390e-02 -2.784889638423919678e-01
1.076883077621459961e-01 -8.685511350631713867e-02 -6.702438592910766602e-01
-2.388432249426841736e-02 5.995279550552368164e-02 -2.783439159393310547e-01
-5.289871990680694580e-02 4.595324397087097168e-02 -7.434616088867187500e-01
-2.518073320388793945e-01 9.637921303510665894e-02 -9.037966728210449219e-01
-9.189324080944061279e-02 -1.896948926150798798e-02 -3.688270449638366699e-01
-2.667469978332519531e-01 1.432077959179878235e-02 -1.162981271743774414e+00
3.937485814094543457e-02 3.742793202400207520e-02 2.038244009017944336e-01
2.360834181308746338e-01 -2.963478304445743561e-02 -1.335251033306121826e-01
-3.586338758468627930e-01 1.223008483648300171e-01 -9.239338636398315430e-01
-2.043441236019134521e-01 8.553932607173919678e-02 -8.646267056465148926e-01
8.124344050884246826e-03 3.305990248918533325e-02 -6.228619217872619629e-01
1.192751526832580566e-01 1.767606846988201141e-02 -3.306806087493896484e-02
6.771713495254516602e-03 5.431674420833587646e-02 -1.680231094360351562e-02
-3.011381328105926514e-01 7.104658335447311401e-02 -1.271960020065307617e+00
2.961620688438415527e-02 3.428702428936958313e-02 -4.741014242172241211e-01
-5.982429534196853638e-02 6.753919273614883423e-02 -3.866998255252838135e-01
-3.435316681861877441e-01 1.298512369394302368e-01 -7.325103282928466797e-01
-6.878104805946350098e-02 7.241461426019668579e-02 -3.226139545440673828e-01
-1.021040156483650208e-01 8.256977796554565430e-02 3.446841239929199219e-02
7.032090425491333008e-02 -1.811084337532520294e-02 -9.209892749786376953e-01
9.669438004493713379e-03 4.062614962458610535e-02 2.367883324623107910e-01
-3.240731954574584961e-01 6.679488718509674072e-02 -3.922531604766845703e-01
1.531710922718048096e-01 5.805421620607376099e-03 1.625686883926391602e-02
-1.867282092571258545e-01 5.915976315736770630e-02 -1.098803281784057617e+00
-1.139158532023429871e-01 -6.141489371657371521e-03 -2.906275987625122070e-01
-1.108175665140151978e-01 7.837872207164764404e-02 -5.030311346054077148e-01
1.374278962612152100e-02 4.666066169738769531e-02 -3.157385587692260742e-01
3.733028471469879150e-02 3.427437692880630493e-02 -4.211093187332153320e-01
2.924939244985580444e-02 4.581846296787261963e-02 1.012236475944519043e-01
-4.721044003963470459e-01 1.426046490669250488e-01 -9.069921970367431641e-01
2.495415806770324707e-01 -1.063101962208747864e-01 -6.363421678543090820e-01
-2.824796438217163086e-01 1.270813047885894775e-01 -3.241810202598571777e-01
-3.448579609394073486e-01 1.085741966962814331e-01 -1.056579589843750000e+00
-2.113713771104812622e-01 -2.056270837783813477e-03 -8.570057153701782227e-01
-8.818128705024719238e-02 -4.053858667612075806e-02 -1.016069173812866211e+00
9.097957611083984375e-02 2.737434767186641693e-02 5.325531959533691406e-02
-2.168630808591842651e-02 -4.481311142444610596e-02 -4.351001083850860596e-01
2.707454562187194824e-01 -9.568344801664352417e-02 -6.356114149093627930e-01
-5.525403469800949097e-02 -3.874765709042549133e-03 -3.582635521888732910e-02
-8.730974793434143066e-02 2.551737613976001740e-02 -1.088299155235290527e+00
-5.032906532287597656e-01 1.434085667133331299e-01 -7.621859312057495117e-01
3.285725414752960205e-02 1.847332715988159180e-02 -7.021922469139099121e-01
1.661919355392456055e-01 -7.631918415427207947e-03 -3.037382662296295166e-01
1.344898194074630737e-01 -5.413147062063217163e-02 -9.354677200317382812e-01
-3.170396089553833008e-01 1.335321217775344849e-01 -3.822433054447174072e-01
-3.917316496372222900e-01 1.151582524180412292e-01 -1.098596096038818359e+00
-3.278988003730773926e-01 3.543324023485183716e-02 -1.020352482795715332e+00
-3.024360537528991699e-01 1.287215799093246460e-01 -2.189880609512329102e-01
1.116706430912017822e-02 5.220942944288253784e-02 -1.344077289104461670e-01
-3.780451789498329163e-02 5.888069421052932739e-02 -4.300498962402343750e-01
-3.016402721405029297e-01 6.535116583108901978e-02 -3.062874674797058105e-01
2.576445639133453369e-01 -1.080194935202598572e-01 -5.978327393531799316e-01
-3.560865819454193115e-01 4.691985994577407837e-02 -9.773210287094116211e-01
-4.086661711335182190e-02 5.271410197019577026e-02 -5.746545791625976562e-01
-2.937543988227844238e-01 5.875705927610397339e-02 -1.319900512695312500e+00
-1.504276692867279053e-02 -4.942599684000015259e-02 -4.885330200195312500e-01
-2.764542698860168457e-01 9.826646745204925537e-02 -9.684685468673706055e-01
2.759067714214324951e-01 -5.043765157461166382e-02 1.427191495895385742e-01
2.258594930171966553e-01 -1.048588454723358154e-01 -4.213893711566925049e-01
-4.249080121517181396e-01 1.293970793485641479e-01 -1.009706735610961914e+00
-2.317451983690261841e-01 1.133501082658767700e-01 -4.628120958805084229e-01
9.197773039340972900e-02 -7.121441513299942017e-02 -1.026082515716552734e+00
8.243022859096527100e-02 -7.663984596729278564e-02 -5.036097168922424316e-01
-3.377343118190765381e-01 7.044758647680282593e-02 -4.187741875648498535e-01
-1.989353597164154053e-01 1.090521812438964844e-01 -2.588328421115875244e-01
3.021638691425323486e-01 -5.949833989143371582e-02 1.668214797973632812e-02
-3.561726212501525879e-01 5.758590251207351685e-02 -1.312298774719238281e+00
-1.590482294559478760e-01 8.247386664152145386e-02 1.167508363723754883e-01
-3.299226164817810059e-01 9.740074723958969116e-02 -1.839708983898162842e-01
-2.801702916622161865e-01 1.262993663549423218e-01 -2.623246312141418457e-01
2.914976328611373901e-02 4.644141346216201782e-02 -1.384424567222595215e-01
-1.565952897071838379e-01 9.430066496133804321e-02 -4.347587227821350098e-01
-4.403840750455856323e-02 -1.562137156724929810e-03 2.073448896408081055e-02
1.298699378967285156e-01 -3.863780200481414795e-02 -8.628515005111694336e-01
-4.837702810764312744e-01 1.064958348870277405e-01 -9.627100229263305664e-01
1.767873466014862061e-01 -4.969733208417892456e-02 1.764021515846252441e-01
-4.224347472190856934e-01 1.232205927371978760e-01 -3.881719708442687988e-01
-2.906603813171386719e-01 1.101795434951782227e-01 -6.714046001434326172e-02
-9.026080369949340820e-03 3.374439477920532227e-02 -7.012448906898498535e-01
-3.768865764141082764e-01 7.961983978748321533e-02 -5.173897147178649902e-01
3.020738065242767334e-01 -9.713549166917800903e-02 -5.109654068946838379e-01
-4.651957750320434570e-01 1.128506287932395935e-01 -6.679080724716186523e-01
-2.701930403709411621e-01 1.100404784083366394e-01 -7.704854607582092285e-01
1.185503154993057251e-01 -2.431709133088588715e-02 -7.910827398300170898e-01
3.376716971397399902e-01 -1.044848039746284485e-01 -2.631191909313201904e-01
-4.431575238704681396e-01 1.220752373337745667e-01 -1.114801406860351562e+00
2.065565586090087891e-01 -9.358400851488113403e-02 -2.358278036117553711e-01
-2.586925029754638672e-01 7.426971197128295898e-02 -1.162982225418090820e+00
-2.923966348171234131e-01 3.117404133081436157e-02 -1.305415511131286621e+00
-1.144195720553398132e-01 1.333252340555191040e-02 -7.524690032005310059e-02
1.706475615501403809e-01 -4.254502058029174805e-02 -7.357991337776184082e-01
1.696111261844635010e-02 -4.949583113193511963e-02 -3.156839609146118164e-01
-1.234167963266372681e-01 1.443039067089557648e-02 -9.655049443244934082e-02
-1.715756952762603760e-01 4.987991601228713989e-02 2.382969856262207031e-02
2.354271113872528076e-01 -2.733047492802143097e-02 9.004706144332885742e-02
1.090722084045410156e-01 2.142488770186901093e-02 4.118680953979492188e-04
1.870433688163757324e-01 -8.896525949239730835e-03 -1.139576733112335205e-01
-2.273565381765365601e-01 1.029018983244895935e-01 -6.907231807708740234e-01
-2.565131187438964844e-01 4.668854922056198120e-02 -2.982107102870941162e-01
1.002312451601028442e-01 -8.391224592924118042e-02 -6.011787056922912598e-01
-2.558752298355102539e-01 4.991352185606956482e-02 -2.626692652702331543e-01
