-7.202296257019042969e-01 6.489734351634979248e-02 -2.498137503862380981e-01
-6.776838302612304688e-01 1.030289381742477417e-01 -2.447786927223205566e-01
-8.456261754035949707e-01 3.722107410430908203e-01 1.016394644975662231e-01
-6.151955723762512207e-01 2.950197756290435791e-01 3.543752431869506836e-02
-7.797564268112182617e-01 3.298065066337585449e-02 -1.720168590545654297e-01
-7.083130478858947754e-01 8.261246979236602783e-02 -2.718148827552795410e-01
-7.956234216690063477e-01 4.262681007385253906e-01 1.091921050101518631e-02
-8.899639844894409180e-01 1.551572680473327637e-01 -4.406519699841737747e-03
-6.796984672546386719e-01 3.581961989402770996e-01 2.585970163345336914e-01
-6.758910417556762695e-01 4.058896303176879883e-01 -9.129677712917327881e-02
-7.620533108711242676e-01 4.131412208080291748e-01 2.032794654369354248e-01
-8.286662101745605469e-01 3.996185064315795898e-01 4.284716024994850159e-02
-8.313115239143371582e-01 5.029407143592834473e-02 3.974606469273567200e-02
-7.222676277160644531e-01 1.488277316093444824e-01 -3.706238567829132080e-01
-7.337369918823242188e-01 4.399569034576416016e-01 5.049529671669006348e-02
-6.381347179412841797e-01 1.284982711076736450e-01 -1.151300594210624695e-01
-6.336726546287536621e-01 2.252682745456695557e-01 -2.213029563426971436e-01
-8.332590460777282715e-01 6.077800691127777100e-02 9.001921862363815308e-02
-8.605083227157592773e-01 1.555956900119781494e-01 -2.539176046848297119e-01
-6.559782028198242188e-01 3.280740380287170410e-01 2.401518970727920532e-01
-6.354034543037414551e-01 3.069666624069213867e-01 1.874147504568099976e-01
-7.053541541099548340e-01 3.213876783847808838e-01 3.348234593868255615e-01
-8.559425473213195801e-01 3.638860285282135010e-01 -2.468265220522880554e-02
-6.896506547927856445e-01 2.903063297271728516e-01 3.344812095165252686e-01
-8.547612428665161133e-01 3.617855310440063477e-01 7.756636291742324829e-02
-6.379668712615966797e-01 1.189790889620780945e-01 -1.707038655877113342e-02
-6.191325783729553223e-01 2.771099209785461426e-01 -1.221951022744178772e-01
-7.729852199554443359e-01 5.210152268409729004e-02 -2.452515959739685059e-01
-8.317496776580810547e-01 1.202509179711341858e-01 2.395061105489730835e-01
-6.790115237236022949e-01 1.384984701871871948e-01 -3.014150559902191162e-01
-8.116775155067443848e-01 4.139656722545623779e-01 -3.146744892001152039e-02
-6.170686483383178711e-01 3.072043359279632568e-01 1.992500573396682739e-02
-6.149654984474182129e-01 2.525858283042907715e-01 -1.018024832010269165e-01
-7.074356675148010254e-01 3.910729885101318359e-01 -2.181328386068344116e-01
-6.864480972290039062e-01 1.253019571304321289e-01 2.503768503665924072e-01
-8.364837169647216797e-01 3.009116053581237793e-01 -2.830446064472198486e-01
-6.284649968147277832e-01 3.079333901405334473e-01 1.494242995977401733e-01
-7.957376837730407715e-01 4.080780148506164551e-01 -1.412624716758728027e-01
-6.139853000640869141e-01 2.317184358835220337e-01 7.212902605533599854e-02
-8.330925703048706055e-01 4.822883009910583496e-02 -7.976169139146804810e-02
-6.999302506446838379e-01 3.968685865402221680e-01 -1.918759644031524658e-01
-6.842007040977478027e-01 7.554252445697784424e-02 -1.946606934070587158e-01
-6.701731085777282715e-01 6.927749514579772949e-02 -6.806339323520660400e-02
-8.609445691108703613e-01 8.213318884372711182e-02 1.110765803605318069e-02
-6.684759855270385742e-01 2.946451604366302490e-01 -2.984578907489776611e-01
-7.567258477210998535e-01 4.347585439682006836e-01 1.052086129784584045e-01
-6.721200346946716309e-01 7.029926776885986328e-02 -1.043710932135581970e-01
-7.587566971778869629e-01 1.926578581333160400e-02 -4.718828946352005005e-02
-8.096604943275451660e-01 4.027472138404846191e-01 -1.229584142565727234e-01
-8.121596574783325195e-01 3.780148923397064209e-02 -1.274538636207580566e-01
-8.621156215667724609e-01 8.675241470336914062e-02 3.396249562501907349e-02
-7.553454637527465820e-01 6.443364918231964111e-02 -2.769161462783813477e-01
-6.846181154251098633e-01 2.499089688062667847e-01 -3.498932123184204102e-01
-6.437681913375854492e-01 1.194245666265487671e-01 7.824566960334777832e-02
-8.842957615852355957e-01 1.526312232017517090e-01 7.825198024511337280e-02
-7.669815421104431152e-01 3.015808761119842529e-01 3.642202019691467285e-01
-7.255219817161560059e-01 4.088577032089233398e-01 -1.863819509744644165e-01
-6.721105575561523438e-01 6.663298606872558594e-02 -6.902627646923065186e-03
-8.847362995147705078e-01 1.834402680397033691e-01 -1.599581837654113770e-01
-8.565524816513061523e-01 7.349306344985961914e-02 -2.490791678428649902e-02
-6.153504848480224609e-01 2.618538737297058105e-01 9.093060344457626343e-02
-7.553617954254150391e-01 2.724139988422393799e-01 3.782823979854583740e-01
-6.471170783042907715e-01 3.354597091674804688e-01 -1.898383051156997681e-01
-7.944347262382507324e-01 4.079545736312866211e-01 1.729512512683868408e-01
-6.908047199249267578e-01 5.168722569942474365e-02 3.441480919718742371e-02
-6.728607416152954102e-01 1.305881142616271973e-01 -2.773212492465972900e-01
-7.923966646194458008e-01 3.964126110076904297e-01 -1.898424327373504639e-01
-7.791605591773986816e-01 2.227546870708465576e-01 -3.974544405937194824e-01
-8.818906545639038086e-01 1.271476298570632935e-01 -6.788064539432525635e-02
-7.659806013107299805e-01 2.878632247447967529e-01 3.710873723030090332e-01
-6.432960629463195801e-01 3.691591620445251465e-01 -7.020254433155059814e-02
-8.655408620834350586e-01 2.073872834444046021e-01 -2.568872869014739990e-01
-7.869589328765869141e-01 3.677279949188232422e-01 2.830869257450103760e-01
-7.060087919235229492e-01 2.949714064598083496e-01 3.511031568050384521e-01
-8.771393299102783203e-01 1.137135475873947144e-01 7.906160317361354828e-03
-7.135998606681823730e-01 5.267550051212310791e-02 1.279519051313400269e-01
-6.234004497528076172e-01 1.597106158733367920e-01 -5.797464773058891296e-02
-8.167508244514465332e-01 2.038660496473312378e-01 -3.645761311054229736e-01
-7.501145005226135254e-01 3.930049240589141846e-01 -2.359096705913543701e-01
-7.852037549018859863e-01 1.673691719770431519e-01 3.447594046592712402e-01
-8.877917528152465820e-01 2.746783494949340820e-01 -7.645625621080398560e-02
-6.675055027008056641e-01 1.750906854867935181e-01 -3.069963753223419189e-01
-7.190733551979064941e-01 1.024024635553359985e-01 2.617288529872894287e-01
-6.242144107818603516e-01 2.266641706228256226e-01 1.537766456604003906e-01
-8.731244206428527832e-01 1.206888630986213684e-01 8.670057356357574463e-02
-8.929626941680908203e-01 2.160231620073318481e-01 -9.554062783718109131e-02
-8.528972268104553223e-01 3.539435267448425293e-01 -1.194209903478622437e-01
-6.349521279335021973e-01 2.495317459106445312e-01 -2.254545092582702637e-01
-6.194822788238525391e-01 1.740550547838211060e-01 1.687057688832283020e-02
-6.960213184356689453e-01 4.072185754776000977e-01 1.811325997114181519e-01
-6.307358741760253906e-01 2.263413965702056885e-01 1.878963112831115723e-01
-6.382637023925781250e-01 1.473354697227478027e-01 1.271753758192062378e-01
-7.021581530570983887e-01 3.895208835601806641e-01 2.398523539304733276e-01
-8.040640950202941895e-01 1.530579626560211182e-01 -3.638154864311218262e-01
-6.587772369384765625e-01 3.544648587703704834e-01 -1.948189884424209595e-01
-6.351781487464904785e-01 1.553932726383209229e-01 -1.675740778446197510e-01
-8.488798141479492188e-01 3.752692043781280518e-01 3.052913025021553040e-02
-6.574192047119140625e-01 3.794176578521728516e-01 -1.206110343337059021e-01
-7.880080938339233398e-01 5.418802797794342041e-02 -2.411812096834182739e-01
-8.140888810157775879e-01 2.636788189411163330e-01 -3.532157838344573975e-01
-6.200847625732421875e-01 2.133171856403350830e-01 1.158934459090232849e-01
-7.354679703712463379e-01 4.162096977233886719e-01 -1.669000089168548584e-01
-7.768551111221313477e-01 3.735328316688537598e-01 -2.649734318256378174e-01
-8.815448880195617676e-01 3.008753061294555664e-01 -6.955981999635696411e-02
-6.516563892364501953e-01 9.380365908145904541e-02 -4.310929402709007263e-02
-6.770322322845458984e-01 3.800764083862304688e-01 2.117384970188140869e-01
-7.996334433555603027e-01 7.772098481655120850e-02 -2.828254997730255127e-01
-7.349277734756469727e-01 2.199216037988662720e-01 -3.999722301959991455e-01
-8.853041529655456543e-01 2.540705800056457520e-01 1.210413798689842224e-01
-6.963603496551513672e-01 3.349177539348602295e-01 3.133151531219482422e-01
-8.420820236206054688e-01 1.208585724234580994e-01 2.164482474327087402e-01
-8.627028465270996094e-01 2.035619914531707764e-01 2.336576581001281738e-01
-8.451358079910278320e-01 5.959598720073699951e-02 -8.218288421630859375e-03
-6.761950254440307617e-01 3.006551265716552734e-01 3.085612952709197998e-01
-8.621789813041687012e-01 1.885798275470733643e-01 2.286425083875656128e-01
-8.705543279647827148e-01 9.817284345626831055e-02 -6.094053015112876892e-02
-8.113967180252075195e-01 3.911990523338317871e-01 -1.636468917131423950e-01
-7.094821929931640625e-01 1.244222521781921387e-01 -3.365695476531982422e-01
-7.312843203544616699e-01 3.822178840637207031e-01 -2.572751641273498535e-01
-8.865153789520263672e-01 2.083520591259002686e-01 1.239835694432258606e-01
-8.251942992210388184e-01 2.618907094001770020e-01 3.225366175174713135e-01
-6.515724658966064453e-01 3.605862855911254883e-01 -1.528840363025665283e-01
-6.221729516983032227e-01 3.276941776275634766e-01 8.660099469125270844e-03
-6.325446963310241699e-01 2.804407179355621338e-01 -1.994825899600982666e-01
-8.331331014633178711e-01 1.792120486497879028e-01 -3.344396948814392090e-01
-6.917013525962829590e-01 4.110028147697448730e-01 1.562514156103134155e-01
-6.895920038223266602e-01 6.633427739143371582e-02 -1.813728362321853638e-01
-8.429238796234130859e-01 2.478271871805191040e-01 2.905895411968231201e-01
-7.280372977256774902e-01 7.384444773197174072e-02 -2.801481783390045166e-01
-7.615678906440734863e-01 4.391025900840759277e-01 2.920566126704216003e-02
-8.279715180397033691e-01 5.234856903553009033e-02 7.126209139823913574e-02
-6.150518059730529785e-01 2.786715626716613770e-01 7.281374931335449219e-02
-6.220229268074035645e-01 3.102086186408996582e-01 9.548062831163406372e-02
-7.927793264389038086e-01 2.463203668594360352e-02 -2.083867788314819336e-03
-8.014118671417236328e-01 1.034410148859024048e-01 -3.213880956172943115e-01
-6.634622812271118164e-01 8.074370026588439941e-02 -1.001649647951126099e-01
-6.138763427734375000e-01 2.868941426277160645e-01 -3.461927920579910278e-02
-7.652463316917419434e-01 5.694122612476348877e-02 -2.598291039466857910e-01
-6.225646138191223145e-01 3.236573934555053711e-01 -5.109690502285957336e-02
-6.158208250999450684e-01 2.881230413913726807e-01 -6.995677947998046875e-02
-7.783577442169189453e-01 2.624741196632385254e-01 3.730209469795227051e-01
-8.672226667404174805e-01 1.845790445804595947e-01 -2.468902021646499634e-01
-7.716490626335144043e-01 1.865347176790237427e-01 -3.981488049030303955e-01
-7.832311391830444336e-01 2.182739973068237305e-02 -7.463175058364868164e-02
-7.401494979858398438e-01 4.373188316822052002e-01 -5.393831804394721985e-02
-6.437265872955322266e-01 1.163823753595352173e-01 6.394348293542861938e-02
-6.416171193122863770e-01 3.125974535942077637e-01 2.080491632223129272e-01
-8.479102849960327148e-01 6.753270328044891357e-02 -1.122462674975395203e-01
-8.225337862968444824e-01 4.050638675689697266e-01 5.384905636310577393e-02
-6.288936138153076172e-01 2.495450228452682495e-01 1.848590970039367676e-01
-8.196642398834228516e-01 8.946301043033599854e-02 2.098827660083770752e-01
-6.682000160217285156e-01 8.548040688037872314e-02 9.805427491664886475e-02
-8.147639632225036621e-01 1.250405907630920410e-01 -3.294456899166107178e-01
-7.601889967918395996e-01 3.273061513900756836e-01 -3.431195616722106934e-01
-6.758278608322143555e-01 1.550387889146804810e-01 2.686536312103271484e-01
-6.903443336486816406e-01 3.184125125408172607e-01 3.194353282451629639e-01
-8.826220035552978516e-01 1.481941640377044678e-01 -1.324290037155151367e-01
-7.249126434326171875e-01 1.031978428363800049e-01 -3.268811106681823730e-01
-8.007751703262329102e-01 6.457903981208801270e-02 1.820854246616363525e-01
-6.736332178115844727e-01 8.973151445388793945e-02 1.383285522460937500e-01
-8.305473327636718750e-01 3.735283613204956055e-01 -1.597550511360168457e-01
-7.406005263328552246e-01 2.642554342746734619e-01 3.790784776210784912e-01
-7.966330647468566895e-01 9.095881879329681396e-02 2.451234906911849976e-01
-6.728293299674987793e-01 3.570014238357543945e-01 -2.291855514049530029e-01
-6.620352268218994141e-01 2.976988554000854492e-01 -2.816259264945983887e-01
-8.717452287673950195e-01 1.557632088661193848e-01 1.630646437406539917e-01
-8.716626763343811035e-01 1.438981443643569946e-01 1.463359296321868896e-01
-6.404856443405151367e-01 1.273510903120040894e-01 -1.321045905351638794e-01
-7.217193245887756348e-01 2.874725162982940674e-01 3.659016489982604980e-01
-6.384621262550354004e-01 2.865501642227172852e-01 -2.193919569253921509e-01
-8.895084261894226074e-01 2.417046874761581421e-01 9.469112753868103027e-02
-6.606636047363281250e-01 1.222854927182197571e-01 1.755862534046173096e-01
-8.172644376754760742e-01 3.571277856826782227e-02 -7.206588238477706909e-02
-8.844681382179260254e-01 2.706622779369354248e-01 -1.222195252776145935e-01
-6.351302862167358398e-01 3.428740203380584717e-01 1.240448877215385437e-01
-6.117667555809020996e-01 2.557016015052795410e-01 -5.305710062384605408e-02
-7.016475200653076172e-01 1.245429739356040955e-01 2.748275399208068848e-01
-7.492018938064575195e-01 3.787410259246826172e-02 -1.957212239503860474e-01
-7.338000535964965820e-01 9.214854240417480469e-02 -3.179622888565063477e-01
-8.821008801460266113e-01 1.589187681674957275e-01 -1.543245166540145874e-01
-6.119157671928405762e-01 2.440720796585083008e-01 4.639263451099395752e-02
-8.138403892517089844e-01 7.128286361694335938e-02 1.787116825580596924e-01
-6.719856262207031250e-01 2.654210329055786133e-01 3.129633069038391113e-01
-7.724300622940063477e-01 4.326875209808349609e-01 9.098759293556213379e-02
-7.676045298576354980e-01 1.275248378515243530e-01 3.150888383388519287e-01
-7.811489105224609375e-01 2.364288568496704102e-01 -3.941477239131927490e-01
-7.508556842803955078e-01 4.391396343708038330e-01 6.641119718551635742e-02
-6.913439035415649414e-01 7.575875520706176758e-02 1.529134958982467651e-01
-6.435506939888000488e-01 1.381570100784301758e-01 -1.816703528165817261e-01
-7.860597968101501465e-01 5.306874215602874756e-02 1.656286120414733887e-01
-7.844023108482360840e-01 3.883112668991088867e-01 -2.241941839456558228e-01
-7.960990667343139648e-01 4.227791130542755127e-01 8.296394348144531250e-02
-7.577719092369079590e-01 4.231114983558654785e-01 -1.363381892442703247e-01
-8.953918218612670898e-01 2.090435624122619629e-01 1.958883553743362427e-02
-8.161163926124572754e-01 3.020905256271362305e-01 -3.208745718002319336e-01
-6.584085822105407715e-01 1.082350239157676697e-01 1.301695257425308228e-01
-7.690615653991699219e-01 4.356274306774139404e-01 -3.241230919957160950e-02
-8.005461692810058594e-01 4.118984937667846680e-01 1.381379961967468262e-01
-8.623208999633789062e-01 1.090038865804672241e-01 1.207072958350181580e-01
-7.839660644531250000e-01 3.380660116672515869e-01 -3.172301054000854492e-01
-7.991849184036254883e-01 4.237373769283294678e-01 4.122132807970046997e-02
-6.237607002258300781e-01 3.197470307350158691e-01 -8.260389417409896851e-02
-6.300152540206909180e-01 3.409159779548645020e-01 8.528316020965576172e-02
-8.703731894493103027e-01 3.248064517974853516e-01 -9.876990318298339844e-02
-7.035478353500366211e-01 4.124523997306823730e-01 -1.464519351720809937e-01
-7.169513702392578125e-01 4.501718282699584961e-02 -1.771306991577148438e-01
-8.830388784408569336e-01 1.714483797550201416e-01 1.196470484137535095e-01
-8.341960310935974121e-01 3.171139359474182129e-01 2.689298093318939209e-01
-6.934144496917724609e-01 2.090101987123489380e-01 -3.650785684585571289e-01
-6.576026082038879395e-01 1.335609853267669678e-01 1.874120980501174927e-01
-7.983745336532592773e-01 5.255614221096038818e-02 -2.241556197404861450e-01
-8.925833702087402344e-01 2.568680346012115479e-01 -4.260881245136260986e-02
-6.559782624244689941e-01 2.513437569141387939e-01 2.788505852222442627e-01
-6.955120563507080078e-01 3.826296925544738770e-01 -2.211846113204956055e-01
-6.321093440055847168e-01 3.125005066394805908e-01 1.644092351198196411e-01
-8.568032979965209961e-01 3.569316267967224121e-01 -7.410581409931182861e-02
-6.255074739456176758e-01 2.664815187454223633e-01 1.651157438755035400e-01
-7.419333457946777344e-01 3.758499324321746826e-01 -2.727678120136260986e-01
-6.651676297187805176e-01 3.966915011405944824e-01 -8.420298248529434204e-02
-8.294340372085571289e-01 5.871723592281341553e-02 -1.699904799461364746e-01
-7.600820660591125488e-01 4.371162354946136475e-01 7.682543992996215820e-02
-8.262795209884643555e-01 1.276201456785202026e-01 -3.138137161731719971e-01
-6.940273642539978027e-01 5.926319956779479980e-02 -1.688233911991119385e-01
-8.286198973655700684e-01 3.527247309684753418e-01 2.317757010459899902e-01
-6.419624090194702148e-01 1.436288654804229736e-01 1.397238671779632568e-01
-7.652859091758728027e-01 1.011668741703033447e-01 2.796516418457031250e-01
-7.852957248687744141e-01 2.961600720882415771e-01 -3.608627021312713623e-01
-7.752790451049804688e-01 1.104913279414176941e-01 -3.482253551483154297e-01
-8.519485592842102051e-01 1.750646531581878662e-01 2.504619359970092773e-01
-8.649183511734008789e-01 1.296909451484680176e-01 -2.078537046909332275e-01
-7.759975194931030273e-01 1.740283221006393433e-01 -3.929764926433563232e-01
-6.467370390892028809e-01 3.170246779918670654e-01 -2.170529663562774658e-01
-8.804078102111816406e-01 2.297726124525070190e-01 1.634378880262374878e-01
-8.051143884658813477e-01 4.203310012817382812e-01 2.063722535967826843e-02
-6.855969429016113281e-01 1.903571188449859619e-01 3.172282874584197998e-01
-7.808716297149658203e-01 2.105124294757843018e-02 -1.640246435999870300e-02
-6.699243783950805664e-01 1.067310720682144165e-01 -2.282011806964874268e-01
-6.699157953262329102e-01 4.072828292846679688e-01 7.252735644578933716e-02
-8.938459753990173340e-01 2.458711117506027222e-01 2.457283064723014832e-02
-7.210692167282104492e-01 4.135890603065490723e-01 -1.668121814727783203e-01
-8.023024201393127441e-01 4.645311832427978516e-02 1.206230446696281433e-01
-7.621484994888305664e-01 2.583786845207214355e-02 5.731728672981262207e-02
-6.528752446174621582e-01 1.078797131776809692e-01 -1.534720510244369507e-01
-8.433071970939636230e-01 3.108586668968200684e-01 2.519428431987762451e-01
-6.235435605049133301e-01 1.568396091461181641e-01 -1.378006301820278168e-02
-6.618271470069885254e-01 2.479486316442489624e-01 2.927611172199249268e-01
-7.264603972434997559e-01 4.293538630008697510e-02 -1.884621679782867432e-01
-8.734520673751831055e-01 1.268397271633148193e-01 1.014872342348098755e-01
-7.412020564079284668e-01 4.355929493904113770e-01 1.069146245718002319e-01
-6.161876320838928223e-01 1.909777373075485229e-01 -5.568328872323036194e-02
-6.771626472473144531e-01 2.142928540706634521e-01 -3.405715525150299072e-01
-6.213462352752685547e-01 2.865342497825622559e-01 1.260172873735427856e-01
-8.953082561492919922e-01 2.322194576263427734e-01 8.149401284754276276e-03
-6.745382547378540039e-01 7.406342029571533203e-02 -1.450783610343933105e-01
-8.250097036361694336e-01 4.159651696681976318e-02 2.115791663527488708e-03
-6.360905766487121582e-01 3.627775907516479492e-01 2.653805166482925415e-02
-6.230579018592834473e-01 3.188513219356536865e-01 8.404149860143661499e-02
-6.125854849815368652e-01 2.209692299365997314e-01 -5.776023492217063904e-02
-6.600989103317260742e-01 3.479750752449035645e-01 -2.117426693439483643e-01
-8.909368515014648438e-01 2.693264484405517578e-01 1.394434366375207901e-02
-8.817682266235351562e-01 2.859882414340972900e-01 -1.144418120384216309e-01
-6.636170148849487305e-01 3.917874097824096680e-01 -1.006874367594718933e-01
-8.877369761466979980e-01 2.292767018079757690e-01 -1.417592465877532959e-01
-8.783960342407226562e-01 1.191430911421775818e-01 -8.251050114631652832e-02
-7.949007749557495117e-01 3.261647224426269531e-01 -3.220343887805938721e-01
-7.920190095901489258e-01 3.512986302375793457e-01 -2.898217737674713135e-01
-8.715978860855102539e-01 3.330259025096893311e-01 -3.414572402834892273e-02
-8.260440826416015625e-01 3.487491607666015625e-01 2.455338090658187866e-01
-7.437806129455566406e-01 1.227058470249176025e-01 3.079575896263122559e-01
-8.214324712753295898e-01 2.321619540452957153e-01 -3.552313446998596191e-01
-6.182494759559631348e-01 2.029308229684829712e-01 -1.130736470222473145e-01
-8.123329877853393555e-01 4.144797325134277344e-01 4.253362864255905151e-02
-6.539708375930786133e-01 2.352428734302520752e-01 2.717768549919128418e-01
-6.411679983139038086e-01 2.038564085960388184e-01 2.177913784980773926e-01
-8.145169615745544434e-01 1.125365495681762695e-01 -3.162562549114227295e-01
-7.716215848922729492e-01 4.310456216335296631e-01 1.071864515542984009e-01
-6.521759629249572754e-01 1.340001374483108521e-01 -2.148070335388183594e-01
-6.823550462722778320e-01 3.698235750198364258e-01 -2.249955832958221436e-01
-6.784473657608032227e-01 6.728163361549377441e-02 -1.325350403785705566e-01
-6.423414945602416992e-01 3.181481957435607910e-01 -1.989904940128326416e-01
-6.354923844337463379e-01 2.018580734729766846e-01 -2.210747152566909790e-01
-8.326963782310485840e-01 1.115175113081932068e-01 2.239728868007659912e-01
-8.278442621231079102e-01 4.714560508728027344e-02 -1.146450638771057129e-01
-6.285951137542724609e-01 2.683227956295013428e-01 1.808947771787643433e-01
-7.274938821792602539e-01 2.713927328586578369e-01 -3.832114934921264648e-01
-8.862543106079101562e-01 2.095362842082977295e-01 -1.577167510986328125e-01
-8.007124066352844238e-01 4.203431606292724609e-01 -4.718800634145736694e-02
-7.855076789855957031e-01 1.924594342708587646e-01 -3.930758535861968994e-01
-7.923412322998046875e-01 4.124394059181213379e-01 1.599029302597045898e-01
-8.611513376235961914e-01 3.461847901344299316e-01 9.887818992137908936e-02
-8.538525700569152832e-01 2.478536665439605713e-01 -2.824035584926605225e-01
-6.585696935653686523e-01 1.878987252712249756e-01 -2.920454740524291992e-01
-6.769852042198181152e-01 3.958426415920257568e-01 -1.404263228178024292e-01
-6.514652967453002930e-01 2.123456001281738281e-01 2.565253078937530518e-01
-7.410871386528015137e-01 9.825465083122253418e-02 -3.312439322471618652e-01
-6.535502076148986816e-01 3.884835541248321533e-01 -4.383507370948791504e-02
-8.906504511833190918e-01 1.719782650470733643e-01 4.920469596982002258e-02
-8.805947303771972656e-01 2.557244598865509033e-01 1.518309563398361206e-01
-8.446800708770751953e-01 2.278705686330795288e-01 2.877643704414367676e-01
-6.926141977310180664e-01 1.430909633636474609e-01 2.855311334133148193e-01
-6.167820096015930176e-01 2.808861136436462402e-01 9.094341099262237549e-02
-8.693580627441406250e-01 2.867618203163146973e-01 1.831281930208206177e-01
-8.664497137069702148e-01 1.477815806865692139e-01 -2.246482968330383301e-01
-6.216925978660583496e-01 2.459898442029953003e-01 1.443390399217605591e-01
-7.706469297409057617e-01 2.123647928237915039e-02 1.083655003458261490e-02
-8.527492284774780273e-01 3.661161363124847412e-01 -5.562743544578552246e-02
-6.464098691940307617e-01 2.109130173921585083e-01 -2.655766308307647705e-01
-7.761400938034057617e-01 3.081459105014801025e-01 -3.563204705715179443e-01
-7.563428282737731934e-01 1.146472319960594177e-01 -3.554606735706329346e-01
-6.503387689590454102e-01 3.224625587463378906e-01 2.288701087236404419e-01
-8.419890999794006348e-01 6.843188405036926270e-02 -1.550280153751373291e-01
-8.677936196327209473e-01 3.302576243877410889e-01 1.044297143816947937e-01
-8.918762207031250000e-01 1.784161627292633057e-01 -8.527950942516326904e-02
-6.976291537284851074e-01 1.930893063545227051e-01 -3.672457635402679443e-01
-8.878141641616821289e-01 2.530935704708099365e-01 -1.197123527526855469e-01
-8.934830427169799805e-01 2.001934200525283813e-01 5.136031657457351685e-02
-8.578519821166992188e-01 1.939630210399627686e-01 -2.802172601222991943e-01
-8.232148885726928711e-01 4.999892413616180420e-02 -1.548200249671936035e-01
-7.921189665794372559e-01 2.209271639585494995e-01 -3.895799517631530762e-01
-8.238008022308349609e-01 4.233743250370025635e-02 -1.004403010010719299e-01
-8.316038250923156738e-01 8.758626878261566162e-02 1.797480881214141846e-01
-7.256180644035339355e-01 2.517426311969757080e-01 3.748166859149932861e-01
-6.671780347824096680e-01 1.259784102439880371e-01 -2.548103630542755127e-01
-7.444708347320556641e-01 4.281625151634216309e-02 1.350878924131393433e-01
-7.316303849220275879e-01 8.881998062133789062e-02 2.485109120607376099e-01
-8.761292695999145508e-01 1.424787342548370361e-01 1.189023628830909729e-01
-8.618741631507873535e-01 8.592373132705688477e-02 -9.750211238861083984e-02
-7.781227231025695801e-01 3.865562379360198975e-01 2.577317357063293457e-01
-7.907657623291015625e-01 1.269913315773010254e-01 -3.563576042652130127e-01
-6.916130185127258301e-01 1.043871641159057617e-01 2.241264283657073975e-01
-8.374858498573303223e-01 3.804451823234558105e-01 -9.827323257923126221e-02
-8.546773195266723633e-01 3.069063425064086914e-01 -2.228614091873168945e-01
-8.952251076698303223e-01 2.342348098754882812e-01 -3.090173378586769104e-02
-7.583552598953247070e-01 3.365856409072875977e-02 -1.818204224109649658e-01
-8.470292091369628906e-01 1.769870221614837646e-01 2.643722593784332275e-01
-7.033441662788391113e-01 4.326333999633789062e-01 1.080578286200761795e-02
-8.150643706321716309e-01 3.922367691993713379e-01 -1.486508548259735107e-01
-6.807494163513183594e-01 1.234179064631462097e-01 -2.866554856300354004e-01
-7.663574814796447754e-01 7.897052168846130371e-02 2.396924048662185669e-01
-8.200010061264038086e-01 1.445727348327636719e-01 2.897911369800567627e-01
-6.791112422943115234e-01 1.661260724067687988e-01 2.868625521659851074e-01
-6.211174726486206055e-01 2.335171252489089966e-01 1.372778415679931641e-01
-8.299393057823181152e-01 1.891085207462310791e-01 3.066733181476593018e-01
-6.772894263267517090e-01 1.247111260890960693e-01 2.294925451278686523e-01
-7.574101686477661133e-01 3.782265782356262207e-01 -2.667013406753540039e-01
-8.745481967926025391e-01 1.154658496379852295e-01 -1.140973269939422607e-01
-8.599485754966735840e-01 3.421368002891540527e-01 -1.168913170695304871e-01
-7.907190322875976562e-01 1.146878823637962341e-01 -3.443032503128051758e-01
-8.102046251296997070e-01 4.984048008918762207e-02 -1.932418644428253174e-01
-6.248213052749633789e-01 3.166828751564025879e-01 1.076174378395080566e-01
-8.913115262985229492e-01 2.338200062513351440e-01 -1.056077033281326294e-01
-8.698688745498657227e-01 2.250751554965972900e-01 -2.387308180332183838e-01
-6.849004030227661133e-01 1.071120500564575195e-01 -2.710931003093719482e-01
-6.414965987205505371e-01 3.523338735103607178e-01 -1.241696998476982117e-01
-8.415659666061401367e-01 3.850362300872802734e-01 -1.547522656619548798e-02
-6.496749520301818848e-01 3.637509047985076904e-01 -1.347509920597076416e-01
-8.353344798088073730e-01 7.213191688060760498e-02 -1.958984285593032837e-01
-8.516097664833068848e-01 7.131017744541168213e-02 3.420175611972808838e-02
-7.927522659301757812e-01 4.987199604511260986e-02 1.480792313814163208e-01
-8.363701105117797852e-01 1.689976006746292114e-01 -3.243544995784759521e-01
-8.308520913124084473e-01 3.575072586536407471e-01 -2.033278197050094604e-01
-7.837642431259155273e-01 3.485353589057922363e-01 3.135753273963928223e-01
-7.135146856307983398e-01 3.257998824119567871e-01 -3.322394192218780518e-01
-7.051213383674621582e-01 1.056294664740562439e-01 2.498469203710556030e-01
-7.429088354110717773e-01 3.002930283546447754e-01 -3.695905804634094238e-01
-7.716572880744934082e-01 7.928471267223358154e-02 -3.053571879863739014e-01
-8.008440136909484863e-01 4.953268170356750488e-02 1.350470036268234253e-01
-6.322119832038879395e-01 2.678694128990173340e-01 1.980760395526885986e-01
-6.412203311920166016e-01 2.714472413063049316e-01 -2.401760518550872803e-01
-8.129218220710754395e-01 3.233522176742553711e-02 -4.366382211446762085e-02
-8.077215552330017090e-01 3.127119541168212891e-01 3.222013711929321289e-01
-6.950300335884094238e-01 1.660423427820205688e-01 3.127834796905517578e-01
-8.642889261245727539e-01 9.325054287910461426e-02 -1.152327507734298706e-01
-8.541288375854492188e-01 7.163183391094207764e-02 5.567594431340694427e-03
-8.650979995727539062e-01 2.498636692762374878e-01 2.261984795331954956e-01
-7.457035779953002930e-01 4.094860553741455078e-01 2.207415252923965454e-01
-8.940947651863098145e-01 1.945195496082305908e-01 3.433302789926528931e-02
-8.160024881362915039e-01 6.840759515762329102e-02 -2.372146099805831909e-01
-7.403115034103393555e-01 4.280386865139007568e-02 -2.073692828416824341e-01
-7.859643101692199707e-01 1.383246779441833496e-01 3.192139267921447754e-01
-7.422617077827453613e-01 6.813533604145050049e-02 2.109013199806213379e-01
-6.269477009773254395e-01 1.720808148384094238e-01 -1.413736641407012939e-01
-6.680439710617065430e-01 3.554011285305023193e-01 2.362117469310760498e-01
-7.982724905014038086e-01 4.027716815471649170e-01 -1.562411934137344360e-01
-6.276734471321105957e-01 2.907761037349700928e-01 -1.650776118040084839e-01
-7.035417556762695312e-01 3.977426886558532715e-01 2.224184274673461914e-01
-8.273854255676269531e-01 3.989862203598022461e-01 6.992490589618682861e-02
-7.867550253868103027e-01 2.493836432695388794e-01 -3.869490325450897217e-01
-8.370581865310668945e-01 5.762977898120880127e-02 -1.281119436025619507e-01
-7.493354678153991699e-01 4.227581024169921875e-01 1.753029674291610718e-01
-6.111545562744140625e-01 2.403220236301422119e-01 -4.217879846692085266e-02
-7.567521333694458008e-01 3.824543654918670654e-01 2.797827720642089844e-01
-7.084039449691772461e-01 4.308272004127502441e-01 -5.489255487918853760e-02
-7.902566194534301758e-01 6.774958968162536621e-02 2.022217810153961182e-01
-8.940375447273254395e-01 1.831709146499633789e-01 -4.876508191227912903e-02
-7.015894055366516113e-01 3.980402648448944092e-02 -2.673648670315742493e-02
-8.509095907211303711e-01 2.381373494863510132e-01 2.722541689872741699e-01
-6.117669343948364258e-01 2.345862239599227905e-01 -5.515979975461959839e-02
-6.219366192817687988e-01 3.263478875160217285e-01 2.262608334422111511e-02
-8.806122541427612305e-01 2.779826223850250244e-01 -1.399657577276229858e-01
-6.631039381027221680e-01 1.112845018506050110e-01 1.589510589838027954e-01
-6.280556917190551758e-01 2.088702619075775146e-01 -1.887743324041366577e-01
-7.443150281906127930e-01 2.853493988513946533e-01 -3.805051445960998535e-01
-7.455261349678039551e-01 1.505618095397949219e-01 -3.837043046951293945e-01
-7.400994896888732910e-01 4.332872033119201660e-01 -8.652823418378829956e-02
-6.829812526702880859e-01 3.254273831844329834e-01 -2.957324385643005371e-01
-6.902319788932800293e-01 4.233870506286621094e-01 -3.832954913377761841e-02
-6.731910109519958496e-01 2.820095419883728027e-01 -3.166413903236389160e-01
-8.504230380058288574e-01 1.956990808248519897e-01 -3.007973432540893555e-01
-7.606608271598815918e-01 1.991435885429382324e-02 -8.464336395263671875e-03
-6.579030752182006836e-01 2.149606496095657349e-01 -2.994400858879089355e-01
-6.177930235862731934e-01 2.933849096298217773e-01 -8.439709246158599854e-02
-6.508571505546569824e-01 1.019605249166488647e-01 -1.118916049599647522e-01
-8.435428142547607422e-01 2.159766256809234619e-01 -3.175100088119506836e-01
-7.077817320823669434e-01 1.423981785774230957e-01 -3.517509698867797852e-01
-6.183355450630187988e-01 2.236873507499694824e-01 -1.315342336893081665e-01
-8.220437169075012207e-01 2.651948332786560059e-01 -3.406778275966644287e-01
-8.547784686088562012e-01 3.333674073219299316e-01 1.767077445983886719e-01
-6.598986983299255371e-01 8.902315795421600342e-02 6.060746312141418457e-02
-6.507002115249633789e-01 2.181097269058227539e-01 -2.803186178207397461e-01
-8.323127627372741699e-01 3.723257184028625488e-01 1.736812293529510498e-01
-8.469973802566528320e-01 7.313993573188781738e-02 7.833594083786010742e-02
-8.881858587265014648e-01 2.608660757541656494e-01 -1.039312630891799927e-01
-8.078634738922119141e-01 3.846383094787597656e-01 -1.933146566152572632e-01
-8.886191844940185547e-01 1.692968010902404785e-01 -1.123510375618934631e-01
-6.923015117645263672e-01 7.357163727283477783e-02 -2.145924419164657593e-01
-7.880143523216247559e-01 2.216860651969909668e-02 -4.187574610114097595e-02
-6.209714412689208984e-01 2.680913805961608887e-01 -1.442426443099975586e-01
-8.547756075859069824e-01 7.091432809829711914e-02 -4.010178893804550171e-02
-6.373679637908935547e-01 1.683554053306579590e-01 -2.000605911016464233e-01
-8.882179260253906250e-01 1.536815166473388672e-01 -8.074326813220977783e-02
-8.746698498725891113e-01 1.059295237064361572e-01 -3.110644593834877014e-02
-7.947936058044433594e-01 2.379394322633743286e-01 3.633295893669128418e-01
-6.687310338020324707e-01 2.392223179340362549e-01 -3.241851031780242920e-01
-6.122869253158569336e-01 2.724482119083404541e-01 3.150898590683937073e-02
-8.443221449851989746e-01 3.311241865158081055e-01 2.217380851507186890e-01
-6.253768801689147949e-01 1.549530923366546631e-01 -7.103458046913146973e-02
-8.469854593276977539e-01 1.167214214801788330e-01 -2.534110546112060547e-01
-7.202502489089965820e-01 2.743422091007232666e-01 3.689289987087249756e-01
-7.387853264808654785e-01 4.045242965221405029e-01 2.337917983531951904e-01
-6.370934247970581055e-01 2.903993725776672363e-01 2.084891349077224731e-01
-8.235539793968200684e-01 1.841471642255783081e-01 -3.519542813301086426e-01
-7.251943349838256836e-01 2.713219821453094482e-02 -5.727312713861465454e-02
-7.830946445465087891e-01 6.094944477081298828e-02 1.907143443822860718e-01
-8.843919634819030762e-01 1.601248085498809814e-01 9.259083122014999390e-02
-6.501011252403259277e-01 2.768732309341430664e-01 -2.654773592948913574e-01
-8.242238163948059082e-01 2.892533242702484131e-01 -3.194886445999145508e-01
-8.428542613983154297e-01 1.853158771991729736e-01 2.791419029235839844e-01
-6.684750914573669434e-01 7.649786770343780518e-02 5.241364985704421997e-02
-7.530987858772277832e-01 3.710758090019226074e-01 2.997684180736541748e-01
-6.684010028839111328e-01 3.136464059352874756e-01 2.847989499568939209e-01
-6.684122681617736816e-01 3.661656975746154785e-01 -1.989978104829788208e-01
-8.814819455146789551e-01 1.913761198520660400e-01 -1.843547523021697998e-01
-7.120674252510070801e-01 4.181221127510070801e-01 1.710633635520935059e-01
-8.928766846656799316e-01 2.384793758392333984e-01 -8.033747225999832153e-02
-6.621661186218261719e-01 9.428854286670684814e-02 -1.603877693414688110e-01
-6.679166555404663086e-01 2.479396760463714600e-01 3.058279752731323242e-01
-8.716580867767333984e-01 3.338576853275299072e-01 2.559643238782882690e-02
-7.730517387390136719e-01 2.232235074043273926e-01 3.752420246601104736e-01
-6.594199538230895996e-01 1.715368032455444336e-01 2.471131831407546997e-01
-6.697725653648376465e-01 3.255622982978820801e-01 2.775820493698120117e-01
-8.854842185974121094e-01 2.240567803382873535e-01 -1.604429334402084351e-01
-6.471861600875854492e-01 1.201792284846305847e-01 -1.573134809732437134e-01
-6.297014951705932617e-01 3.193649053573608398e-01 1.394996643066406250e-01
-6.424380540847778320e-01 3.582224845886230469e-01 1.283929497003555298e-01
-6.292625665664672852e-01 1.410420835018157959e-01 8.539200760424137115e-03
-7.878772020339965820e-01 2.920484542846679688e-02 5.855225771665573120e-02
-6.863345503807067871e-01 6.780047714710235596e-02 1.070526838302612305e-01
-6.302410364151000977e-01 1.422332376241683960e-01 -8.312977850437164307e-02
-6.783909201622009277e-01 3.280498087406158447e-01 2.923694550991058350e-01
-8.864605426788330078e-01 2.331450581550598145e-01 1.245883628726005554e-01
-6.405454277992248535e-01 1.168710812926292419e-01 -8.017589151859283447e-02
-8.113198876380920410e-01 3.727245330810546875e-01 -2.170506417751312256e-01
-7.621491551399230957e-01 3.375239372253417969e-01 -3.303659260272979736e-01
-6.182995438575744629e-01 2.404949665069580078e-01 -1.348831802606582642e-01
-8.629408478736877441e-01 9.997154772281646729e-02 8.971142768859863281e-02
-7.002230882644653320e-01 7.574257254600524902e-02 1.750686913728713989e-01
-8.420321345329284668e-01 1.018064618110656738e-01 -2.439512163400650024e-01
-6.592186689376831055e-01 2.311293333768844604e-01 -3.037566542625427246e-01
-7.073105573654174805e-01 3.798904418945312500e-01 2.656407356262207031e-01
-7.192351818084716797e-01 5.526788532733917236e-02 -2.206338793039321899e-01
-6.244537830352783203e-01 2.428734600543975830e-01 1.607553958892822266e-01
-6.941468119621276855e-01 2.879697084426879883e-01 -3.453227579593658447e-01
-8.098059296607971191e-01 3.720451593399047852e-01 2.391605824232101440e-01
-6.525838375091552734e-01 1.179001778364181519e-01 -1.819612830877304077e-01
-8.715997338294982910e-01 1.291339993476867676e-01 1.186125054955482483e-01
-7.248972654342651367e-01 7.748384773731231689e-02 2.186032533645629883e-01
-6.812862753868103027e-01 2.555557191371917725e-01 3.298657238483428955e-01
-7.047908902168273926e-01 2.906585931777954102e-01 -3.553881943225860596e-01
-6.511222720146179199e-01 9.779845178127288818e-02 2.875036746263504028e-02
-8.173772692680358887e-01 3.619894683361053467e-01 -2.283796370029449463e-01
-8.867712020874023438e-01 1.564616262912750244e-01 -1.085716038942337036e-01
-6.399475336074829102e-01 2.328076660633087158e-01 2.278856039047241211e-01
-8.467200994491577148e-01 1.024993062019348145e-01 -2.307559549808502197e-01
-6.983152031898498535e-01 3.164976239204406738e-01 -3.269145488739013672e-01
-7.556805610656738281e-01 9.591220319271087646e-02 2.713543176651000977e-01
-6.580811142921447754e-01 1.178118437528610229e-01 -2.073955982923507690e-01
-6.713883876800537109e-01 1.549066305160522461e-01 -3.006792366504669189e-01
-8.079319596290588379e-01 4.233907163143157959e-02 -1.673769354820251465e-01
-7.790681719779968262e-01 9.260354936122894287e-02 -3.237425684928894043e-01
-8.480467796325683594e-01 2.610980868339538574e-01 -2.902531325817108154e-01
-6.233292818069458008e-01 1.921585798263549805e-01 1.143017783761024475e-01
-6.941491961479187012e-01 4.968772828578948975e-02 -1.134924665093421936e-01
-7.209009528160095215e-01 7.317861914634704590e-02 2.036455571651458740e-01
-8.716427087783813477e-01 1.109187752008438110e-01 6.481038033962249756e-02
-8.248646855354309082e-01 4.035120308399200439e-01 -1.549325231462717056e-02
-8.496143817901611328e-01 3.746352791786193848e-01 4.647293128073215485e-03
-6.259083747863769531e-01 3.385415673255920410e-01 -1.292956434190273285e-02
-6.125285029411315918e-01 2.301112860441207886e-01 4.859507456421852112e-02
-7.196078896522521973e-01 1.314177811145782471e-01 -3.542601764202117920e-01
-8.528851866722106934e-01 1.601111590862274170e-01 -2.805965244770050049e-01
-6.367635130882263184e-01 1.955019533634185791e-01 1.933982223272323608e-01
-8.242056965827941895e-01 1.933511644601821899e-01 3.181582391262054443e-01
-6.458848714828491211e-01 1.944765150547027588e-01 -2.571778297424316406e-01
-6.886806488037109375e-01 3.956400156021118164e-01 2.005075365304946899e-01
-7.368422150611877441e-01 2.823834121227264404e-02 -1.272471845149993896e-01
-6.215146183967590332e-01 1.686357855796813965e-01 -6.943761557340621948e-02
-8.005493879318237305e-01 4.229784607887268066e-01 -6.361204199492931366e-03
-8.875441551208496094e-01 2.661378979682922363e-01 8.559962362051010132e-02
-8.464370369911193848e-01 1.465696543455123901e-01 -2.878911793231964111e-01
-8.692815303802490234e-01 2.054199278354644775e-01 -2.432446181774139404e-01
-8.590514659881591797e-01 2.343345880508422852e-01 -2.730717360973358154e-01
-8.612947463989257812e-01 1.620229482650756836e-01 2.114068716764450073e-01
-7.476266026496887207e-01 4.193875193595886230e-01 1.886510103940963745e-01
-8.642769455909729004e-01 3.223537802696228027e-01 -1.499661207199096680e-01
-6.521440148353576660e-01 1.747797876596450806e-01 -2.648371160030364990e-01
-7.653661370277404785e-01 3.199686110019683838e-02 9.477314352989196777e-02
-6.234153509140014648e-01 2.128878235816955566e-01 1.393531858921051025e-01
-7.022027969360351562e-01 3.708664774894714355e-01 -2.555240988731384277e-01
-7.489743232727050781e-01 3.506263494491577148e-01 -3.149503171443939209e-01
-6.442418694496154785e-01 3.717502355575561523e-01 8.573376387357711792e-02
-7.666199207305908203e-01 5.365461111068725586e-02 1.775821149349212646e-01
-7.751443982124328613e-01 4.095491766929626465e-01 2.017979025840759277e-01
-8.911827206611633301e-01 2.593032419681549072e-01 4.936396330595016479e-02
-7.154529690742492676e-01 3.540109395980834961e-01 -2.974998354911804199e-01
-6.947487592697143555e-01 2.529917359352111816e-01 -3.628627955913543701e-01
-7.065821886062622070e-01 4.184609651565551758e-01 -1.269483417272567749e-01
-6.245555281639099121e-01 1.786616891622543335e-01 9.985671192407608032e-02
-8.104612827301025391e-01 4.105451107025146484e-01 1.026556342840194702e-01
-8.191474080085754395e-01 1.508177816867828369e-01 -3.438889384269714355e-01
-6.146211624145507812e-01 2.873412072658538818e-01 -5.137964710593223572e-02
-6.262258887290954590e-01 3.386781215667724609e-01 3.534962236881256104e-02
-7.069432139396667480e-01 1.280704587697982788e-01 2.867234349250793457e-01
-8.759853839874267578e-01 1.906544119119644165e-01 1.758296191692352295e-01
-8.415019512176513672e-01 5.748726427555084229e-02 -9.131351858377456665e-02
-8.119904994964599609e-01 2.421954572200775146e-01 3.450395464897155762e-01
-8.673399686813354492e-01 1.986129432916641235e-01 2.156824022531509399e-01
-6.952638030052185059e-01 4.237859845161437988e-01 -6.289449334144592285e-02
-6.404209733009338379e-01 1.144283264875411987e-01 -2.905707806348800659e-03
-6.734286546707153320e-01 1.784157603979110718e-01 -3.219363391399383545e-01
-7.102377414703369141e-01 8.347406983375549316e-02 2.131278663873672485e-01
-8.946113586425781250e-01 1.897197365760803223e-01 1.146963890641927719e-02
-8.398132920265197754e-01 1.447783112525939941e-01 -3.022044897079467773e-01
-7.839119434356689453e-01 4.187787175178527832e-01 1.514081507921218872e-01
-8.737986087799072266e-01 1.099154353141784668e-01 -9.717652201652526855e-02
-8.765805363655090332e-01 1.110993623733520508e-01 -7.282555568963289261e-03
-8.817368745803833008e-01 1.253561973571777344e-01 4.034005105495452881e-04
-8.197466731071472168e-01 4.006531238555908203e-01 1.145589724183082581e-01
-6.354753971099853516e-01 1.252389550209045410e-01 -5.156734958291053772e-02
-6.523959636688232422e-01 1.238884106278419495e-01 -1.954736709594726562e-01
-7.384766936302185059e-01 2.485461533069610596e-02 1.799343153834342957e-02
-7.800824642181396484e-01 4.125456213951110840e-01 -1.547971367835998535e-01
-6.279914379119873047e-01 3.446921706199645996e-01 3.872619941830635071e-03
-6.800906658172607422e-01 1.779943257570266724e-01 2.991139292716979980e-01
-7.501616477966308594e-01 2.420768141746520996e-02 -1.178575977683067322e-01
-8.782994747161865234e-01 1.867750585079193115e-01 -1.997882276773452759e-01
-7.811095118522644043e-01 3.843715786933898926e-02 1.168265268206596375e-01
-6.811049580574035645e-01 3.159978985786437988e-01 3.071506619453430176e-01
-6.874619126319885254e-01 5.081112682819366455e-02 -2.424582093954086304e-02
-8.728407025337219238e-01 1.992643922567367554e-01 -2.284573912620544434e-01
-8.691170215606689453e-01 2.721998393535614014e-01 -2.111596018075942993e-01
-8.502086997032165527e-01 8.310587704181671143e-02 1.018592566251754761e-01
-7.366764545440673828e-01 4.395312964916229248e-01 -2.446109429001808167e-02
-6.762162446975708008e-01 4.033057093620300293e-01 -1.062111929059028625e-01
-6.512089967727661133e-01 3.884109854698181152e-01 1.544424798339605331e-02
-6.759158372879028320e-01 4.045365452766418457e-01 1.286455094814300537e-01
-6.167728304862976074e-01 2.514568865299224854e-01 -1.200514212250709534e-01
-6.735590100288391113e-01 4.133129715919494629e-01 2.629629522562026978e-02
-7.024908065795898438e-01 4.167325794696807861e-02 -9.670825302600860596e-02
-7.674978971481323242e-01 4.208631813526153564e-01 1.698192059993743896e-01
-8.388975262641906738e-01 6.133745610713958740e-02 6.499073654413223267e-02
-8.610360622406005859e-01 3.060143887996673584e-01 1.964326053857803345e-01
-8.741754889488220215e-01 2.542442083358764648e-01 -2.052431851625442505e-01
-6.569508910179138184e-01 8.798900246620178223e-02 2.084432169795036316e-02
-8.744291663169860840e-01 2.400481551885604858e-01 -2.136413902044296265e-01
-7.746254205703735352e-01 1.328835338354110718e-01 -3.699792623519897461e-01
-6.183356046676635742e-01 3.050659596920013428e-01 6.267744302749633789e-02
-8.558062911033630371e-01 1.393660306930541992e-01 2.034092843532562256e-01
-7.915837764739990234e-01 1.540384292602539062e-01 -3.752883970737457275e-01
-7.893072962760925293e-01 3.613351881504058838e-01 -2.757835686206817627e-01
-6.360924243927001953e-01 1.285884231328964233e-01 -9.184958785772323608e-02
-7.677566409111022949e-01 5.841030180454254150e-02 1.909295171499252319e-01
-6.379811167716979980e-01 3.527382314205169678e-01 -9.887658059597015381e-02
-8.791262507438659668e-01 1.765306591987609863e-01 1.490214616060256958e-01
-6.395274400711059570e-01 3.696416020393371582e-01 1.729949377477169037e-03
-7.837391495704650879e-01 4.124520719051361084e-02 -2.036682963371276855e-01
-8.687857389450073242e-01 1.089594364166259766e-01 8.080120384693145752e-02
-6.122229099273681641e-01 2.221364080905914307e-01 2.983597293496131897e-02
-7.182224988937377930e-01 4.635420441627502441e-02 1.115461960434913635e-01
-7.240890860557556152e-01 3.850279450416564941e-01 2.706665098667144775e-01
-6.958062648773193359e-01 2.635267078876495361e-01 3.491596877574920654e-01
-8.893991708755493164e-01 2.013916522264480591e-01 -1.321337521076202393e-01
-6.614478826522827148e-01 4.012355506420135498e-01 7.317171432077884674e-03
-7.421718239784240723e-01 3.759579658508300781e-01 2.926492094993591309e-01
-8.114370703697204590e-01 3.402353525161743164e-01 2.881799340248107910e-01
-6.511157155036926270e-01 3.807961344718933105e-01 9.803224354982376099e-02
-6.757935881614685059e-01 4.130834937095642090e-01 -3.596537932753562927e-02
-8.728464245796203613e-01 1.058525890111923218e-01 2.504419535398483276e-02
-8.916411399841308594e-01 2.519411444664001465e-01 -7.664938271045684814e-02
-7.390756011009216309e-01 2.011540085077285767e-01 3.702425658702850342e-01
-7.326067686080932617e-01 4.170375168323516846e-01 1.947988867759704590e-01
-8.036529421806335449e-01 4.197202324867248535e-01 6.243733316659927368e-02
-6.314545273780822754e-01 1.769927740097045898e-01 -1.793020963668823242e-01
-6.987755894660949707e-01 1.526240408420562744e-01 -3.484149873256683350e-01
-7.546714544296264648e-01 4.394659996032714844e-01 -1.544578932225704193e-02
-8.477300405502319336e-01 3.735641539096832275e-01 7.233084738254547119e-02
-8.749123811721801758e-01 2.624414861202239990e-01 -1.942999660968780518e-01
-7.642073631286621094e-01 7.036638259887695312e-02 -2.900214493274688721e-01
-8.488426208496093750e-01 3.608044087886810303e-01 1.307074874639511108e-01
-8.153041005134582520e-01 4.084008932113647461e-01 -6.074136123061180115e-02
-6.277436614036560059e-01 1.466840207576751709e-01 2.197666838765144348e-02
-6.340414881706237793e-01 3.585695028305053711e-01 -7.169556804001331329e-03
-7.299008965492248535e-01 3.905260860919952393e-01 -2.384139150381088257e-01
-6.308227777481079102e-01 1.604448705911636353e-01 1.086166724562644958e-01
-7.147288918495178223e-01 8.870136737823486328e-02 2.308847904205322266e-01
-6.872152090072631836e-01 5.251076817512512207e-02 9.312500245869159698e-03
-7.766772508621215820e-01 4.061058759689331055e-01 -1.826611459255218506e-01
