-1.068509221076965332e-01 -8.452973328530788422e-03 -5.156509280204772949e-01
2.440545335412025452e-02 -1.123840268701314926e-02 -4.498879909515380859e-01
-6.415565311908721924e-02 3.261798992753028870e-02 -6.834756731986999512e-01
-1.547512114048004150e-01 3.048209473490715027e-02 -8.218928575515747070e-01
-9.829445183277130127e-02 -1.003253925591707230e-02 -4.983322024345397949e-01
1.276062056422233582e-02 -1.577859371900558472e-02 -4.201007485389709473e-01
-1.617112308740615845e-01 3.668696060776710510e-02 -7.816708683967590332e-01
-4.718055203557014465e-02 2.738690376281738281e-02 -6.076768636703491211e-01
-1.693526506423950195e-01 1.313809119164943695e-02 -7.252441644668579102e-01
-4.646966978907585144e-02 -1.490596588701009750e-02 -4.559577405452728271e-01
4.862390831112861633e-02 2.384124323725700378e-03 -5.006437897682189941e-01
4.341592267155647278e-02 3.053441178053617477e-03 -3.797223865985870361e-01
-4.436818882822990417e-02 3.812322858721017838e-03 -6.172919273376464844e-01
-1.280050873756408691e-01 5.330348387360572815e-03 -5.187233686447143555e-01
-6.321970373392105103e-03 1.930984668433666229e-02 -5.205056667327880859e-01
-1.920734643936157227e-01 3.103101253509521484e-02 -7.677302360534667969e-01
1.677576825022697449e-02 2.005983516573905945e-02 -5.593438148498535156e-01
-1.038218736648559570e-01 8.864975534379482269e-03 -5.027326941490173340e-01
-1.040941104292869568e-02 2.513480186462402344e-02 -6.025134921073913574e-01
-6.108231842517852783e-03 2.184206806123256683e-02 -5.505036115646362305e-01
6.873495876789093018e-02 -5.573893897235393524e-03 -4.263596534729003906e-01
-1.679033041000366211e-03 -5.927007645368576050e-03 -5.154060125350952148e-01
-1.727563142776489258e-01 1.250989455729722977e-02 -6.224987506866455078e-01
-6.032917276024818420e-02 2.909440547227859497e-02 -6.284433603286743164e-01
-1.693166196346282959e-01 9.206530638039112091e-03 -6.877775192260742188e-01
-5.793585255742073059e-02 -1.335859950631856918e-02 -4.757971167564392090e-01
1.832878217101097107e-02 -1.257232669740915298e-02 -3.016729354858398438e-01
-1.229632198810577393e-01 3.448210284113883972e-02 -7.149891257286071777e-01
6.252950429916381836e-02 2.230743877589702606e-03 -3.806833624839782715e-01
-8.921200037002563477e-02 2.830080315470695496e-02 -6.284833550453186035e-01
-8.724214136600494385e-02 1.255438569933176041e-02 -7.009785175323486328e-01
-9.155534207820892334e-03 -1.582912355661392212e-02 -3.164767622947692871e-01
-4.004203155636787415e-02 2.101739123463630676e-02 -5.399737954139709473e-01
-1.238027662038803101e-01 2.727587893605232239e-02 -6.437152028083801270e-01
-1.103660166263580322e-01 -5.780051462352275848e-03 -5.564635992050170898e-01
-8.286117017269134521e-02 3.038272261619567871e-04 -6.155526041984558105e-01
-1.334162801504135132e-01 1.943950913846492767e-02 -5.961554646492004395e-01
1.585258916020393372e-02 8.241836912930011749e-03 -4.201660752296447754e-01
-1.666220650076866150e-02 9.794167242944240570e-03 -4.410408139228820801e-01
-1.270667165517807007e-01 -3.659672103822231293e-03 -5.701672434806823730e-01
-1.606878191232681274e-01 3.210670314729213715e-03 -6.109067201614379883e-01
-6.393139064311981201e-02 5.325871054083108902e-03 -4.447048008441925049e-01
-1.112341135740280151e-01 3.636466711759567261e-02 -7.393592000007629395e-01
-1.584705114364624023e-01 1.471429131925106049e-02 -7.402113676071166992e-01
-8.799844980239868164e-02 3.729214891791343689e-03 -6.438813805580139160e-01
-1.083057075738906860e-01 2.863345667719841003e-02 -6.433396339416503906e-01
-5.411680787801742554e-03 -1.112963072955608368e-03 -3.670539855957031250e-01
3.691409155726432800e-02 -1.169062685221433640e-02 -4.325895011425018311e-01
-9.861004352569580078e-02 1.500563882291316986e-02 -7.220601439476013184e-01
2.011233940720558167e-02 3.456819336861371994e-03 -3.842567801475524902e-01
-8.693622052669525146e-02 3.522724285721778870e-02 -7.251187562942504883e-01
-1.457013189792633057e-02 -1.008877065032720566e-02 -4.928914904594421387e-01
-5.294585227966308594e-02 1.091771107167005539e-02 -6.658124923706054688e-01
-4.060144722461700439e-02 2.376759052276611328e-02 -5.667651891708374023e-01
-1.009337529540061951e-01 3.095262125134468079e-02 -6.617530584335327148e-01
-1.315154433250427246e-01 1.991880126297473907e-02 -7.664572596549987793e-01
-1.781992986798286438e-02 -1.783862337470054626e-02 -4.131675958633422852e-01
4.653229936957359314e-02 -1.103999745100736618e-02 -2.949640452861785889e-01
3.074668347835540771e-03 8.277937769889831543e-03 -5.935928225517272949e-01
-1.595159173011779785e-01 3.310012817382812500e-02 -7.332881689071655273e-01
3.761476650834083557e-02 -2.197016775608062744e-02 -2.919619977474212646e-01
-9.556791186332702637e-02 -1.086834352463483810e-02 -4.627284407615661621e-01
-3.827916085720062256e-02 2.894339337944984436e-02 -6.353829503059387207e-01
-7.472302764654159546e-02 -6.342667154967784882e-03 -4.098340272903442383e-01
-1.386398971080780029e-01 3.145341761410236359e-03 -5.310401320457458496e-01
-1.660109460353851318e-01 2.654473856091499329e-02 -6.851925849914550781e-01
-4.840808361768722534e-02 1.965809240937232971e-02 -7.000931501388549805e-01
-2.687130495905876160e-02 2.441491559147834778e-02 -5.744596719741821289e-01
-1.399669051170349121e-02 1.972195226699113846e-03 -3.893265426158905029e-01
-7.499146461486816406e-02 2.962302416563034058e-02 -6.368020772933959961e-01
-3.276492655277252197e-02 1.562837511301040649e-03 -3.994777500629425049e-01
2.671227231621742249e-02 1.769526675343513489e-02 -5.338367819786071777e-01
7.689796388149261475e-02 -1.107600983232259750e-02 -2.973332703113555908e-01
-1.107053905725479126e-01 1.859720423817634583e-02 -5.669231414794921875e-01
-1.953909248113632202e-01 3.194658458232879639e-02 -7.890788912773132324e-01
1.555431261658668518e-02 -6.024813279509544373e-03 -3.302865326404571533e-01
-1.426566392183303833e-03 -2.372813411056995392e-03 -5.397313237190246582e-01
-6.219549477100372314e-02 1.396307162940502167e-02 -4.958209097385406494e-01
-5.886863172054290771e-02 2.547336276620626450e-03 -4.259078204631805420e-01
6.378311663866043091e-03 4.301772452890872955e-03 -3.940567970275878906e-01
-7.544390112161636353e-02 1.622677780687808990e-02 -7.117722630500793457e-01
-4.757861047983169556e-02 -1.636124402284622192e-02 -4.330598413944244385e-01
7.544617354869842529e-02 -7.801913656294345856e-03 -3.140061497688293457e-01
2.504167333245277405e-02 -2.206623926758766174e-02 -3.220588564872741699e-01
-4.029382392764091492e-02 1.097837649285793304e-02 -4.614220261573791504e-01
-5.096748471260070801e-02 -1.616843044757843018e-02 -3.773998022079467773e-01
5.555656179785728455e-02 -1.105506066232919693e-02 -4.132234454154968262e-01
-7.873534411191940308e-02 -7.418037950992584229e-02 2.744635567069053650e-03
2.420534193515777588e-02 -6.680772453546524048e-02 -3.028168808668851852e-03
-5.984914302825927734e-02 -7.228566706180572510e-02 -2.392715960741043091e-02
1.011571288108825684e-02 -8.342093229293823242e-02 6.803991273045539856e-04
-1.096834428608417511e-02 -8.365405350923538208e-02 -7.646657526493072510e-03
1.180908679962158203e-01 -8.287496119737625122e-02 -1.844923943281173706e-03
-2.127647586166858673e-02 -6.752843409776687622e-02 -1.812382414937019348e-02
8.825113624334335327e-02 -7.451309263706207275e-02 -3.026587516069412231e-02
3.823980689048767090e-03 -7.088096439838409424e-02 1.341842021793127060e-02
1.452959477901458740e-01 -7.877887040376663208e-02 -1.770419813692569733e-02
4.530595988035202026e-02 -8.488981425762176514e-02 -2.702701836824417114e-03
-2.788432873785495758e-02 -8.200355619192123413e-02 -2.082172781229019165e-02
1.975390687584877014e-02 -7.127287238836288452e-02 -2.998127788305282593e-02
4.049963131546974182e-02 -7.564973086118698120e-02 1.484623830765485764e-02
1.003126278519630432e-01 -8.057524263858795166e-02 6.264700554311275482e-03
1.169146820902824402e-01 -8.009012043476104736e-02 -2.912681177258491516e-02
8.179824054241180420e-02 -8.317816257476806641e-02 3.312282264232635498e-03
7.336380332708358765e-02 -8.581867069005966187e-02 -9.743695147335529327e-03
3.395383432507514954e-02 -7.158399373292922974e-02 -3.021830692887306213e-02
-4.464506357908248901e-02 -6.721999496221542358e-02 -1.266250759363174438e-02
-4.378634691238403320e-02 -7.927428185939788818e-02 -2.463398501276969910e-02
5.283467099070549011e-02 -6.783712655305862427e-02 -1.197824813425540924e-02
2.856443636119365692e-02 -8.524835854768753052e-02 -8.427382446825504303e-03
2.643496729433536530e-02 -7.691141217947006226e-02 1.469730865210294724e-02
-4.381323605775833130e-02 -6.913346052169799805e-02 8.126080967485904694e-03
-2.359266392886638641e-02 -6.723228842020034790e-02 4.040739499032497406e-03
-5.410967394709587097e-03 -6.705544143915176392e-02 -1.619552075862884521e-02
7.822960615158081055e-04 -7.272240519523620605e-02 -3.186988085508346558e-02
1.377860307693481445e-01 -7.990978658199310303e-02 -3.038499038666486740e-03
-1.301500387489795685e-02 -7.324881106615066528e-02 1.461579371243715286e-02
1.003204286098480225e-01 -8.467546105384826660e-02 -2.350248023867607117e-02
5.248291790485382080e-02 -8.293813467025756836e-02 -3.104618936777114868e-02
6.314724683761596680e-02 -8.192539215087890625e-02 7.528875954449176788e-03
7.966572791337966919e-02 -8.473672717809677124e-02 -2.559113316237926483e-02
-8.848856389522552490e-02 -7.125288248062133789e-02 -8.500418625771999359e-03
1.211620345711708069e-01 -7.287128269672393799e-02 -1.283240597695112228e-02
-5.916152149438858032e-02 -6.803020834922790527e-02 1.346490345895290375e-03
3.045213520526885986e-01 -5.743980407714843750e-02 1.366326957941055298e-02
-7.193892002105712891e-01 -3.341767005622386932e-03 1.568179950118064880e-02
-3.653546869754791260e-01 3.976276516914367676e-02 -1.203866004943847656e-01
-5.291405916213989258e-01 4.927892982959747314e-02 5.019536986947059631e-02
-7.119556665420532227e-01 -9.627699851989746094e-03 -6.073914095759391785e-02
-1.891240924596786499e-01 3.563073650002479553e-02 5.836154893040657043e-02
-7.305909395217895508e-01 2.589260414242744446e-02 -8.473561704158782959e-02
-1.839596331119537354e-01 -3.546671569347381592e-02 8.654306828975677490e-02
-4.520872831344604492e-01 -1.793918013572692871e-02 -1.137847751379013062e-01
-7.790392637252807617e-01 6.181607022881507874e-03 -2.406939864158630371e-02
1.941436529159545898e-01 -2.838761545717716217e-02 -7.224743068218231201e-02
-6.145838499069213867e-01 7.442630082368850708e-02 1.648290455341339111e-02
-6.927411556243896484e-01 2.170143648982048035e-02 3.561786934733390808e-02
-5.583323240280151367e-01 -2.623078040778636932e-02 5.118526145815849304e-02
1.404543220996856689e-01 -8.506199717521667480e-02 -6.588356196880340576e-02
-1.074819564819335938e-01 -1.102281063795089722e-01 -1.326878368854522705e-02
-2.474560141563415527e-01 -6.080094352364540100e-02 -9.917142987251281738e-02
-6.671943664550781250e-01 8.113464340567588806e-03 -9.375213086605072021e-02
-3.781701624393463135e-02 -9.858053922653198242e-02 5.138978734612464905e-02
-6.184855103492736816e-02 2.801373973488807678e-02 -9.844653308391571045e-02
-3.762279450893402100e-02 -1.069431900978088379e-01 -4.048311710357666016e-02
-5.213651657104492188e-01 2.475451678037643433e-02 -1.191579401493072510e-01
-2.986661493778228760e-01 -1.973081380128860474e-03 -1.260616630315780640e-01
-2.538831532001495361e-01 -4.419500753283500671e-02 -1.117701828479766846e-01
4.135239124298095703e-02 2.925715968012809753e-02 -6.839048862457275391e-02
-2.098289728164672852e-01 -5.770026519894599915e-02 7.948930561542510986e-02
-1.789462268352508545e-01 1.841364800930023193e-02 -1.191587448120117188e-01
8.123785257339477539e-03 4.547027125954627991e-02 -2.201381698250770569e-02
7.210016250610351562e-02 -1.129998192191123962e-01 -1.614121720194816589e-02
5.949783325195312500e-02 3.567625209689140320e-02 -1.483279094099998474e-02
-2.123728692531585693e-01 -6.338612642139196396e-03 -1.244615167379379272e-01
-5.220752954483032227e-01 -4.868376627564430237e-02 3.868277370929718018e-02
5.412134528160095215e-02 -1.089138835668563843e-01 3.148357942700386047e-02
1.103952527046203613e-01 -4.227248579263687134e-02 6.941562891006469727e-02
-2.481235563755035400e-02 1.157028600573539734e-02 6.095200404524803162e-02
-4.635943174362182617e-01 9.106271713972091675e-02 -2.215576358139514923e-02
1.266218125820159912e-01 1.836262084543704987e-02 -4.569046199321746826e-02
-5.971577763557434082e-01 8.274745196104049683e-02 -7.902684807777404785e-02
1.151722669601440430e-02 -1.142858564853668213e-01 -5.768236704170703888e-03
-3.692235350608825684e-01 -8.382020890712738037e-02 -3.870981931686401367e-02
-5.865669250488281250e-01 -4.622852057218551636e-02 1.534269377589225769e-02
-5.131521224975585938e-01 -5.494464933872222900e-02 -6.246986985206604004e-02
-2.773496806621551514e-01 7.770683616399765015e-02 -3.591977059841156006e-03
-1.896658539772033691e-01 -5.310682579874992371e-02 8.237193524837493896e-02
-7.886558771133422852e-01 4.035596549510955811e-02 -6.505852937698364258e-02
-7.950906753540039062e-01 1.754302345216274261e-02 -4.134482145309448242e-02
-5.424280166625976562e-01 -1.089949719607830048e-02 6.152250990271568298e-02
-4.480419754981994629e-01 -3.488110378384590149e-02 -1.027248650789260864e-01
2.836172878742218018e-01 -8.989720791578292847e-02 -2.054776996374130249e-04
-2.155552357435226440e-01 -4.392619431018829346e-02 8.433713018894195557e-02
-3.155469894409179688e-03 4.041939228773117065e-02 -6.415955722332000732e-02
-2.837240099906921387e-01 -6.248451769351959229e-02 -9.478448331356048584e-02
2.337257266044616699e-01 -3.254906833171844482e-02 3.593161702156066895e-02
-3.951010107994079590e-01 -8.389303088188171387e-02 -1.660466566681861877e-02
-6.700425744056701660e-01 8.767522871494293213e-02 -3.010304644703865051e-02
-3.048761785030364990e-01 2.776127681136131287e-02 7.049775123596191406e-02
1.899063587188720703e-03 -7.095915079116821289e-02 -9.143404662609100342e-02
-4.851420819759368896e-01 7.291533797979354858e-02 -9.731827676296234131e-02
-3.448661565780639648e-01 -9.003090858459472656e-02 -1.829876378178596497e-02
-3.803142905235290527e-01 8.690763264894485474e-02 -1.570987515151500702e-02
-6.039023399353027344e-03 -1.140153259038925171e-01 -6.922305561602115631e-03
1.960362493991851807e-01 -6.799158453941345215e-02 5.513831600546836853e-02
-3.106805682182312012e-01 -4.974579811096191406e-02 7.603316009044647217e-02
-6.787040233612060547e-01 -2.141000516712665558e-02 -5.754422396421432495e-02
-4.246692657470703125e-01 -5.932284519076347351e-02 5.125643685460090637e-02
2.394570708274841309e-01 -7.627694308757781982e-02 -5.209964513778686523e-02
-6.040215492248535156e-01 9.178477525711059570e-02 -4.514157399535179138e-02
1.334604322910308838e-01 -4.362381249666213989e-02 6.609638035297393799e-02
-1.357246041297912598e-01 3.815937787294387817e-02 -1.023066788911819458e-01
-5.440720319747924805e-01 8.800458163022994995e-02 -5.861452780663967133e-03
-1.863541603088378906e-01 9.661763906478881836e-03 7.723948359489440918e-02
-3.876285552978515625e-01 7.157444208860397339e-02 2.721774205565452576e-02
-4.869224429130554199e-01 5.061149597167968750e-02 5.172866955399513245e-02
8.788603544235229492e-02 -8.834379911422729492e-02 -6.880085170269012451e-02
-4.410720467567443848e-01 9.119556844234466553e-02 -4.506756365299224854e-02
-1.872575879096984863e-01 -1.164357643574476242e-02 8.502411842346191406e-02
-8.395868539810180664e-02 -9.436009079217910767e-02 5.541356280446052551e-02
-2.888289093971252441e-01 7.530571520328521729e-02 7.422639057040214539e-03
1.987896263599395752e-01 2.283323556184768677e-03 -2.726398780941963196e-02
-1.387324929237365723e-01 1.831431686878204346e-02 -1.154725700616836548e-01
5.696970224380493164e-02 -1.143621429800987244e-01 -2.776242792606353760e-03
-4.191350936889648438e-01 5.570659041404724121e-02 4.881083592772483826e-02
-3.437466621398925781e-01 -4.615353047847747803e-02 7.455754280090332031e-02
-1.374253481626510620e-01 1.939672790467739105e-02 6.785026192665100098e-02
-3.538934588432312012e-01 8.062402158975601196e-02 -7.407763600349426270e-02
-6.479555368423461914e-01 -3.737935051321983337e-02 -9.831893257796764374e-03
-5.480809211730957031e-01 -5.237794294953346252e-02 -5.383533984422683716e-02
-4.540825784206390381e-01 8.232276886701583862e-02 -8.167069405317306519e-02
1.628386676311492920e-01 -1.019928157329559326e-01 3.407455608248710632e-02
6.191352009773254395e-02 -6.052655726671218872e-02 -9.316998720169067383e-02
-2.383877336978912354e-01 2.045482397079467773e-04 8.253218233585357666e-02
-4.240290224552154541e-01 -4.090038686990737915e-02 6.721799075603485107e-02
1.183668076992034912e-01 1.100221462547779083e-02 2.651651576161384583e-02
-4.013329148292541504e-01 8.880557492375373840e-03 7.657097280025482178e-02
-1.989261209964752197e-01 -1.622754894196987152e-02 -1.229823976755142212e-01
-3.157969713211059570e-01 -2.494879812002182007e-02 -1.196625828742980957e-01
-6.350774765014648438e-01 -3.304559364914894104e-02 -5.663448944687843323e-02
-3.638979494571685791e-01 -8.776079863309860229e-02 5.863998085260391235e-04
1.200380027294158936e-01 1.235931180417537689e-03 -7.689177989959716797e-02
-2.146133035421371460e-01 -1.004838105291128159e-02 8.501134812831878662e-02
1.143513023853302002e-01 1.201903820037841797e-02 -6.637386977672576904e-02
-1.227437704801559448e-01 5.655071139335632324e-02 1.500648260116577148e-02
-2.876716852188110352e-01 -5.100044608116149902e-02 7.744629681110382080e-02
-7.107249498367309570e-01 5.050463229417800903e-02 -9.056760370731353760e-02
-1.428781151771545410e-01 -9.875602275133132935e-02 4.247310012578964233e-02
-4.106508493423461914e-01 -5.971465632319450378e-02 -8.113493025302886963e-02
-1.056986749172210693e-01 -9.557298570871353149e-02 5.215251818299293518e-02
-9.883743524551391602e-02 -9.914968907833099365e-02 -5.586019530892372131e-02
-4.007704854011535645e-01 -5.736774951219558716e-02 5.829406157135963440e-02
-5.160742998123168945e-01 9.251162409782409668e-02 -2.750794030725955963e-02
-1.158497929573059082e-01 -6.785814464092254639e-02 -9.706474840641021729e-02
-3.535445928573608398e-01 4.583325237035751343e-02 5.767906829714775085e-02
-2.491122782230377197e-01 5.649091303348541260e-02 -9.991180896759033203e-02
-4.811690747737884521e-02 5.274462699890136719e-02 -6.918708793818950653e-03
-3.573554754257202148e-02 -1.037992071360349655e-02 7.639630138874053955e-02
-3.843325376510620117e-01 4.735846444964408875e-02 5.665713176131248474e-02
1.714284718036651611e-01 9.427715092897415161e-03 -5.166788585484027863e-03
-4.878891706466674805e-01 -6.559439003467559814e-02 1.825866475701332092e-02
-2.363844513893127441e-01 -7.501284033060073853e-02 6.497183442115783691e-02
-8.874213695526123047e-02 5.213975161314010620e-02 -7.168310880661010742e-02
-7.138984203338623047e-01 -1.850957609713077545e-02 -3.427984565496444702e-02
-2.896398007869720459e-01 -7.659892737865447998e-02 -7.576221972703933716e-02
-6.799681186676025391e-01 -2.308867871761322021e-02 9.211553260684013367e-03
7.439768314361572266e-02 -8.105767518281936646e-02 -7.760547846555709839e-02
-2.157682031393051147e-01 7.580327987670898438e-02 -3.570564091205596924e-02
5.107322335243225098e-02 -3.554192930459976196e-02 7.568967342376708984e-02
-2.062249332666397095e-01 6.612232327461242676e-02 -7.651768624782562256e-02
3.884077072143554688e-02 -6.145507842302322388e-02 -9.492345154285430908e-02
-7.375892996788024902e-01 7.706312835216522217e-02 -5.634439736604690552e-02
-1.170265078544616699e-01 6.257370114326477051e-02 -5.089846625924110413e-02
-5.203602313995361328e-01 6.283537298440933228e-02 3.871190175414085388e-02
-4.186828732490539551e-01 -7.895223051309585571e-02 -3.162720799446105957e-02
8.977526426315307617e-02 -1.137772426009178162e-01 -1.691460609436035156e-03
-1.681030988693237305e-01 -9.826397895812988281e-02 3.965401649475097656e-02
-1.058180630207061768e-01 -2.347231842577457428e-02 -1.179667860269546509e-01
-3.791666626930236816e-01 6.894997507333755493e-02 -9.810453653335571289e-02
-6.227495074272155762e-01 -3.590312972664833069e-02 1.799774914979934692e-02
-1.448360830545425415e-01 3.913210704922676086e-03 7.798752188682556152e-02
-7.478821277618408203e-01 1.694644801318645477e-02 -7.395382970571517944e-02
-1.437540948390960693e-01 -5.811203271150588989e-02 8.176904916763305664e-02
1.204546391963958740e-01 2.315875142812728882e-02 -2.535258606076240540e-02
-9.812593460083007812e-02 -6.297762691974639893e-02 -1.008445322513580322e-01
1.884041428565979004e-01 -1.036559939384460449e-01 2.395948767662048340e-02
4.249557852745056152e-02 -1.020290628075599670e-01 -5.183012783527374268e-02
-1.265556067228317261e-01 -6.900335848331451416e-02 7.689169049263000488e-02
1.009885370731353760e-01 2.059261873364448547e-02 1.424494013190269470e-02
-6.011400222778320312e-01 1.874921843409538269e-03 -1.040323227643966675e-01
8.637240529060363770e-02 -1.137894671410322189e-02 -9.332042932510375977e-02
-5.133485794067382812e-01 8.609767258167266846e-02 -7.542312890291213989e-02
-7.082489132881164551e-02 -8.242214471101760864e-02 -8.267033100128173828e-02
8.758014440536499023e-02 1.505339518189430237e-03 -8.610117435455322266e-02
-4.120618104934692383e-01 -8.177436143159866333e-02 -1.053342223167419434e-02
-6.568808555603027344e-01 -1.884607411921024323e-02 2.745318040251731873e-02
-1.013166308403015137e-01 -7.448872551321983337e-03 -1.182752549648284912e-01
5.009630322456359863e-02 2.292709052562713623e-02 3.070883080363273621e-02
-5.645714998245239258e-01 2.260584384202957153e-02 5.909776315093040466e-02
-5.841481685638427734e-02 4.777336865663528442e-02 1.586021110415458679e-02
-1.435362398624420166e-01 -5.624163150787353516e-02 -1.058966517448425293e-01
-5.057750344276428223e-01 -4.042101651430130005e-02 -8.740687370300292969e-02
6.184443831443786621e-02 -1.020174846053123474e-01 -5.072650313377380371e-02
-4.105106592178344727e-01 -7.507824152708053589e-02 2.826355397701263428e-02
-7.446014881134033203e-02 3.150453791022300720e-02 4.806709662079811096e-02
-4.967250227928161621e-01 1.494945771992206573e-02 6.821355223655700684e-02
1.190842986106872559e-01 -1.044952943921089172e-01 -3.970248624682426453e-02
-9.790767729282379150e-02 -4.196874424815177917e-02 8.550852537155151367e-02
2.897767722606658936e-01 -4.110622033476829529e-02 1.266808435320854187e-02
-5.435278415679931641e-01 3.766617923974990845e-02 -1.163061261177062988e-01
-6.082117557525634766e-01 6.160694360733032227e-02 -1.014845669269561768e-01
2.431722879409790039e-01 -4.980920627713203430e-02 -6.029928103089332581e-02
-2.817682325839996338e-01 -8.881899714469909668e-02 3.679664060473442078e-02
2.253312766551971436e-01 -7.735075056552886963e-02 4.545047506690025330e-02
-1.537946760654449463e-01 -1.027846038341522217e-01 3.047033771872520447e-02
-2.598112225532531738e-01 -9.011058509349822998e-02 -5.425864830613136292e-02
-5.337094664573669434e-01 -6.200394406914710999e-02 -2.163453027606010437e-02
-3.967259526252746582e-01 -5.468902736902236938e-02 -9.011170268058776855e-02
-6.238123178482055664e-01 -2.820380032062530518e-03 -9.694556891918182373e-02
8.569467067718505859e-02 -9.938495233654975891e-03 5.921434983611106873e-02
-7.582445144653320312e-01 1.737374812364578247e-03 -3.630487248301506042e-03
-2.238280922174453735e-01 -1.010243818163871765e-01 -2.596873976290225983e-02
-6.726391911506652832e-01 3.010220080614089966e-02 3.960805386304855347e-02
4.362940788269042969e-02 -8.519954234361648560e-02 -7.593032717704772949e-02
1.590138375759124756e-01 -6.581555306911468506e-02 -7.707837224006652832e-02
5.517610907554626465e-02 -9.455025941133499146e-02 -6.355364620685577393e-02
-5.852205753326416016e-01 -4.677729681134223938e-02 -4.929789900779724121e-02
-6.622719764709472656e-01 6.527679413557052612e-02 2.096746489405632019e-02
-1.517397463321685791e-01 -7.508927583694458008e-02 -8.938236534595489502e-02
-7.763183116912841797e-01 8.003925904631614685e-03 -4.449218884110450745e-02
3.829070925712585449e-02 -4.016592726111412048e-02 -1.028122752904891968e-01
2.860856950283050537e-01 -8.293037861585617065e-02 -2.442757785320281982e-02
-5.691109299659729004e-01 -4.795778170228004456e-02 -5.492192506790161133e-02
-4.661489725112915039e-01 -5.995999090373516083e-03 -1.178848743438720703e-01
-1.124044060707092285e-01 5.910626053810119629e-02 3.480233252048492432e-03
5.723598599433898926e-02 -1.130503788590431213e-01 1.553415134549140930e-02
-9.676772356033325195e-02 1.330816559493541718e-02 6.853058934211730957e-02
1.168197691440582275e-01 7.847668603062629700e-04 4.185533523559570312e-02
1.388368904590606689e-01 -8.548077940940856934e-02 5.668256804347038269e-02
4.967376589775085449e-02 -4.992618039250373840e-02 -9.890910983085632324e-02
-3.875907063484191895e-01 -6.618952751159667969e-02 5.089161917567253113e-02
-7.102259397506713867e-01 7.738303393125534058e-02 -8.242950774729251862e-03
-2.038130462169647217e-01 -9.384189546108245850e-02 4.290586337447166443e-02
2.848668992519378662e-01 -6.177564710378646851e-02 -4.144887626171112061e-02
-3.859899044036865234e-01 7.924282550811767578e-02 -8.204197138547897339e-02
-5.986066162586212158e-02 -9.815531969070434570e-02 -5.985292792320251465e-02
9.550628066062927246e-02 -1.108860597014427185e-01 -2.376272529363632202e-02
-3.116535246372222900e-01 8.178699016571044922e-02 -1.044844649732112885e-02
-1.365773677825927734e-01 -9.246896207332611084e-02 -6.606771051883697510e-02
-1.704475283622741699e-02 4.833653196692466736e-02 -9.010976180434226990e-03
-3.790369033813476562e-01 -6.906396150588989258e-02 -7.263550907373428345e-02
-3.481609225273132324e-01 2.997663989663124084e-02 6.937968730926513672e-02
-5.533264279365539551e-01 6.363317370414733887e-02 3.575910255312919617e-02
1.338845491409301758e-01 -7.959986105561256409e-04 3.849962726235389709e-02
-4.853044450283050537e-02 5.466948449611663818e-02 -2.384980767965316772e-02
4.484996199607849121e-02 1.541622728109359741e-02 -8.574707806110382080e-02
3.093174993991851807e-01 -4.822959005832672119e-02 -4.233856685459613800e-03
1.177811026573181152e-01 1.893760263919830322e-02 8.626351132988929749e-03
4.087561368942260742e-02 -2.126968093216419220e-02 7.257816195487976074e-02
-4.534792900085449219e-01 -7.559277117252349854e-02 -6.140686571598052979e-03
-1.967030018568038940e-01 -8.944409340620040894e-02 -6.580331921577453613e-02
-7.871687412261962891e-01 6.649582833051681519e-02 -3.011191636323928833e-02
-3.099469244480133057e-01 -9.127970784902572632e-02 -3.521002829074859619e-02
1.678819656372070312e-01 -2.132908813655376434e-02 4.872291907668113708e-02
4.165053367614746094e-03 -1.112648174166679382e-01 -2.726786024868488312e-02
1.219894587993621826e-01 -6.564764678478240967e-02 6.757497787475585938e-02
-1.596650779247283936e-01 3.838242217898368835e-02 5.230465158820152283e-02
-5.820366144180297852e-01 7.871752977371215820e-02 -8.686764538288116455e-02
-1.271615326404571533e-01 -1.405252423137426376e-02 -1.201827973127365112e-01
-5.823274254798889160e-01 -5.224354565143585205e-02 -2.657367661595344543e-02
1.038382649421691895e-01 -1.131745800375938416e-01 -6.329248659312725067e-03
1.303130388259887695e-01 -9.462077915668487549e-02 4.953603073954582214e-02
-5.011712908744812012e-01 8.239367604255676270e-02 -8.322864770889282227e-02
-4.381385445594787598e-01 7.556434720754623413e-04 7.532928884029388428e-02
-2.238803058862686157e-01 -9.030515700578689575e-02 -6.038960441946983337e-02
-3.249490857124328613e-01 1.458743028342723846e-02 7.726317644119262695e-02
-1.444649994373321533e-01 5.615194141864776611e-02 2.200281620025634766e-02
-7.377429604530334473e-01 7.012752443552017212e-02 -4.240799695253372192e-03
-1.615160554647445679e-01 -8.799538761377334595e-02 -7.172756642103195190e-02
7.691299915313720703e-02 -6.873323023319244385e-02 -8.692432940006256104e-02
-6.551868319511413574e-01 8.598707616329193115e-02 -1.518617942929267883e-02
-2.432223260402679443e-01 4.408441111445426941e-02 -1.109531223773956299e-01
-7.383843660354614258e-01 1.670956239104270935e-02 2.026174962520599365e-02
-8.554534614086151123e-02 -8.090698719024658203e-02 -8.433757722377777100e-02
2.664131224155426025e-01 -2.221667207777500153e-02 -2.337896637618541718e-02
-4.400444626808166504e-01 2.068725228309631348e-02 7.096669077873229980e-02
-5.010234117507934570e-01 5.495662242174148560e-02 4.737811163067817688e-02
-2.972328662872314453e-01 -7.520256191492080688e-02 5.655310675501823425e-02
1.958936452865600586e-02 1.136115565896034241e-02 5.355237796902656555e-02
-6.954663395881652832e-01 1.094015873968601227e-02 -8.799611032009124756e-02
-2.730948925018310547e-01 7.565710693597793579e-03 8.021745085716247559e-02
-4.953685402870178223e-02 2.191914618015289307e-02 -1.010601222515106201e-01
-4.950335025787353516e-01 7.961732149124145508e-02 1.550988107919692993e-02
-3.869381546974182129e-01 8.329893648624420166e-02 5.778446793556213379e-04
-3.606168627738952637e-01 8.542378246784210205e-02 -1.329718716442584991e-02
-5.090106725692749023e-01 1.557158865034580231e-02 -1.195888668298721313e-01
-2.778080999851226807e-01 -7.192544639110565186e-02 -8.410583436489105225e-02
-1.290197074413299561e-01 -4.934176057577133179e-02 -1.099724918603897095e-01
-1.440920531749725342e-01 -9.748316556215286255e-02 -5.537215247750282288e-02
1.805459260940551758e-01 3.669238649308681488e-03 -4.425848275423049927e-02
-2.274957895278930664e-01 3.566122800111770630e-02 6.139666959643363953e-02
-4.185250401496887207e-01 8.468186855316162109e-02 -7.280631363391876221e-02
-3.008598685264587402e-01 1.350641250610351562e-02 7.788091897964477539e-02
-3.303409814834594727e-01 8.556000143289566040e-02 -3.190166875720024109e-02
-6.220468282699584961e-01 -5.192701704800128937e-03 4.742042347788810730e-02
-7.249546051025390625e-01 8.187452703714370728e-02 -3.726489469408988953e-02
-2.436971068382263184e-01 -1.818169280886650085e-02 8.599501848220825195e-02
-5.049056410789489746e-01 -6.587624549865722656e-02 4.460230469703674316e-03
2.066582739353179932e-01 -4.110037907958030701e-02 4.981209710240364075e-02
2.487650513648986816e-01 -1.593787223100662231e-02 8.061118423938751221e-04
-4.525583684444427490e-01 -6.955872476100921631e-02 -4.974902421236038208e-02
1.856732666492462158e-01 -9.875378571450710297e-03 -6.308052688837051392e-02
-7.219971418380737305e-01 8.050296455621719360e-02 -5.410308390855789185e-02
-5.989363193511962891e-01 8.919899910688400269e-02 -6.231143698096275330e-02
-4.406739771366119385e-01 6.114962697029113770e-02 4.287928715348243713e-02
-5.215319395065307617e-01 9.046616405248641968e-02 -1.458514481782913208e-02
-3.697681427001953125e-01 6.375405192375183105e-02 3.829174116253852844e-02
-2.331878542900085449e-01 2.012395672500133514e-02 7.332755625247955322e-02
-2.119652181863784790e-01 -8.453499525785446167e-02 -7.268509268760681152e-02
-6.616334915161132812e-01 4.297137260437011719e-02 -1.016812473535537720e-01
2.922788560390472412e-01 -7.242018729448318481e-02 -3.222846239805221558e-02
9.734582901000976562e-02 -1.108619868755340576e-01 2.175610885024070740e-02
-1.438569724559783936e-01 6.656067073345184326e-02 -1.377413980662822723e-02
-2.176748961210250854e-01 -1.001230254769325256e-01 2.203212678432464600e-02
-7.357410192489624023e-01 4.061899334192276001e-02 -8.570297062397003174e-02
-7.632568478584289551e-03 -1.073792353272438049e-01 -4.029495641589164734e-02
-3.406564891338348389e-01 1.672854833304882050e-02 7.616542279720306396e-02
-3.431566357612609863e-01 4.399969242513179779e-03 -1.262660324573516846e-01
-3.953385651111602783e-01 2.147670835256576538e-02 7.276923954486846924e-02
-7.806734740734100342e-02 -8.160687983036041260e-02 6.933572888374328613e-02
-3.285529315471649170e-01 -5.230897292494773865e-02 7.275111973285675049e-02
-2.058026194572448730e-01 4.938179999589920044e-02 -1.018613129854202271e-01
-6.881337165832519531e-01 8.537825196981430054e-02 -5.210262909531593323e-02
-2.687985897064208984e-01 -3.864122182130813599e-02 8.331483602523803711e-02
-1.837630867958068848e-01 -1.664308272302150726e-02 -1.224904805421829224e-01
-5.361514687538146973e-01 5.980627238750457764e-02 4.084796831011772156e-02
-1.092920899391174316e-01 6.339225918054580688e-02 -3.085850737988948822e-02
-4.329639077186584473e-01 -7.639747858047485352e-02 1.216243207454681396e-02
-7.050340175628662109e-01 4.257754422724246979e-03 -8.027783781290054321e-02
-3.774793744087219238e-01 -4.399836808443069458e-02 -1.033999919891357422e-01
-9.735043346881866455e-02 -9.183800965547561646e-02 -6.939165294170379639e-02
-3.910741209983825684e-02 -3.625006228685379028e-02 -1.109962612390518188e-01
-2.657901346683502197e-01 5.382132530212402344e-02 -1.047691702842712402e-01
-7.250185012817382812e-01 -4.272070247679948807e-03 -6.206191703677177429e-02
-6.961892843246459961e-01 2.990942075848579407e-02 -9.489357471466064453e-02
1.506104767322540283e-01 -7.788412272930145264e-03 4.134443029761314392e-02
-6.491672992706298828e-01 8.219074457883834839e-02 -7.320109009742736816e-02
1.522927582263946533e-01 -1.108820810914039612e-01 -2.659117802977561951e-03
1.415842175483703613e-01 1.425274461507797241e-02 -4.629620164632797241e-02
-7.974590063095092773e-01 2.894757315516471863e-02 -5.468905344605445862e-02
-1.947384476661682129e-01 5.663281679153442383e-02 -9.114412963390350342e-02
-4.347572326660156250e-01 8.403754234313964844e-02 3.504300490021705627e-03
-1.693839579820632935e-01 -4.526555910706520081e-02 -1.125434637069702148e-01
-2.384746372699737549e-01 -1.009551733732223511e-01 -1.703439466655254364e-02
-2.396624982357025146e-01 -2.593497373163700104e-02 -1.209051162004470825e-01
3.638356924057006836e-02 3.595153614878654480e-02 -5.504901334643363953e-02
-5.936498045921325684e-01 8.332511037588119507e-02 2.727827057242393494e-03
-4.666730761528015137e-03 3.089985996484756470e-02 3.366213664412498474e-02
1.420816779136657715e-01 -1.001249849796295166e-01 4.078857228159904480e-02
2.813290655612945557e-01 -2.899410948157310486e-02 -1.961303502321243286e-02
-6.207123398780822754e-02 -7.886736840009689331e-02 7.170610129833221436e-02
-3.569911718368530273e-01 -6.568740587681531906e-03 -1.242716312408447266e-01
1.898475289344787598e-01 -7.896194607019424438e-02 -6.266170740127563477e-02
-3.924546241760253906e-01 -8.297071605920791626e-02 8.814837783575057983e-03
3.219056129455566406e-02 3.224695473909378052e-02 1.856620609760284424e-02
-2.871634364128112793e-01 5.599293112754821777e-02 4.354426637291908264e-02
-5.558290481567382812e-01 9.203411638736724854e-02 -2.447480335831642151e-02
-3.652799129486083984e-01 -7.404673099517822266e-02 4.447497799992561340e-02
1.616102457046508789e-02 3.392720595002174377e-02 -6.985734403133392334e-02
-7.613399624824523926e-02 5.334157496690750122e-02 6.940694525837898254e-03
-4.638510942459106445e-02 -4.878895357251167297e-02 -1.072362065315246582e-01
-5.007494986057281494e-02 3.426493331789970398e-02 -8.958818018436431885e-02
-7.655797004699707031e-01 2.503217011690139771e-02 1.087814569473266602e-02
-5.560971498489379883e-01 -5.701557174324989319e-02 -1.053793355822563171e-03
-3.938787579536437988e-01 -7.117769122123718262e-02 -6.523864716291427612e-02
-4.845573008060455322e-01 4.436589404940605164e-02 -1.177516430616378784e-01
-1.422657817602157593e-01 -3.054866008460521698e-02 8.662584424018859863e-02
-1.080223768949508667e-01 -1.094441488385200500e-01 1.384674757719039917e-02
-1.035562008619308472e-01 -1.057069152593612671e-01 3.089047595858573914e-02
-2.475251704454421997e-01 7.506715506315231323e-02 -2.874396741390228271e-03
1.362178623676300049e-01 -3.777556121349334717e-03 -7.600296288728713989e-02
-5.684413313865661621e-01 -2.575880289077758789e-02 -8.993269503116607666e-02
-3.407936096191406250e-01 -3.789919242262840271e-02 -1.112443208694458008e-01
-1.833736300468444824e-01 -9.626416862010955811e-02 -5.305242910981178284e-02
1.320773959159851074e-01 8.371960371732711792e-03 2.543311566114425659e-02
1.598520874977111816e-01 -1.086968034505844116e-01 1.607550308108329773e-02
-3.405835628509521484e-01 2.841585129499435425e-02 -1.239361613988876343e-01
-4.380257129669189453e-01 8.294681459665298462e-02 -7.918033748865127563e-02
-5.424296855926513672e-02 4.438349232077598572e-02 -7.576904445886611938e-02
-1.409822702407836914e-02 1.950317434966564178e-02 5.131795629858970642e-02
-5.185432732105255127e-02 -2.787951566278934479e-02 -1.136020123958587646e-01
-5.713486075401306152e-01 -3.356324508786201477e-03 -1.063148975372314453e-01
1.585072576999664307e-01 -8.081700652837753296e-04 -6.469902396202087402e-02
-4.425933659076690674e-01 -7.369443774223327637e-03 -1.193364858627319336e-01
-2.431777268648147583e-01 7.513964176177978516e-02 -6.169167533516883850e-02
2.206301093101501465e-01 -3.978098277002573013e-03 -1.926706731319427490e-02
-4.875155091285705566e-01 4.143056459724903107e-03 7.050459086894989014e-02
-3.595295548439025879e-01 -8.637070655822753906e-02 1.437865570187568665e-02
-7.558166980743408203e-01 1.201827451586723328e-02 9.891699999570846558e-03
-4.935224652290344238e-01 -5.975720658898353577e-02 -5.899276956915855408e-02
-1.247316449880599976e-01 -9.741695597767829895e-03 8.247202634811401367e-02
-1.804302632808685303e-01 -8.191831409931182861e-02 -7.943248748779296875e-02
2.009182870388031006e-01 -2.919761463999748230e-02 4.487475380301475525e-02
-5.866656303405761719e-01 -5.166486278176307678e-02 -1.027898490428924561e-02
1.875162124633789062e-01 -1.676826924085617065e-02 3.862560167908668518e-02
1.631149053573608398e-01 -1.089584380388259888e-01 -1.455704960972070694e-02
-2.255123555660247803e-01 7.152443379163742065e-02 2.945542335510253906e-03
-5.357483625411987305e-01 5.932588875293731689e-02 -1.082531362771987915e-01
-1.802192479372024536e-01 -1.059136167168617249e-01 -1.245268527418375015e-02
-6.310673952102661133e-01 6.033148616552352905e-02 3.073291853070259094e-02
-1.959814876317977905e-01 -5.739619582891464233e-02 -1.043508946895599365e-01
-2.197266221046447754e-01 3.662966191768646240e-02 -1.138876229524612427e-01
-4.256062507629394531e-01 1.457719877362251282e-02 7.374224066734313965e-02
-5.395538210868835449e-01 2.353154495358467102e-02 6.182510778307914734e-02
3.038834631443023682e-01 -7.956022769212722778e-02 -1.102052070200443268e-02
-7.610425949096679688e-01 7.313310354948043823e-02 -2.391899935901165009e-02
-1.428295671939849854e-01 3.667863085865974426e-02 5.215905979275703430e-02
-7.613749504089355469e-01 6.494361907243728638e-02 -6.662588566541671753e-02
-2.989090681076049805e-01 7.171446084976196289e-02 1.824394986033439636e-02
-4.580750763416290283e-01 3.618673980236053467e-02 -1.211478561162948608e-01
-6.169692277908325195e-01 9.128642827272415161e-02 -3.344312310218811035e-02
-1.579149365425109863e-01 -1.052782610058784485e-01 -2.835287339985370636e-02
-1.740959137678146362e-01 -2.523167058825492859e-02 8.674678206443786621e-02
1.774832606315612793e-02 -6.626510620117187500e-02 -9.374254941940307617e-02
-2.258144319057464600e-02 4.951410368084907532e-02 -4.331696033477783203e-02
-3.326143622398376465e-01 -9.183373302221298218e-02 -4.409381188452243805e-03
-4.431866407394409180e-01 3.636491298675537109e-02 6.349563598632812500e-02
-3.333879411220550537e-01 -6.356145441532135010e-02 6.355918943881988525e-02
-3.913297057151794434e-01 3.524893894791603088e-02 -1.223764121532440186e-01
1.613454222679138184e-01 -3.582048043608665466e-02 -8.272075653076171875e-02
9.486672282218933105e-02 -7.724939286708831787e-02 -7.881847769021987915e-02
-2.200532257556915283e-01 -1.028903499245643616e-01 -1.193382032215595245e-02
-2.170951068401336670e-01 2.289271354675292969e-02 -1.204229742288589478e-01
-3.832906484603881836e-01 1.731604896485805511e-02 -1.257531791925430298e-01
2.222985029220581055e-03 -1.248467713594436646e-03 6.691925227642059326e-02
-5.212771892547607422e-01 9.078521281480789185e-03 -1.173192262649536133e-01
-3.677138090133666992e-01 -4.125687479972839355e-02 7.434514164924621582e-02
-1.580037772655487061e-01 4.943781718611717224e-02 -9.400436282157897949e-02
-1.095600426197052002e-01 -3.013843111693859100e-02 8.587974309921264648e-02
-1.153172552585601807e-01 6.303799897432327271e-02 -1.364964246749877930e-02
1.048119664192199707e-01 8.810006082057952881e-03 3.506583720445632935e-02
-7.842828035354614258e-01 4.319661483168601990e-02 1.006497070193290710e-03
-1.365005075931549072e-01 4.748226702213287354e-02 3.650278598070144653e-02
-3.546536564826965332e-01 1.694755069911479950e-02 -1.260766685009002686e-01
7.151710987091064453e-02 2.285807952284812927e-02 2.297798916697502136e-02
-1.550141274929046631e-01 6.847202032804489136e-02 -4.404448717832565308e-02
-1.950424015522003174e-01 6.929533183574676514e-02 3.984477370977401733e-04
-6.337566375732421875e-01 9.064027667045593262e-02 -3.791681304574012756e-02
-4.996835589408874512e-01 -8.933288045227527618e-03 -1.132412105798721313e-01
8.020371198654174805e-03 -4.073034971952438354e-02 -1.058628112077713013e-01
8.322420716285705566e-02 -1.044225841760635376e-01 -4.406861215829849243e-02
-2.903468608856201172e-01 -3.465172648429870605e-02 8.306030929088592529e-02
-1.936025023460388184e-01 -7.791629433631896973e-02 6.632035970687866211e-02
-2.237017452716827393e-02 -1.133984625339508057e-01 8.275760337710380554e-03
-4.595572948455810547e-01 -2.920722030103206635e-02 6.797653436660766602e-02
-2.305538952350616455e-01 6.100874394178390503e-02 2.935632690787315369e-02
-1.474779844284057617e-02 -9.261285886168479919e-03 -1.094669103622436523e-01
-5.500848889350891113e-01 4.525676369667053223e-02 5.118691548705101013e-02
-9.318225085735321045e-02 2.574527636170387268e-02 -1.055795848369598389e-01
-6.152727603912353516e-01 4.695338383316993713e-02 4.281600192189216614e-02
-1.574815809726715088e-02 8.740385994315147400e-03 -1.034160703420639038e-01
-2.843247354030609131e-01 -6.604728754609823227e-03 -1.255094558000564575e-01
2.131375670433044434e-02 -4.619439318776130676e-02 -1.030437946319580078e-01
2.360876500606536865e-01 -1.010442525148391724e-01 6.626052781939506531e-03
-1.745561361312866211e-01 6.913591921329498291e-02 -8.301633410155773163e-03
-1.232824474573135376e-01 6.499443948268890381e-02 -3.784563392400741577e-02
-3.463987410068511963e-01 8.664470911026000977e-02 -3.260188922286033630e-02
-3.197439610958099365e-01 -6.244898214936256409e-02 -9.119515120983123779e-02
-2.672213315963745117e-02 -9.706442803144454956e-02 -6.234270334243774414e-02
2.680562436580657959e-01 -4.237224906682968140e-02 -4.829119890928268433e-02
-1.506471335887908936e-01 6.851267069578170776e-02 -2.628501318395137787e-02
-1.303412020206451416e-01 6.601377576589584351e-02 -2.576869726181030273e-02
-2.560776472091674805e-01 -7.437305897474288940e-02 -8.316117525100708008e-02
-4.484483599662780762e-01 6.921749562025070190e-02 -1.010553687810897827e-01
-7.092605829238891602e-01 2.409752458333969116e-02 -9.025005996227264404e-02
-4.823148250579833984e-03 -5.889713764190673828e-02 -9.971870481967926025e-02
-4.106073677539825439e-01 4.523009434342384338e-02 5.829932913184165955e-02
-2.125927805900573730e-01 -6.116013973951339722e-02 -1.006629168987274170e-01
1.069013476371765137e-01 -2.566632255911827087e-02 6.462548673152923584e-02
1.764841377735137939e-01 8.812285959720611572e-03 -2.734535187482833862e-02
-5.128113925457000732e-02 -7.866631448268890381e-02 -8.658228814601898193e-02
-2.748125493526458740e-01 -8.303633332252502441e-02 -6.682422757148742676e-02
1.248368918895721436e-01 -2.263556793332099915e-02 -8.866420388221740723e-02
-5.368093252182006836e-01 9.313203394412994385e-02 -3.966798260807991028e-02
-5.363126397132873535e-01 9.136895835399627686e-02 -1.926353015005588531e-02
-5.503255128860473633e-01 -7.792380638420581818e-03 -1.071563363075256348e-01
-5.435627698898315430e-01 -4.690605401992797852e-02 -6.769948452711105347e-02
-4.278198480606079102e-01 -2.971262112259864807e-02 -1.090946346521377563e-01
-2.049895226955413818e-01 3.480409085750579834e-02 -1.136150807142257690e-01
-5.328224301338195801e-01 -5.953354388475418091e-02 -3.929664939641952515e-02
-8.391287922859191895e-02 -9.477645903825759888e-02 -6.506375968456268311e-02
-6.382907032966613770e-01 -3.714312240481376648e-02 -4.261696711182594299e-02
-1.795345246791839600e-01 -1.014646962285041809e-01 -3.857506066560745239e-02
2.525779604911804199e-02 1.094668731093406677e-02 -9.420844912528991699e-02
-6.991037130355834961e-01 -2.388373017311096191e-02 -2.610027603805065155e-02
-5.793372392654418945e-01 7.713086903095245361e-03 -1.099486798048019409e-01
-3.697833716869354248e-01 8.262782543897628784e-02 1.329947263002395630e-04
2.279079854488372803e-01 -5.607660114765167236e-02 4.807009175419807434e-02
-3.964808583259582520e-02 -1.119520366191864014e-01 1.602738350629806519e-02
5.196660757064819336e-03 -9.849072247743606567e-02 5.217328295111656189e-02
-4.344679713249206543e-01 7.450656592845916748e-02 -9.396240115165710449e-02
-2.806651890277862549e-01 8.129477500915527344e-02 -4.595422744750976562e-02
2.667799592018127441e-02 -8.665023744106292725e-02 -7.535038888454437256e-02
-7.666389942169189453e-01 2.757769450545310974e-02 -7.211221754550933838e-02
-2.272587269544601440e-01 1.217859238386154175e-02 -1.239168792963027954e-01
-4.930794835090637207e-01 9.158734232187271118e-02 -2.185024321079254150e-02
-2.932725250720977783e-01 -1.875682733952999115e-02 -1.226211488246917725e-01
-2.088097780942916870e-01 5.890527367591857910e-02 -9.040875732898712158e-02
-4.405049681663513184e-01 -7.714503258466720581e-02 -1.052450388669967651e-04
2.131768763065338135e-01 -1.049029901623725891e-01 2.955887466669082642e-03
-4.767354726791381836e-01 -3.715200349688529968e-02 -9.638999402523040771e-02
-5.213622450828552246e-01 1.755957491695880890e-02 6.520758569240570068e-02
-4.824194312095642090e-01 1.500990055501461029e-02 -1.215413063764572144e-01
-6.432803869247436523e-01 8.783373236656188965e-02 -5.874196067452430725e-02
2.464969158172607422e-01 -7.069308310747146606e-02 4.188461229205131531e-02
3.915065526962280273e-02 -1.114830672740936279e-01 2.357917651534080505e-02
4.069432616233825684e-02 -1.106188669800758362e-01 -2.964684180915355682e-02
-4.016187191009521484e-01 8.768685162067413330e-02 -1.445541344583034515e-02
2.496215403079986572e-01 -2.726857364177703857e-02 2.311562001705169678e-02
-1.446463763713836670e-01 -1.079915985465049744e-01 -1.551048830151557922e-02
4.154622554779052734e-02 3.950761258602142334e-02 -2.755751088261604309e-02
-7.529969215393066406e-01 -9.674765169620513916e-05 -5.015261471271514893e-02
1.213768124580383301e-02 -1.126251816749572754e-01 1.804571598768234253e-02
-6.394768953323364258e-01 3.204112499952316284e-02 4.555948451161384583e-02
-1.353226900100708008e-01 -4.317648708820343018e-02 8.581618964672088623e-02
-4.681285321712493896e-01 -5.194716155529022217e-02 4.965835437178611755e-02
-9.323941171169281006e-02 -4.655565693974494934e-02 -1.104186624288558960e-01
-6.241945028305053711e-01 2.165310457348823547e-02 5.030282214283943176e-02
-6.725136041641235352e-01 -3.145341202616691589e-02 -1.671676151454448700e-02
-6.838794052600860596e-02 5.636028945446014404e-02 -4.628825560212135315e-02
1.536061465740203857e-01 9.266814216971397400e-03 1.212706789374351501e-02
-4.082428216934204102e-01 8.809033036231994629e-02 -5.846092477440834045e-02
-2.543190717697143555e-01 -2.797116339206695557e-02 -1.200179308652877808e-01
-2.713896930217742920e-01 -4.428385943174362183e-02 -1.110047996044158936e-01
-4.995897412300109863e-02 4.991044476628303528e-02 -6.102967262268066406e-02
-5.332576036453247070e-01 5.194293335080146790e-03 6.508828699588775635e-02
-2.716856598854064941e-01 -9.617697447538375854e-02 -2.976297214627265930e-02
-8.510842919349670410e-03 -8.690470457077026367e-02 -7.653512060642242432e-02
-7.474849224090576172e-01 -7.523975800722837448e-03 -2.993263117969036102e-02
-5.980097055435180664e-01 1.175717450678348541e-03 5.438428744673728943e-02
-3.380492329597473145e-01 -1.813578605651855469e-02 -1.215063333511352539e-01
-1.488796025514602661e-01 -3.850418329238891602e-02 -1.154776811599731445e-01
