-3.717252016067504883e-01 -2.897929958999156952e-02 -4.839134216308593750e-02
-2.798132002353668213e-01 -8.679620921611785889e-03 5.596246942877769470e-02
-3.142082989215850830e-01 4.635582119226455688e-02 1.619300246238708496e-02
-3.497535288333892822e-01 4.594147205352783203e-02 1.515955924987792969e-01
-4.076462090015411377e-01 4.580663889646530151e-02 5.353121086955070496e-02
-3.364067077636718750e-01 -2.625427953898906708e-02 -3.140402585268020630e-02
-3.971289098262786865e-01 -2.315499819815158844e-02 1.665425002574920654e-01
-2.653982937335968018e-01 1.566206291317939758e-02 9.877611696720123291e-02
-3.389791548252105713e-01 -2.926166169345378876e-02 4.403799027204513550e-02
-3.422628045082092285e-01 -2.172658964991569519e-02 1.359834969043731689e-01
-4.280302226543426514e-01 2.225235290825366974e-02 -6.723694503307342529e-02
-4.200686216354370117e-01 4.314812272787094116e-02 4.781279712915420532e-02
-3.063255250453948975e-01 4.677357524633407593e-02 6.517878174781799316e-02
-3.197151422500610352e-01 4.072366654872894287e-02 -3.640303760766983032e-02
-3.435106575489044189e-01 4.383357614278793335e-02 -2.698395401239395142e-02
-2.762865722179412842e-01 3.429169207811355591e-02 -6.140917539596557617e-04
-3.856578171253204346e-01 -2.315659821033477783e-02 1.635725647211074829e-01
-3.122342526912689209e-01 4.769508540630340576e-02 7.504837214946746826e-02
-4.697147011756896973e-01 2.648487687110900879e-02 1.191129311919212341e-01
-3.245254755020141602e-01 4.798361659049987793e-02 1.089903116226196289e-01
-2.711492776870727539e-01 1.075372099876403809e-02 -4.452432692050933838e-02
-4.591480195522308350e-01 3.040502406656742096e-02 3.763786703348159790e-02
-2.930350303649902344e-01 -1.090131141245365143e-02 9.936013817787170410e-02
-3.930569291114807129e-01 4.488954693078994751e-02 1.497198194265365601e-01
-4.604922831058502197e-01 3.127337992191314697e-02 1.131392717361450195e-01
-3.489637672901153564e-01 3.660556301474571228e-02 -6.552853435277938843e-02
-4.881339669227600098e-01 -8.701305836439132690e-03 1.234987229108810425e-01
-3.548795580863952637e-01 3.841556608676910400e-02 1.916342526674270630e-01
-2.747192084789276123e-01 -6.008759140968322754e-03 5.737923085689544678e-03
-4.279901981353759766e-01 3.949534893035888672e-02 2.270567417144775391e-02
-3.670772314071655273e-01 3.950346261262893677e-02 1.898096501827239990e-01
-4.558135271072387695e-01 -2.103342674672603607e-02 1.473354101181030273e-01
-3.013629317283630371e-01 4.159952700138092041e-02 -9.592413902282714844e-03
-4.360387623310089111e-01 -2.267466858029365540e-02 -5.546308308839797974e-02
-4.034930169582366943e-01 4.491259902715682983e-02 1.358217000961303711e-01
-4.426403343677520752e-01 3.405442833900451660e-02 1.241267472505569458e-02
-3.155457973480224609e-01 2.929265238344669342e-02 1.880405396223068237e-01
-2.814014852046966553e-01 2.441675402224063873e-03 -6.027280539274215698e-02
-3.649021387100219727e-01 3.860739618539810181e-02 -5.428756773471832275e-02
-4.540113806724548340e-01 -2.811432071030139923e-02 8.965346962213516235e-03
-3.584314286708831787e-01 5.075745284557342529e-02 7.967992871999740601e-02
-3.276210129261016846e-01 -2.346921525895595551e-02 -3.952947258949279785e-02
-3.755955696105957031e-01 4.520269483327865601e-02 -7.635533809661865234e-03
-4.053954184055328369e-01 -2.774718217551708221e-02 1.416633874177932739e-01
-3.956535160541534424e-01 -3.119986504316329956e-03 2.243871837854385376e-01
-3.444831669330596924e-01 -1.516279391944408417e-02 1.701546609401702881e-01
-3.051444888114929199e-01 4.014286398887634277e-02 -2.558106184005737305e-02
-3.599691689014434814e-01 -3.193666785955429077e-02 -2.543881535530090332e-03
-4.481338858604431152e-01 7.461314089596271515e-03 2.115564048290252686e-01
-3.691763579845428467e-01 -3.369697183370590210e-02 3.369569778442382812e-02
-3.935309648513793945e-01 -1.864492334425449371e-02 -9.480679035186767578e-02
-2.936537861824035645e-01 2.822376973927021027e-02 -6.242633610963821411e-02
-4.133881926536560059e-01 4.531675577163696289e-02 7.380869239568710327e-02
-4.738358259201049805e-01 1.136156916618347168e-02 -1.593393832445144653e-02
-4.612632095813751221e-01 -1.180001534521579742e-02 1.747582107782363892e-01
-3.151370882987976074e-01 -1.245785877108573914e-02 1.425130218267440796e-01
-4.231862723827362061e-01 3.396024554967880249e-02 1.861667484045028687e-01
-3.921159207820892334e-01 1.040540449321269989e-02 -1.152178347110748291e-01
-3.031059503555297852e-01 -7.783033885061740875e-03 1.399980187416076660e-01
-3.877414464950561523e-01 4.055037349462509155e-02 -3.133565932512283325e-02
-4.679610133171081543e-01 -1.485798321664333344e-02 -2.951689809560775757e-02
-2.788493931293487549e-01 -1.905214972794055939e-03 1.020649671554565430e-01
-4.313836693763732910e-01 4.072380065917968750e-02 5.313561111688613892e-02
-2.971017956733703613e-01 -1.780223473906517029e-02 2.321876958012580872e-02
-3.235109448432922363e-01 4.928573966026306152e-02 6.848468631505966187e-02
-4.420760869979858398e-01 -6.887018680572509766e-03 2.041516900062561035e-01
-4.302009046077728271e-01 -1.806646212935447693e-02 -7.563789188861846924e-02
-4.269945621490478516e-01 4.213543981313705444e-02 1.077240109443664551e-01
-3.460984826087951660e-01 -2.459333650767803192e-02 1.223358213901519775e-01
-4.782855510711669922e-01 -1.514094136655330658e-02 -1.347154378890991211e-03
-2.995905280113220215e-01 1.339494250714778900e-03 1.611550152301788330e-01
-3.884731233119964600e-01 -3.039563633501529694e-02 1.179949417710304260e-01
-3.074555695056915283e-01 -2.143090404570102692e-02 1.683812960982322693e-02
-3.827806413173675537e-01 -3.264762461185455322e-02 -1.935238391160964966e-02
-4.745041429996490479e-01 4.841983318328857422e-03 -2.624320238828659058e-02
-4.355194270610809326e-01 -2.404335327446460724e-02 1.526877731084823608e-01
-4.865618646144866943e-01 -3.018808551132678986e-03 1.419188678264617920e-01
-3.517003059387207031e-01 3.311144560575485229e-02 -7.876983284950256348e-02
-3.443771600723266602e-01 -2.500312961637973785e-02 -5.388254672288894653e-02
-2.937865257263183594e-01 -1.502134464681148529e-02 -1.292084902524948120e-02
-4.026224911212921143e-01 -3.003066591918468475e-02 -4.298057407140731812e-02
-4.037967622280120850e-01 4.574508219957351685e-02 3.909515589475631714e-02
-4.567079842090606689e-01 -2.912819944322109222e-02 4.351465404033660889e-02
-3.660559058189392090e-01 -1.680967025458812714e-02 1.810310184955596924e-01
-4.124221801757812500e-01 -3.162232041358947754e-02 1.097806096076965332e-01
-4.929168224334716797e-01 -2.161644399166107178e-03 3.371062874794006348e-02
-4.467437267303466797e-01 9.964823722839355469e-03 -6.938667595386505127e-02
-3.978758156299591064e-01 -1.666131056845188141e-02 1.925917565822601318e-01
-3.087386190891265869e-01 3.769084811210632324e-02 -4.329102486371994019e-02
-2.649169564247131348e-01 1.971510238945484161e-03 4.595841839909553528e-02
-2.678795754909515381e-01 -1.402266323566436768e-03 3.190096467733383179e-02
-3.281777501106262207e-01 4.835522174835205078e-02 2.374129742383956909e-02
-2.620559632778167725e-01 2.224560640752315521e-02 7.818583399057388306e-02
-3.116485178470611572e-01 -1.874427124857902527e-02 9.699041396379470825e-02
-4.773004055023193359e-01 -2.168510295450687408e-02 4.255295544862747192e-02
-4.942949414253234863e-01 5.268496461212635040e-04 4.472795873880386353e-02
-3.330514729022979736e-01 -2.771913073956966400e-02 5.475927889347076416e-02
-4.937553703784942627e-01 -8.750811219215393066e-03 6.172830983996391296e-02
-4.310433566570281982e-01 3.719663619995117188e-02 1.565985381603240967e-01
-2.924083173274993896e-01 4.236564040184020996e-02 9.081351757049560547e-02
-4.481116831302642822e-01 2.292260155081748962e-02 -3.584400564432144165e-02
-3.234397172927856445e-01 -2.380059845745563507e-02 -2.637276053428649902e-02
-3.662537336349487305e-01 4.893150180578231812e-03 2.279472202062606812e-01
-4.168037474155426025e-01 -3.465075045824050903e-02 5.366078764200210571e-02
-3.372966945171356201e-01 3.733329474925994873e-02 -6.109335273504257202e-02
-4.502136707305908203e-01 3.467984125018119812e-02 1.228227913379669189e-01
-3.052705526351928711e-01 1.480081584304571152e-03 -9.622560441493988037e-02
-4.627678096294403076e-01 1.662834361195564270e-02 1.845777630805969238e-01
-4.154987633228302002e-01 3.580607473850250244e-02 -2.860981971025466919e-02
-3.189546465873718262e-01 3.857821226119995117e-02 1.667537093162536621e-01
-3.753999173641204834e-01 -1.413824036717414856e-02 1.949195414781570435e-01
-4.141674935817718506e-01 -3.430543839931488037e-02 1.254023984074592590e-02
-2.897349894046783447e-01 -9.872863069176673889e-03 -3.935297578573226929e-02
-2.695383131504058838e-01 3.350293636322021484e-02 3.504674881696701050e-02
-4.422240853309631348e-01 -1.498621143400669098e-02 1.847283691167831421e-01
-3.311256766319274902e-01 2.195876464247703552e-02 2.107792347669601440e-01
-3.929463028907775879e-01 -2.880415134131908417e-02 -5.327607691287994385e-02
-4.743201434612274170e-01 -2.339341677725315094e-02 6.748719513416290283e-02
-3.661799132823944092e-01 4.962420463562011719e-02 1.127549707889556885e-01
-2.738141119480133057e-01 1.152300368994474411e-02 1.234980151057243347e-01
-4.513298869132995605e-01 -3.007302992045879364e-02 3.072941303253173828e-02
-3.561297357082366943e-01 2.894318476319313049e-02 -9.152109920978546143e-02
-4.291898012161254883e-01 1.999579742550849915e-02 2.180250138044357300e-01
-4.629158377647399902e-01 2.383613400161266327e-02 1.627410352230072021e-01
-4.070464372634887695e-01 -1.355055533349514008e-02 -1.008702516555786133e-01
-4.930256009101867676e-01 1.192606054246425629e-03 1.170630678534507751e-01
-4.709409177303314209e-01 -4.967794753611087799e-03 1.749617308378219604e-01
-3.201336562633514404e-01 4.858157783746719360e-02 4.467378184199333191e-02
-2.801929414272308350e-01 3.910043090581893921e-02 3.868255764245986938e-02
-3.109225332736968994e-01 3.248992562294006348e-02 1.762551665306091309e-01
-2.882338166236877441e-01 3.449372574687004089e-02 -3.069149702787399292e-02
-4.916555881500244141e-01 1.109342277050018311e-02 7.304884493350982666e-02
-3.514641225337982178e-01 1.255408301949501038e-02 2.257350385189056396e-01
-3.047735095024108887e-01 -2.022363431751728058e-02 4.668308794498443604e-02
-2.805770039558410645e-01 3.830990940332412720e-02 8.290404826402664185e-02
-3.846494257450103760e-01 3.335887193679809570e-02 -6.819719821214675903e-02
-3.804023563861846924e-01 3.034271486103534698e-02 -8.102059364318847656e-02
-4.250759780406951904e-01 4.150647670030593872e-02 1.281233727931976318e-01
-3.419184386730194092e-01 -2.901232428848743439e-02 6.583369523286819458e-02
-2.895493507385253906e-01 3.914470225572586060e-02 1.118770539760589600e-01
-3.286722004413604736e-01 4.400793462991714478e-02 1.500959098339080811e-01
-3.087289631366729736e-01 -2.071641571819782257e-02 6.392161548137664795e-02
-4.103626906871795654e-01 -2.405444346368312836e-02 1.624902635812759399e-01
-2.894279956817626953e-01 -1.442802511155605316e-02 1.303356885910034180e-02
-3.203656971454620361e-01 -1.455818302929401398e-02 -7.793425023555755615e-02
-4.067099690437316895e-01 -2.618277259171009064e-02 -6.350205093622207642e-02
-4.615314602851867676e-01 3.152684122323989868e-02 9.099671989679336548e-02
-2.910286784172058105e-01 5.693132523447275162e-03 -8.163088560104370117e-02
-4.664819836616516113e-01 -2.566382475197315216e-02 8.376223593950271606e-02
-3.862896859645843506e-01 -3.369133919477462769e-02 -6.145235151052474976e-03
-3.136872053146362305e-01 -1.770594157278537750e-02 -5.279825627803802490e-02
-3.988042771816253662e-01 3.116911835968494415e-02 -6.690503656864166260e-02
-4.587395787239074707e-01 5.308613181114196777e-04 1.981291770935058594e-01
-2.957285344600677490e-01 4.419074952602386475e-02 4.158497229218482971e-02
-3.606456816196441650e-01 -3.266964107751846313e-02 1.765885949134826660e-02
-2.769942581653594971e-01 3.689908981323242188e-02 2.213795110583305359e-02
-2.658919095993041992e-01 2.991108782589435577e-02 6.781376898288726807e-02
-3.334763944149017334e-01 -1.462891139090061188e-02 -9.094570577144622803e-02
-4.960894584655761719e-01 -2.669651992619037628e-03 7.120683789253234863e-02
-3.839075267314910889e-01 4.941096901893615723e-02 7.920332252979278564e-02
-3.655725419521331787e-01 4.710807651281356812e-02 3.588989377021789551e-03
-3.874047994613647461e-01 -1.214761659502983093e-02 2.044939100742340088e-01
-4.438014924526214600e-01 3.597917407751083374e-02 3.540553152561187744e-02
-3.146278560161590576e-01 4.764299094676971436e-02 8.946716785430908203e-02
-4.126576483249664307e-01 -2.159055508673191071e-02 -7.850348949432373047e-02
-2.843465507030487061e-01 -9.770110249519348145e-03 -1.938316226005554199e-02
-3.493449091911315918e-01 4.997755587100982666e-02 3.804732114076614380e-02
-4.541620016098022461e-01 -2.251543290913105011e-02 -3.004238009452819824e-02
-3.585672974586486816e-01 -2.833100967109203339e-02 -4.413719475269317627e-02
-3.634729087352752686e-01 -4.123766906559467316e-03 2.142706364393234253e-01
-4.816463589668273926e-01 1.403516158461570740e-03 1.593343764543533325e-01
-3.488079309463500977e-01 -2.959082461893558502e-02 -1.722392439842224121e-02
-4.263783097267150879e-01 3.844507783651351929e-02 8.460666984319686890e-03
-3.706150650978088379e-01 2.608250267803668976e-02 -9.663680195808410645e-02
-3.362648785114288330e-01 3.740699589252471924e-02 1.860015243291854858e-01
-3.933168947696685791e-01 -2.704489417374134064e-02 1.444765925407409668e-01
-3.221596181392669678e-01 -1.838952302932739258e-02 1.239272579550743103e-01
-3.099033534526824951e-01 -1.949705183506011963e-02 8.440512418746948242e-02
-2.716930508613586426e-01 -5.013691261410713196e-04 7.914151251316070557e-02
-3.850492835044860840e-01 4.704591631889343262e-02 1.353870928287506104e-01
-3.467072546482086182e-01 -3.080199472606182098e-02 3.229125589132308960e-02
-4.035374224185943604e-01 -2.047664299607276917e-02 -8.639553189277648926e-02
-3.595064282417297363e-01 4.561460763216018677e-02 -1.249399781227111816e-02
-4.143843948841094971e-01 2.739768102765083313e-02 -6.628064066171646118e-02
-3.355196714401245117e-01 -8.918687701225280762e-03 1.823712140321731567e-01
-3.998914659023284912e-01 4.168853908777236938e-02 1.679026633501052856e-01
-4.378621578216552734e-01 3.971414268016815186e-02 9.195470809936523438e-02
-4.071580469608306885e-01 -3.478296846151351929e-02 6.137585639953613281e-02
-3.693286180496215820e-01 3.080961667001247406e-02 -8.361124992370605469e-02
-3.302288949489593506e-01 -2.309801243245601654e-02 1.061216294765472412e-01
-3.377250134944915771e-01 2.761992439627647400e-02 -9.366489946842193604e-02
-3.924106955528259277e-01 4.841265082359313965e-02 9.328243136405944824e-02
-3.862715363502502441e-01 3.780850768089294434e-02 -4.760470986366271973e-02
-3.826657533645629883e-01 4.840391129255294800e-02 3.774924203753471375e-02
-2.579883933067321777e-01 1.798103004693984985e-02 4.407846927642822266e-02
-4.818558692932128906e-01 9.663552977144718170e-03 3.751300275325775146e-03
-4.695478677749633789e-01 2.137596532702445984e-02 9.199235588312149048e-03
-4.387736916542053223e-01 3.019453957676887512e-02 1.822833567857742310e-01
-4.383880496025085449e-01 2.061859332025051117e-02 -5.858373641967773438e-02
-4.606587290763854980e-01 3.187622874975204468e-02 7.926470786333084106e-02
-4.522088766098022461e-01 -2.615380100905895233e-02 -1.323390752077102661e-02
-3.412898182868957520e-01 -1.866276562213897705e-02 -8.323243260383605957e-02
-3.456714153289794922e-01 7.508163340389728546e-03 -1.220772862434387207e-01
-3.436026573181152344e-01 -2.244109660387039185e-02 -6.826510280370712280e-02
-3.763677477836608887e-01 -3.422683477401733398e-02 2.277040854096412659e-02
-3.018147349357604980e-01 1.288289949297904968e-02 -9.529398381710052490e-02
-4.585129618644714355e-01 1.168873161077499390e-02 -4.816068708896636963e-02
-4.935696125030517578e-01 -8.236572146415710449e-03 8.996336907148361206e-02
-4.828274548053741455e-01 1.951964572072029114e-02 7.198449224233627319e-02
-4.472154974937438965e-01 3.688524290919303894e-02 8.092709630727767944e-02
-2.735134363174438477e-01 5.742441862821578979e-04 -3.326529264450073242e-02
-4.651920795440673828e-01 2.537530660629272461e-02 1.484704315662384033e-01
-3.992320597171783447e-01 -2.907987497746944427e-02 1.319212615489959717e-01
-4.268388748168945312e-01 1.736253313720226288e-02 -8.037064969539642334e-02
-4.588665664196014404e-01 -1.205482706427574158e-02 -5.236335098743438721e-02
-2.832508087158203125e-01 1.319953612983226776e-02 1.482955813407897949e-01
-4.327280521392822266e-01 3.261911869049072266e-02 -1.929616928100585938e-02
-4.198355078697204590e-01 3.063572198152542114e-02 -4.809363186359405518e-02
-3.064981997013092041e-01 -1.353607885539531708e-02 -6.097079068422317505e-02
-3.427043557167053223e-01 -2.936200238764286041e-02 -4.246488213539123535e-03
-2.920804619789123535e-01 -6.916309706866741180e-03 -5.887210369110107422e-02
-4.738571047782897949e-01 -2.035836875438690186e-02 9.276412427425384521e-03
-4.052748382091522217e-01 4.261849075555801392e-02 1.556415259838104248e-01
-2.954742908477783203e-01 4.133221507072448730e-02 1.289285719394683838e-04
-3.852226138114929199e-01 4.310037195682525635e-02 -1.639421284198760986e-02
-4.857462644577026367e-01 1.518778502941131592e-02 1.181011274456977844e-01
-3.070572316646575928e-01 4.323980771005153656e-03 1.783407330513000488e-01
-3.504415452480316162e-01 2.399816364049911499e-02 -1.036307513713836670e-01
-4.235656559467315674e-01 -2.086243405938148499e-02 1.739500463008880615e-01
-4.250767529010772705e-01 -2.404031343758106232e-02 1.586794704198837280e-01
-4.050440788269042969e-01 3.927519172430038452e-02 1.778712421655654907e-01
-3.008330464363098145e-01 4.543006420135498047e-02 7.564338296651840210e-02
-3.516633808612823486e-01 -7.774852216243743896e-03 -1.152205616235733032e-01
-3.567730188369750977e-01 -3.001005761325359344e-02 -2.591847628355026245e-02
-2.957281470298767090e-01 3.402145206928253174e-02 -4.489510506391525269e-02
-3.943786025047302246e-01 4.328127950429916382e-02 -5.338054150342941284e-03
-3.377583622932434082e-01 3.231148421764373779e-02 -8.015342056751251221e-02
-4.304975271224975586e-01 -3.366467356681823730e-02 4.383866861462593079e-02
-3.549475073814392090e-01 -9.821323677897453308e-03 1.962413489818572998e-01
-3.510258793830871582e-01 4.708971828222274780e-02 -9.517483413219451904e-04
-3.820550441741943359e-01 3.743629157543182373e-02 1.969814598560333252e-01
-3.878573179244995117e-01 -3.101479448378086090e-02 -3.730299323797225952e-02
-3.557707965373992920e-01 -2.633413486182689667e-02 -5.622705817222595215e-02
8.516871929168701172e-02 -5.407233536243438721e-02 -1.126779317855834961e-01
-2.044430002570152283e-02 -7.000841200351715088e-02 -1.785669475793838501e-01
4.543680697679519653e-02 -7.675407081842422485e-02 -1.206133216619491577e-01
-6.820411980152130127e-02 -6.714639812707901001e-02 -1.771487444639205933e-01
5.478025972843170166e-02 -7.781994342803955078e-02 -1.307641714811325073e-01
2.548441290855407715e-02 -5.142916366457939148e-02 -1.227384731173515320e-01
1.459794938564300537e-01 -5.044134706258773804e-02 -1.370780318975448608e-01
3.389986231923103333e-02 -7.751648128032684326e-02 -1.485235989093780518e-01
-9.121677279472351074e-02 -6.720025837421417236e-02 -1.500225514173507690e-01
1.131353378295898438e-01 -7.453963905572891235e-02 -1.241524219512939453e-01
1.179316192865371704e-01 -5.456256121397018433e-02 -1.136903017759323120e-01
1.250612437725067139e-01 -4.775395244359970093e-02 -1.460725814104080200e-01
6.022171676158905029e-02 -6.762997806072235107e-02 -1.775553971529006958e-01
-4.048248007893562317e-02 -7.576148957014083862e-02 -1.485131829977035522e-01
1.711200773715972900e-01 -5.644932016730308533e-02 -1.396226286888122559e-01
1.415212750434875488e-01 -6.714598834514617920e-02 -1.537730544805526733e-01
6.912696361541748047e-02 -5.237436667084693909e-02 -1.163546890020370483e-01
4.155479371547698975e-03 -7.207304239273071289e-02 -1.739113926887512207e-01
3.428794443607330322e-02 -7.800227403640747070e-02 -1.306942552328109741e-01
1.566049009561538696e-01 -6.102176383137702942e-02 -1.144607886672019958e-01
-1.404619589447975159e-02 -6.099006533622741699e-02 -1.900942474603652954e-01
-6.589388847351074219e-02 -6.765966117382049561e-02 -1.310223788022994995e-01
-5.921528115868568420e-02 -5.302707478404045105e-02 -1.451102346181869507e-01
-5.418128147721290588e-02 -5.001244321465492249e-02 -1.600658297538757324e-01
-3.617426380515098572e-02 -7.568685710430145264e-02 -1.373044848442077637e-01
-8.414870500564575195e-02 -5.712472647428512573e-02 -1.499556005001068115e-01
1.144409179687500000e-03 -4.830253496766090393e-02 -1.806599050760269165e-01
-4.233628883957862854e-02 -5.909517407417297363e-02 -1.250597834587097168e-01
1.822929829359054565e-02 -5.746570229530334473e-02 -1.128641143441200256e-01
-5.531792715191841125e-02 -6.220646575093269348e-02 -1.858504116535186768e-01
-1.510224118828773499e-02 -4.655755311250686646e-02 -1.589851379394531250e-01
-5.474536493420600891e-02 -6.143540516495704651e-02 -1.271032989025115967e-01
-8.726146072149276733e-03 -7.190535217523574829e-02 -1.743935197591781616e-01
1.010727323591709137e-02 -4.545944929122924805e-02 -1.550190746784210205e-01
1.082084700465202332e-02 -7.585003972053527832e-02 -1.207200139760971069e-01
3.348859027028083801e-02 -7.408033311367034912e-02 -1.659539937973022461e-01
8.504068851470947266e-02 -4.542561620473861694e-02 -1.567578464746475220e-01
-5.501644685864448547e-02 -7.406434416770935059e-02 -1.409642994403839111e-01
-9.075030684471130371e-04 -6.024552881717681885e-02 -1.904574632644653320e-01
-3.498356416821479797e-02 -7.513584941625595093e-02 -1.589021086692810059e-01
-5.033593624830245972e-03 -4.623972997069358826e-02 -1.685497313737869263e-01
-3.660373017191886902e-02 -4.832085967063903809e-02 -1.570827662944793701e-01
-8.520577102899551392e-03 -7.228339463472366333e-02 -1.164969578385353088e-01
1.281747967004776001e-01 -6.578677892684936523e-02 -1.626729071140289307e-01
-2.347726002335548401e-02 -7.658024877309799194e-02 -1.511674970388412476e-01
7.194222509860992432e-02 -6.736522167921066284e-02 -1.758824586868286133e-01
4.223095625638961792e-02 -6.550160795450210571e-02 -1.047229692339897156e-01
1.545071750879287720e-01 -5.392935499548912048e-02 -1.250561028718948364e-01
2.749866992235183716e-02 -6.537761539220809937e-02 -1.063134968280792236e-01
-3.487423434853553772e-02 -5.018902942538261414e-02 -1.433365345001220703e-01
-5.853722617030143738e-02 -7.381062209606170654e-02 -1.555109769105911255e-01
-3.196064755320549011e-02 -7.036110758781433105e-02 -1.769488602876663208e-01
1.600367575883865356e-02 -6.858685612678527832e-02 -1.085092574357986450e-01
1.031896471977233887e-01 -4.850176721811294556e-02 -1.677653193473815918e-01
-8.773751556873321533e-02 -5.738988891243934631e-02 -1.726061552762985229e-01
6.102610379457473755e-02 -4.886235296726226807e-02 -1.262865364551544189e-01
2.578058838844299316e-02 -4.491113871335983276e-02 -1.605572104454040527e-01
3.055377304553985596e-02 -5.859737470746040344e-02 -1.894008368253707886e-01
3.489250689744949341e-02 -7.534663379192352295e-02 -1.158398911356925964e-01
4.589535295963287354e-02 -4.986797273159027100e-02 -1.828769743442535400e-01
1.064100414514541626e-01 -7.381930202245712280e-02 -1.476552486419677734e-01
-7.287353277206420898e-02 -5.555314570665359497e-02 -1.455577015876770020e-01
-2.826288342475891113e-03 -7.654834538698196411e-02 -1.562823802232742310e-01
6.535097211599349976e-02 -4.725651443004608154e-02 -1.740622818470001221e-01
1.092183440923690796e-01 -4.657381772994995117e-02 -1.519957780838012695e-01
9.962812811136245728e-02 -6.567309051752090454e-02 -1.721323132514953613e-01
1.670776456594467163e-01 -6.596516817808151245e-02 -1.327125579118728638e-01
1.112735569477081299e-01 -4.775989055633544922e-02 -1.348367333412170410e-01
3.129128739237785339e-02 -4.791005700826644897e-02 -1.328910738229751587e-01
7.363943010568618774e-02 -6.787019968032836914e-02 -1.035850793123245239e-01
3.900917991995811462e-02 -4.487891495227813721e-02 -1.518239080905914307e-01
1.386337280273437500e-01 -5.928254127502441406e-02 -1.104375869035720825e-01
4.950092732906341553e-02 -4.577337205410003662e-02 -1.414560079574584961e-01
3.464430570602416992e-02 -5.451843887567520142e-02 -1.149958670139312744e-01
1.457594335079193115e-02 -4.653041064739227295e-02 -1.431903988122940063e-01
-1.389876380562782288e-02 -7.728863507509231567e-02 -1.389117687940597534e-01
-2.847236767411231995e-02 -5.417473986744880676e-02 -1.884481459856033325e-01
6.505863368511199951e-02 -4.532550275325775146e-02 -1.446181535720825195e-01
7.925358414649963379e-02 -7.632116973400115967e-02 -1.446482539176940918e-01
3.425584360957145691e-02 -4.748830944299697876e-02 -1.784914731979370117e-01
-4.858228936791419983e-02 -7.225385308265686035e-02 -1.687954068183898926e-01
-7.792378962039947510e-02 -6.956398487091064453e-02 -1.412559002637863159e-01
-1.526439189910888672e-02 -5.754469707608222961e-02 -1.193625926971435547e-01
-6.992097198963165283e-02 -7.229574024677276611e-02 -1.575878262519836426e-01
5.840969830751419067e-02 -5.374085903167724609e-02 -1.854510158300399780e-01
9.260597825050354004e-02 -4.843855649232864380e-02 -1.281467378139495850e-01
9.478490799665451050e-03 -5.480694025754928589e-02 -1.901422441005706787e-01
-3.087441995739936829e-02 -5.358308553695678711e-02 -1.309567987918853760e-01
-3.738828375935554504e-02 -6.241473555564880371e-02 -1.880162060260772705e-01
8.751724660396575928e-02 -7.048774510622024536e-02 -1.059743911027908325e-01
-4.476260021328926086e-02 -4.913482069969177246e-02 -1.700703501701354980e-01
1.561882346868515015e-01 -6.868816167116165161e-02 -1.349636316299438477e-01
7.885690778493881226e-03 -7.800232619047164917e-02 -1.406486928462982178e-01
-2.943930402398109436e-02 -4.810052365064620972e-02 -1.727103888988494873e-01
-8.813555538654327393e-02 -6.766397505998611450e-02 -1.656182408332824707e-01
1.693543046712875366e-01 -6.206652149558067322e-02 -1.218141168355941772e-01
9.032201766967773438e-02 -4.603288322687149048e-02 -1.418498903512954712e-01
8.403032273054122925e-02 -7.681059092283248901e-02 -1.327522993087768555e-01
2.288109250366687775e-02 -4.726838320493698120e-02 -1.781350374221801758e-01
-5.707209929823875427e-02 -5.192295461893081665e-02 -1.778292655944824219e-01
2.578965947031974792e-02 -4.602233693003654480e-02 -1.436006128787994385e-01
4.411574825644493103e-02 -5.067946016788482666e-02 -1.222227960824966431e-01
1.306273043155670166e-01 -5.147876590490341187e-02 -1.236162632703781128e-01
6.698428839445114136e-02 -7.404284179210662842e-02 -1.603629589080810547e-01
-1.637702807784080505e-02 -4.782145097851753235e-02 -1.468181312084197998e-01
6.579797714948654175e-03 -5.014858022332191467e-02 -1.298503726720809937e-01
8.168449997901916504e-02 -7.300467044115066528e-02 -1.602868884801864624e-01
8.460764586925506592e-02 -7.595926523208618164e-02 -1.206459999084472656e-01
1.700549423694610596e-01 -3.564013540744781494e-02 -1.141929849982261658e-01
7.391194254159927368e-02 1.889450289309024811e-02 -1.826287060976028442e-02
1.613555997610092163e-01 -3.172282874584197998e-02 6.393307447433471680e-02
1.023123860359191895e-01 1.641331799328327179e-02 -4.308221861720085144e-02
1.016297936439514160e-01 -4.140232503414154053e-02 8.839097619056701660e-02
-1.130450367927551270e-01 -4.061495885252952576e-03 -6.039993837475776672e-02
-1.096323877573013306e-01 7.474524900317192078e-03 6.795990467071533203e-02
1.436095833778381348e-01 8.597778156399726868e-03 -7.404373586177825928e-02
-1.261789649724960327e-01 8.606923744082450867e-03 -3.181275352835655212e-02
1.082114800810813904e-01 -7.042907178401947021e-03 -1.202123761177062988e-01
7.106816768646240234e-02 -4.198284819722175598e-02 -1.065162271261215210e-01
2.170242220163345337e-01 -6.916143000125885010e-03 -6.515903770923614502e-02
2.131636291742324829e-01 -6.169511005282402039e-03 -2.744442410767078400e-02
1.846879571676254272e-01 -3.817582502961158752e-02 5.057541653513908386e-02
-1.024994254112243652e-01 -2.752446569502353668e-02 -5.949515104293823242e-02
1.637852005660533905e-02 -6.109914183616638184e-02 -4.366486892104148865e-02
2.238053083419799805e-01 -5.563908815383911133e-02 -3.441209718585014343e-02
1.546269357204437256e-01 9.041430428624153137e-03 -4.893103241920471191e-02
2.284791320562362671e-01 -2.976249158382415771e-02 1.226188428699970245e-02
1.773374229669570923e-01 4.616592079401016235e-03 -5.027239769697189331e-02
4.861690104007720947e-02 1.911993138492107391e-02 4.896236583590507507e-03
1.560476571321487427e-01 1.476204022765159607e-03 -9.562583267688751221e-02
-1.361112594604492188e-01 1.063768006861209869e-02 -1.165563054382801056e-02
-1.519977152347564697e-01 3.703203052282333374e-03 -1.597433164715766907e-02
7.129009068012237549e-02 -5.766622722148895264e-02 -7.342032343149185181e-02
1.621453016996383667e-01 4.092117771506309509e-03 -8.211308717727661133e-02
-8.204159885644912720e-02 1.923654787242412567e-02 1.808247528970241547e-02
1.746074408292770386e-01 -6.496343016624450684e-02 -1.954845711588859558e-02
-1.706693172454833984e-01 -2.636024355888366699e-02 1.098397932946681976e-02
-1.477430760860443115e-02 -5.986274033784866333e-02 -3.222955018281936646e-02
1.494612395763397217e-01 -2.923307567834854126e-02 6.929477304220199585e-02
1.072463765740394592e-01 -3.815834224224090576e-02 -1.150868162512779236e-01
2.154693603515625000e-01 -3.355656564235687256e-02 -1.014459356665611267e-01
-6.075157970190048218e-02 -5.507732927799224854e-02 -2.009151130914688110e-02
-8.458263427019119263e-02 9.775424376130104065e-03 6.696044653654098511e-02
-1.032534241676330566e-01 9.152406826615333557e-03 -4.903363436460494995e-02
1.841839402914047241e-01 -4.719874635338783264e-02 -9.606911987066268921e-02
1.110644787549972534e-01 -6.624428927898406982e-02 -4.244447126984596252e-02
1.618352346122264862e-02 -5.475136637687683105e-02 8.922851830720901489e-02
1.243626177310943604e-01 -6.818854063749313354e-02 1.575753651559352875e-02
5.690301209688186646e-02 1.737793348729610443e-02 1.279052719473838806e-02
-1.748055964708328247e-01 -5.046818405389785767e-04 2.719353511929512024e-02
-4.978980869054794312e-03 -1.108478754758834839e-02 1.030491143465042114e-01
1.425368189811706543e-01 -3.490602597594261169e-02 -1.180426850914955139e-01
-9.218975901603698730e-05 -6.406718492507934570e-02 5.486478656530380249e-02
1.890863105654716492e-02 2.181064523756504059e-02 -6.037518382072448730e-03
-8.161088824272155762e-02 -5.070528388023376465e-02 7.911624759435653687e-02
3.078622557222843170e-02 -5.671869963407516479e-02 -6.551732867956161499e-02
-1.007863730192184448e-01 -4.021147638559341431e-02 -3.837646543979644775e-02
-8.418825268745422363e-02 -6.871623918414115906e-03 -7.817994058132171631e-02
1.382337361574172974e-01 1.084533520042896271e-02 -6.229314953088760376e-02
2.512439899146556854e-02 -1.447955984622240067e-02 -1.165213733911514282e-01
1.384464800357818604e-01 -6.578345596790313721e-02 2.588758245110511780e-02
-1.112042963504791260e-01 1.138548366725444794e-02 -3.668965399265289307e-02
2.299391627311706543e-01 -1.124196592718362808e-02 -4.108005017042160034e-02
-9.713581204414367676e-02 1.672096736729145050e-02 3.130770474672317505e-02
1.760352402925491333e-01 -6.257283687591552734e-02 -4.723552986979484558e-02
1.400005817413330078e-02 -3.293292969465255737e-02 -1.050656735897064209e-01
1.601066589355468750e-01 -6.564661860466003418e-02 -3.256290033459663391e-02
-7.993281632661819458e-02 1.734489016234874725e-02 -3.595552593469619751e-02
1.885185390710830688e-01 -5.465408414602279663e-02 -7.665828615427017212e-02
-1.472743749618530273e-01 -1.981796510517597198e-02 -3.206306323409080505e-02
1.117046102881431580e-01 -6.932442635297775269e-02 7.262960076332092285e-03
1.420917361974716187e-01 -6.411660462617874146e-02 -5.159701406955718994e-02
1.622919142246246338e-01 -6.621429324150085449e-02 -2.025919035077095032e-02
2.052111625671386719e-01 -5.976770073175430298e-02 -1.167738251388072968e-02
-1.312863454222679138e-02 -5.475796014070510864e-02 8.806733042001724243e-02
-1.947510242462158203e-02 -1.679253578186035156e-02 1.094119101762771606e-01
2.666254900395870209e-02 -6.748570501804351807e-02 3.630699962377548218e-02
-2.144966274499893188e-02 -6.454567611217498779e-02 1.589757390320301056e-02
2.238627821207046509e-01 -3.794032707810401917e-02 -9.319142252206802368e-02
8.520813286304473877e-02 -6.027790904045104980e-02 -6.734737753868103027e-02
-6.251801550388336182e-02 -5.922161787748336792e-02 1.553354412317276001e-02
1.519627869129180908e-02 -2.138888090848922729e-02 1.080153360962867737e-01
-4.766662418842315674e-02 -6.097469478845596313e-02 8.484752848744392395e-03
-1.052744686603546143e-01 -2.712076529860496521e-02 1.057012826204299927e-01
-1.438097655773162842e-01 -2.853265404701232910e-02 8.803335577249526978e-02
5.621852353215217590e-03 -2.577203512191772461e-02 -1.085850670933723450e-01
1.556260585784912109e-01 -5.080761387944221497e-03 3.489260002970695496e-02
1.369938254356384277e-03 -6.631808727979660034e-02 3.323601186275482178e-02
1.419389992952346802e-01 -1.186267565935850143e-02 5.665267258882522583e-02
2.169948816299438477e-01 -5.666573345661163330e-02 -1.105586718767881393e-02
1.028107479214668274e-01 -6.724309921264648438e-02 3.479213267564773560e-02
-1.739474982023239136e-01 -1.107124611735343933e-03 1.277130097150802612e-02
6.461736559867858887e-02 -6.265264749526977539e-02 -5.408099293708801270e-02
-7.465402036905288696e-02 -2.654179930686950684e-03 9.515400230884552002e-02
8.802778273820877075e-02 1.277296803891658783e-02 1.925585232675075531e-02
1.595084071159362793e-01 4.744645208120346069e-03 -3.720300737768411636e-03
1.142705604434013367e-02 -5.744876712560653687e-02 -5.575858801603317261e-02
1.767512559890747070e-01 -6.135477125644683838e-02 1.918363198637962341e-02
-5.999871343374252319e-02 -5.361644923686981201e-02 7.982360571622848511e-02
7.349541038274765015e-02 -6.630074977874755859e-02 4.777691885828971863e-02
1.671767979860305786e-01 -6.451755017042160034e-02 9.581589139997959137e-03
-5.473834276199340820e-02 2.140272967517375946e-02 6.493698805570602417e-03
-6.747636944055557251e-02 1.167842932045459747e-02 6.293494999408721924e-02
1.061394363641738892e-01 -5.947970598936080933e-02 -7.238221168518066406e-02
-6.806838512420654297e-02 1.902073808014392853e-02 -3.416285663843154907e-02
1.409892924129962921e-02 1.931325905025005341e-02 2.046144381165504456e-02
-1.297641247510910034e-01 -3.464636951684951782e-02 -2.570337057113647461e-02
-7.241088151931762695e-02 -5.692962557077407837e-02 6.850039586424827576e-03
-5.142989009618759155e-02 1.382303424179553986e-02 -6.502690911293029785e-02
1.309055835008621216e-01 -4.606304317712783813e-02 -1.047878339886665344e-01
2.987248450517654419e-02 2.094542607665061951e-03 7.631435990333557129e-02
1.072963327169418335e-01 1.531682722270488739e-02 -5.456469953060150146e-02
-6.782292574644088745e-02 1.694340445101261139e-02 -4.590520635247230530e-02
-3.503523766994476318e-02 -7.920006290078163147e-03 1.023400351405143738e-01
5.566030740737915039e-03 -1.441974937915802002e-02 -1.121084839105606079e-01
-1.049362868070602417e-01 1.739927195012569427e-02 1.480758935213088989e-02
-6.383143365383148193e-02 -4.495086148381233215e-02 9.925336390733718872e-02
2.139036357402801514e-01 -5.046920850872993469e-03 -4.575190693140029907e-02
1.539581567049026489e-01 -2.073290199041366577e-02 -1.220900937914848328e-01
-1.791757494211196899e-01 -1.895107701420783997e-02 5.671631544828414917e-02
1.400476098060607910e-01 -6.773467361927032471e-02 6.420997902750968933e-03
2.464502155780792236e-01 -4.514753818511962891e-02 -5.274235829710960388e-02
-1.844765245914459229e-01 -1.080407947301864624e-02 3.310260921716690063e-02
-1.359349042177200317e-01 -2.267871052026748657e-02 9.570550173521041870e-02
-2.204185724258422852e-02 -4.405189678072929382e-02 1.055074855685234070e-01
-4.843018949031829834e-02 1.984056644141674042e-02 -4.054369032382965088e-02
1.729333251714706421e-01 -6.484815478324890137e-02 -3.099458990618586540e-03
2.354104965925216675e-01 -5.052033811807632446e-02 -5.107418075203895569e-02
-8.411706984043121338e-02 1.618554629385471344e-02 4.092283546924591064e-02
1.326576769351959229e-01 -5.573287606239318848e-02 -8.409897983074188232e-02
-8.100676536560058594e-02 2.006907947361469269e-02 -4.604603629559278488e-03
6.073964014649391174e-02 -3.725270181894302368e-02 -1.108931899070739746e-01
4.159855470061302185e-02 2.376757562160491943e-03 7.246940582990646362e-02
-4.279200732707977295e-02 -5.595893412828445435e-02 -3.085025586187839508e-02
1.774503290653228760e-02 5.302814766764640808e-03 -1.012318283319473267e-01
-5.694728344678878784e-02 -3.084575198590755463e-02 -8.106012642383575439e-02
5.016990378499031067e-02 2.088121138513088226e-02 -2.591244131326675415e-02
1.947578042745590210e-01 -5.780160427093505859e-02 1.633158512413501740e-02
6.603512167930603027e-02 3.684045746922492981e-03 -1.081008985638618469e-01
2.138332873582839966e-01 -1.184792164713144302e-02 -2.272177720442414284e-03
8.031484484672546387e-02 -2.781537547707557678e-02 -1.215046346187591553e-01
-1.602106392383575439e-01 5.192512646317481995e-03 3.581774607300758362e-02
1.698274463415145874e-01 -4.911753535270690918e-02 -9.560203552246093750e-02
1.211060136556625366e-01 1.205759681761264801e-02 -5.273359827697277069e-03
-1.137480139732360840e-01 -1.598241925239562988e-02 -6.103163585066795349e-02
3.432195633649826050e-02 -6.508817523717880249e-02 5.596488714218139648e-02
1.096727177500724792e-01 -6.949450075626373291e-02 -4.662445746362209320e-03
1.639323383569717407e-01 5.851967260241508484e-03 -6.976069509983062744e-02
1.878430247306823730e-01 -5.918372422456741333e-02 -5.941233038902282715e-02
9.515968710184097290e-02 -4.030180349946022034e-02 -1.117135882377624512e-01
1.048810482025146484e-01 -6.293774396181106567e-02 -5.926123633980751038e-02
1.633947640657424927e-01 -2.686835080385208130e-02 -1.201280131936073303e-01
-9.832179546356201172e-02 -4.468527436256408691e-02 -2.771708928048610687e-02
1.287879198789596558e-01 6.562054157257080078e-03 -9.210142493247985840e-02
-3.158670663833618164e-02 -2.387190237641334534e-02 1.132802888751029968e-01
-2.535149455070495605e-02 -5.227577686309814453e-02 -5.493637919425964355e-02
1.420758813619613647e-01 -1.862471736967563629e-02 -1.233590841293334961e-01
1.438410878181457520e-01 -6.290349364280700684e-02 3.677631169557571411e-02
6.177116185426712036e-02 1.940007694065570831e-02 -9.374054148793220520e-03
3.342692553997039795e-02 1.799435354769229889e-02 2.120033279061317444e-02
-1.461932212114334106e-01 -3.999222442507743835e-02 2.087801881134510040e-02
2.091838419437408447e-01 -3.508037328720092773e-02 3.278292343020439148e-02
1.289409399032592773e-01 5.472484976053237915e-03 2.205795049667358398e-02
1.501611918210983276e-01 9.410468861460685730e-03 -2.781699225306510925e-02
-8.167119324207305908e-02 -3.807836398482322693e-02 -5.669863522052764893e-02
6.436484307050704956e-02 -6.861320137977600098e-02 -1.627960614860057831e-02
-9.605264663696289062e-02 1.200805418193340302e-02 5.668905749917030334e-02
5.850271880626678467e-02 1.423577405512332916e-02 2.923578396439552307e-02
-1.088640838861465454e-02 -9.454962797462940216e-03 -1.070943698287010193e-01
-5.380347371101379395e-02 -5.087085813283920288e-02 8.988399058580398560e-02
-1.178031563758850098e-01 -2.346060983836650848e-02 1.027294322848320007e-01
-6.378834694623947144e-02 -5.937839299440383911e-02 3.318279609084129333e-02
-4.537554830312728882e-02 -5.908725410699844360e-02 6.300054490566253662e-02
-8.155686408281326294e-02 -5.625549703836441040e-02 2.000935934484004974e-02
1.069738268852233887e-01 1.195280067622661591e-02 9.423861280083656311e-03
2.516765594482421875e-01 -2.967475354671478271e-02 -2.533180452883243561e-02
4.822783917188644409e-02 -1.930088177323341370e-02 -1.203921660780906677e-01
7.666435837745666504e-02 -6.940627843141555786e-02 -9.763261303305625916e-03
-1.164020970463752747e-02 -3.833476081490516663e-02 1.102660074830055237e-01
6.938767433166503906e-02 -2.311802096664905548e-02 9.710068255662918091e-02
8.804412186145782471e-02 -6.504834443330764771e-02 -4.755236953496932983e-02
-1.179029494524002075e-01 1.572836376726627350e-02 1.489651203155517578e-02
2.124061286449432373e-01 -5.842090398073196411e-02 -3.469804674386978149e-02
4.427734762430191040e-02 -6.391591578722000122e-02 6.167523562908172607e-02
-1.782122850418090820e-01 -1.046833489090204239e-02 5.306595936417579651e-03
7.763888686895370483e-02 1.042232476174831390e-02 3.553790226578712463e-02
2.326002568006515503e-01 -2.320642210543155670e-02 -8.961480110883712769e-02
3.867550194263458252e-02 -4.723954200744628906e-02 -9.108717739582061768e-02
-2.115422114729881287e-02 -5.645795166492462158e-02 -4.305369406938552856e-02
-1.985309645533561707e-02 1.379667408764362335e-02 5.433398112654685974e-02
9.944101423025131226e-02 1.244852878153324127e-02 -8.043866604566574097e-02
-1.221984475851058960e-01 1.430792175233364105e-02 2.740264683961868286e-02
1.071611419320106506e-01 8.207837119698524475e-03 -9.392929822206497192e-02
1.579709164798259735e-02 -6.765777617692947388e-02 2.165600843727588654e-02
1.726010590791702271e-01 -2.368377894163131714e-02 5.295256525278091431e-02
-1.188676953315734863e-01 -3.368443995714187622e-02 -3.789523988962173462e-02
1.896549016237258911e-01 -5.154715850949287415e-03 5.126683041453361511e-03
2.139840126037597656e-01 -5.609937757253646851e-02 -5.323569476604461670e-02
4.848500713706016541e-03 -6.222102046012878418e-02 -3.223147243261337280e-02
-1.524847596883773804e-01 -1.926613971590995789e-03 7.059872895479202271e-02
9.253928065299987793e-02 -7.720613852143287659e-03 7.353604584932327271e-02
1.604049205780029297e-01 -6.419622898101806641e-02 -4.502026364207267761e-02
2.949506975710391998e-02 -5.075306445360183716e-02 -8.110222220420837402e-02
1.522340476512908936e-01 -5.323416367173194885e-02 5.672075971961021423e-02
-1.549914479255676270e-03 6.566047668457031250e-04 8.578223735094070435e-02
-4.852363467216491699e-02 -8.043702691793441772e-04 -9.033016860485076904e-02
1.391993463039398193e-01 -6.650628522038459778e-03 -1.160807982087135315e-01
-1.201967597007751465e-01 9.604973718523979187e-03 5.648000165820121765e-02
4.606655612587928772e-02 -5.243746563792228699e-03 8.529013395309448242e-02
-1.240286678075790405e-01 -3.650425374507904053e-02 8.996840566396713257e-02
-1.402084231376647949e-01 -3.752751648426055908e-02 7.504350692033767700e-02
2.237246930599212646e-02 -6.751173734664916992e-02 -2.067679539322853088e-03
-1.213838607072830200e-01 -2.274604514241218567e-03 8.617347478866577148e-02
-4.125218838453292847e-03 -6.305897980928421021e-02 -2.147307246923446655e-02
1.253239214420318604e-01 -4.002649337053298950e-03 5.135508626699447632e-02
1.846397221088409424e-01 -5.359563976526260376e-03 -9.748573601245880127e-02
7.513730227947235107e-02 4.937307909131050110e-03 5.426983907818794250e-02
1.878810822963714600e-01 -1.858511194586753845e-02 3.684133291244506836e-02
-1.554647088050842285e-01 -1.020030211657285690e-02 8.076001703739166260e-02
-9.789100289344787598e-02 2.226755023002624512e-04 -6.635975092649459839e-02
4.269906133413314819e-02 -5.267971009016036987e-02 -8.028972893953323364e-02
1.074808910489082336e-01 -4.676689952611923218e-02 -1.030389517545700073e-01
-1.433581262826919556e-01 -3.972348570823669434e-02 6.227596849203109741e-02
1.826155930757522583e-02 7.130492478609085083e-03 6.744829565286636353e-02
2.632949873805046082e-02 2.051860280334949493e-02 -5.122020468115806580e-02
1.340121924877166748e-01 1.916797831654548645e-03 -1.031236052513122559e-01
7.436552643775939941e-02 -6.242460757493972778e-02 6.369104981422424316e-02
-2.029226720333099365e-02 2.237397991120815277e-02 -2.745350077748298645e-02
1.322052776813507080e-01 1.250405423343181610e-02 -3.047575242817401886e-02
5.490824580192565918e-02 1.590038277208805084e-02 -7.570631802082061768e-02
6.926978379487991333e-02 9.863218292593955994e-03 -9.516675025224685669e-02
-3.615195304155349731e-02 2.200546674430370331e-02 -2.589605189859867096e-02
7.690532505512237549e-02 -4.250341281294822693e-02 9.499202668666839600e-02
1.613524407148361206e-01 -5.352666601538658142e-02 -8.709505945444107056e-02
-1.376057043671607971e-02 -4.333282262086868286e-02 -8.128941804170608521e-02
4.887228459119796753e-02 9.558556601405143738e-03 -9.627966582775115967e-02
8.876168727874755859e-02 2.069991081953048706e-03 5.569286271929740906e-02
9.635327756404876709e-02 -5.169657990336418152e-03 -1.190361976623535156e-01
-9.125243127346038818e-02 -1.436161994934082031e-02 1.060326546430587769e-01
-1.131701767444610596e-01 1.446398906409740448e-02 3.608987480401992798e-02
-1.382489651441574097e-01 4.209633916616439819e-03 -3.086237050592899323e-02
3.550322353839874268e-02 -6.019473075866699219e-02 -5.515889823436737061e-02
6.918759644031524658e-02 1.758200116455554962e-02 2.582491375505924225e-03
1.813862025737762451e-01 -3.988003730773925781e-02 -1.076881811022758484e-01
-9.219770133495330811e-02 1.902077533304691315e-02 6.203023716807365417e-03
-9.656582772731781006e-02 -3.696546703577041626e-02 -4.881438985466957092e-02
-9.070393443107604980e-02 -5.006890743970870972e-02 -1.419226266443729401e-02
7.737296819686889648e-02 -5.834550410509109497e-02 7.421104609966278076e-02
1.337309181690216064e-01 4.010591655969619751e-04 3.543933108448982239e-02
1.145438179373741150e-01 -6.767851114273071289e-02 -3.165274113416671753e-02
-9.900260716676712036e-03 5.544543266296386719e-03 7.689177244901657104e-02
1.225324124097824097e-01 -6.667809188365936279e-02 2.967121452093124390e-02
1.852382346987724304e-02 -5.227862671017646790e-02 -7.384201139211654663e-02
1.484343409538269043e-01 -6.755087524652481079e-02 -9.801140055060386658e-03
-1.477293074131011963e-01 -3.671966120600700378e-02 4.320894367992877960e-03
1.773157566785812378e-01 4.522379487752914429e-03 -3.818425908684730530e-02
9.764136373996734619e-02 -5.599423497915267944e-02 7.381784170866012573e-02
-1.212968081235885620e-01 -2.294292859733104706e-02 -5.124717950820922852e-02
1.520116478204727173e-01 -6.694067269563674927e-02 2.036345191299915314e-03
1.016916781663894653e-01 -6.776741892099380493e-02 -3.137929737567901611e-02
1.035221964120864868e-01 -5.460579693317413330e-02 -8.631562441587448120e-02
-9.140534698963165283e-02 1.540639437735080719e-02 -3.703957423567771912e-02
-8.766202628612518311e-02 1.232951320707798004e-02 -5.085328593850135803e-02
-4.723854362964630127e-02 -2.803603932261466980e-02 -8.833786845207214355e-02
-1.309588998556137085e-01 1.218964718282222748e-02 3.436270728707313538e-02
1.489149034023284912e-01 5.781818181276321411e-03 2.880702726542949677e-03
-1.828068941831588745e-01 -1.953474059700965881e-02 4.079849272966384888e-02
-5.774341523647308350e-03 -6.549947708845138550e-02 2.645004540681838989e-03
-4.507537931203842163e-02 -5.250596255064010620e-02 -4.267383366823196411e-02
3.961010649800300598e-02 1.145522110164165497e-02 4.818256199359893799e-02
-2.479754760861396790e-02 1.488990522921085358e-02 -7.116245478391647339e-02
3.927031159400939941e-02 2.138170413672924042e-02 -1.865357346832752228e-02
8.155981451272964478e-02 1.707946695387363434e-02 -4.275105427950620651e-03
-3.668048977851867676e-02 -5.645538866519927979e-02 7.855983078479766846e-02
1.775609254837036133e-01 3.717299550771713257e-04 -8.500794321298599243e-02
-4.002982378005981445e-02 2.233099006116390228e-02 -1.009447965770959854e-02
-5.007143318653106689e-02 -6.127762049436569214e-02 3.271546214818954468e-02
1.004126369953155518e-01 1.009291969239711761e-02 2.348848059773445129e-02
-3.412194550037384033e-03 -6.463561207056045532e-02 -9.946454316377639771e-03
1.470502279698848724e-02 -6.449261307716369629e-02 5.651785433292388916e-02
5.904361605644226074e-02 4.126306623220443726e-03 6.270337849855422974e-02
