-6.289050579071044922e-01 4.366740584373474121e-03 1.241991594433784485e-01
-6.248828768730163574e-01 -3.288637846708297729e-02 -7.748317718505859375e-02
-5.869662165641784668e-01 -5.973573401570320129e-02 -2.135095894336700439e-01
-5.481990575790405273e-01 -9.614351391792297363e-02 1.202678456902503967e-01
-6.007045507431030273e-01 -5.966037884354591370e-02 -1.415324658155441284e-01
-5.377091765403747559e-01 -5.506747588515281677e-02 2.412439584732055664e-01
-4.889561235904693604e-01 6.088122352957725525e-02 2.329265177249908447e-01
-5.785133838653564453e-01 1.510790139436721802e-01 -2.297664582729339600e-01
-5.528313517570495605e-01 2.965091913938522339e-02 2.993302941322326660e-01
-4.935058951377868652e-01 9.049656987190246582e-02 -1.734211295843124390e-01
-5.653572678565979004e-01 1.593686193227767944e-01 1.708498448133468628e-01
-4.870919287204742432e-01 2.991653978824615479e-02 -2.640082836151123047e-01
-4.976736009120941162e-01 2.169900760054588318e-02 2.821327149868011475e-01
-4.567619562149047852e-01 5.323021858930587769e-02 -8.345673233270645142e-02
-6.015188694000244141e-01 -3.344252333045005798e-02 1.425161063671112061e-01
-5.757860541343688965e-01 -6.747199594974517822e-02 -2.249181866645812988e-01
-5.429683923721313477e-01 -1.107273995876312256e-01 -1.492245644330978394e-01
-6.388206481933593750e-01 8.953982591629028320e-02 -2.755051851272583008e-01
-4.522548317909240723e-01 5.410214886069297791e-02 1.269407570362091064e-03
-4.221075177192687988e-01 -7.264986634254455566e-02 -5.776876211166381836e-02
-6.469919085502624512e-01 9.220556914806365967e-02 -2.563849985599517822e-01
-5.940389633178710938e-01 -7.259027659893035889e-02 -1.687972247600555420e-02
-5.172385573387145996e-01 1.444461643695831299e-01 3.607887774705886841e-02
-6.588282585144042969e-01 4.226860404014587402e-02 3.618334978818893433e-02
-5.346905589103698730e-01 1.540402472019195557e-01 1.032266616821289062e-01
-6.214922666549682617e-01 1.988856047391891479e-01 -6.860518455505371094e-02
-5.751255750656127930e-01 -7.043151557445526123e-02 1.260224282741546631e-01
-4.531620740890502930e-01 -2.355479449033737183e-02 -2.111254632472991943e-01
-4.815886318683624268e-01 1.014782041311264038e-01 -2.482840232551097870e-02
-6.004059314727783203e-01 1.823098063468933105e-01 1.267749369144439697e-01
-6.219565272331237793e-01 1.936246454715728760e-01 7.265599071979522705e-02
-6.449114084243774414e-01 6.446000188589096069e-03 -1.308323740959167480e-01
-5.551380515098571777e-01 2.900259755551815033e-02 -3.450571596622467041e-01
-5.635297894477844238e-01 -5.849720165133476257e-02 -2.732172608375549316e-01
-4.661770462989807129e-01 -1.128354966640472412e-01 1.501622647047042847e-01
-5.526680350303649902e-01 -1.038951724767684937e-01 -1.510496437549591064e-01
-6.632342338562011719e-01 1.766896843910217285e-01 -9.148690849542617798e-02
-5.937389731407165527e-01 1.938244402408599854e-01 4.775816202163696289e-02
-6.154304742813110352e-01 1.807608306407928467e-01 1.317308992147445679e-01
-5.176095962524414062e-01 -5.317068472504615784e-02 2.586487233638763428e-01
-5.236364603042602539e-01 1.512697786092758179e-01 7.696896791458129883e-04
-5.864307880401611328e-01 1.867610216140747070e-01 8.771880716085433960e-02
-6.782875061035156250e-01 1.375561803579330444e-01 -1.791802048683166504e-02
-4.616812169551849365e-01 5.598096549510955811e-02 -1.126394346356391907e-01
-5.960898399353027344e-01 3.135597705841064453e-02 -3.288501203060150146e-01
-4.687557816505432129e-01 5.867177993059158325e-02 -1.481389701366424561e-01
-4.347219467163085938e-01 -3.245280310511589050e-02 -1.372641026973724365e-01
-6.028997302055358887e-01 5.887465178966522217e-02 -3.275111019611358643e-01
-6.494116783142089844e-01 1.904201954603195190e-01 -8.231583982706069946e-02
-4.637692868709564209e-01 -4.838458821177482605e-02 -2.451985478401184082e-01
-5.084872841835021973e-01 -3.968322649598121643e-02 -3.115843236446380615e-01
-4.949466288089752197e-01 -1.053498238325119019e-01 -2.249708622694015503e-01
-5.140814781188964844e-01 -6.629781424999237061e-02 2.426431775093078613e-01
-5.501278042793273926e-01 8.034720271825790405e-02 2.876236736774444580e-01
-6.736556887626647949e-01 1.601785868406295776e-01 -1.544895023107528687e-02
-6.122384071350097656e-01 1.496795285493135452e-02 2.037504762411117554e-01
-4.797866046428680420e-01 5.876097083091735840e-02 -1.982210129499435425e-01
-6.266679167747497559e-01 2.006618380546569824e-01 -1.216685771942138672e-02
-5.399779081344604492e-01 1.360016912221908569e-01 -1.970923691987991333e-01
-4.468068480491638184e-01 -9.533818811178207397e-03 -1.746696531772613525e-01
-5.958680510520935059e-01 8.652615547180175781e-02 2.682054042816162109e-01
-4.510394036769866943e-01 -1.978366076946258545e-02 2.080168724060058594e-01
-5.493366122245788574e-01 -7.930515706539154053e-02 1.728461831808090210e-01
-5.610061883926391602e-01 5.912522599101066589e-02 -3.377691805362701416e-01
-5.451846122741699219e-01 1.654933094978332520e-01 -7.579288631677627563e-02
-4.884533286094665527e-01 1.012004017829895020e-01 1.243287101387977600e-01
-6.276320219039916992e-01 7.748060673475265503e-02 2.168823778629302979e-01
-6.356330513954162598e-01 -1.005136221647262573e-02 -1.357089728116989136e-01
-5.377875566482543945e-01 -9.118552505970001221e-02 -2.365334331989288330e-01
-4.981403350830078125e-01 1.210847198963165283e-01 -5.232267826795578003e-02
-6.480138897895812988e-01 1.786108613014221191e-01 8.576570451259613037e-02
-6.473417282104492188e-01 1.422748249024152756e-02 3.300553560256958008e-02
-6.506128907203674316e-01 3.375433012843132019e-02 -1.859283000230789185e-01
-5.329851508140563965e-01 1.339486390352249146e-01 -1.829636096954345703e-01
-6.639564037322998047e-01 9.360294044017791748e-02 -1.965161412954330444e-01
-5.364942550659179688e-01 1.316458880901336670e-01 1.984158456325531006e-01
-4.493817090988159180e-01 -4.996886476874351501e-02 2.044638544321060181e-01
-4.427796304225921631e-01 -1.155040264129638672e-01 9.672683477401733398e-02
-4.721079468727111816e-01 8.267110213637351990e-03 2.475334107875823975e-01
-4.665590226650238037e-01 -3.660443797707557678e-02 -2.523127496242523193e-01
-4.316357374191284180e-01 -6.817674636840820312e-02 1.361633390188217163e-01
-6.560475826263427734e-01 2.419315651059150696e-02 -4.486451297998428345e-02
-5.965813398361206055e-01 5.231071263551712036e-02 2.656410634517669678e-01
-6.232914924621582031e-01 8.593359962105751038e-03 1.575239300727844238e-01
-5.265499353408813477e-01 1.342512965202331543e-01 1.642125397920608521e-01
-5.785015225410461426e-01 -8.237047493457794189e-02 5.247865617275238037e-02
-6.615507006645202637e-01 1.068619638681411743e-01 1.167712882161140442e-01
-6.620804667472839355e-01 6.311310827732086182e-02 -1.743249893188476562e-01
-4.930189549922943115e-01 1.000144630670547485e-01 1.549335569143295288e-01
-5.904083847999572754e-01 -5.966849997639656067e-02 -2.003933489322662354e-01
-5.522703528404235840e-01 1.306362748146057129e-01 -2.388889640569686890e-01
-4.257573783397674561e-01 -2.343821898102760315e-02 -4.451926797628402710e-02
-6.492215991020202637e-01 1.652673035860061646e-01 1.159121915698051453e-01
-5.779605507850646973e-01 -1.953710615634918213e-02 -3.117376565933227539e-01
-6.193615794181823730e-01 -2.342401817440986633e-02 8.927223086357116699e-02
-6.327463388442993164e-01 2.808781154453754425e-02 1.562497764825820923e-01
-5.727164745330810547e-01 -9.482446312904357910e-02 -7.600278407335281372e-02
-4.686452150344848633e-01 1.979798451066017151e-02 -2.233285158872604370e-01
-5.571162700653076172e-01 1.416349261999130249e-01 2.079010605812072754e-01
-5.438195466995239258e-01 1.600379049777984619e-01 1.105508282780647278e-01
-4.771562218666076660e-01 6.165340170264244080e-02 -1.809554100036621094e-01
-6.342573165893554688e-01 7.855203002691268921e-03 1.059273704886436462e-01
-6.102245450019836426e-01 1.880638301372528076e-01 -1.382125318050384521e-01
-6.312918066978454590e-01 1.525606811046600342e-01 -2.342270761728286743e-01
-6.642068624496459961e-01 6.316842138767242432e-02 -1.586617678403854370e-01
-4.837574362754821777e-01 6.899741291999816895e-02 -1.907070130109786987e-01
-5.700333118438720703e-01 1.667835116386413574e-01 1.528513878583908081e-01
-6.676723361015319824e-01 6.365050375461578369e-02 -1.255684345960617065e-01
-4.788889586925506592e-01 -9.959103167057037354e-02 -2.255693823099136353e-01
-6.674098968505859375e-01 8.221550285816192627e-02 -1.671265959739685059e-01
-4.542592167854309082e-01 1.544810831546783447e-03 -1.933839172124862671e-01
-5.477243661880493164e-01 1.622824966907501221e-01 -1.139866560697555542e-01
-5.580169558525085449e-01 1.047214120626449585e-01 -2.937482297420501709e-01
-4.976904392242431641e-01 1.133811175823211670e-01 1.223835125565528870e-01
-6.307821869850158691e-01 1.255394369363784790e-01 -2.702524363994598389e-01
-5.240179896354675293e-01 -1.297131031751632690e-01 -6.328058987855911255e-02
-4.487423300743103027e-01 6.487794220447540283e-03 1.782343089580535889e-01
-5.566834807395935059e-01 1.678853332996368408e-01 -1.199105754494667053e-01
-5.191292762756347656e-01 1.070238091051578522e-02 -3.274866342544555664e-01
-4.804525971412658691e-01 6.204504892230033875e-02 2.066591233015060425e-01
-5.314276218414306641e-01 -2.050400525331497192e-02 2.848305702209472656e-01
-4.747012257575988770e-01 -1.076688319444656372e-01 -2.057010233402252197e-01
-5.677608847618103027e-01 2.995375730097293854e-02 2.901336550712585449e-01
-6.319240331649780273e-01 1.438905000686645508e-01 -2.472551912069320679e-01
-5.287228226661682129e-01 1.458393037319183350e-01 1.218256428837776184e-01
-6.632565855979919434e-01 1.213222146034240723e-01 1.097409054636955261e-01
-4.473397731781005859e-01 4.115724936127662659e-02 6.637689471244812012e-02
-5.604743957519531250e-01 1.758297383785247803e-01 7.750560343265533447e-02
-5.684988498687744141e-01 -6.163446977734565735e-02 -2.578481435775756836e-01
-6.527776718139648438e-01 4.547985270619392395e-02 9.199850261211395264e-02
-5.877359509468078613e-01 1.548742502927780151e-01 2.011741995811462402e-01
-6.692451834678649902e-01 1.697320491075515747e-01 -7.418737560510635376e-02
-6.111602187156677246e-01 1.086944043636322021e-01 2.430621981620788574e-01
-6.611745357513427734e-01 1.486120671033859253e-01 -1.803787499666213989e-01
-4.464488029479980469e-01 2.949656732380390167e-02 -8.985036611557006836e-02
-4.337237179279327393e-01 -8.078671991825103760e-02 1.345301866531372070e-01
-4.453524351119995117e-01 -1.263156533241271973e-02 1.843035221099853516e-01
-4.734293818473815918e-01 -8.104671537876129150e-02 2.165947258472442627e-01
-5.655086636543273926e-01 1.811202317476272583e-01 5.360559374094009399e-02
-6.686357855796813965e-01 1.392443031072616577e-01 -1.613452434539794922e-01
-5.235513448715209961e-01 -1.030691713094711304e-01 1.530911624431610107e-01
-4.551870226860046387e-01 4.760586097836494446e-02 1.198501810431480408e-01
-6.659328937530517578e-01 1.091544926166534424e-01 -1.906721144914627075e-01
-5.970117449760437012e-01 -4.313557222485542297e-02 -2.292574048042297363e-01
-4.510745108127593994e-01 5.091997981071472168e-02 4.556219279766082764e-02
-4.870172739028930664e-01 -3.052088990807533264e-02 -2.909234166145324707e-01
-5.951989293098449707e-01 -3.179581463336944580e-02 1.691382080316543579e-01
-6.577246189117431641e-01 1.842283010482788086e-01 1.551492698490619659e-02
-6.159461140632629395e-01 3.772794455289840698e-02 -3.044326305389404297e-01
-4.763430356979370117e-01 2.799619175493717194e-02 -2.372899204492568970e-01
-5.222343206405639648e-01 1.298002600669860840e-01 -1.592084467411041260e-01
-6.627981066703796387e-01 9.871432185173034668e-02 1.073853895068168640e-01
-6.031394004821777344e-01 -4.542258754372596741e-02 9.509792923927307129e-02
-4.689663052558898926e-01 -1.230079084634780884e-01 -1.593148559331893921e-01
-4.701883792877197266e-01 7.605916261672973633e-02 -9.070911258459091187e-02
-6.704567670822143555e-01 6.868831813335418701e-02 -6.841488182544708252e-03
-5.788760781288146973e-01 1.755709499120712280e-01 -1.489232778549194336e-01
-6.534523963928222656e-01 1.570951938629150391e-01 -1.892811357975006104e-01
-6.188902854919433594e-01 -3.464355692267417908e-02 -1.482087671756744385e-01
-4.867359399795532227e-01 9.486891329288482666e-02 -1.230023205280303955e-01
-6.489692926406860352e-01 1.240355893969535828e-02 -1.152956485748291016e-01
-5.471946597099304199e-01 1.221545785665512085e-01 -2.484500706195831299e-01
-5.338443517684936523e-01 1.548724770545959473e-01 -8.553424477577209473e-02
-6.013431549072265625e-01 4.555661231279373169e-02 -3.276457786560058594e-01
-5.471439957618713379e-01 1.443837434053421021e-01 1.845282465219497681e-01
-4.621316492557525635e-01 -6.332573294639587402e-02 2.224272638559341431e-01
-6.622937321662902832e-01 1.660677790641784668e-01 -1.393332928419113159e-01
-5.015131235122680664e-01 -2.933501452207565308e-02 -3.094708323478698730e-01
-4.984052181243896484e-01 1.143330633640289307e-01 -1.043839976191520691e-01
-4.949953854084014893e-01 -1.175041347742080688e-01 1.401081383228302002e-01
-6.679127216339111328e-01 7.685154676437377930e-02 -1.554298102855682373e-01
-6.271275281906127930e-01 2.981358021497726440e-02 1.791058629751205444e-01
-6.604696512222290039e-01 7.145833224058151245e-02 9.285826981067657471e-02
-5.360893011093139648e-01 2.010713517665863037e-02 3.018129467964172363e-01
-5.768594145774841309e-01 -7.977564632892608643e-02 -1.733737587928771973e-01
-6.678236126899719238e-01 5.540958046913146973e-02 -6.540914624929428101e-02
-5.065212845802307129e-01 -4.933301359415054321e-03 -3.166223168373107910e-01
-4.926656186580657959e-01 1.044344007968902588e-01 1.351950168609619141e-01
-6.592159867286682129e-01 1.491868495941162109e-01 1.080316230654716492e-01
-5.643741488456726074e-01 -7.838247716426849365e-02 1.354085206985473633e-01
-6.546038985252380371e-01 3.663478791713714600e-02 5.549849569797515869e-02
-5.634672641754150391e-01 -4.874723777174949646e-02 2.136507183313369751e-01
-4.754067659378051758e-01 -1.297814995050430298e-01 -1.419777274131774902e-01
-4.646082222461700439e-01 2.921615354716777802e-02 -1.949416249990463257e-01
-6.727313995361328125e-01 1.257485449314117432e-01 5.435776710510253906e-02
-6.624574065208435059e-01 1.752006262540817261e-01 -1.049823686480522156e-01
-4.269160628318786621e-01 -5.388313159346580505e-02 -1.014972478151321411e-01
-5.132850408554077148e-01 -2.877113223075866699e-02 2.824045419692993164e-01
-5.304476618766784668e-01 -1.082782149314880371e-01 1.201453432440757751e-01
-6.050219535827636719e-01 -3.941422328352928162e-02 1.082869544625282288e-01
-4.545927047729492188e-01 3.583880141377449036e-02 -1.306281238794326782e-01
-6.025967597961425781e-01 1.639770120382308960e-01 -2.174300700426101685e-01
-5.750848054885864258e-01 -7.330980896949768066e-02 -2.076639980077743530e-01
-5.127446651458740234e-01 -1.678993552923202515e-02 2.893057465553283691e-01
-5.542134046554565430e-01 -8.661720156669616699e-02 1.379844844341278076e-01
-5.006961226463317871e-01 -1.061905324459075928e-01 1.704746335744857788e-01
-6.612145304679870605e-01 6.675036251544952393e-02 8.047506958246231079e-02
-6.702128648757934570e-01 6.437580287456512451e-02 -8.128039538860321045e-02
-5.691770315170288086e-01 1.112701743841171265e-01 -2.948514223098754883e-01
-5.645422935485839844e-01 1.781223863363265991e-01 -8.434335887432098389e-02
-5.822553634643554688e-01 -2.511930093169212341e-02 -2.988777756690979004e-01
-5.102118253707885742e-01 -1.361344754695892334e-01 -2.236914448440074921e-02
-5.077113509178161621e-01 1.711815223097801208e-02 -3.119015693664550781e-01
-4.601125419139862061e-01 1.715567708015441895e-02 2.083418220281600952e-01
-6.070230603218078613e-01 -5.797771736979484558e-02 -5.140651762485504150e-02
-5.579056143760681152e-01 -7.237376272678375244e-02 -2.525545358657836914e-01
-4.831480085849761963e-01 1.046033650636672974e-01 2.667272649705410004e-02
-6.592994332313537598e-01 8.230292797088623047e-02 -2.116711735725402832e-01
-5.756390094757080078e-01 -9.095102548599243164e-02 -8.732210844755172729e-04
-6.696028113365173340e-01 1.455397754907608032e-01 6.143705546855926514e-02
-4.640299677848815918e-01 -1.388726979494094849e-01 2.905415929853916168e-02
-5.324543714523315430e-01 3.685516119003295898e-02 3.014355897903442383e-01
-6.749566793441772461e-01 1.558696031570434570e-01 -7.056552171707153320e-02
-4.997688829898834229e-01 4.986978322267532349e-02 2.673538625240325928e-01
-5.656305551528930664e-01 1.252372115850448608e-01 2.458143234252929688e-01
-5.965200662612915039e-01 1.719985306262969971e-01 1.606045514345169067e-01
-4.913921654224395752e-01 4.295979440212249756e-02 2.594879269599914551e-01
-4.872652590274810791e-01 -7.075226306915283203e-02 -2.713893353939056396e-01
-4.632527232170104980e-01 -2.417535334825515747e-02 2.390162944793701172e-01
-5.994029641151428223e-01 1.879902333021163940e-01 1.002161204814910889e-01
-6.311558485031127930e-01 1.364930123090744019e-01 1.944354921579360962e-01
-5.797885656356811523e-01 1.889481246471405029e-01 -5.796521902084350586e-02
-4.362599849700927734e-01 -8.934434503316879272e-03 -1.146951988339424133e-01
-5.875480175018310547e-01 5.202954262495040894e-02 2.771792113780975342e-01
-4.690135419368743896e-01 8.356741815805435181e-02 -3.925343975424766541e-03
-5.149919390678405762e-01 8.247821033000946045e-02 2.545191049575805664e-01
-6.434097290039062500e-01 1.807851642370223999e-01 -1.493516415357589722e-01
-5.721671581268310547e-01 8.151408284902572632e-03 2.734078168869018555e-01
-6.607362031936645508e-01 1.057682931423187256e-01 -2.129554003477096558e-01
-6.312649846076965332e-01 1.823140531778335571e-01 -1.602137237787246704e-01
-4.380536675453186035e-01 -9.312520921230316162e-02 -1.416376680135726929e-01
-4.205184578895568848e-01 -4.982895776629447937e-02 3.748389333486557007e-02
-5.917086005210876465e-01 -2.961677685379981995e-02 -2.742155492305755615e-01
-4.899979233741760254e-01 -4.373149201273918152e-02 2.652491629123687744e-01
-4.203348457813262939e-01 -5.116793885827064514e-02 -1.785678975284099579e-02
-4.570676386356353760e-01 -4.929764196276664734e-02 -2.285527139902114868e-01
-5.734792947769165039e-01 4.716610535979270935e-02 2.898349165916442871e-01
-4.940211176872253418e-01 9.349276125431060791e-02 1.803235113620758057e-01
-6.564192771911621094e-01 1.145288646221160889e-01 1.388748288154602051e-01
-6.793829798698425293e-01 1.190940290689468384e-01 -6.376554816961288452e-02
-4.922451972961425781e-01 -1.413099765777587891e-01 -2.840577624738216400e-02
-4.612777233123779297e-01 -1.037767827510833740e-01 1.659526675939559937e-01
-6.504688858985900879e-01 1.283009648323059082e-01 1.549709886312484741e-01
-4.386652708053588867e-01 -1.256331205368041992e-01 1.497619040310382843e-02
-5.106695890426635742e-01 -1.229147911071777344e-01 9.876750409603118896e-02
-4.589841365814208984e-01 6.626176834106445312e-02 -1.158532872796058655e-02
-5.242697596549987793e-01 -3.270293399691581726e-02 2.775247395038604736e-01
-6.282573342323303223e-01 -1.541343331336975098e-02 -1.719180643558502197e-01
-4.230961501598358154e-01 -4.600666090846061707e-02 7.600663602352142334e-02
-6.762540340423583984e-01 1.481818258762359619e-01 -6.471405737102031708e-03
-4.643478989601135254e-01 -1.196427345275878906e-01 1.287340819835662842e-01
-5.855317115783691406e-01 1.111363619565963745e-01 2.623631656169891357e-01
-4.451882243156433105e-01 3.489572554826736450e-02 7.679591327905654907e-02
-5.968991518020629883e-01 -3.556773439049720764e-02 1.540030688047409058e-01
-6.695289611816406250e-01 6.241267547011375427e-02 -2.670066803693771362e-02
-6.155321002006530762e-01 1.630695015192031860e-01 -2.217717170715332031e-01
-5.976542830467224121e-01 1.969968676567077637e-01 1.542295329272747040e-02
-6.557115316390991211e-01 1.808659583330154419e-01 4.742695391178131104e-02
-4.726656973361968994e-01 8.835491538047790527e-02 -2.392135001718997955e-02
-5.690355300903320312e-01 -9.757386147975921631e-02 -8.087725378572940826e-03
-5.135517120361328125e-01 1.350017040967941284e-01 9.918350726366043091e-02
-4.550541043281555176e-01 -1.327001005411148071e-01 -8.780629932880401611e-02
-5.624933838844299316e-01 -4.084340110421180725e-02 -3.032596707344055176e-01
-4.788017272949218750e-01 4.959750920534133911e-02 2.227651327848434448e-01
-5.210084915161132812e-01 -1.224479824304580688e-01 -1.478684097528457642e-01
-4.623439610004425049e-01 -8.162413537502288818e-02 2.039054483175277710e-01
-5.376768708229064941e-01 8.770331740379333496e-03 2.987828254699707031e-01
-6.614195704460144043e-01 5.215862020850181580e-02 4.463473707437515259e-02
-6.003815531730651855e-01 1.763392090797424316e-01 -1.786911189556121826e-01
-5.534673333168029785e-01 1.692415475845336914e-01 9.447680413722991943e-02
-6.308532357215881348e-01 -2.382856234908103943e-02 -6.904352456331253052e-02
-6.262391209602355957e-01 -3.063638135790824890e-02 -3.068010509014129639e-02
-4.656401872634887695e-01 7.226397097110748291e-02 9.395793080329895020e-02
-6.204064488410949707e-01 8.614052087068557739e-02 2.335444390773773193e-01
-6.093081235885620117e-01 -5.454723164439201355e-02 -2.911245822906494141e-02
-6.045562028884887695e-01 1.824524812400341034e-02 2.270445823669433594e-01
-5.886301994323730469e-01 -7.722395658493041992e-02 -1.066306233406066895e-01
-6.130255460739135742e-01 7.490992546081542969e-02 2.455596625804901123e-01
-5.354638695716857910e-01 1.473598778247833252e-01 -1.389649808406829834e-01
-4.532085359096527100e-01 5.316728353500366211e-02 -3.926736116409301758e-02
-5.478179454803466797e-01 5.624426156282424927e-02 -3.324786126613616943e-01
-4.445619881153106689e-01 -5.433511361479759216e-02 -1.897121965885162354e-01
-4.334425628185272217e-01 -6.195261701941490173e-02 -1.423590928316116333e-01
-5.380187034606933594e-01 -7.558473944664001465e-02 2.027533352375030518e-01
-4.496763050556182861e-01 -3.313764929771423340e-03 1.929001361131668091e-01
-4.835389852523803711e-01 7.701992988586425781e-02 1.844480782747268677e-01
-6.766215562820434570e-01 1.513183116912841797e-01 -5.318064242601394653e-02
-6.042604446411132812e-01 5.806725472211837769e-02 2.559097409248352051e-01
-5.581919550895690918e-01 -4.000872373580932617e-03 2.792346179485321045e-01
-6.283007860183715820e-01 -1.942579448223114014e-02 4.209689050912857056e-02
-5.557948350906372070e-01 -8.257237076759338379e-02 -2.295801490545272827e-01
-4.664632380008697510e-01 4.449377954006195068e-02 -1.731053143739700317e-01
-4.133346676826477051e-02 7.426645606756210327e-04 5.416911095380783081e-02
2.315395772457122803e-01 -8.199608325958251953e-02 3.388532251119613647e-02
8.393405675888061523e-01 -2.817209810018539429e-02 7.848788052797317505e-02
6.146979928016662598e-01 -1.035534366965293884e-01 4.053398966789245605e-02
3.643037974834442139e-01 -8.990080654621124268e-02 -4.932735115289688110e-02
8.062894344329833984e-01 6.536489725112915039e-02 -4.638030380010604858e-02
7.157213687896728516e-01 -8.275137841701507568e-02 -7.035043090581893921e-02
1.007597804069519043e+00 1.597128435969352722e-02 -4.223739355802536011e-02
7.571463584899902344e-01 -1.138914301991462708e-01 1.078320108354091644e-02
2.423020303249359131e-01 6.749602407217025757e-02 9.102923423051834106e-02
1.461564004421234131e-01 -7.351233810186386108e-02 2.302394434809684753e-02
1.791095137596130371e-01 7.280256599187850952e-02 8.546904474496841431e-02
2.643064260482788086e-01 9.612496942281723022e-02 7.618492841720581055e-02
9.944772720336914062e-01 1.437116321176290512e-02 4.985575377941131592e-02
1.440048515796661377e-01 5.327702686190605164e-02 8.860106021165847778e-02
2.755995392799377441e-01 -7.622694969177246094e-02 -5.208145827054977417e-02
1.789048314094543457e-02 1.056875139474868774e-01 1.392228342592716217e-02
2.070879638195037842e-01 -4.369523003697395325e-02 -6.673310697078704834e-02
3.800520300865173340e-02 1.079726517200469971e-01 2.763632126152515411e-02
-4.222899675369262695e-03 9.329635649919509888e-03 -4.795866459608078003e-02
3.587237000465393066e-01 6.313450634479522705e-02 9.541632235050201416e-02
6.536167860031127930e-01 8.966203033924102783e-02 -4.170160740613937378e-02
4.628990292549133301e-01 8.974627405405044556e-02 7.987532019615173340e-02
1.032415628433227539e-01 -1.908985152840614319e-02 7.395204156637191772e-02
3.376775979995727539e-01 1.088222041726112366e-01 -3.473714739084243774e-02
1.065821766853332520e+00 -6.388522684574127197e-02 -2.559927664697170258e-02
1.999354660511016846e-01 2.086662501096725464e-02 -7.726439088582992554e-02
3.390442430973052979e-01 -9.753246605396270752e-02 2.583597041666507721e-02
9.735547304153442383e-01 2.592394128441810608e-02 -4.491806775331497192e-02
6.380956172943115234e-01 -7.146728038787841797e-02 -7.867400348186492920e-02
4.748896956443786621e-01 6.688330322504043579e-02 9.262420982122421265e-02
9.150079488754272461e-01 5.611293017864227295e-02 -3.067243285477161407e-02
9.044712781906127930e-01 1.828962564468383789e-02 -6.362804770469665527e-02
8.569176793098449707e-01 3.248672932386398315e-02 7.203984260559082031e-02
4.768231511116027832e-01 -3.218779340386390686e-02 -9.021102637052536011e-02
1.046458244323730469e+00 2.412627264857292175e-02 1.919500902295112610e-02
5.786885023117065430e-01 -9.520972520112991333e-02 5.180811136960983276e-02
3.758621811866760254e-01 4.510827735066413879e-02 1.001172885298728943e-01
5.465294122695922852e-01 9.571192413568496704e-02 -4.488166421651840210e-02
1.291655898094177246e-01 -7.359249144792556763e-02 -6.943212822079658508e-03
6.947980523109436035e-01 9.195902943611145020e-02 5.305188894271850586e-02
9.129651188850402832e-01 -9.595919400453567505e-02 -3.775625675916671753e-02
2.274167537689208984e-01 1.242776438593864441e-01 2.325941808521747589e-02
1.071771621704101562e+00 -5.262162163853645325e-02 -3.199887275695800781e-02
4.120478630065917969e-01 -9.223239123821258545e-02 -5.246038734912872314e-02
5.894171595573425293e-01 1.058815568685531616e-01 5.006431788206100464e-02
3.871998786926269531e-01 2.393377944827079773e-02 1.022907495498657227e-01
5.077336430549621582e-01 3.569766413420438766e-04 1.012355312705039978e-01
6.844757199287414551e-01 1.684824563562870026e-02 9.435766190290451050e-02
1.729092299938201904e-01 -6.025278195738792419e-02 5.341150611639022827e-02
-1.027173697948455811e-01 2.090016752481460571e-02 4.104746133089065552e-02
2.338585257530212402e-01 -3.898429498076438904e-02 -7.226528972387313843e-02
5.150719881057739258e-01 1.183244660496711731e-01 -3.814608789980411530e-03
5.951497554779052734e-01 -1.103189513087272644e-01 -3.915496915578842163e-02
1.205677688121795654e-01 -1.990963518619537354e-02 7.603623718023300171e-02
1.085557222366333008e+00 -4.091566428542137146e-02 -3.023538552224636078e-02
2.040510773658752441e-01 -4.356731846928596497e-02 7.283940166234970093e-02
1.651651859283447266e-01 -1.644515246152877808e-02 8.308070898056030273e-02
5.486630201339721680e-01 7.255808264017105103e-02 -6.624449789524078369e-02
2.297697067260742188e-01 -9.009314328432083130e-02 3.957031294703483582e-04
6.599761247634887695e-01 -8.213041722774505615e-02 -7.209239900112152100e-02
7.115310430526733398e-02 2.628144249320030212e-02 8.251512795686721802e-02
5.603878498077392578e-01 -9.308656305074691772e-02 -6.211675703525543213e-02
2.260908782482147217e-01 -8.674564957618713379e-02 -2.081435918807983398e-02
5.741469860076904297e-01 -4.281313717365264893e-02 -8.932161331176757812e-02
7.449436187744140625e-01 -6.138956919312477112e-02 7.436594367027282715e-02
7.444561719894409180e-01 9.839823842048645020e-02 9.475504048168659210e-03
4.236006736755371094e-01 -4.799423366785049438e-02 8.599992841482162476e-02
8.160850405693054199e-02 4.208386689424514771e-02 8.381443470716476440e-02
7.962340116500854492e-02 2.844562754034996033e-02 -6.291731446981430054e-02
-1.109736263751983643e-01 1.282047946006059647e-02 -1.039025280624628067e-02
2.423804849386215210e-01 4.873683676123619080e-02 9.586601704359054565e-02
-6.525817513465881348e-02 7.519293576478958130e-02 4.382440447807312012e-02
1.321375370025634766e-03 2.192597836256027222e-02 7.106756418943405151e-02
1.911917328834533691e-01 -8.324465155601501465e-02 1.329641975462436676e-02
8.887231349945068359e-01 -3.847521170973777771e-02 7.005776464939117432e-02
9.715443849563598633e-02 -1.130822766572237015e-02 -6.295123696327209473e-02
2.531370818614959717e-01 -9.231230616569519043e-02 1.007108204066753387e-02
4.862961173057556152e-02 -5.731028690934181213e-02 3.853134345263242722e-03
1.186287403106689453e-01 -5.892514809966087341e-02 -3.712891787290573120e-02
3.552447557449340820e-01 2.561421692371368408e-02 -8.611503243446350098e-02
5.450705885887145996e-01 4.799103364348411560e-02 9.659597277641296387e-02
6.667483448982238770e-01 -7.201109826564788818e-02 -7.802311331033706665e-02
6.155436038970947266e-01 -1.172640398144721985e-01 -1.692404411733150482e-02
3.731584846973419189e-01 2.157146111130714417e-02 -8.747307211160659790e-02
4.506222009658813477e-01 -8.598310500383377075e-02 5.795399099588394165e-02
7.746912240982055664e-01 2.030510827898979187e-02 8.610545098781585693e-02
1.023856163024902344e+00 1.290417648851871490e-02 4.115351289510726929e-02
8.158175349235534668e-01 6.375993043184280396e-02 6.057462096214294434e-02
6.615099310874938965e-02 7.303399592638015747e-02 7.428435981273651123e-02
7.501479387283325195e-01 6.927796453237533569e-02 6.783033162355422974e-02
3.012980222702026367e-01 1.234430670738220215e-01 3.653117269277572632e-02
2.537824809551239014e-01 1.237404644489288330e-01 1.812076428905129433e-03
-3.316369652748107910e-02 9.580078721046447754e-02 1.569759286940097809e-02
8.614757657051086426e-02 -5.643398687243461609e-02 3.586637228727340698e-02
2.604774832725524902e-01 8.370224386453628540e-02 -5.730364471673965454e-02
-7.544258236885070801e-02 -1.813093572854995728e-02 9.008219465613365173e-03
3.034541606903076172e-01 -5.727668479084968567e-02 -7.084052264690399170e-02
7.573522329330444336e-01 -9.427475742995738983e-03 -8.608346432447433472e-02
8.355695605278015137e-01 -1.088765561580657959e-01 1.200031116604804993e-02
6.302477121353149414e-01 -2.327456139028072357e-03 9.749954938888549805e-02
7.199906110763549805e-01 -1.124413833022117615e-01 1.973121985793113708e-02
1.068719983100891113e+00 9.167265146970748901e-03 -2.145223133265972137e-02
4.831792712211608887e-01 1.161717548966407776e-01 -1.605585776269435883e-02
9.253189563751220703e-01 6.375350803136825562e-02 -9.361463598906993866e-03
2.816087603569030762e-01 -6.761445850133895874e-02 -6.113636493682861328e-02
4.334486126899719238e-01 -5.180366709828376770e-02 -8.310345560312271118e-02
6.812342405319213867e-01 -7.585686445236206055e-02 -7.564031332731246948e-02
9.655873179435729980e-01 -9.372488595545291901e-03 6.159680336713790894e-02
2.022753357887268066e-01 8.761819452047348022e-02 -5.054955184459686279e-02
3.808113932609558105e-01 8.580211549997329712e-03 -8.933799713850021362e-02
1.201358437538146973e-02 5.110710114240646362e-02 -4.708491265773773193e-02
3.460451662540435791e-01 -4.960669949650764465e-02 8.152821660041809082e-02
4.857110381126403809e-01 -1.077201589941978455e-01 2.602725476026535034e-02
8.553669452667236328e-01 -4.759192839264869690e-02 -7.636351138353347778e-02
-7.708576321601867676e-02 5.818550661206245422e-02 5.015475302934646606e-02
5.017209053039550781e-02 2.031668554991483688e-03 7.460913807153701782e-02
7.653936147689819336e-01 9.532472491264343262e-02 1.485222205519676208e-02
4.125995635986328125e-01 7.171921432018280029e-02 9.188976883888244629e-02
2.913170754909515381e-01 4.954119026660919189e-02 9.765954315662384033e-02
6.892244219779968262e-01 -3.522046282887458801e-02 -8.885531127452850342e-02
6.389871835708618164e-01 -9.222459048032760620e-04 -9.090130031108856201e-02
6.500627398490905762e-01 6.293981522321701050e-02 8.404695242643356323e-02
9.893110990524291992e-01 -5.883349850773811340e-02 -5.406319350004196167e-02
5.075955986976623535e-01 2.240706235170364380e-02 1.018128395080566406e-01
8.962276577949523926e-01 4.308140277862548828e-02 -4.973983764648437500e-02
8.247582912445068359e-01 -6.296360492706298828e-02 6.703805923461914062e-02
6.560394167900085449e-01 8.920137584209442139e-02 6.329832226037979126e-02
4.172499775886535645e-01 1.082487329840660095e-01 6.362790614366531372e-02
5.818030834197998047e-01 -2.351416647434234619e-02 9.571964293718338013e-02
5.660629272460937500e-01 5.127735808491706848e-02 -7.824942469596862793e-02
3.610321283340454102e-01 1.466238405555486679e-02 -8.800906687974929810e-02
5.062097311019897461e-02 -1.220472995191812515e-02 6.872539967298507690e-02
7.395180463790893555e-01 -2.909682318568229675e-02 8.709096163511276245e-02
1.069382190704345703e+00 1.751725189387798309e-02 4.661897663027048111e-03
2.076309025287628174e-01 8.919584751129150391e-02 7.862285524606704712e-02
7.609798908233642578e-01 8.091478049755096436e-02 5.403852462768554688e-02
3.173926472663879395e-02 -3.562828153371810913e-02 4.664213955402374268e-02
3.312157988548278809e-01 -7.161226123571395874e-02 6.357715278863906860e-02
6.606336236000061035e-01 -1.000492423772811890e-01 -5.600126087665557861e-02
3.420336246490478516e-01 2.264357637614011765e-03 9.988801926374435425e-02
3.489125072956085205e-01 -1.008735448122024536e-01 -2.403596602380275726e-02
-2.684745192527770996e-02 8.603236824274063110e-02 -1.428805664181709290e-02
8.038548231124877930e-01 -2.705181390047073364e-02 -8.326304703950881958e-02
9.648361206054687500e-01 -3.106879070401191711e-02 -6.433613598346710205e-02
1.057525634765625000e+00 2.308897301554679871e-02 -4.163800738751888275e-03
1.015900492668151855e+00 -4.171188920736312866e-03 4.931002110242843628e-02
3.824316263198852539e-01 -1.007224991917610168e-01 2.728282101452350616e-02
6.456025838851928711e-01 1.044128537178039551e-01 4.111849516630172729e-02
9.046406745910644531e-01 3.073106706142425537e-02 -5.698488652706146240e-02
5.680043101310729980e-01 7.605945318937301636e-02 -6.266986578702926636e-02
7.386062145233154297e-01 -8.447393029928207397e-02 5.862537771463394165e-02
9.484351873397827148e-01 -8.817617595195770264e-02 2.668753638863563538e-02
6.564727425575256348e-02 -5.690109357237815857e-02 2.556633949279785156e-02
2.504876255989074707e-01 9.269610047340393066e-02 7.829243689775466919e-02
5.314831137657165527e-01 -1.154711246490478516e-01 1.920458627864718437e-03
8.202180862426757812e-01 -2.983756363391876221e-03 8.315842598676681519e-02
5.190541744232177734e-01 1.028825640678405762e-01 6.348868459463119507e-02
3.711257874965667725e-01 9.701915830373764038e-02 -4.908570647239685059e-02
-2.293631434440612793e-02 -2.300038933753967285e-02 -2.779229916632175446e-02
-4.756793379783630371e-02 8.602377772331237793e-02 -5.673537030816078186e-03
5.422868728637695312e-01 -7.662031054496765137e-02 -7.477575540542602539e-02
7.962078452110290527e-01 9.070608019828796387e-02 5.675108171999454498e-03
2.332518994808197021e-01 -3.786102309823036194e-02 7.958313077688217163e-02
7.155848145484924316e-01 1.020361781120300293e-01 6.760364398360252380e-03
7.725263833999633789e-01 -4.494360461831092834e-02 -8.331554383039474487e-02
2.684165239334106445e-01 6.014404818415641785e-02 -7.141858339309692383e-02
-8.443385362625122070e-03 5.121770873665809631e-02 6.920599937438964844e-02
3.122708499431610107e-01 4.360738769173622131e-02 -7.984153181314468384e-02
7.880032062530517578e-02 -4.404104128479957581e-02 5.058923363685607910e-02
3.520850837230682373e-01 1.605106517672538757e-02 1.015488207340240479e-01
6.280823945999145508e-01 9.411443024873733521e-03 -8.979448676109313965e-02
-6.600746512413024902e-02 1.725871674716472626e-02 5.382359772920608521e-02
2.306278645992279053e-01 -8.215265721082687378e-02 -3.386425226926803589e-02
1.983755528926849365e-01 1.057122349739074707e-01 6.368843466043472290e-02
6.968703269958496094e-01 9.209723770618438721e-02 -3.130311518907546997e-02
9.540952444076538086e-01 -9.847950190305709839e-02 -5.341824144124984741e-03
6.092235445976257324e-02 7.109137624502182007e-02 -4.605130851268768311e-02
-6.691369414329528809e-02 7.940956950187683105e-02 -6.403461098670959473e-03
7.247618436813354492e-01 -3.638543561100959778e-02 -8.727110177278518677e-02
1.108299493789672852e+00 -2.615355327725410461e-02 -1.549887098371982574e-02
-6.583383679389953613e-02 1.957009732723236084e-02 -3.279650956392288208e-02
7.358886003494262695e-01 -5.516579002141952515e-02 -8.268078416585922241e-02
8.098648786544799805e-01 -5.129718221724033356e-03 -8.157712221145629883e-02
1.077956676483154297e+00 1.259198505431413651e-02 -4.019874148070812225e-03
9.783385396003723145e-01 -2.617543935775756836e-02 5.817344039678573608e-02
1.293025612831115723e-01 9.351920336484909058e-02 -3.817012906074523926e-02
9.264467954635620117e-01 1.370758563280105591e-02 -6.195306777954101562e-02
2.750214934349060059e-02 8.724740147590637207e-02 -2.765616960823535919e-02
7.179903984069824219e-01 -1.172630116343498230e-01 -2.387329004704952240e-03
9.768292903900146484e-01 3.093745931982994080e-02 4.578959941864013672e-02
-1.810517907142639160e-02 3.677450120449066162e-02 6.855498254299163818e-02
3.326753973960876465e-01 5.644867941737174988e-02 9.710277616977691650e-02
3.939845860004425049e-01 -9.931010007858276367e-02 -3.886598348617553711e-02
1.077598571777343750e+00 4.100370686501264572e-03 2.054599486291408539e-02
3.874427080154418945e-01 -3.213517740368843079e-02 -8.680055290460586548e-02
1.060141682624816895e+00 -7.165049761533737183e-02 -1.575770974159240723e-02
6.914595365524291992e-01 7.753789424896240234e-02 -5.095671862363815308e-02
4.937151074409484863e-01 -4.948719590902328491e-02 8.675585687160491943e-02
6.089648008346557617e-01 -3.566558659076690674e-02 -9.059173613786697388e-02
2.824150025844573975e-01 1.217008978128433228e-01 -8.241333067417144775e-03
7.292637228965759277e-01 1.000310257077217102e-01 1.859213411808013916e-02
6.850705146789550781e-01 -1.105502918362617493e-01 -3.956583142280578613e-02
6.197586059570312500e-01 -2.518387883901596069e-02 -9.170451015233993530e-02
3.106151223182678223e-01 -9.166146814823150635e-02 -3.667121380567550659e-02
6.463735103607177734e-01 3.287153318524360657e-02 9.467208385467529297e-02
3.918939232826232910e-01 -2.385215461254119873e-02 9.520703554153442383e-02
8.526777029037475586e-01 7.228212058544158936e-02 4.058890789747238159e-02
8.686403036117553711e-01 3.941798210144042969e-02 -5.767308920621871948e-02
7.487662434577941895e-01 9.648885577917098999e-02 2.432494424283504486e-02
3.525052666664123535e-01 -8.441507071256637573e-02 -5.446705222129821777e-02
2.847701311111450195e-03 9.742417931556701660e-02 -6.738007999956607819e-03
5.918006300926208496e-01 4.896386712789535522e-02 9.398274868726730347e-02
6.192588806152343750e-01 -7.383786141872406006e-04 -9.143923223018646240e-02
1.386077702045440674e-01 -5.357639864087104797e-02 5.398066341876983643e-02
4.059981107711791992e-01 2.984435483813285828e-02 1.021769046783447266e-01
3.347181677818298340e-01 8.712108433246612549e-02 8.394166827201843262e-02
5.031077861785888672e-01 -1.881939917802810669e-02 9.797810018062591553e-02
5.890053510665893555e-01 -8.627950400114059448e-02 6.155331432819366455e-02
-4.842433333396911621e-02 7.026317715644836426e-02 5.327408760786056519e-02
6.178699731826782227e-01 8.261517435312271118e-02 7.428239285945892334e-02
6.223087310791015625e-01 -5.798904225230216980e-02 8.157243579626083374e-02
3.479364812374114990e-01 1.177467592060565948e-02 -8.775828033685684204e-02
6.988800764083862305e-01 -2.345867455005645752e-02 -8.951510488986968994e-02
8.098109960556030273e-01 8.862221240997314453e-02 8.669772185385227203e-03
2.872298359870910645e-01 -5.762979388236999512e-02 -6.887165457010269165e-02
2.637065649032592773e-01 -3.536362200975418091e-02 8.363719284534454346e-02
-1.191386580467224121e-02 8.712547272443771362e-02 -1.777028106153011322e-02
1.051114439964294434e+00 -2.597827836871147156e-02 -4.471524804830551147e-02
3.486526310443878174e-01 -6.034435704350471497e-02 7.454568892717361450e-02
4.925325512886047363e-02 -4.213273525238037109e-02 -3.509622067213058472e-02
1.030513405799865723e+00 -6.154634431004524231e-02 3.164301440119743347e-02
5.376977920532226562e-01 -4.936540126800537109e-02 8.701989799737930298e-02
1.712445616722106934e-01 2.509297430515289307e-02 -7.412248849868774414e-02
4.792307019233703613e-01 -3.025258332490921021e-02 9.464196115732192993e-02
7.303225994110107422e-01 4.998758435249328613e-02 8.207506686449050903e-02
8.015180826187133789e-01 1.494463998824357986e-03 8.511605858802795410e-02
9.183059930801391602e-01 4.777683690190315247e-02 -4.007016867399215698e-02
8.715309500694274902e-01 7.576404511928558350e-02 -7.041308097541332245e-03
3.868708610534667969e-01 1.220206469297409058e-01 -7.589132525026798248e-03
4.164358377456665039e-01 -7.139351218938827515e-03 1.000328138470649719e-01
5.463492870330810547e-01 1.528249774128198624e-02 1.011114791035652161e-01
3.754358887672424316e-01 -1.059691831469535828e-01 2.235061954706907272e-03
6.812946796417236328e-01 3.526578471064567566e-02 -7.990209013223648071e-02
3.335758447647094727e-01 1.244659274816513062e-01 2.731243148446083069e-04
4.558713138103485107e-01 4.020289331674575806e-02 -8.434432744979858398e-02
1.108366012573242188e+00 -4.298145696520805359e-02 -3.866916522383689880e-03
6.447068452835083008e-01 -1.133196651935577393e-01 2.061890438199043274e-02
4.313766360282897949e-01 9.341242909431457520e-02 -5.234518647193908691e-02
4.534409344196319580e-01 -7.188277319073677063e-03 1.003889515995979309e-01
2.880229949951171875e-01 1.146066710352897644e-01 5.628146976232528687e-02
6.951060295104980469e-01 -7.539874315261840820e-02 6.823694705963134766e-02
6.266158819198608398e-01 -7.522092759609222412e-02 7.055754959583282471e-02
5.038530230522155762e-01 -1.134867891669273376e-01 -1.892158761620521545e-02
5.325710177421569824e-01 -9.448842704296112061e-02 -5.949572473764419556e-02
1.048114776611328125e+00 -6.250762939453125000e-02 2.440520189702510834e-02
8.986887335777282715e-01 6.181404925882816315e-03 7.213184982538223267e-02
3.999301493167877197e-01 -6.822536885738372803e-02 -7.283186912536621094e-02
4.107927083969116211e-01 -2.205153927206993103e-02 -8.967277407646179199e-02
2.361115515232086182e-01 -6.639340519905090332e-02 5.737244337797164917e-02
1.965692043304443359e-01 -8.529096841812133789e-02 2.262776251882314682e-03
7.637500762939453125e-01 -1.969161629676818848e-02 8.715210855007171631e-02
7.159380912780761719e-01 -4.722760245203971863e-02 8.277658373117446899e-02
7.933688163757324219e-01 9.042034298181533813e-02 2.039871364831924438e-02
4.319883882999420166e-01 5.372779071331024170e-02 9.807746112346649170e-02
2.202613055706024170e-01 -7.298234105110168457e-02 4.649529606103897095e-02
2.074410617351531982e-01 -2.849136665463447571e-02 -7.308137416839599609e-02
7.831577062606811523e-01 -6.389588862657546997e-02 -7.707798480987548828e-02
1.350902915000915527e-01 1.074121594429016113e-01 -2.183146215975284576e-02
9.347369670867919922e-01 4.809049889445304871e-02 -3.486798703670501709e-02
4.000910520553588867e-01 -5.731223151087760925e-02 7.963712513446807861e-02
6.716617345809936523e-01 -8.374450355768203735e-02 -7.079686969518661499e-02
5.891506671905517578e-01 -1.175137981772422791e-01 -4.852022975683212280e-03
8.092973232269287109e-01 -3.927526995539665222e-02 -8.177230507135391235e-02
2.525374293327331543e-02 6.470569968223571777e-02 -4.368712753057479858e-02
9.014067053794860840e-02 8.061058819293975830e-02 -4.401573538780212402e-02
3.189046978950500488e-01 -1.001398712396621704e-01 7.587930187582969666e-03
4.465628266334533691e-01 -4.607544094324111938e-02 -8.572179079055786133e-02
5.170764923095703125e-01 1.188874151557683945e-02 -9.125155955553054810e-02
1.505281627178192139e-01 9.534220211207866669e-03 -7.281252741813659668e-02
8.094780445098876953e-01 4.911016300320625305e-02 -6.003311276435852051e-02
3.254357874393463135e-01 3.367096185684204102e-02 -8.317910879850387573e-02
2.425735741853713989e-01 2.648901194334030151e-02 -7.991807907819747925e-02
9.010648727416992188e-01 2.003756165504455566e-02 6.876645982265472412e-02
1.039358496665954590e+00 -2.447507902979850769e-02 4.354065656661987305e-02
8.032675981521606445e-01 -7.888220250606536865e-02 5.838194489479064941e-02
2.427615970373153687e-01 1.216629445552825928e-01 -5.070898681879043579e-03
4.633678197860717773e-01 1.041868403553962708e-01 -3.903503715991973877e-02
6.649407148361206055e-01 -9.189675003290176392e-02 -6.437528133392333984e-02
1.817199289798736572e-01 -6.834144145250320435e-02 4.487092047929763794e-02
4.860927164554595947e-01 -1.137769743800163269e-01 -3.792564384639263153e-03
1.078418970108032227e+00 -2.827388793230056763e-02 2.908435650169849396e-02
-1.133137643337249756e-01 3.683403832837939262e-03 3.212648909538984299e-03
3.216376900672912598e-01 -9.560400247573852539e-02 -3.089043684303760529e-02
1.000946760177612305e+00 -6.890203803777694702e-04 -5.249748378992080688e-02
8.747508525848388672e-01 -7.034855335950851440e-02 -6.637719273567199707e-02
2.190256118774414062e-01 8.352241665124893188e-02 8.270878344774246216e-02
9.700763225555419922e-01 -6.862877309322357178e-02 4.216888546943664551e-02
3.150511085987091064e-01 2.532557398080825806e-02 1.007140725851058960e-01
6.207485795021057129e-01 -1.174139380455017090e-01 3.074293490499258041e-03
2.113494575023651123e-01 1.105403006076812744e-01 5.855918675661087036e-02
1.995058953762054443e-01 1.828990131616592407e-02 9.450429677963256836e-02
2.241417169570922852e-01 7.270920276641845703e-02 -6.231675297021865845e-02
2.517810463905334473e-01 1.028093993663787842e-01 6.978068500757217407e-02
2.397687584161758423e-01 -2.900242805480957031e-02 -7.645307481288909912e-02
3.979975581169128418e-01 -7.373835146427154541e-02 6.694483011960983276e-02
5.708160400390625000e-01 -1.167584955692291260e-01 1.230716938152909279e-03
4.723792076110839844e-01 9.196852147579193115e-02 -5.277383327484130859e-02
5.049513578414916992e-01 1.150773093104362488e-01 4.446486383676528931e-02
5.424404740333557129e-01 1.182231456041336060e-01 2.252950333058834076e-02
4.694830179214477539e-01 1.051574423909187317e-01 6.460221856832504272e-02
1.382556557655334473e-01 -1.637812703847885132e-02 -6.779737770557403564e-02
9.091900587081909180e-01 5.236944183707237244e-02 4.815549403429031372e-02
5.611206889152526855e-01 3.881754353642463684e-02 -8.371948450803756714e-02
2.910599112510681152e-01 -9.718132019042968750e-02 -1.153595373034477234e-02
6.971393823623657227e-01 -8.342494070529937744e-02 -7.046116888523101807e-02
1.172630488872528076e-01 9.837069362401962280e-02 -3.142180293798446655e-02
6.419935226440429688e-01 1.086269840598106384e-01 -4.025765694677829742e-03
3.666470646858215332e-01 -2.574813738465309143e-02 -8.700878918170928955e-02
4.247626662254333496e-02 -5.391266569495201111e-02 -1.084537059068679810e-02
5.736601352691650391e-02 1.112158671021461487e-01 2.370266616344451904e-02
2.386449277400970459e-01 -5.121330544352531433e-02 7.136914879083633423e-02
4.026177823543548584e-01 5.103657022118568420e-02 9.896346181631088257e-02
7.964496612548828125e-01 -1.399321947246789932e-02 -8.362960815429687500e-02
3.761203289031982422e-01 -6.834978237748146057e-03 -8.950150758028030396e-02
4.417260289192199707e-01 -1.054804492741823196e-02 -9.164989739656448364e-02
5.104374885559082031e-01 -4.956810548901557922e-02 -8.664611726999282837e-02
1.072928607463836670e-01 1.169379502534866333e-01 1.433538552373647690e-02
1.006069540977478027e+00 -1.574527844786643982e-02 -5.529477447271347046e-02
8.985220193862915039e-01 5.839147791266441345e-02 4.477410018444061279e-02
3.883382380008697510e-01 3.693083673715591431e-02 1.014142110943794250e-01
9.265362024307250977e-01 -8.479047566652297974e-02 3.608537092804908752e-02
5.088256001472473145e-01 -7.080945372581481934e-02 7.387559115886688232e-02
6.431018114089965820e-01 4.467919096350669861e-02 -7.799681276082992554e-02
1.672166585922241211e-01 -7.217007130384445190e-02 -3.235692530870437622e-02
1.545212268829345703e-01 -4.559268057346343994e-02 -5.745574831962585449e-02
