2.808494269847869873e-01 -3.299703076481819153e-02 2.544516921043395996e-01
2.721435129642486572e-01 -1.458943784236907959e-01 5.241829156875610352e-02
2.477791607379913330e-01 -1.303710937500000000e-01 1.302909851074218750e-02
2.638922333717346191e-01 -6.877623498439788818e-02 4.623573124408721924e-01
3.316211402416229248e-01 -1.346359997987747192e-01 3.641825318336486816e-01
3.426098823547363281e-01 -8.103267848491668701e-02 1.100966334342956543e-02
3.688165545463562012e-01 -9.292636066675186157e-02 4.847292900085449219e-01
3.522271513938903809e-01 -9.993994981050491333e-02 2.856487035751342773e-02
3.859937489032745361e-01 -5.950165912508964539e-02 3.390942215919494629e-01
3.557696938514709473e-01 -1.227566897869110107e-01 9.738659858703613281e-02
2.342152297496795654e-01 -6.777241080999374390e-02 1.984472274780273438e-01
3.892191946506500244e-01 -7.229921221733093262e-02 3.080280721187591553e-01
2.735963165760040283e-01 -3.543057292699813843e-02 2.893493175506591797e-01
2.415530979633331299e-01 -1.280941665172576904e-01 2.368115931749343872e-01
2.563028037548065186e-01 -9.886525571346282959e-02 4.258153140544891357e-01
3.453491628170013428e-01 -1.381873786449432373e-01 1.862349957227706909e-01
2.738836407661437988e-01 -1.356142759323120117e-01 3.338571786880493164e-01
2.480180561542510986e-01 -1.006101518869400024e-01 -3.324633836746215820e-02
2.825005650520324707e-01 -1.445738822221755981e-01 2.367813885211944580e-02
2.673785984516143799e-01 -3.987083584070205688e-02 2.150410860776901245e-01
2.345575243234634399e-01 -1.228959560394287109e-01 2.111056298017501831e-01
2.258754670619964600e-01 -8.794742077589035034e-02 1.450025737285614014e-01
3.082459867000579834e-01 -1.323294043540954590e-01 -2.443370223045349121e-02
2.697159945964813232e-01 -1.148437559604644775e-01 4.260286390781402588e-01
3.721107244491577148e-01 -8.468638360500335693e-02 1.188509166240692139e-01
3.590659499168395996e-01 -4.432922974228858948e-02 4.979759454727172852e-01
3.704619705677032471e-01 -1.165913566946983337e-01 1.808583736419677734e-01
2.765077054500579834e-01 -5.773470923304557800e-02 3.128860890865325928e-02
3.145346343517303467e-01 -3.785260766744613647e-02 1.347564756870269775e-01
2.575618326663970947e-01 -1.433029472827911377e-01 8.850549161434173584e-02
2.951945364475250244e-01 -5.730237066745758057e-02 1.961776614189147949e-02
2.448697835206985474e-01 -1.203501522541046143e-01 -1.117336750030517578e-02
2.575833499431610107e-01 -4.562328010797500610e-02 3.108747899532318115e-01
2.794214189052581787e-01 -1.011266484856605530e-01 4.862509965896606445e-01
2.583414316177368164e-01 -6.658120453357696533e-02 2.642782032489776611e-02
2.446329295635223389e-01 -6.739319860935211182e-02 3.611164391040802002e-01
2.826220691204071045e-01 -1.493265181779861450e-01 8.643423020839691162e-02
3.241263628005981445e-01 -5.316746979951858521e-02 5.548568069934844971e-02
2.634528875350952148e-01 -1.449736654758453369e-01 7.506625354290008545e-02
3.013304769992828369e-01 -1.099426001310348511e-01 4.959670305252075195e-01
2.427201271057128906e-01 -6.365638226270675659e-02 3.280834853649139404e-01
2.844105064868927002e-01 -6.975679099559783936e-02 5.226184725761413574e-01
2.492912709712982178e-01 -5.413766577839851379e-02 1.573961079120635986e-01
3.661553561687469482e-01 -1.231196597218513489e-01 2.990613877773284912e-01
2.701949477195739746e-01 -4.130090773105621338e-02 1.706707328557968140e-01
3.530770540237426758e-01 -1.223715096712112427e-01 7.974502444267272949e-02
3.505483269691467285e-01 -4.034867510199546814e-02 1.901408284902572632e-01
2.999654710292816162e-01 -2.818278595805168152e-02 3.751604855060577393e-01
3.262135982513427734e-01 -1.457125842571258545e-01 1.494983434677124023e-01
3.605267107486724854e-01 -1.277470588684082031e-01 1.877205520868301392e-01
3.576121032238006592e-01 -3.524007275700569153e-02 2.794584333896636963e-01
3.023608624935150146e-01 -4.209693521261215210e-02 1.012747883796691895e-01
2.462290078401565552e-01 -5.665573477745056152e-02 3.116095662117004395e-01
2.705788612365722656e-01 -4.640759155154228210e-02 4.208442270755767822e-01
2.819968461990356445e-01 -1.019754409790039062e-01 -7.912713289260864258e-02
2.900013923645019531e-01 -3.770848736166954041e-02 1.468011140823364258e-01
2.296319603919982910e-01 -7.606837153434753418e-02 2.101812958717346191e-01
3.617329597473144531e-01 -9.812685847282409668e-02 6.613063812255859375e-02
2.725535929203033447e-01 -3.609629720449447632e-02 3.062136173248291016e-01
3.640277385711669922e-01 -4.090204462409019470e-02 4.573758244514465332e-01
2.633443176746368408e-01 -1.226573437452316284e-01 -5.276095867156982422e-02
3.363262712955474854e-01 -1.278034895658493042e-01 4.072204828262329102e-01
3.764645457267761230e-01 -1.127252876758575439e-01 2.394226491451263428e-01
3.326735794544219971e-01 -7.838534563779830933e-02 -7.080078125000000000e-03
3.157093524932861328e-01 -1.483901292085647583e-01 1.377755105495452881e-01
2.753757238388061523e-01 -3.546125814318656921e-02 2.394563108682632446e-01
2.337690889835357666e-01 -8.617832511663436890e-02 5.442871153354644775e-02
2.967679798603057861e-01 -6.200221553444862366e-02 6.511509418487548828e-04
2.751129269599914551e-01 -1.399826109409332275e-01 3.028662204742431641e-01
3.203919231891632080e-01 -4.809965565800666809e-02 7.518193125724792480e-02
3.680442571640014648e-01 -8.335018903017044067e-02 9.869764745235443115e-02
3.576757311820983887e-01 -5.256255716085433960e-02 5.286754369735717773e-01
2.854361534118652344e-01 -3.085626661777496338e-02 3.144953250885009766e-01
3.146744370460510254e-01 -2.850711718201637268e-02 2.331631928682327271e-01
2.478582710027694702e-01 -5.262576416134834290e-02 2.750855684280395508e-01
3.736664950847625732e-01 -1.166722550988197327e-01 2.778871655464172363e-01
3.075093328952789307e-01 -1.500270664691925049e-01 1.847738027572631836e-01
3.216412663459777832e-01 -7.558675855398178101e-02 5.682080984115600586e-01
3.028895556926727295e-01 -1.453101783990859985e-01 2.894122004508972168e-01
2.422170341014862061e-01 -9.668605029582977295e-02 3.663780391216278076e-01
2.910873591899871826e-01 -3.215215355157852173e-02 2.118473052978515625e-01
3.272756338119506836e-01 -1.358064711093902588e-01 3.705714643001556396e-02
2.391553819179534912e-01 -6.404811143875122070e-02 1.484050750732421875e-01
3.824472725391387939e-01 -5.885121971368789673e-02 2.678773105144500732e-01
2.759242355823516846e-01 -3.757564723491668701e-02 1.924837231636047363e-01
3.058502078056335449e-01 -2.775548771023750305e-02 3.929646015167236328e-01
3.380856215953826904e-01 -1.274436414241790771e-01 3.379830718040466309e-02
3.436001241207122803e-01 -2.911546453833580017e-02 2.940463423728942871e-01
3.779233098030090332e-01 -1.069558113813400269e-01 2.008056938648223877e-01
2.758465111255645752e-01 -1.436096429824829102e-01 2.691602110862731934e-01
2.957979440689086914e-01 -5.247830972075462341e-02 5.224120616912841797e-01
2.681974172592163086e-01 -5.205089971423149109e-02 8.033517003059387207e-02
2.374417781829833984e-01 -9.315037727355957031e-02 3.414894938468933105e-01
3.363727629184722900e-01 -1.315925419330596924e-01 4.701846837997436523e-02
2.570446431636810303e-01 -6.098068505525588989e-02 4.163225889205932617e-01
2.383359670639038086e-01 -6.749065220355987549e-02 1.220031306147575378e-01
2.991072237491607666e-01 -1.379031836986541748e-01 -1.270121335983276367e-02
2.692493498325347900e-01 -1.477844417095184326e-01 1.606657505035400391e-01
3.402504920959472656e-01 -1.354282796382904053e-01 3.303783535957336426e-01
3.789050281047821045e-01 -1.099299192428588867e-01 2.618715763092041016e-01
2.422439157962799072e-01 -1.312974393367767334e-01 5.438548326492309570e-02
3.307550847530364990e-01 -6.187146902084350586e-02 3.213825821876525879e-02
2.999589145183563232e-01 -3.898135200142860413e-02 4.818840026855468750e-01
3.811722993850708008e-01 -9.818830341100692749e-02 3.930821716785430908e-01
2.356144636869430542e-01 -1.207859367132186890e-01 4.114137589931488037e-02
3.866859674453735352e-01 -6.806811690330505371e-02 4.077787101268768311e-01
2.556272447109222412e-01 -1.427694857120513916e-01 1.586161702871322632e-01
2.250340282917022705e-01 -1.014642715454101562e-01 1.203127950429916382e-01
2.640803158283233643e-01 -5.124526098370552063e-02 9.911291301250457764e-02
2.784703671932220459e-01 -6.165985018014907837e-02 1.098090410232543945e-02
3.266541957855224609e-01 -3.347805142402648926e-02 1.851093471050262451e-01
3.792636096477508545e-01 -6.875990331172943115e-02 1.924641132354736328e-01
2.298040091991424561e-01 -1.034549474716186523e-01 2.632724046707153320e-01
3.278044462203979492e-01 -1.138814091682434082e-01 4.881064295768737793e-01
3.759788870811462402e-01 -4.502291232347488403e-02 3.544812202453613281e-01
3.148880302906036377e-01 -5.013746395707130432e-02 5.439292192459106445e-01
2.790935337543487549e-01 -6.698392331600189209e-02 -1.038926839828491211e-02
3.354862928390502930e-01 -9.697535634040832520e-02 5.363925695419311523e-01
3.105040192604064941e-01 -3.051730990409851074e-02 2.049811184406280518e-01
2.401680946350097656e-01 -7.238563895225524902e-02 3.427354097366333008e-01
2.872445285320281982e-01 -5.214914306998252869e-02 4.802104830741882324e-02
3.733405172824859619e-01 -4.354092851281166077e-02 3.185005187988281250e-01
3.464229702949523926e-01 -4.440987110137939453e-02 1.479261517524719238e-01
3.478394150733947754e-01 -1.302652657032012939e-01 3.533944487571716309e-01
3.354856371879577637e-01 -3.658346459269523621e-02 1.746229231357574463e-01
2.887707948684692383e-01 -1.506379842758178711e-01 1.775724142789840698e-01
3.751212656497955322e-01 -9.243541210889816284e-02 1.364625692367553711e-01
2.757686674594879150e-01 -1.470576524734497070e-01 2.215315848588943481e-01
2.560910880565643311e-01 -1.409866511821746826e-01 5.801241099834442139e-02
3.059469759464263916e-01 -1.473208367824554443e-01 2.599823474884033203e-01
2.888726294040679932e-01 -1.507030427455902100e-01 1.195827573537826538e-01
2.883148193359375000e-01 -7.158140838146209717e-02 -3.026017546653747559e-02
3.149320781230926514e-01 -1.413568556308746338e-01 3.270078897476196289e-01
3.708300590515136719e-01 -5.923783034086227417e-02 5.025793313980102539e-01
2.895574271678924561e-01 -1.229860335588455200e-01 4.339495897293090820e-01
2.417136430740356445e-01 -1.343230158090591431e-01 1.285968124866485596e-01
3.311743438243865967e-01 -1.054430678486824036e-01 -2.986875176429748535e-02
3.358393013477325439e-01 -1.121997758746147156e-01 -1.234725117683410645e-02
3.496477603912353516e-01 -1.359966993331909180e-01 2.021543979644775391e-01
3.509759008884429932e-01 -1.340636610984802246e-01 1.663074195384979248e-01
2.618066072463989258e-01 -1.397569477558135986e-01 2.001199126243591309e-02
2.962385714054107666e-01 -1.130796670913696289e-01 4.806799292564392090e-01
3.659676313400268555e-01 -8.565405756235122681e-02 5.110559463500976562e-01
2.260429859161376953e-01 -9.546989947557449341e-02 1.055065691471099854e-01
3.288414180278778076e-01 -6.648603826761245728e-02 1.422739028930664062e-02
2.441848367452621460e-01 -1.352397352457046509e-01 1.736911833286285400e-01
3.071245551109313965e-01 -8.447769284248352051e-02 -5.313116312026977539e-02
2.354870438575744629e-01 -8.793395757675170898e-02 3.293012976646423340e-01
3.333629071712493896e-01 -1.397465467453002930e-01 9.547129273414611816e-02
3.183294832706451416e-01 -2.513185143470764160e-02 3.458509147167205811e-01
3.341989517211914062e-01 -1.270142793655395508e-01 1.831224560737609863e-02
2.294685244560241699e-01 -9.731841087341308594e-02 6.084686517715454102e-02
3.078661561012268066e-01 -2.584688737988471985e-02 3.318381309509277344e-01
2.460000365972518921e-01 -9.498612582683563232e-02 3.881471455097198486e-01
3.661342263221740723e-01 -5.367390811443328857e-02 1.742102503776550293e-01
3.204861879348754883e-01 -2.680721879005432129e-02 4.076753258705139160e-01
3.608361482620239258e-01 -8.403742313385009766e-02 6.604470312595367432e-02
3.144666850566864014e-01 -1.232872605323791504e-01 4.506084918975830078e-01
2.745182812213897705e-01 -1.418633610010147095e-01 2.836393713951110840e-01
3.387425541877746582e-01 -1.015790775418281555e-01 5.217970609664916992e-01
2.908453047275543213e-01 -3.069929033517837524e-02 2.402626276016235352e-01
2.864652574062347412e-01 -4.383220151066780090e-02 4.701752364635467529e-01
2.914384305477142334e-01 -1.000502854585647583e-01 5.098204612731933594e-01
2.436671853065490723e-01 -7.126516103744506836e-02 5.948333442211151123e-02
2.498832494020462036e-01 -1.328056454658508301e-01 2.569217085838317871e-01
3.895297348499298096e-01 -7.412543892860412598e-02 3.574617505073547363e-01
2.450819015502929688e-01 -5.492918193340301514e-02 2.115681022405624390e-01
3.689221739768981934e-01 -1.051034033298492432e-01 1.139821410179138184e-01
2.472925484180450439e-01 -7.543700188398361206e-02 2.479872107505798340e-02
3.381087183952331543e-01 -1.393001079559326172e-01 1.216734126210212708e-01
3.331195116043090820e-01 -4.066525399684906006e-02 1.387981176376342773e-01
3.689928352832794189e-01 -1.198084503412246704e-01 1.967313885688781738e-01
3.603481650352478027e-01 -1.191806346178054810e-01 3.917492032051086426e-01
2.434612959623336792e-01 -5.789014697074890137e-02 1.750345230102539062e-01
3.875952064990997314e-01 -6.491395831108093262e-02 3.759620189666748047e-01
2.377921640872955322e-01 -8.954513818025588989e-02 2.133874595165252686e-02
3.610484898090362549e-01 -6.329441070556640625e-02 1.113779246807098389e-01
2.264861166477203369e-01 -9.635988622903823853e-02 2.332536578178405762e-01
2.983206212520599365e-01 -3.187697753310203552e-02 4.244504868984222412e-01
2.777237296104431152e-01 -6.252765655517578125e-02 4.986564218997955322e-01
2.783805727958679199e-01 -1.495731770992279053e-01 1.078641861677169800e-01
2.530201375484466553e-01 -5.556862056255340576e-02 3.680240511894226074e-01
2.384261041879653931e-01 -6.461764872074127197e-02 2.822139859199523926e-01
3.184337317943572998e-01 -4.440275952219963074e-02 9.366534650325775146e-02
3.107509613037109375e-01 -1.485950350761413574e-01 1.114686429500579834e-01
3.476993441581726074e-01 -1.121995002031326294e-01 2.541275322437286377e-02
3.630816340446472168e-01 -1.137344241142272949e-01 4.165137112140655518e-01
3.203782737255096436e-01 -2.563688158988952637e-02 2.984244525432586670e-01
3.655965328216552734e-01 -5.027052015066146851e-02 1.904013752937316895e-01
2.281717956066131592e-01 -1.156102567911148071e-01 1.708018481731414795e-01
2.630968093872070312e-01 -4.362163320183753967e-02 1.844184696674346924e-01
3.166657388210296631e-01 -1.380546987056732178e-01 3.562730252742767334e-01
2.704081535339355469e-01 -9.188783168792724609e-02 -6.348100304603576660e-02
2.941991388797760010e-01 -3.082837909460067749e-02 2.241104841232299805e-01
3.086005449295043945e-01 -3.386632725596427917e-02 1.677606105804443359e-01
3.465355336666107178e-01 -1.377542316913604736e-01 2.270404845476150513e-01
3.084520697593688965e-01 -3.868493810296058655e-02 4.963593780994415283e-01
2.660099267959594727e-01 -1.020473614335060120e-01 -3.498129248619079590e-01
2.915970385074615479e-01 -4.903049394488334656e-02 -3.528867363929748535e-01
2.779939174652099609e-01 -6.065978854894638062e-02 -2.500114738941192627e-01
3.215270936489105225e-01 -3.004498407244682312e-02 -3.183077573776245117e-01
3.930577039718627930e-01 -1.037739813327789307e-01 -3.316007256507873535e-01
3.617200255393981934e-01 -1.067678481340408325e-01 -2.685120105743408203e-01
2.584803402423858643e-01 -6.373240053653717041e-02 -3.539744615554809570e-01
2.694925069808959961e-01 -2.244632318615913391e-02 -2.927271425724029541e-01
2.360378503799438477e-01 -1.106965094804763794e-01 -2.974016964435577393e-01
2.705158591270446777e-01 -1.270007193088531494e-01 -3.121093809604644775e-01
3.326932787895202637e-01 -1.254331767559051514e-01 -2.750064432621002197e-01
3.011232018470764160e-01 -9.016163647174835205e-02 -3.626121580600738525e-01
3.180291652679443359e-01 -1.308269649744033813e-01 -2.827988564968109131e-01
3.247275650501251221e-01 -5.251609534025192261e-02 -3.519474267959594727e-01
2.907731533050537109e-01 -5.150476843118667603e-02 -2.538618147373199463e-01
2.867026925086975098e-01 -3.378825262188911438e-02 -3.381730914115905762e-01
2.720536291599273682e-01 -2.543494477868080139e-02 -3.224540948867797852e-01
2.932377457618713379e-01 -3.692283108830451965e-02 -2.656027078628540039e-01
3.965838551521301270e-01 -1.103035137057304382e-01 -3.101420402526855469e-01
2.862040996551513672e-01 -7.216186821460723877e-02 -3.613037765026092529e-01
3.693501055240631104e-01 -5.430234968662261963e-02 -2.905280888080596924e-01
2.147244513034820557e-01 -3.798086568713188171e-02 -3.043465018272399902e-01
2.679001986980438232e-01 -3.278362005949020386e-02 -3.354578912258148193e-01
2.237338125705718994e-01 -9.785216301679611206e-02 -3.193245530128479004e-01
2.028955221176147461e-01 -6.442794203758239746e-02 -3.101825714111328125e-01
3.624477088451385498e-01 -1.317474097013473511e-01 -3.222292065620422363e-01
2.425979971885681152e-01 -9.163853526115417480e-02 -3.437703251838684082e-01
3.442579507827758789e-01 -3.823494538664817810e-02 -2.934027314186096191e-01
3.161616027355194092e-01 -8.508953452110290527e-02 -3.635915219783782959e-01
3.072206079959869385e-01 -1.112044453620910645e-01 -3.550495505332946777e-01
2.334784418344497681e-01 -1.080124080181121826e-01 -3.138591051101684570e-01
3.109252452850341797e-01 -4.293737187981605530e-02 -2.636511623859405518e-01
2.391126751899719238e-01 -4.273487627506256104e-02 -3.365081548690795898e-01
3.127330541610717773e-01 -2.642472460865974426e-02 -3.006204068660736084e-01
3.527429401874542236e-01 -8.843959867954254150e-02 -2.600083649158477783e-01
2.483563125133514404e-01 -7.916443049907684326e-02 -2.546011805534362793e-01
2.776649594306945801e-01 -1.126734688878059387e-01 -3.463701605796813965e-01
3.848141729831695557e-01 -1.183747053146362305e-01 -2.955552935600280762e-01
2.249138504266738892e-01 -7.829347252845764160e-02 -2.659380733966827393e-01
2.084764391183853149e-01 -5.614691227674484253e-02 -2.797477245330810547e-01
2.226896286010742188e-01 -8.234006166458129883e-02 -3.331898450851440430e-01
2.779114544391632080e-01 -9.691086411476135254e-02 -3.565611541271209717e-01
2.341085076332092285e-01 -9.841028600931167603e-02 -3.321183621883392334e-01
3.973210752010345459e-01 -9.377960860729217529e-02 -2.974172532558441162e-01
2.344423234462738037e-01 -3.386950492858886719e-02 -3.234185576438903809e-01
2.464929670095443726e-01 -1.108237057924270630e-01 -2.795878052711486816e-01
2.538757324218750000e-01 -6.098524108529090881e-02 -2.529175877571105957e-01
4.005528390407562256e-01 -9.562534093856811523e-02 -3.124361932277679443e-01
2.842997312545776367e-01 -2.241036668419837952e-02 -2.963096201419830322e-01
2.323834449052810669e-01 -9.421011060476303101e-02 -2.703210711479187012e-01
3.209181427955627441e-01 -7.172435522079467773e-02 -3.618089556694030762e-01
3.954257667064666748e-01 -8.034378290176391602e-02 -3.009042441844940186e-01
3.603197932243347168e-01 -5.999895185232162476e-02 -3.434253334999084473e-01
2.373168319463729858e-01 -6.500583887100219727e-02 -3.456649780273437500e-01
3.187010586261749268e-01 -1.242240145802497864e-01 -3.447277247905731201e-01
3.084944486618041992e-01 -4.773849248886108398e-02 -3.510844111442565918e-01
3.573018014430999756e-01 -1.277160495519638062e-01 -3.353613018989562988e-01
3.801178336143493652e-01 -1.154529079794883728e-01 -3.369957804679870605e-01
3.136340975761413574e-01 -3.846671059727668762e-02 -3.404882550239562988e-01
3.356614112854003906e-01 -3.315982967615127563e-02 -3.083844780921936035e-01
3.790953457355499268e-01 -1.024706438183784485e-01 -3.451385498046875000e-01
3.214572668075561523e-01 -9.152809530496597290e-02 -2.518879771232604980e-01
3.051499128341674805e-01 -1.285014003515243530e-01 -2.798056900501251221e-01
3.648507297039031982e-01 -1.227708607912063599e-01 -2.832028865814208984e-01
2.483848631381988525e-01 -2.377474680542945862e-02 -3.001470863819122314e-01
3.784289658069610596e-01 -6.925825774669647217e-02 -3.372192382812500000e-01
2.995850443840026855e-01 -2.932885289192199707e-02 -2.787572741508483887e-01
2.918875813484191895e-01 -9.949149191379547119e-02 -2.532512545585632324e-01
2.189008593559265137e-01 -5.409172177314758301e-02 -3.303521871566772461e-01
3.362753391265869141e-01 -9.600347280502319336e-02 -3.610023856163024902e-01
2.582658529281616211e-01 -2.442660555243492126e-02 -3.159426748752593994e-01
3.529661893844604492e-01 -1.000772416591644287e-01 -3.569172322750091553e-01
2.028800994157791138e-01 -5.385341867804527283e-02 -2.957428991794586182e-01
2.371755093336105347e-01 -2.835318446159362793e-02 -2.870961427688598633e-01
3.229334354400634766e-01 -1.359798461198806763e-01 -2.977488636970520020e-01
3.378786444664001465e-01 -1.367806643247604370e-01 -3.057814538478851318e-01
2.523926198482513428e-01 -1.193301826715469360e-01 -2.958295643329620361e-01
3.061452209949493408e-01 -1.338973492383956909e-01 -2.936310470104217529e-01
3.514467477798461914e-01 -1.309969723224639893e-01 -2.897503674030303955e-01
2.534203529357910156e-01 -3.095547854900360107e-02 -3.289628922939300537e-01
2.352186143398284912e-01 -8.012498170137405396e-02 -3.436600565910339355e-01
2.329761981964111328e-01 -4.411552473902702332e-02 -2.668052613735198975e-01
3.757159113883972168e-01 -5.495178699493408203e-02 -3.089042603969573975e-01
2.689421772956848145e-01 -8.378125727176666260e-02 -2.505173981189727783e-01
3.828520774841308594e-01 -6.279470026493072510e-02 -2.995886504650115967e-01
3.751673102378845215e-01 -1.001423224806785583e-01 -2.735650837421417236e-01
3.763045668601989746e-01 -1.278259754180908203e-01 -3.090160191059112549e-01
3.198661208152770996e-01 -7.437665760517120361e-02 -2.508721649646759033e-01
3.410165011882781982e-01 -6.464570015668869019e-02 -3.553106784820556641e-01
2.767167091369628906e-01 -1.253147870302200317e-01 -3.272557556629180908e-01
3.059119880199432373e-01 -1.267468035221099854e-01 -3.390563130378723145e-01
2.564909160137176514e-01 -1.172426715493202209e-01 -3.264192342758178711e-01
3.394013345241546631e-01 -6.288338452577590942e-02 -2.599177658557891846e-01
2.578564584255218506e-01 -1.102958545088768005e-01 -3.383950889110565186e-01
3.971742391586303711e-01 -9.164263308048248291e-02 -3.262065052986145020e-01
2.565830945968627930e-01 -1.214028447866439819e-01 -3.124362528324127197e-01
2.052232623100280762e-01 -7.567548751831054688e-02 -2.893644869327545166e-01
2.733265757560729980e-01 -4.707603529095649719e-02 -3.500683307647705078e-01
2.661092877388000488e-01 -6.698300689458847046e-02 -2.498739063739776611e-01
3.251303434371948242e-01 -1.348945796489715576e-01 -3.253018558025360107e-01
3.886534869670867920e-01 -9.097187966108322144e-02 -2.841745316982269287e-01
2.665551304817199707e-01 -1.251689791679382324e-01 -2.961440086364746094e-01
3.300668597221374512e-01 -1.045540124177932739e-01 -2.576367259025573730e-01
2.567691802978515625e-01 -5.103924870491027832e-02 -3.487976193428039551e-01
2.378539741039276123e-01 -2.695749700069427490e-02 -3.082897961139678955e-01
3.714540004730224609e-01 -5.484807491302490234e-02 -3.248161971569061279e-01
2.125722020864486694e-01 -7.626024633646011353e-02 -3.246378600597381592e-01
3.493909239768981934e-01 -1.194108426570892334e-01 -3.476874232292175293e-01
2.063649296760559082e-01 -7.926420867443084717e-02 -3.097558021545410156e-01
3.287231028079986572e-01 -4.357223585247993469e-02 -2.700645327568054199e-01
3.577326238155364990e-01 -5.117657035589218140e-02 -2.811786234378814697e-01
2.989521622657775879e-01 -1.123563870787620544e-01 -2.608575820922851562e-01
3.611926734447479248e-01 -7.162224501371383667e-02 -2.669876515865325928e-01
2.129287421703338623e-01 -8.751705288887023926e-02 -2.869227528572082520e-01
2.777290642261505127e-01 -1.009500101208686829e-01 -2.558146417140960693e-01
3.499509692192077637e-01 -4.033175855875015259e-02 -3.182491362094879150e-01
3.061851561069488525e-01 -1.354736238718032837e-01 -3.132490515708923340e-01
-3.223966062068939209e-02 -8.346918970346450806e-03 -4.820367395877838135e-01
-1.197235956788063049e-01 4.138373583555221558e-02 -7.678539752960205078e-01
-1.655563712120056152e-01 9.997576475143432617e-03 -6.734537482261657715e-01
-1.102583929896354675e-01 1.846767030656337738e-02 -7.128037214279174805e-01
-2.215108722448348999e-01 4.410319402813911438e-02 -7.978227138519287109e-01
-1.141393035650253296e-01 3.721430897712707520e-02 -6.581201553344726562e-01
-6.223777309060096741e-02 1.068599522113800049e-04 -5.776500105857849121e-01
-2.426715940237045288e-02 -8.036168292164802551e-03 -4.222915470600128174e-01
-6.832666695117950439e-03 -8.681790903210639954e-03 -4.490248560905456543e-01
-3.262981772422790527e-04 1.056613400578498840e-03 -4.272562563419342041e-01
-1.420542150735855103e-01 1.450102776288986206e-03 -5.644919872283935547e-01
-2.148128151893615723e-01 3.955859318375587463e-02 -8.351141214370727539e-01
-4.439004510641098022e-02 2.385384775698184967e-02 -6.619548201560974121e-01
-4.223506897687911987e-02 -3.977753221988677979e-04 -5.598595142364501953e-01
-8.194039016962051392e-02 -2.195734530687332153e-03 -5.679957270622253418e-01
-1.312118321657180786e-01 1.301208510994911194e-03 -5.988164544105529785e-01
-1.479247063398361206e-01 4.027777910232543945e-02 -6.949000358581542969e-01
-1.972876340150833130e-01 1.395883783698081970e-02 -6.604505181312561035e-01
-7.747849076986312866e-02 1.006394159048795700e-02 -6.489884853363037109e-01
-5.397940054535865784e-02 8.959308266639709473e-03 -4.690224528312683105e-01
-2.361932098865509033e-01 3.760887682437896729e-02 -8.153091669082641602e-01
-2.244106829166412354e-01 2.976792864501476288e-02 -7.190753221511840820e-01
-5.103550851345062256e-03 1.882663369178771973e-02 -5.389065146446228027e-01
-1.611664146184921265e-01 4.594027251005172729e-02 -7.625715732574462891e-01
-1.230287030339241028e-01 7.586644031107425690e-03 -5.186357498168945312e-01
-9.841959178447723389e-02 8.984164334833621979e-03 -4.979229569435119629e-01
-1.965165436267852783e-01 2.034537121653556824e-02 -6.438952088356018066e-01
-2.045299857854843140e-02 -3.929236903786659241e-03 -5.147491097450256348e-01
-1.366061121225357056e-01 2.800990454852581024e-02 -6.062326431274414062e-01
-1.614777296781539917e-01 3.615476191043853760e-02 -6.723499298095703125e-01
-1.380230039358139038e-01 3.100853413343429565e-03 -6.164570450782775879e-01
-1.685991734266281128e-01 6.610364653170108795e-03 -6.122697591781616211e-01
-1.852827072143554688e-01 1.059003174304962158e-02 -6.422154903411865234e-01
-8.937565237283706665e-02 3.319910541176795959e-02 -6.212275028228759766e-01
-1.764278113842010498e-02 8.530255407094955444e-03 -4.575670063495635986e-01
-1.205240190029144287e-01 1.140180230140686035e-02 -6.810151934623718262e-01
-1.066090613603591919e-01 3.585894405841827393e-02 -6.452042460441589355e-01
-1.537961363792419434e-01 2.974624186754226685e-02 -7.850252985954284668e-01
-1.569250524044036865e-01 1.339287217706441879e-02 -7.023047804832458496e-01
-1.606100499629974365e-01 3.297549858689308167e-02 -7.994814515113830566e-01
-1.660104393959045410e-01 1.756581664085388184e-02 -7.304154634475708008e-01
-1.659652590751647949e-02 1.744993031024932861e-03 -4.302545785903930664e-01
-1.349060535430908203e-01 4.241401702165603638e-02 -7.128292322158813477e-01
-1.405263692140579224e-02 2.218729816377162933e-02 -5.649021863937377930e-01
-3.614716976881027222e-02 9.295718744397163391e-03 -4.639129042625427246e-01
-2.315959930419921875e-01 2.900056540966033936e-02 -7.745245099067687988e-01
-3.286258876323699951e-02 2.658991701900959015e-02 -5.856114625930786133e-01
-1.258511543273925781e-01 1.390844769775867462e-02 -6.979558467864990234e-01
-2.134933173656463623e-01 4.603509604930877686e-02 -8.094773888587951660e-01
-6.796725094318389893e-03 1.673583872616291046e-02 -5.130723118782043457e-01
-2.115275263786315918e-01 3.334890678524971008e-02 -7.096052169799804688e-01
-6.241036579012870789e-02 -6.676509976387023926e-03 -5.159499645233154297e-01
-1.824143230915069580e-01 3.007029369473457336e-02 -7.982134222984313965e-01
-1.088690906763076782e-01 3.357768058776855469e-02 -7.589630484580993652e-01
2.397827804088592529e-03 1.433780975639820099e-02 -5.034668445587158203e-01
1.346563547849655151e-02 -7.087457925081253052e-04 -4.270191490650177002e-01
-8.149062097072601318e-02 3.566307574510574341e-02 -6.482157707214355469e-01
-1.980513632297515869e-01 4.667761176824569702e-02 -7.951673269271850586e-01
-1.029837951064109802e-01 3.688251599669456482e-03 -6.227729916572570801e-01
-1.601804494857788086e-01 6.256547756493091583e-03 -6.360216736793518066e-01
-6.405800580978393555e-02 9.943927638232707977e-03 -6.378224492073059082e-01
-1.616744697093963623e-02 2.275073342025279999e-02 -5.961332321166992188e-01
-1.293655335903167725e-01 4.415155202150344849e-02 -7.580232024192810059e-01
-9.914950281381607056e-02 3.146744146943092346e-02 -6.089462041854858398e-01
-1.480417847633361816e-01 4.113943129777908325e-02 -8.040650486946105957e-01
-2.647959440946578979e-02 1.088195852935314178e-02 -6.029705405235290527e-01
-1.436338871717453003e-01 4.543440043926239014e-02 -7.630608081817626953e-01
1.044247299432754517e-02 2.045657485723495483e-03 -5.094560980796813965e-01
-3.704442828893661499e-02 2.845662832260131836e-02 -6.077824831008911133e-01
-5.714227631688117981e-02 2.299015410244464874e-02 -5.428987145423889160e-01
-1.787678897380828857e-01 9.730771183967590332e-03 -6.555382609367370605e-01
-9.714739024639129639e-02 3.979761525988578796e-02 -6.969430446624755859e-01
-2.925369888544082642e-02 -8.992850780487060547e-04 -5.450608730316162109e-01
-6.957770884037017822e-02 3.565113246440887451e-02 -6.772540211677551270e-01
-8.986026048660278320e-02 -5.501450970768928528e-03 -5.267565846443176270e-01
-8.499699085950851440e-02 1.621541380882263184e-02 -6.843246817588806152e-01
-1.096368208527565002e-01 -3.460265696048736572e-03 -5.165547728538513184e-01
-3.690704703330993652e-02 2.412358298897743225e-03 -5.730600953102111816e-01
-2.142733633518218994e-01 2.034279890358448029e-02 -6.882479786872863770e-01
-2.285737693309783936e-01 3.200449794530868530e-02 -8.004036545753479004e-01
-1.395884454250335693e-01 2.897376567125320435e-02 -7.738041281700134277e-01
-1.957244426012039185e-01 4.676054418087005615e-02 -8.276292085647583008e-01
-1.487166583538055420e-01 4.424910992383956909e-02 -7.364092469215393066e-01
-4.122276604175567627e-02 2.025497332215309143e-02 -5.244719386100769043e-01
-1.034216433763504028e-01 -1.239085569977760315e-03 -5.795791149139404297e-01
-5.162070319056510925e-02 3.124330937862396240e-02 -6.214768886566162109e-01
-2.443418651819229126e-02 2.937896177172660828e-03 -5.634548068046569824e-01
-2.053813636302947998e-01 3.207302838563919067e-02 -6.949105858802795410e-01
-8.383002877235412598e-02 6.448263302445411682e-03 -6.326687932014465332e-01
-5.158513039350509644e-02 -3.086864948272705078e-03 -4.365874528884887695e-01
-1.023872196674346924e-02 -8.141852915287017822e-03 -4.630266129970550537e-01
-1.789851486682891846e-01 1.142571307718753815e-02 -6.779417395591735840e-01
-1.981343924999237061e-01 1.749706454575061798e-02 -7.205640673637390137e-01
-1.235902011394500732e-01 2.713676169514656067e-02 -7.564546465873718262e-01
-2.043715119361877441e-01 1.656578853726387024e-02 -6.981208920478820801e-01
2.254246920347213745e-02 4.558636806905269623e-03 -4.813439548015594482e-01
-3.599302470684051514e-02 2.991173416376113892e-03 -4.401252865791320801e-01
-1.941462159156799316e-01 2.718456648290157318e-02 -6.593819856643676758e-01
-2.173663675785064697e-01 2.734316512942314148e-02 -7.816159725189208984e-01
-4.258906096220016479e-02 1.794289797544479370e-02 -6.472662687301635742e-01
-1.705193221569061279e-01 2.270375005900859833e-02 -6.135475039482116699e-01
-9.523466229438781738e-02 3.454770147800445557e-02 -7.430949211120605469e-01
-7.111464440822601318e-02 6.549787707626819611e-03 -6.250254511833190918e-01
-1.663293689489364624e-01 2.403328940272331238e-02 -7.662875056266784668e-01
-1.662621498107910156e-01 3.777337074279785156e-02 -6.867842078208923340e-01
-4.299291223287582397e-02 2.352578006684780121e-02 -5.477433204650878906e-01
-1.972930133342742920e-01 1.410225592553615570e-02 -6.775379180908203125e-01
-7.145273685455322266e-02 2.087139338254928589e-02 -6.895956397056579590e-01
-5.175593122839927673e-02 3.211186081171035767e-02 -6.508555412292480469e-01
-8.110542595386505127e-02 3.171248733997344971e-02 -6.087318062782287598e-01
-4.887738823890686035e-02 1.782291382551193237e-02 -5.099084377288818359e-01
-1.380354166030883789e-03 1.249641552567481995e-02 -4.846441447734832764e-01
-7.778849452733993530e-02 3.707484900951385498e-02 -6.924064755439758301e-01
-6.168728321790695190e-02 5.939615890383720398e-03 -6.145566701889038086e-01
-1.634801924228668213e-01 2.832484059035778046e-02 -6.299201846122741699e-01
-5.413985624909400940e-02 4.876619204878807068e-03 -4.547324180603027344e-01
-2.054432034492492676e-01 2.535434812307357788e-02 -7.750036716461181641e-01
-7.076771557331085205e-02 -2.725873142480850220e-03 -5.595146417617797852e-01
-1.802734881639480591e-01 3.151939064264297485e-02 -6.622261404991149902e-01
-5.531938374042510986e-02 -3.810510039329528809e-03 -5.427053570747375488e-01
-8.567905426025390625e-02 2.226817607879638672e-02 -5.460577607154846191e-01
-1.642370969057083130e-01 8.458417840301990509e-03 -6.587259173393249512e-01
-1.195172294974327087e-01 1.784324645996093750e-03 -6.086531877517700195e-01
-8.280079066753387451e-02 3.647916764020919800e-02 -7.181995511054992676e-01
-2.989707887172698975e-02 -9.314974769949913025e-03 -4.648814201354980469e-01
-1.374307423830032349e-01 2.110074087977409363e-02 -5.740732550621032715e-01
-1.711245179176330566e-01 4.662636294960975647e-02 -8.105641007423400879e-01
-1.398344337940216064e-01 3.078971430659294128e-02 -6.240158081054687500e-01
-1.911296993494033813e-01 3.365033119916915894e-02 -8.143516778945922852e-01
-2.066230773925781250e-01 3.704687207937240601e-02 -7.221773862838745117e-01
-8.736524730920791626e-02 3.067475929856300354e-02 -7.303190231323242188e-01
-2.291381359100341797e-03 2.766540274024009705e-03 -5.345028042793273926e-01
-2.086500823497772217e-01 2.089257165789604187e-02 -7.406151294708251953e-01
-7.593733072280883789e-02 1.310220547020435333e-02 -6.629067659378051758e-01
-1.275861263275146484e-01 3.861856460571289062e-02 -6.732756495475769043e-01
-1.026952564716339111e-01 3.891564160585403442e-02 -6.769634485244750977e-01
2.207467705011367798e-02 -1.788740977644920349e-03 -4.523369967937469482e-01
-1.885904073715209961e-01 4.364386200904846191e-02 -7.504943609237670898e-01
6.082035601139068604e-03 -4.413522779941558838e-03 -4.165105521678924561e-01
-1.390300542116165161e-01 6.777726113796234131e-03 -6.519876122474670410e-01
-9.631080925464630127e-02 1.312139630317687988e-02 -6.778555512428283691e-01
-6.803832948207855225e-02 -5.661988630890846252e-03 -5.292914509773254395e-01
-9.048404544591903687e-02 -4.574563354253768921e-03 -5.417907834053039551e-01
-1.102622449398040771e-01 3.270162269473075867e-02 -6.211649775505065918e-01
1.461133360862731934e-03 1.197203993797302246e-03 -5.206069350242614746e-01
-6.843201071023941040e-02 2.443221211433410645e-02 -5.538181066513061523e-01
-3.927159309387207031e-02 -5.296612158417701721e-03 -5.195317268371582031e-01
-1.764841228723526001e-01 1.419092062860727310e-02 -6.014648675918579102e-01
-7.255166769027709961e-03 1.901226677000522614e-02 -5.824583172798156738e-01
-1.877064704895019531e-01 1.331041380763053894e-02 -6.889978051185607910e-01
-1.388978362083435059e-01 4.354536533355712891e-02 -7.271655201911926270e-01
1.789916306734085083e-02 2.291146665811538696e-03 -4.936161339282989502e-01
-1.716181337833404541e-01 4.652324691414833069e-02 -7.743126749992370605e-01
-2.341276407241821289e-01 3.496705368161201477e-02 -7.609269618988037109e-01
-1.780507266521453857e-01 3.446831926703453064e-02 -6.759405732154846191e-01
-2.240495681762695312e-01 4.215050116181373596e-02 -7.832980155944824219e-01
-7.849864661693572998e-02 3.429709374904632568e-02 -6.339676976203918457e-01
-1.447692811489105225e-01 5.030951462686061859e-03 -6.341998577117919922e-01
-1.540885716676712036e-01 1.071065384894609451e-02 -6.826257705688476562e-01
-1.796460449695587158e-01 3.835715726017951965e-02 -7.016067504882812500e-01
-1.625858992338180542e-02 1.379586011171340942e-02 -4.863789081573486328e-01
-1.675473153591156006e-01 7.726804353296756744e-03 -5.912966132164001465e-01
-1.224918961524963379e-01 6.046103313565254211e-03 -6.452642083168029785e-01
-1.494598090648651123e-01 3.639718890190124512e-02 -6.658582091331481934e-01
-4.446751624345779419e-02 2.648876607418060303e-02 -5.723553299903869629e-01
-1.833459138870239258e-01 1.889976486563682556e-02 -7.385822534561157227e-01
-1.908665597438812256e-01 4.149741306900978088e-02 -7.344776391983032227e-01
-6.433319300413131714e-02 3.042416274547576904e-02 -6.969370245933532715e-01
-6.342370808124542236e-02 -4.594601690769195557e-03 -4.467597007751464844e-01
-1.640997529029846191e-01 3.082830086350440979e-02 -6.431329250335693359e-01
-6.493066251277923584e-02 1.838552020490169525e-02 -6.744951009750366211e-01
-1.918611228466033936e-01 3.445915132761001587e-02 -6.900499463081359863e-01
-1.269483566284179688e-01 3.861507773399353027e-02 -7.823919653892517090e-01
-4.763831198215484619e-02 1.122470386326313019e-02 -6.285399794578552246e-01
-1.150377914309501648e-01 5.807727575302124023e-06 -5.910609960556030273e-01
-1.042674705386161804e-01 2.489624544978141785e-02 -5.693751573562622070e-01
1.174372434616088867e-02 1.051225792616605759e-02 -5.315886735916137695e-01
-5.643467605113983154e-02 2.811250463128089905e-02 -5.819402933120727539e-01
-6.503298878669738770e-02 1.125371828675270081e-02 -4.835225343704223633e-01
-3.633604198694229126e-02 1.404549833387136459e-02 -4.870855808258056641e-01
-2.224570214748382568e-01 4.509504884481430054e-02 -8.219447731971740723e-01
-1.670458614826202393e-01 1.180192083120346069e-02 -6.889170408248901367e-01
-3.119431436061859131e-02 2.147224172949790955e-02 -5.354815125465393066e-01
-8.940780162811279297e-02 1.698457263410091400e-02 -5.214459896087646484e-01
-9.262138605117797852e-02 1.646319404244422913e-03 -4.774451553821563721e-01
-1.468333154916763306e-01 2.339240536093711853e-02 -7.557632923126220703e-01
-1.079831868410110474e-01 1.495744567364454269e-02 -6.944959163665771484e-01
-1.250283569097518921e-01 1.590125635266304016e-02 -5.431640744209289551e-01
-1.523429751396179199e-01 4.615601897239685059e-02 -7.792500257492065430e-01
-1.193354800343513489e-01 4.210205376148223877e-02 -7.131640315055847168e-01
-9.725818037986755371e-02 1.179296523332595825e-04 -5.922993421554565430e-01
-1.672688871622085571e-01 3.321649879217147827e-02 -6.590248346328735352e-01
-1.514054238796234131e-01 2.582153677940368652e-02 -6.070811748504638672e-01
-1.070004105567932129e-01 1.618129387497901917e-02 -5.295971632003784180e-01
-5.651525780558586121e-02 1.963270455598831177e-02 -5.218140482902526855e-01
-1.466981321573257446e-01 1.565783284604549408e-02 -7.153198719024658203e-01
-6.029960513114929199e-02 3.539146855473518372e-03 -5.992537736892700195e-01
-1.818606853485107422e-01 1.674743369221687317e-02 -7.236357927322387695e-01
-1.262702643871307373e-01 4.380743950605392456e-02 -7.447846531867980957e-01
-9.952226281166076660e-02 2.107648178935050964e-03 -6.095200181007385254e-01
-1.118666231632232666e-01 -3.421824425458908081e-03 -5.328090786933898926e-01
-6.672250479459762573e-02 3.131044283509254456e-02 -6.080760955810546875e-01
-1.691993027925491333e-01 4.150992259383201599e-02 -7.171262502670288086e-01
-8.578463643789291382e-02 1.616479828953742981e-03 -6.009457707405090332e-01
-1.316799968481063843e-01 4.084705375134944916e-03 -6.289295554161071777e-01
-8.349582552909851074e-02 -3.558896481990814209e-03 -5.548006296157836914e-01
4.997596144676208496e-03 1.468939147889614105e-02 -5.505403876304626465e-01
-7.502289116382598877e-02 -7.167821750044822693e-03 -4.739331603050231934e-01
-1.528100073337554932e-01 2.054251171648502350e-02 -5.864316821098327637e-01
-5.009963363409042358e-02 -7.433813065290451050e-03 -5.030581355094909668e-01
-2.927564829587936401e-02 -2.876125276088714600e-03 -5.311816334724426270e-01
-1.850768923759460449e-03 6.586289964616298676e-03 -4.498407840728759766e-01
-1.770785450935363770e-01 4.369782283902168274e-02 -7.420217990875244141e-01
-1.793242990970611572e-01 2.466585487127304077e-02 -7.724589109420776367e-01
-2.010686844587326050e-01 2.969747036695480347e-02 -6.786926984786987305e-01
-9.814014285802841187e-02 4.031388834118843079e-02 -7.127345204353332520e-01
-1.925822794437408447e-01 4.573199898004531860e-02 -7.759588360786437988e-01
-1.365137994289398193e-01 9.495967999100685120e-03 -5.377759933471679688e-01
-3.577658534049987793e-02 -9.702518582344055176e-03 -4.479128718376159668e-01
-1.297053396701812744e-01 1.861908659338951111e-02 -5.573792457580566406e-01
-4.956067800521850586e-01 -6.687324494123458862e-02 2.881416678428649902e-02
-1.101899385452270508e+00 1.464664638042449951e-01 -4.307145625352859497e-02
-8.185006380081176758e-01 6.460765004158020020e-02 1.308200061321258545e-01
-3.199327886104583740e-01 -6.542797386646270752e-02 1.036562118679285049e-02
-6.351377367973327637e-01 -6.532966345548629761e-02 -3.733291104435920715e-02
-6.125349402427673340e-01 1.469632089138031006e-01 7.765675336122512817e-02
-6.738036274909973145e-01 1.375073343515396118e-01 -1.029194593429565430e-01
-1.822623908519744873e-01 7.219316810369491577e-02 4.426802694797515869e-02
-9.349267482757568359e-01 1.393978297710418701e-01 -8.431889116764068604e-02
-9.749624729156494141e-01 -1.834230124950408936e-02 6.018397957086563110e-02
-2.109128534793853760e-01 9.048674255609512329e-02 -9.127422422170639038e-02
-5.526200532913208008e-01 1.298904716968536377e-01 -1.068220511078834534e-01
-7.968662381172180176e-01 8.781708776950836182e-02 1.285513192415237427e-01
-5.521526932716369629e-01 8.415951579809188843e-02 -1.354520469903945923e-01
-9.204958677291870117e-01 -3.270462900400161743e-02 4.530507698655128479e-02
-8.377422690391540527e-01 -2.520713955163955688e-02 8.137363940477371216e-02
-3.894517123699188232e-01 -5.582292377948760986e-02 -8.306708186864852905e-02
-1.113788127899169922e+00 1.651815176010131836e-01 2.515558525919914246e-02
-6.822202205657958984e-01 -6.503155082464218140e-02 6.246202625334262848e-03
-1.031480789184570312e+00 9.879097342491149902e-04 -5.005453154444694519e-02
-6.486963629722595215e-01 -9.584523737430572510e-03 -1.191651448607444763e-01
-4.879509806632995605e-01 4.450976848602294922e-03 1.072517037391662598e-01
-4.125080704689025879e-01 5.803997814655303955e-02 -1.382565498352050781e-01
-7.519854307174682617e-01 5.493189767003059387e-02 1.305437088012695312e-01
-6.630737781524658203e-01 1.744814217090606689e-01 2.766005322337150574e-02
-2.850268185138702393e-01 1.199135109782218933e-01 -7.253380119800567627e-02
-9.072771668434143066e-01 3.256960585713386536e-02 -1.068782508373260498e-01
-1.138413429260253906e+00 1.590945720672607422e-01 -5.838554352521896362e-04
-2.367514669895172119e-01 7.885977625846862793e-02 5.856417119503021240e-02
-5.778363347053527832e-01 -5.081105977296829224e-02 -8.320081979036331177e-02
-9.621731638908386230e-01 1.217528134584426880e-01 -9.266849607229232788e-02
-7.033797502517700195e-01 -5.172590166330337524e-02 5.390903726220130920e-02
-2.581661343574523926e-01 1.142089366912841797e-01 -7.280027866363525391e-02
-1.231217622756958008e+00 1.234621033072471619e-01 -9.218500927090644836e-03
-5.830741524696350098e-01 1.494201421737670898e-01 -8.502096682786941528e-02
-1.179058790206909180e+00 7.253365218639373779e-02 8.834928274154663086e-02
-8.623929619789123535e-01 -4.167510569095611572e-02 -3.339927643537521362e-02
-9.254491329193115234e-02 4.878946766257286072e-02 1.870808005332946777e-02
-1.100593686103820801e+00 1.095236092805862427e-01 -7.036832720041275024e-02
-7.776325941085815430e-01 -1.419589668512344360e-02 -9.953541308641433716e-02
-1.001961946487426758e+00 4.543127492070198059e-02 1.157393828034400940e-01
-9.513886570930480957e-01 1.731292158365249634e-01 -3.293757513165473938e-02
-1.194795370101928711e+00 1.266007125377655029e-01 -2.826078981161117554e-02
-6.585266590118408203e-01 -2.330408245325088501e-02 -1.075431853532791138e-01
-9.025977849960327148e-01 1.365725249052047729e-01 1.055582389235496521e-01
-6.671365499496459961e-01 -5.063436180353164673e-02 -7.091492414474487305e-02
-5.425519347190856934e-01 1.444306969642639160e-01 -8.859267830848693848e-02
-7.401961088180541992e-01 1.743587255477905273e-01 -4.463122412562370300e-02
-1.159703254699707031e+00 1.559112668037414551e-01 6.689052097499370575e-03
-2.992457449436187744e-01 1.231803670525550842e-01 -7.143772393465042114e-02
-4.069324135780334473e-01 5.760676413774490356e-02 1.039014756679534912e-01
-9.269504547119140625e-01 9.633500874042510986e-02 1.244259998202323914e-01
-6.235785484313964844e-01 1.507045179605484009e-01 -8.598396182060241699e-02
-8.757410645484924316e-01 1.762907207012176514e-01 -3.525769710540771484e-02
-8.207640647888183594e-01 1.560831367969512939e-01 -7.793376594781875610e-02
-3.140985965728759766e-01 -3.453040868043899536e-02 6.186594069004058838e-02
-4.697949290275573730e-01 1.527236849069595337e-01 3.290368616580963135e-02
-5.553164482116699219e-01 1.693076491355895996e-01 -2.135404944419860840e-02
-9.970165491104125977e-01 6.177000701427459717e-02 -9.785028547048568726e-02
-1.096352100372314453e+00 6.034553423523902893e-02 -7.330881804227828979e-02
-1.540451347827911377e-01 -4.433201998472213745e-02 2.623207867145538330e-03
-5.137819051742553711e-01 2.909848652780056000e-02 1.163394600152969360e-01
-3.871341645717620850e-01 -6.238661706447601318e-03 9.202632308006286621e-02
-1.148837208747863770e+00 1.445950865745544434e-01 -2.840341627597808838e-02
-9.929168224334716797e-02 7.452046126127243042e-02 -1.045481301844120026e-02
-4.899338185787200928e-01 3.470443189144134521e-02 1.148764044046401978e-01
-8.765805959701538086e-01 1.700171232223510742e-01 -5.082333460450172424e-02
-1.055873751640319824e+00 -1.259146630764007568e-02 1.569893956184387207e-02
-5.487141609191894531e-01 1.604984998703002930e-01 -5.839878693222999573e-02
-5.564387440681457520e-01 -7.189174741506576538e-02 -2.474260749295353889e-03
-6.714985370635986328e-01 1.254862248897552490e-01 1.056913584470748901e-01
-8.682465553283691406e-01 5.432586371898651123e-02 1.287093013525009155e-01
-9.389564394950866699e-01 1.533901691436767578e-01 -6.951814144849777222e-02
-7.479860186576843262e-01 9.946016967296600342e-02 1.241560652852058411e-01
-6.625809073448181152e-01 8.328534662723541260e-02 -1.340715140104293823e-01
-7.491642236709594727e-02 -1.021409779787063599e-02 7.531935349106788635e-03
-5.335615277290344238e-01 8.370910584926605225e-02 1.138627678155899048e-01
-7.617358565330505371e-01 1.323671787977218628e-01 1.065812632441520691e-01
-2.883302271366119385e-01 -5.541734397411346436e-02 2.845739573240280151e-02
-7.494021654129028320e-01 -5.608225613832473755e-02 -3.391909971833229065e-02
-3.000524938106536865e-01 9.227860718965530396e-02 -1.112262383103370667e-01
-8.806446194648742676e-01 1.764165759086608887e-01 4.772410541772842407e-02
-6.158826947212219238e-01 1.057043671607971191e-02 -1.320915371179580688e-01
-9.370411634445190430e-01 1.781509220600128174e-01 3.775300830602645874e-02
-7.615572214126586914e-02 2.749972045421600342e-02 -8.479341864585876465e-02
-7.857648134231567383e-01 2.155764400959014893e-02 1.224989965558052063e-01
-5.973765254020690918e-01 -5.999992787837982178e-02 -6.267388164997100830e-02
-8.818321228027343750e-01 -4.397750645875930786e-02 1.410957332700490952e-02
-4.295842647552490234e-01 1.448357105255126953e-01 -6.776548922061920166e-02
-2.625308334827423096e-01 -6.259200721979141235e-02 -5.058623105287551880e-02
-6.145061850547790527e-01 4.834813252091407776e-02 -1.398714333772659302e-01
