3.408874273300170898e-01 -5.622384697198867798e-02 -6.337733566761016846e-02
1.606881618499755859e-03 -1.629905775189399719e-02 -4.849031567573547363e-02
6.584037542343139648e-01 9.729778394103050232e-03 -6.808015704154968262e-02
8.228555917739868164e-01 -7.264298200607299805e-02 5.584160238504409790e-02
7.255177497863769531e-01 -3.209191188216209412e-02 7.297242432832717896e-02
-3.036639094352722168e-02 3.018640913069248199e-02 4.672514647245407104e-02
1.308035552501678467e-01 -1.022021248936653137e-01 2.544768527150154114e-02
1.043461680412292480e+00 3.238181024789810181e-02 -1.588235981762409210e-02
7.197082638740539551e-01 -1.141982898116111755e-01 1.695193909108638763e-02
5.083153843879699707e-01 -4.610473662614822388e-02 7.775454223155975342e-02
8.838962316513061523e-01 -5.840956419706344604e-02 5.657783523201942444e-02
8.600569963455200195e-01 4.996884614229202271e-02 -3.518287464976310730e-02
9.223303794860839844e-01 -3.187401592731475830e-02 -5.625538900494575500e-02
3.058792650699615479e-01 1.513320393860340118e-02 7.459282130002975464e-02
8.300327658653259277e-01 -5.476289242506027222e-02 -5.790119618177413940e-02
8.845846652984619141e-01 -5.766528844833374023e-02 -5.290764570236206055e-02
4.661582410335540771e-01 -9.645858407020568848e-02 5.509655922651290894e-02
4.987404942512512207e-01 -1.144613698124885559e-01 -2.099394984543323517e-02
5.882977247238159180e-01 -2.713909000158309937e-02 7.839792221784591675e-02
6.332106590270996094e-01 -1.098402440547943115e-01 3.607873246073722839e-02
2.962579131126403809e-01 7.797977328300476074e-02 2.449709922075271606e-02
-2.540239691734313965e-02 2.597222663462162018e-02 -3.657077252864837646e-02
-1.051225960254669189e-01 2.990508638322353363e-02 3.286677971482276917e-02
6.225466728210449219e-03 -8.623939007520675659e-02 2.838616259396076202e-02
2.079487740993499756e-01 3.508737683296203613e-02 6.395140290260314941e-02
1.056679725646972656e+00 -5.456648021936416626e-02 3.348792716860771179e-02
9.340041875839233398e-01 -9.207635372877120972e-02 2.360959537327289581e-02
3.883403539657592773e-02 3.651300445199012756e-03 6.434174627065658569e-02
6.428468227386474609e-02 -8.350285142660140991e-02 4.354481026530265808e-02
-4.777392745018005371e-02 8.240472525358200073e-03 5.434961244463920593e-02
3.064456284046173096e-01 -2.754197828471660614e-02 7.908070832490921021e-02
4.789040982723236084e-01 -1.030301004648208618e-01 4.882412031292915344e-02
8.970284461975097656e-01 -7.216262072324752808e-02 -4.455031082034111023e-02
-7.907173037528991699e-02 -6.749293208122253418e-02 -1.493715308606624603e-02
2.941995263099670410e-01 -8.802567422389984131e-02 5.827838927507400513e-02
7.357811927795410156e-02 2.966423891484737396e-02 5.828158929944038391e-02
7.447363138198852539e-01 5.117097869515419006e-03 6.925230473279953003e-02
4.951405227184295654e-01 -1.087005883455276489e-01 4.196796193718910217e-02
2.014649212360382080e-01 7.455721497535705566e-02 2.265796251595020294e-02
9.598714113235473633e-01 3.128145635128021240e-02 3.693427890539169312e-02
9.064009189605712891e-01 2.186472900211811066e-02 5.026410892605781555e-02
6.369864344596862793e-01 -1.182409599423408508e-01 -4.422073718160390854e-03
6.795215606689453125e-01 -1.005014330148696899e-01 4.530997946858406067e-02
7.124320268630981445e-01 6.386131048202514648e-02 3.610068559646606445e-02
3.262903690338134766e-01 -2.007045596837997437e-02 -6.943704187870025635e-02
5.808193683624267578e-01 -9.496259689331054688e-02 -4.503764584660530090e-02
5.363758802413940430e-01 -9.562911093235015869e-02 -4.483568295836448669e-02
-1.382118463516235352e-02 -7.226929813623428345e-02 -2.505967579782009125e-02
3.533824384212493896e-01 4.317246377468109131e-02 -5.652273446321487427e-02
1.035526990890502930e+00 9.956523776054382324e-03 -3.793555870652198792e-02
9.915155172348022461e-01 -2.363782376050949097e-02 -4.989934340119361877e-02
1.465231776237487793e-01 -9.799507260322570801e-02 3.672686591744422913e-02
8.495445251464843750e-01 -1.011792495846748352e-01 2.568910270929336548e-02
2.233518213033676147e-01 -5.827925354242324829e-02 -5.746396631002426147e-02
3.135845065116882324e-02 -6.655300408601760864e-02 5.291867256164550781e-02
-1.976516544818878174e-01 3.442294895648956299e-03 2.164787985384464264e-02
5.276303291320800781e-01 7.335538417100906372e-02 -3.162131085991859436e-02
8.245408535003662109e-02 -4.053718596696853638e-02 -5.296036228537559509e-02
7.885613441467285156e-01 -5.715652555227279663e-02 -5.948926508426666260e-02
5.628660917282104492e-01 -7.690007798373699188e-03 -7.201887667179107666e-02
6.706212759017944336e-01 -1.047627925872802734e-01 4.091521352529525757e-02
4.164736270904541016e-01 3.985168784856796265e-02 6.604294478893280029e-02
3.968451023101806641e-01 -5.920914560556411743e-02 7.473484426736831665e-02
1.014851927757263184e+00 -3.824568353593349457e-03 4.530068486928939819e-02
2.886816859245300293e-01 -1.159304752945899963e-01 1.070395484566688538e-02
7.075184583663940430e-01 6.010927259922027588e-02 -3.956054896116256714e-02
3.523230552673339844e-02 2.880441211163997650e-02 5.525556579232215881e-02
1.036759376525878906e+00 -1.680345274507999420e-02 4.392893239855766296e-02
8.682998418807983398e-01 2.840321697294712067e-02 5.104588717222213745e-02
6.389295458793640137e-01 7.490939646959304810e-02 2.505704388022422791e-02
1.874644458293914795e-01 -9.399058669805526733e-02 -3.120295703411102295e-02
-3.140905499458312988e-02 5.104970186948776245e-02 2.392793446779251099e-02
2.087088525295257568e-01 4.240641370415687561e-03 -6.336319446563720703e-02
7.369511127471923828e-01 -9.872582554817199707e-02 -3.546975925564765930e-02
2.515614628791809082e-01 6.533516198396682739e-02 -3.481739014387130737e-02
-1.584987342357635498e-01 -5.664030089974403381e-03 3.866921737790107727e-02
6.025786399841308594e-01 -3.101766109466552734e-02 7.780916243791580200e-02
2.197055518627166748e-01 -5.334927141666412354e-02 7.211381196975708008e-02
1.760024130344390869e-01 -4.069469869136810303e-03 7.416847348213195801e-02
5.263909101486206055e-01 -6.430953741073608398e-02 -6.346666067838668823e-02
1.453281342983245850e-01 5.871599540114402771e-03 7.105086743831634521e-02
2.996671199798583984e-02 -5.060650408267974854e-02 6.026965379714965820e-02
4.230803847312927246e-01 -1.138929352164268494e-01 -2.022446505725383759e-02
7.435486316680908203e-01 -1.133385226130485535e-01 -6.671104114502668381e-03
3.549398481845855713e-01 5.360714346170425415e-02 -5.009842664003372192e-02
2.219579219818115234e-01 -7.415712624788284302e-02 6.379216164350509644e-02
1.950944066047668457e-01 -5.389457568526268005e-03 -6.365604698657989502e-02
5.943951606750488281e-01 7.826677709817886353e-02 -1.911677420139312744e-02
5.990480184555053711e-01 5.590591579675674438e-02 -4.861338809132575989e-02
3.125497102737426758e-01 -1.439219340682029724e-03 7.813441753387451172e-02
3.653030991554260254e-01 8.386661112308502197e-02 2.233199542388319969e-03
2.666737437248229980e-01 7.828437536954879761e-02 -1.376562006771564484e-02
6.964168548583984375e-01 6.872942298650741577e-02 3.056757152080535889e-02
5.790592432022094727e-01 -3.343334048986434937e-02 -7.102862000465393066e-02
8.486629724502563477e-01 5.392096936702728271e-02 3.191745653748512268e-02
2.228754907846450806e-01 -1.108947694301605225e-01 2.016746811568737030e-02
-8.624255657196044922e-03 2.402335219085216522e-02 -3.979587182402610779e-02
6.858108043670654297e-01 -1.460085436701774597e-02 7.495222240686416626e-02
-1.425375640392303467e-01 -1.600202359259128571e-02 4.308320209383964539e-02
1.010930657386779785e+00 -7.446299493312835693e-02 2.882596850395202637e-02
1.094357490539550781e+00 -1.197263598442077637e-03 -3.011421114206314087e-02
6.564558744430541992e-01 -3.914024680852890015e-02 7.525993883609771729e-02
1.415133476257324219e-01 6.673070043325424194e-02 3.099752403795719147e-02
5.600320696830749512e-01 -5.543286353349685669e-02 7.482464611530303955e-02
9.762266874313354492e-01 -6.011420860886573792e-03 -5.074993148446083069e-02
5.124400258064270020e-01 -9.408628195524215698e-02 5.678360909223556519e-02
3.485573530197143555e-01 7.277818396687507629e-03 -6.839076429605484009e-02
3.650757074356079102e-01 1.631477847695350647e-03 -6.962522864341735840e-02
7.828244566917419434e-01 3.890827298164367676e-02 5.279559642076492310e-02
1.914535462856292725e-01 -1.046206578612327576e-01 -1.593136228621006012e-02
1.871738433837890625e-01 -1.088017076253890991e-01 -2.759255934506654739e-03
5.664884448051452637e-01 2.330832742154598236e-02 -6.628127396106719971e-02
5.421879291534423828e-01 6.987809389829635620e-02 -3.608106821775436401e-02
6.966223716735839844e-01 7.586394250392913818e-02 1.346275955438613892e-02
7.774326801300048828e-01 -9.748036414384841919e-02 4.083012789487838745e-02
-1.067789494991302490e-01 -7.022929191589355469e-02 1.297264732420444489e-02
2.619246244430541992e-01 -1.144300401210784912e-01 1.265946589410305023e-02
3.695129156112670898e-01 -8.296923339366912842e-02 -5.162453651428222656e-02
8.203685283660888672e-01 -3.737071901559829712e-02 6.671456247568130493e-02
3.375599980354309082e-01 6.560694426298141479e-02 -3.910957649350166321e-02
2.355205714702606201e-01 -8.393881469964981079e-02 5.847016721963882446e-02
5.632689595222473145e-01 7.604939490556716919e-02 2.884973026812076569e-02
1.099515795707702637e+00 1.827275939285755157e-02 9.898157790303230286e-03
9.931303262710571289e-01 9.941903874278068542e-03 -4.460685700178146362e-02
8.800987601280212402e-01 5.975267291069030762e-02 -1.485122367739677429e-02
1.106689095497131348e+00 -9.510640986263751984e-03 2.817773446440696716e-02
2.811303138732910156e-01 -1.085313037037849426e-01 -2.012856863439083099e-02
-1.294297277927398682e-01 8.145539090037345886e-03 4.126587510108947754e-02
8.219251036643981934e-02 -1.003336235880851746e-01 5.259260535240173340e-03
6.132227182388305664e-01 -2.577736601233482361e-02 7.775561511516571045e-02
5.686712265014648438e-01 4.197803884744644165e-02 6.267137825489044189e-02
2.620653212070465088e-01 5.997763574123382568e-02 -4.099959135055541992e-02
8.611868619918823242e-01 3.750649839639663696e-02 -4.576076567173004150e-02
2.846312522888183594e-01 8.167231827974319458e-02 6.435043178498744965e-03
4.263592660427093506e-01 -5.512290447950363159e-02 -6.582534313201904297e-02
3.069258630275726318e-01 -5.695497989654541016e-02 -6.192182749509811401e-02
7.119438052177429199e-01 -5.164510011672973633e-02 7.059613615274429321e-02
4.184135198593139648e-01 -2.767272293567657471e-02 -7.111023366451263428e-02
6.389220356941223145e-01 -6.993315368890762329e-02 6.773350387811660767e-02
5.935885906219482422e-01 -8.799047768115997314e-02 -5.032047256827354431e-02
1.369675695896148682e-01 -9.437725692987442017e-02 4.059116169810295105e-02
1.388773322105407715e-01 4.515112936496734619e-02 5.401591584086418152e-02
5.734494924545288086e-01 -9.495262056589126587e-04 -7.133546471595764160e-02
-9.659764170646667480e-02 -4.476447403430938721e-02 -2.837110310792922974e-02
1.142157673835754395e+00 -2.763748168945312500e-02 1.800128258764743805e-02
7.511532306671142578e-01 -9.993966668844223022e-02 -3.301579132676124573e-02
9.464344382286071777e-01 -7.594188302755355835e-02 -3.603400662541389465e-02
1.016947031021118164e+00 4.192311316728591919e-03 -4.314999654889106750e-02
3.488416075706481934e-01 -6.385659426450729370e-02 -6.083139777183532715e-02
4.990787506103515625e-01 4.644127935171127319e-02 -5.655843019485473633e-02
6.556840538978576660e-01 -8.374074846506118774e-02 -5.185876041650772095e-02
6.631334424018859863e-01 7.918766885995864868e-02 2.498080022633075714e-03
5.951344966888427734e-01 6.165203452110290527e-02 4.674080014228820801e-02
1.021416783332824707e+00 3.879792243242263794e-02 -1.210984028875827789e-02
7.780225276947021484e-01 5.251228809356689453e-02 4.242685064673423767e-02
1.104949235916137695e+00 -4.233266785740852356e-02 -2.689412049949169159e-02
1.052702546119689941e+00 -1.903736405074596405e-02 4.136542603373527527e-02
4.106266498565673828e-01 8.190849423408508301e-02 -1.427924446761608124e-02
3.489730358123779297e-01 -3.951187245547771454e-03 -6.978242844343185425e-02
6.996847391128540039e-01 6.884358078241348267e-02 -2.872524037957191467e-02
5.793973803520202637e-01 4.197213053703308105e-02 -5.824259668588638306e-02
6.153404116630554199e-01 7.543446123600006104e-02 2.622858062386512756e-02
2.791178822517395020e-01 -1.045733839273452759e-01 4.080894961953163147e-02
6.479885578155517578e-01 7.824781537055969238e-02 1.435842551290988922e-02
9.365475773811340332e-01 -4.860109090805053711e-02 5.415690317749977112e-02
6.912321448326110840e-01 -1.323946472257375717e-02 -6.984591484069824219e-02
3.533990383148193359e-01 -8.494637906551361084e-02 -4.974258318543434143e-02
1.031912207603454590e+00 -5.625451356172561646e-02 -3.595269098877906799e-02
1.016490459442138672e-01 -6.909878551959991455e-02 -4.307089000940322876e-02
-2.145144641399383545e-01 -1.983418129384517670e-02 1.561759412288665771e-02
6.865279674530029297e-01 -1.154581010341644287e-01 1.840591244399547577e-02
1.057590007781982422e+00 -6.730026751756668091e-02 -2.185384184122085571e-02
8.236016035079956055e-01 -8.195975795388221741e-03 -6.374754011631011963e-02
9.022979736328125000e-01 7.971355691552162170e-03 -5.528847500681877136e-02
4.432076513767242432e-01 -9.330917894840240479e-02 -4.602577537298202515e-02
4.481963217258453369e-01 9.299354627728462219e-03 7.714643329381942749e-02
5.634888410568237305e-01 -1.205592527985572815e-01 8.096107281744480133e-03
7.820571660995483398e-01 2.520172856748104095e-02 -5.832998827099800110e-02
2.490431070327758789e-02 -1.229184307157993317e-02 6.517098844051361084e-02
5.411784648895263672e-01 -7.873107492923736572e-02 -5.664296448230743408e-02
8.483052253723144531e-01 4.436299949884414673e-02 4.211977496743202209e-02
8.590275049209594727e-01 5.219351500272750854e-03 6.107771396636962891e-02
-1.296124756336212158e-01 -1.282275095582008362e-02 -2.919934689998626709e-02
7.818179726600646973e-01 -8.608698844909667969e-02 5.081512033939361572e-02
8.586668372154235840e-01 5.786886066198348999e-02 -2.460242435336112976e-02
3.556633889675140381e-01 -1.141280457377433777e-01 -1.548507809638977051e-02
9.642867445945739746e-01 -8.797787129878997803e-02 -1.870757155120372772e-02
9.776459932327270508e-01 6.083894520998001099e-03 -4.791820421814918518e-02
8.211050033569335938e-01 2.845427580177783966e-02 -5.433108285069465637e-02
7.535751461982727051e-01 -3.790666162967681885e-02 7.090438157320022583e-02
8.340550661087036133e-01 -8.525027334690093994e-02 4.667900502681732178e-02
3.688623309135437012e-01 -1.183786615729331970e-01 -2.089516725391149521e-03
6.354944705963134766e-01 7.157851755619049072e-02 -2.957916632294654846e-02
1.543432474136352539e-01 -3.125657513737678528e-02 -6.023951619863510132e-02
2.263800799846649170e-01 5.514609068632125854e-02 -4.299987852573394775e-02
2.573686242103576660e-01 6.027451902627944946e-02 4.835353791713714600e-02
1.152944445610046387e+00 -2.981236390769481659e-02 1.173868589103221893e-02
1.394194662570953369e-01 -7.319839298725128174e-02 5.918765068054199219e-02
-9.076455235481262207e-02 3.397359699010848999e-02 3.240807726979255676e-02
1.259940862655639648e-01 4.886195063591003418e-02 5.020439252257347107e-02
4.794331789016723633e-01 4.310987144708633423e-02 -5.842306464910507202e-02
-2.837470173835754395e-02 -7.132668979465961456e-03 5.958886072039604187e-02
9.768115282058715820e-01 -8.455425500869750977e-02 -2.112948149442672729e-02
8.259588479995727539e-01 4.009241610765457153e-02 4.799807071685791016e-02
9.122134447097778320e-01 4.037655144929885864e-02 3.687860816717147827e-02
1.529443264007568359e-01 7.118628174066543579e-02 -1.448924094438552856e-02
3.965634703636169434e-01 8.404803276062011719e-02 -2.732646185904741287e-03
4.232343137264251709e-01 1.482122577726840973e-02 7.583213597536087036e-02
7.370929718017578125e-01 6.314352154731750488e-02 3.449824452400207520e-02
1.104717254638671875e+00 -2.710893750190734863e-05 -2.681804634630680084e-02
7.127689719200134277e-01 -2.875170856714248657e-02 7.380399852991104126e-02
1.367006897926330566e-01 -6.748465448617935181e-02 -4.722720384597778320e-02
8.400751352310180664e-01 3.881806135177612305e-02 4.744338989257812500e-02
3.111749887466430664e-02 -4.922560229897499084e-02 -4.524223133921623230e-02
6.740497946739196777e-01 -4.172183573246002197e-02 -6.801746785640716553e-02
2.362070977687835693e-01 -5.010929703712463379e-02 7.364756613969802856e-02
3.084169626235961914e-01 3.489627689123153687e-02 6.732609868049621582e-02
3.582371473312377930e-01 -1.178447827696800232e-01 -3.253672737628221512e-03
-1.801550388336181641e-02 -6.786187738180160522e-02 4.526164755225181580e-02
1.041568279266357422e+00 -7.769212126731872559e-02 -1.132105104625225067e-02
9.562566280364990234e-01 -7.981017231941223145e-02 -3.104950115084648132e-02
6.098242998123168945e-01 6.386358290910720825e-03 -6.978425383567810059e-02
2.925809919834136963e-01 7.941783964633941650e-02 -1.351074129343032837e-02
3.788658380508422852e-01 7.189726829528808594e-02 -3.301975876092910767e-02
6.682906746864318848e-01 6.351356208324432373e-02 -3.837841749191284180e-02
3.619895279407501221e-01 -6.644497811794281006e-02 -6.016112118959426880e-02
1.092568039894104004e+00 -2.000622637569904327e-02 -3.398551791906356812e-02
6.343913674354553223e-01 -3.367673233151435852e-02 -7.020542770624160767e-02
3.463324010372161865e-01 -3.234700113534927368e-02 7.942983508110046387e-02
7.056052684783935547e-01 4.198158532381057739e-02 5.644020810723304749e-02
5.167576670646667480e-01 2.946227602660655975e-02 7.003460079431533813e-02
1.921975612640380859e-02 3.744353353977203369e-02 -3.605215996503829956e-02
4.516359865665435791e-01 4.622014611959457397e-02 -5.656159296631813049e-02
1.098482608795166016e+00 2.121915109455585480e-02 -2.332325559109449387e-03
2.367094457149505615e-01 -1.874916255474090576e-02 -6.598740071058273315e-02
2.013466060161590576e-01 -8.240015804767608643e-02 5.754981935024261475e-02
1.068729758262634277e+00 -1.133516244590282440e-02 3.744366765022277832e-02
1.104920625686645508e+00 -1.606702245771884918e-02 -3.091695532202720642e-02
1.474589705467224121e-01 -5.659473687410354614e-02 -5.312048271298408508e-02
8.037693500518798828e-01 4.275832325220108032e-02 -4.734629020094871521e-02
3.607829809188842773e-01 -1.121248211711645126e-02 7.984916865825653076e-02
2.441524565219879150e-01 7.740340381860733032e-02 2.062959223985671997e-02
5.798267722129821777e-01 1.965605281293392181e-02 7.222200930118560791e-02
2.438971698284149170e-01 -2.688232436776161194e-02 -6.577759236097335815e-02
8.883310556411743164e-01 2.539416588842868805e-02 -5.010540783405303955e-02
9.280942082405090332e-01 2.131762914359569550e-02 4.791791364550590515e-02
9.885284304618835449e-02 -6.983980536460876465e-02 5.783597379922866821e-02
7.922691106796264648e-01 -1.856282353401184082e-03 6.769534945487976074e-02
2.030113041400909424e-01 2.654576860368251801e-02 -5.751950293779373169e-02
9.623108506202697754e-01 1.107721216976642609e-02 -4.815798625349998474e-02
8.038877248764038086e-01 -8.884399384260177612e-02 -4.040345177054405212e-02
-2.044739425182342529e-01 -1.432953029870986938e-02 2.397243119776248932e-02
1.027181744575500488e-02 4.521159082651138306e-02 -2.855930104851722717e-02
2.419891655445098877e-01 -9.307799488306045532e-02 -3.703141212463378906e-02
3.273681402206420898e-01 4.400403797626495361e-02 -5.527625605463981628e-02
9.816513061523437500e-01 -7.045576721429824829e-02 -3.511779382824897766e-02
7.428174018859863281e-01 -4.017014056444168091e-02 -6.603997945785522461e-02
6.470782756805419922e-01 6.069835275411605835e-02 -4.252485930919647217e-02
1.118714094161987305e+00 1.123633980751037598e-02 -1.150138676166534424e-02
-5.651578307151794434e-02 -7.243747264146804810e-02 3.289822489023208618e-02
7.456071376800537109e-01 -1.078165546059608459e-01 -2.165981940925121307e-02
8.586627244949340820e-01 -2.582614868879318237e-02 6.464596092700958252e-02
-1.355024278163909912e-01 -5.688668042421340942e-02 -8.531106635928153992e-03
8.857879638671875000e-01 -1.031396985054016113e-01 5.489336326718330383e-03
6.102209091186523438e-01 3.526707738637924194e-02 6.487891823053359985e-02
3.369121551513671875e-01 -2.256091684103012085e-03 -6.930229812860488892e-02
-1.040295660495758057e-01 4.203135520219802856e-02 6.704944185912609100e-03
8.030227422714233398e-01 6.726238131523132324e-02 -1.583991013467311859e-02
1.709663867950439453e-01 5.992817878723144531e-02 -3.419617936015129089e-02
-6.254413723945617676e-02 -6.136714667081832886e-02 -2.493181079626083374e-02
6.322702765464782715e-02 -7.938970625400543213e-02 -3.094512596726417542e-02
2.926511168479919434e-01 -5.241668969392776489e-02 7.485935837030410767e-02
6.557789444923400879e-01 1.340769045054912567e-02 7.151299715042114258e-02
1.414633393287658691e-01 7.145120948553085327e-02 2.035188674926757812e-02
1.083057880401611328e+00 -3.723029792308807373e-02 -3.386640921235084534e-02
-1.526016294956207275e-01 2.701974473893642426e-02 -3.229807596653699875e-03
6.937913298606872559e-01 -1.099043041467666626e-01 3.137328103184700012e-02
5.619602799415588379e-01 -4.095809906721115112e-02 -6.998746097087860107e-02
-4.555943608283996582e-02 -7.652335613965988159e-02 3.015333041548728943e-02
1.161830127239227295e-01 -4.383702576160430908e-02 -5.491050705313682556e-02
2.433248162269592285e-01 8.461309596896171570e-03 -6.438384950160980225e-02
5.493265986442565918e-01 7.363145053386688232e-02 3.382798656821250916e-02
2.287950217723846436e-01 7.456170767545700073e-02 2.621238678693771362e-02
-4.270672798156738281e-05 -6.103409826755523682e-02 5.229313299059867859e-02
1.057605862617492676e+00 -2.058587968349456787e-03 -3.825249150395393372e-02
-9.085652232170104980e-02 -6.692618131637573242e-02 2.999257110059261322e-02
-6.408765912055969238e-02 -2.981271594762802124e-02 -3.866672143340110779e-02
7.427392005920410156e-01 5.328072607517242432e-02 4.502302780747413635e-02
1.093641221523284912e-01 -7.285876572132110596e-02 5.695360526442527771e-02
8.588701486587524414e-01 -6.581039726734161377e-02 5.596933886408805847e-02
4.158668518066406250e-01 6.815861910581588745e-02 -3.849411383271217346e-02
3.014093339443206787e-01 5.733995139598846436e-02 5.270197987556457520e-02
3.569639921188354492e-01 -5.600405484437942505e-02 -6.394508481025695801e-02
8.362027406692504883e-01 -3.201447427272796631e-03 -6.243880093097686768e-02
1.033472418785095215e+00 3.610507398843765259e-02 -1.250039972364902496e-02
-7.722112536430358887e-02 -4.595492035150527954e-02 4.846192896366119385e-02
9.587165117263793945e-01 -1.674109138548374176e-02 5.469990894198417664e-02
5.141211748123168945e-01 6.039448827505111694e-02 -4.647356644272804260e-02
7.177234888076782227e-01 7.585245370864868164e-02 -5.421014036983251572e-03
9.678885936737060547e-01 -7.261073216795921326e-03 5.247437581419944763e-02
3.562487065792083740e-01 1.536093093454837799e-02 7.532256841659545898e-02
6.874604821205139160e-01 -3.321668133139610291e-02 -6.899806112051010132e-02
2.859508991241455078e-01 7.504115253686904907e-02 -2.326807565987110138e-02
1.974566578865051270e-01 -6.058247387409210205e-02 -5.498901754617691040e-02
1.112126827239990234e+00 -5.642830580472946167e-02 1.427880860865116119e-02
3.387795090675354004e-01 -7.907984405755996704e-02 6.542187929153442383e-02
8.420987129211425781e-01 -3.648355603218078613e-02 6.520417332649230957e-02
6.117983460426330566e-01 -9.692550450563430786e-02 -4.271620884537696838e-02
6.061923503875732422e-01 -1.187300831079483032e-01 -5.973493214696645737e-03
1.023765802383422852e-01 -1.007136404514312744e-01 2.156148478388786316e-02
5.041917562484741211e-01 -8.203030377626419067e-02 -5.469333380460739136e-02
2.526018321514129639e-01 -1.036319285631179810e-01 -2.537251636385917664e-02
1.888928115367889404e-01 4.627154022455215454e-02 -4.694832488894462585e-02
6.452714204788208008e-01 5.968441069126129150e-02 4.603359475731849670e-02
4.322871863842010498e-01 -3.514383733272552490e-02 7.978272438049316406e-02
4.812858700752258301e-01 -2.604698389768600464e-02 -7.194867730140686035e-02
2.270075827836990356e-01 7.799530774354934692e-02 1.552624627947807312e-02
1.226760447025299072e-01 -8.994837105274200439e-02 -2.818050608038902283e-02
5.201141834259033203e-01 1.513710804283618927e-02 -6.887569278478622437e-02
1.033565044403076172e+00 2.690025977790355682e-02 2.507723309099674225e-02
5.898541808128356934e-01 -6.412889808416366577e-02 7.146906852722167969e-02
1.055686950683593750e+00 3.176701068878173828e-02 -1.007215306162834167e-02
8.845026493072509766e-01 7.735820487141609192e-03 5.805183202028274536e-02
5.991109609603881836e-01 -1.004354432225227356e-01 4.922967404127120972e-02
7.639144659042358398e-01 5.968037247657775879e-02 -3.526376560330390930e-02
4.471707642078399658e-01 -1.176581755280494690e-01 2.466744929552078247e-02
8.186290264129638672e-01 5.789569765329360962e-02 -3.112151473760604858e-02
4.381585121154785156e-02 -6.585287861526012421e-03 6.631182134151458740e-02
7.314159870147705078e-01 -1.049955561757087708e-01 3.574707359075546265e-02
8.211559653282165527e-01 -7.376087456941604614e-02 -4.996537417173385620e-02
9.219639301300048828e-01 -8.504871279001235962e-02 3.548203036189079285e-02
2.392835170030593872e-01 1.181328669190406799e-03 7.587791234254837036e-02
5.976811647415161133e-01 -1.200336441397666931e-01 5.750397220253944397e-03
1.905088722705841064e-01 -1.032166630029678345e-01 3.409377112984657288e-02
1.109363794326782227e+00 1.753849722445011139e-02 -9.466190822422504425e-04
1.019487380981445312e+00 -6.294726580381393433e-02 3.630229458212852478e-02
1.308849453926086426e-02 2.793493308126926422e-02 -4.072270542383193970e-02
8.594502210617065430e-01 4.763054847717285156e-02 3.758314251899719238e-02
4.683566689491271973e-01 -8.437888324260711670e-02 -5.292775481939315796e-02
9.093124866485595703e-01 -1.004843637347221375e-01 -1.070533413439989090e-03
4.790220558643341064e-01 3.193555772304534912e-02 -6.358821690082550049e-02
4.562569558620452881e-01 -1.121140494942665100e-01 3.678340092301368713e-02
8.404954671859741211e-01 -9.490805119276046753e-02 -3.052740916609764099e-02
2.227388918399810791e-01 -1.123370826244354248e-01 9.425835683941841125e-03
5.801768302917480469e-01 4.483116418123245239e-02 6.060039252042770386e-02
6.420427560806274414e-01 -4.289663583040237427e-02 -6.853488087654113770e-02
7.247027754783630371e-02 5.327936261892318726e-02 4.067894071340560913e-02
5.181902050971984863e-01 -1.198478043079376221e-01 -5.557963158935308456e-03
7.652696967124938965e-01 -1.131341904401779175e-01 2.629655413329601288e-03
4.417524635791778564e-01 -6.573347002267837524e-02 -6.226237118244171143e-02
8.473855257034301758e-01 -1.532766968011856079e-03 -6.147533655166625977e-02
-1.081452667713165283e-01 1.296934857964515686e-02 -2.843593060970306396e-02
8.473106622695922852e-01 -1.061915457248687744e-01 1.160972192883491516e-02
6.516462564468383789e-02 -7.266960106790065765e-03 -5.461547896265983582e-02
7.950965762138366699e-01 7.025753706693649292e-02 -4.795717541128396988e-03
5.381079316139221191e-01 -6.695142388343811035e-02 -6.238245218992233276e-02
5.174397826194763184e-01 8.023900538682937622e-02 2.192746289074420929e-02
7.918782830238342285e-01 -4.560147970914840698e-02 6.736063212156295776e-02
7.817385196685791016e-01 -1.068459749221801758e-01 2.637067250907421112e-02
5.581991076469421387e-01 7.457544654607772827e-02 -2.876196801662445068e-02
1.088446736335754395e+00 -6.835094839334487915e-02 -4.099926445633172989e-03
-4.525825381278991699e-02 1.865256391465663910e-02 5.088185518980026245e-02
4.790207147598266602e-01 -9.331315755844116211e-02 5.763414502143859863e-02
5.515924692153930664e-01 -4.527182877063751221e-02 7.724511623382568359e-02
-2.102166414260864258e-02 1.634397543966770172e-02 -4.119381681084632874e-02
8.431487083435058594e-01 -1.043258383870124817e-01 -1.356376707553863525e-02
-1.058886349201202393e-01 -4.589528962969779968e-02 4.331439733505249023e-02
7.675364613533020020e-02 -3.074029088020324707e-02 6.864140182733535767e-02
4.118898808956146240e-01 -1.174184307456016541e-01 2.391400560736656189e-02
3.416087329387664795e-01 -1.179443970322608948e-01 1.252391375601291656e-02
9.514502286911010742e-01 -4.099258780479431152e-02 5.416693910956382751e-02
2.006348073482513428e-01 -8.400093764066696167e-02 -4.171127080917358398e-02
5.181353688240051270e-01 -3.655024617910385132e-02 -7.086632400751113892e-02
5.264049768447875977e-01 8.218111842870712280e-02 -1.173635944724082947e-02
1.874620914459228516e-01 4.673448950052261353e-02 5.599939078092575073e-02
3.742250800132751465e-01 1.543159596621990204e-02 7.547651976346969604e-02
8.802649974822998047e-01 1.760978251695632935e-03 -5.853591859340667725e-02
9.038715958595275879e-01 -9.373248368501663208e-02 -2.267717011272907257e-02
7.586551904678344727e-01 -8.846341073513031006e-02 5.082651972770690918e-02
-7.143673300743103027e-02 3.984931856393814087e-02 -1.710201427340507507e-02
9.081321954727172852e-01 -5.034793913364410400e-02 -5.348990857601165771e-02
1.136692643165588379e+00 -7.175887003540992737e-03 -1.864869892597198486e-02
-1.193739473819732666e-01 -5.674333311617374420e-03 4.679007455706596375e-02
3.419463038444519043e-01 8.335590362548828125e-02 3.777754027396440506e-04
4.303640723228454590e-01 4.347697645425796509e-02 -5.788077786564826965e-02
1.027007699012756348e-01 -2.213315665721893311e-02 7.102788984775543213e-02
5.539538860321044922e-01 6.179296225309371948e-02 -4.462274909019470215e-02
5.348784923553466797e-01 -1.333227939903736115e-02 7.939989864826202393e-02
7.479038238525390625e-01 -1.129370108246803284e-01 1.546885631978511810e-02
3.018112778663635254e-01 -4.562725871801376343e-02 7.666365057229995728e-02
8.230925798416137695e-01 6.551896035671234131e-02 -1.556811295449733734e-02
7.010044455528259277e-01 -2.167745865881443024e-02 -6.951577216386795044e-02
7.943090200424194336e-01 -2.753839828073978424e-02 -6.537313759326934814e-02
4.676371812820434570e-03 -8.998328447341918945e-02 1.695481501519680023e-02
-1.433356702327728271e-01 9.299341589212417603e-03 3.764968737959861755e-02
1.903732419013977051e-01 2.382394485175609589e-02 -5.772441625595092773e-02
1.120954394340515137e+00 -1.834893785417079926e-02 -2.678450942039489746e-02
8.483250141143798828e-01 -5.899052321910858154e-02 5.958700925111770630e-02
1.028772950172424316e+00 -7.980876415967941284e-02 -1.259671151638031006e-02
5.845099687576293945e-02 -9.509237110614776611e-02 -6.898019928485155106e-03
-1.640093028545379639e-01 -5.273841321468353271e-02 1.690675737336277962e-03
2.926763296127319336e-01 -1.157153695821762085e-01 -1.149359159171581268e-04
1.061378955841064453e+00 2.189019136130809784e-02 -2.397477068006992340e-02
8.635418415069580078e-01 -5.028176307678222656e-02 -5.705158412456512451e-02
9.293673038482666016e-01 -4.068529233336448669e-02 -5.413743108510971069e-02
1.566681265830993652e-01 -8.357144892215728760e-02 -3.819924592971801758e-02
8.415390253067016602e-01 5.823902785778045654e-02 -2.712085098028182983e-02
2.263367474079132080e-01 -6.783971190452575684e-02 -5.350139737129211426e-02
8.791874647140502930e-01 -8.847419172525405884e-02 3.842696920037269592e-02
1.913086175918579102e-01 -7.353419065475463867e-02 -4.812310263514518738e-02
6.637667417526245117e-01 -1.046901941299438477e-01 -3.251449391245841980e-02
7.240121364593505859e-01 -8.361243456602096558e-02 5.659958347678184509e-02
1.130957007408142090e+00 -3.408288955688476562e-02 2.124432660639286041e-02
7.734246253967285156e-01 4.126545041799545288e-03 -6.483270227909088135e-02
7.639631628990173340e-01 -1.093145906925201416e-01 -1.601406373083591461e-02
8.193403482437133789e-01 -2.851750515401363373e-02 -6.394522637128829956e-02
1.044935703277587891e+00 2.273664437234401703e-02 2.610295079648494720e-02
4.931206703186035156e-01 -7.865277677774429321e-02 -5.660278350114822388e-02
-3.416189551353454590e-02 -6.463117897510528564e-02 4.504283145070075989e-02
8.128088712692260742e-01 -9.697647392749786377e-02 -3.105344623327255249e-02
2.705517411231994629e-01 1.168725080788135529e-02 -6.494472920894622803e-02
6.561453342437744141e-01 -5.866640061140060425e-02 -6.397528946399688721e-02
7.815077900886535645e-01 7.160359621047973633e-02 4.886933602392673492e-04
4.072224795818328857e-01 -3.511177003383636475e-02 -7.002437859773635864e-02
-5.180910229682922363e-02 -1.797645166516304016e-02 5.738529935479164124e-02
1.408343911170959473e-01 5.453394353389739990e-02 4.641475901007652283e-02
4.257116913795471191e-01 -1.203216537833213806e-01 3.792089177295565605e-03
9.381012916564941406e-01 -8.049085736274719238e-04 -5.393105372786521912e-02
4.374045431613922119e-01 3.790132701396942139e-03 7.830777019262313843e-02
5.272772312164306641e-01 -1.151065677404403687e-01 -1.970401220023632050e-02
3.482682108879089355e-01 -9.487618505954742432e-02 -4.170287027955055237e-02
5.766334533691406250e-01 8.222161233425140381e-02 7.611389737576246262e-03
3.860942125320434570e-01 8.375369757413864136e-02 9.418038651347160339e-03
-6.888940930366516113e-02 -7.591857574880123138e-03 -3.944187238812446594e-02
3.710831403732299805e-01 6.427405774593353271e-02 -4.159955307841300964e-02
2.851166725158691406e-01 -4.449366033077239990e-02 -6.464859098196029663e-02
9.032714962959289551e-01 4.640308767557144165e-02 -3.274443000555038452e-02
5.937221050262451172e-01 8.175393193960189819e-02 -4.661306273192167282e-03
6.515772342681884766e-01 -6.893207132816314697e-02 6.767509877681732178e-02
4.519031941890716553e-01 -1.207446679472923279e-01 6.205273792147636414e-03
4.745959341526031494e-01 -4.705051332712173462e-02 -6.863193958997726440e-02
1.042656302452087402e+00 -6.416726857423782349e-02 -2.863622084259986877e-02
3.796451091766357422e-01 -1.155029013752937317e-01 -1.400731876492500305e-02
1.527777016162872314e-01 1.872629486024379730e-02 -5.691987648606300354e-02
3.507056236267089844e-01 -1.185203194618225098e-01 6.080705206841230392e-03
-1.213128268718719482e-01 -6.682100892066955566e-02 1.127011515200138092e-02
8.774613142013549805e-01 -2.796639688313007355e-02 -6.024639308452606201e-02
2.335029840469360352e-02 6.219589710235595703e-02 -6.868219934403896332e-04
7.874009609222412109e-01 -1.557221636176109314e-02 -6.608878076076507568e-02
5.295286178588867188e-01 -1.649086736142635345e-02 -7.243440300226211548e-02
1.064093828201293945e+00 -2.220566943287849426e-02 3.939678519964218140e-02
9.163044691085815430e-01 3.482643514871597290e-03 -5.512496829032897949e-02
1.004395008087158203e+00 -2.737995237112045288e-04 4.597201943397521973e-02
-3.998056054115295410e-02 3.171666711568832397e-02 -3.097831457853317261e-02
2.091532349586486816e-01 1.280146464705467224e-02 7.235860824584960938e-02
3.537723720073699951e-01 -7.958415895700454712e-02 6.548076122999191284e-02
-1.345577836036682129e-02 2.420568838715553284e-03 -4.558659717440605164e-02
1.047864675521850586e+00 1.296073943376541138e-02 -3.405953571200370789e-02
3.743650913238525391e-01 8.313849568367004395e-02 1.254275068640708923e-02
7.448357343673706055e-01 -2.479221485555171967e-02 7.230141013860702515e-02
2.941535115242004395e-01 3.573641180992126465e-02 6.658989936113357544e-02
-5.033519864082336426e-02 -1.781931519508361816e-02 -4.209215193986892700e-02
3.985042572021484375e-01 -1.148693263530731201e-01 2.997073717415332794e-02
6.051287651062011719e-01 -4.446882754564285278e-02 -6.884369999170303345e-02
3.779351413249969482e-01 -2.895905077457427979e-02 -7.019014656543731689e-02
5.579587817192077637e-02 -1.837896555662155151e-02 -5.382982641458511353e-02
3.830826580524444580e-01 -7.068956643342971802e-02 -5.884617567062377930e-02
9.313392639160156250e-01 -9.729172289371490479e-02 -5.308788735419511795e-03
8.673186302185058594e-01 -6.192663311958312988e-02 -5.253079161047935486e-02
1.058231472969055176e+00 -2.794179692864418030e-02 -4.018217325210571289e-02
2.831411361694335938e-02 5.558265745639801025e-02 3.083703666925430298e-02
1.263045668601989746e-01 2.476069517433643341e-02 -5.305641517043113708e-02
6.754348278045654297e-01 -7.523893564939498901e-02 -5.630204081535339355e-02
6.346471905708312988e-01 -5.984533578157424927e-02 -6.403909623622894287e-02
1.083482623100280762e+00 7.243182510137557983e-03 2.737917564809322357e-02
-5.478104948997497559e-02 -6.968624144792556763e-02 -1.890997216105461121e-02
8.560875654220581055e-01 -4.833815246820449829e-02 6.202052161097526550e-02
1.807500422000885010e-01 -5.132563412189483643e-02 7.089308649301528931e-02
5.732617378234863281e-01 -2.136869169771671295e-02 7.887052744626998901e-02
-9.255364537239074707e-02 5.262086167931556702e-03 4.890596494078636169e-02
3.305708169937133789e-01 -4.841448739171028137e-02 7.668747752904891968e-02
4.274342358112335205e-01 -1.163209006190299988e-01 2.768315374851226807e-02
4.655429720878601074e-01 5.816291272640228271e-02 5.352545529603958130e-02
3.324303030967712402e-01 5.454413592815399170e-02 5.577714741230010986e-02
5.768491625785827637e-01 -5.856099724769592285e-02 7.358119636774063110e-02
6.550392508506774902e-02 -9.754328429698944092e-02 1.829539611935615540e-02
1.619068980216979980e-01 -7.025066763162612915e-02 -4.777911677956581116e-02
5.358016490936279297e-01 -9.871517121791839600e-02 5.251652374863624573e-02
9.633219242095947266e-02 1.108447834849357605e-02 6.690276414155960083e-02
7.265393733978271484e-01 4.145536571741104126e-02 -5.337687209248542786e-02
4.414665400981903076e-01 -4.036982730031013489e-02 -6.969100981950759888e-02
7.845975756645202637e-01 -7.067278772592544556e-02 -5.394968762993812561e-02
1.757973730564117432e-01 4.872435331344604492e-02 -4.432697966694831848e-02
7.351016998291015625e-02 -7.795313000679016113e-02 -3.359660878777503967e-02
5.070793628692626953e-01 -1.088251620531082153e-01 -3.038928657770156860e-02
1.109179139137268066e+00 1.093935221433639526e-02 1.535907573997974396e-02
1.097868323326110840e+00 -5.078498274087905884e-02 -2.436137944459915161e-02
-4.045793414115905762e-02 4.080303758382797241e-02 -2.346630021929740906e-02
-7.104435563087463379e-02 -3.846172243356704712e-02 -3.536863997578620911e-02
1.643941998481750488e-01 -2.498291805386543274e-02 -6.162698566913604736e-02
2.406443655490875244e-01 -1.075829789042472839e-01 3.221438452601432800e-02
7.536951899528503418e-01 -1.112508997321128845e-01 -1.236892677843570709e-02
4.842674732208251953e-01 -6.554421782493591309e-02 -6.282088160514831543e-02
8.756884336471557617e-01 6.236181408166885376e-02 -4.655456636101007462e-03
9.833450317382812500e-01 1.569062285125255585e-02 4.305126890540122986e-02
2.964514493942260742e-01 9.430581703782081604e-03 7.582478970289230347e-02
4.315208196640014648e-01 3.805806487798690796e-02 6.695683300495147705e-02
9.072154760360717773e-01 5.442576110363006592e-02 1.879374310374259949e-02
2.235311567783355713e-01 -9.548288583755493164e-02 -3.302018344402313232e-02
3.319722414016723633e-01 -1.062401086091995239e-01 -2.803620696067810059e-02
6.024921536445617676e-01 -1.282167993485927582e-02 7.781940698623657227e-02
4.147094488143920898e-01 -7.524359971284866333e-02 -5.734324455261230469e-02
9.944773912429809570e-01 -7.354027032852172852e-02 3.330946713685989380e-02
2.172905802726745605e-01 6.978382915258407593e-02 3.413517028093338013e-02
7.762221097946166992e-01 -1.092809140682220459e-01 -1.403439790010452271e-02
6.811847090721130371e-01 -1.174691691994667053e-01 5.773138254880905151e-03
-1.142291128635406494e-01 2.168363519012928009e-02 -2.263570204377174377e-02
1.075664043426513672e+00 -7.139589637517929077e-02 7.815540768206119537e-03
3.014258146286010742e-01 -1.160042509436607361e-01 1.546977087855339050e-02
-1.193409860134124756e-01 9.927192702889442444e-03 -2.729337289929389954e-02
3.046166300773620605e-01 -7.510813325643539429e-02 -5.380593240261077881e-02
5.924901366233825684e-02 -8.956528455018997192e-02 3.519064560532569885e-02
4.189162552356719971e-01 -8.817946910858154297e-02 -4.946067184209823608e-02
4.060087203979492188e-01 -9.689381718635559082e-02 5.424799397587776184e-02
7.104278206825256348e-01 -8.562809973955154419e-02 5.607715249061584473e-02
5.987954139709472656e-01 8.173715323209762573e-02 5.154410377144813538e-03
4.389730095863342285e-02 6.496524065732955933e-02 7.805485744029283524e-03
4.428028762340545654e-01 7.718411833047866821e-02 3.060688078403472900e-02
-4.109385609626770020e-02 -5.531011521816253662e-02 4.972432553768157959e-02
5.658926367759704590e-01 5.714097619056701660e-02 -4.844010993838310242e-02
1.937229335308074951e-01 7.666670531034469604e-02 1.326106488704681396e-02
9.916092157363891602e-01 -8.319751918315887451e-02 2.273836918175220490e-02
1.998479962348937988e-01 1.901848427951335907e-02 7.016505300998687744e-02
8.736779689788818359e-01 -6.531772762537002563e-02 5.479061976075172424e-02
1.600344777107238770e-01 5.115944892168045044e-02 -4.123991355299949646e-02
9.109736084938049316e-01 -6.440474838018417358e-02 5.131477117538452148e-02
6.271349191665649414e-01 -1.341558806598186493e-02 7.710329443216323853e-02
-1.952596008777618408e-01 -3.025092370808124542e-02 -6.340222898870706558e-03
3.307967185974121094e-01 -6.708158552646636963e-02 -5.884423106908798218e-02
3.017338216304779053e-01 1.888259314000606537e-02 -6.443129479885101318e-02
4.134920239448547363e-02 -4.845015332102775574e-02 6.206762790679931641e-02
3.510614633560180664e-01 6.263998150825500488e-02 -4.256564006209373474e-02
4.937909245491027832e-01 1.255776360630989075e-02 -6.946730613708496094e-02
2.918837964534759521e-01 -1.974950917065143585e-02 -6.827554851770401001e-02
3.179234266281127930e-02 6.359783560037612915e-02 7.690527476370334625e-03
1.323280036449432373e-01 5.277098715305328369e-02 -3.736209869384765625e-02
5.696568489074707031e-01 7.978690415620803833e-02 1.954506523907184601e-02
-1.472340524196624756e-01 -2.946734428405761719e-02 -2.310592681169509888e-02
1.086181640625000000e+00 -6.817257404327392578e-02 8.810199797153472900e-03
8.946503400802612305e-01 -3.552690893411636353e-02 -5.804488435387611389e-02
9.828785061836242676e-02 -1.021281927824020386e-01 9.403800591826438904e-03
8.136227726936340332e-01 -9.405730664730072021e-02 4.076671600341796875e-02
3.111584186553955078e-01 8.210297673940658569e-02 -4.422342870384454727e-03
6.939589977264404297e-02 -5.647563189268112183e-02 -4.635072872042655945e-02
1.134310245513916016e+00 -5.076259374618530273e-02 -6.563876289874315262e-03
4.137070477008819580e-01 7.465248554944992065e-02 3.498898074030876160e-02
7.744401097297668457e-01 9.002193808555603027e-03 6.647449731826782227e-02
6.882371902465820312e-01 3.648480027914047241e-02 6.069215387105941772e-02
6.829297542572021484e-01 -6.880428642034530640e-02 6.641765683889389038e-02
8.056461811065673828e-02 -6.974975764751434326e-02 -4.045803472399711609e-02
2.807667851448059082e-02 -9.185512363910675049e-02 2.221855334937572479e-02
-8.972045779228210449e-02 3.086986951529979706e-02 -2.167030051350593567e-02
6.516156196594238281e-01 -9.589423984289169312e-02 -4.254511743783950806e-02
9.550971984863281250e-01 2.201560884714126587e-03 -5.154655501246452332e-02
3.718244731426239014e-01 -1.974898763000965118e-02 8.026584982872009277e-02
1.865215301513671875e-01 -1.451293192803859711e-02 -6.345698982477188110e-02
2.600968480110168457e-01 -1.125737875699996948e-01 -7.143443915992975235e-03
-1.823055744171142578e-02 5.170935392379760742e-02 2.657459303736686707e-02
5.011127591133117676e-01 -1.008023172616958618e-01 -3.991569951176643372e-02
1.002773642539978027e-01 4.414319992065429688e-02 5.170261859893798828e-02
4.074490666389465332e-01 5.340325087308883667e-02 -5.145300552248954773e-02
1.095566391944885254e+00 -2.875266224145889282e-02 3.252495825290679932e-02
6.930695176124572754e-01 7.642237842082977295e-02 -1.086522638797760010e-02
6.884210705757141113e-01 2.908365242183208466e-02 -6.126194447278976440e-02
3.730346560478210449e-01 7.819093763828277588e-02 2.792012505233287811e-02
2.730465531349182129e-01 -8.066243678331375122e-02 -4.890669882297515869e-02
7.764812111854553223e-01 -6.066045165061950684e-02 -5.883302539587020874e-02
9.049689769744873047e-02 2.025479264557361603e-02 6.361897289752960205e-02
5.431732535362243652e-02 -6.866958737373352051e-02 5.419992655515670776e-02
3.901567757129669189e-01 -9.035379625856876373e-03 7.992845773696899414e-02
3.181694447994232178e-01 -8.461733907461166382e-02 6.150664389133453369e-02
6.193630695343017578e-01 -1.051479950547218323e-01 -3.368310630321502686e-02
7.224427461624145508e-01 7.293223589658737183e-02 1.789233088493347168e-02
7.146224975585937500e-01 -1.465641893446445465e-02 -6.912401318550109863e-02
8.834869861602783203e-01 4.711675643920898438e-02 3.456762060523033142e-02
4.176963865756988525e-01 4.812789708375930786e-02 -5.505818873643875122e-02
9.302121400833129883e-01 2.939053811132907867e-02 -4.326235875487327576e-02
1.672830879688262939e-01 3.665749728679656982e-02 -5.094126611948013306e-02
5.564872622489929199e-01 8.004264533519744873e-02 1.991667598485946655e-02
7.002988457679748535e-02 -9.455996006727218628e-02 -1.171922497451305389e-02
1.046896278858184814e-01 -9.287351742386817932e-03 -5.794316902756690979e-02
3.143904209136962891e-01 -4.145105183124542236e-02 -6.643071770668029785e-02
5.249618291854858398e-01 -4.536001384258270264e-02 7.767407596111297607e-02
-1.374646723270416260e-01 -6.238974630832672119e-02 6.611581426113843918e-03
-2.776691317558288574e-02 -8.316368609666824341e-02 2.322417870163917542e-02
2.384158819913864136e-01 2.429140172898769379e-02 -6.016779690980911255e-02
-1.784121990203857422e-02 -4.181219264864921570e-02 5.794872343540191650e-02
6.632506847381591797e-02 1.428263448178768158e-02 -5.132989585399627686e-02
2.543581426143646240e-01 -1.141202002763748169e-01 3.680447582155466080e-03
8.548594713211059570e-01 -5.774198472499847412e-02 -5.516513437032699585e-02
2.731655836105346680e-01 7.748077064752578735e-02 2.375328913331031799e-02
3.111703395843505859e-01 -1.089689880609512329e-01 -2.218045666813850403e-02
3.448590040206909180e-01 -4.327860474586486816e-02 -6.703218817710876465e-02
-1.771813929080963135e-01 -3.866725042462348938e-02 -9.344954043626785278e-03
1.001513242721557617e+00 -8.572793751955032349e-02 1.371525786817073822e-02
6.947647333145141602e-01 5.093328654766082764e-02 -4.862334951758384705e-02
5.363270640373229980e-02 5.288011580705642700e-02 3.864562511444091797e-02
5.934181213378906250e-01 -4.536321386694908142e-02 -6.880079954862594604e-02
1.947091519832611084e-01 5.811064690351486206e-02 -3.809676691889762878e-02
7.200511693954467773e-01 4.549062252044677734e-02 5.312431976199150085e-02
9.468634724617004395e-01 2.971602603793144226e-03 5.273866653442382812e-02
6.316621899604797363e-01 2.723545394837856293e-02 -6.374672055244445801e-02
6.564357876777648926e-02 -5.887842923402786255e-02 6.038826704025268555e-02
5.522046089172363281e-01 2.029908634722232819e-02 -6.733825802803039551e-02
1.037272512912750244e-01 -9.003817290067672729e-02 -2.541258186101913452e-02
9.997721910476684570e-01 -8.720071613788604736e-02 -6.083327811211347580e-03
2.986848354339599609e-03 -6.964483112096786499e-02 -3.026986867189407349e-02
1.127833604812622070e+00 4.947528243064880371e-03 1.207139715552330017e-02
6.503065824508666992e-01 3.657233715057373047e-02 6.255335360765457153e-02
5.193247199058532715e-01 -8.016552031040191650e-02 6.580967456102371216e-02
8.905304670333862305e-01 5.230274051427841187e-02 -2.738660573959350586e-02
7.791322469711303711e-01 5.170940607786178589e-02 -4.221986606717109680e-02
1.988700032234191895e-01 -1.123669091612100601e-02 7.579556852579116821e-02
9.722872972488403320e-01 9.561430662870407104e-03 4.733458161354064941e-02
2.860521674156188965e-01 2.071926556527614594e-02 7.246752083301544189e-02
8.563638329505920410e-01 -7.975039072334766388e-03 6.386762112379074097e-02
4.794552326202392578e-01 1.111245341598987579e-02 7.650254666805267334e-02
5.893413424491882324e-01 -9.150849282741546631e-02 5.719295516610145569e-02
8.526936173439025879e-01 6.321956217288970947e-02 1.277824491262435913e-02
