-1.564929038286209106e-01 -1.727645844221115112e-01 -3.907146453857421875e-01
-8.803738355636596680e-01 1.424678415060043335e-02 -2.896184027194976807e-01
4.024921059608459473e-01 -8.798463270068168640e-03 -7.126295566558837891e-01
2.001435607671737671e-01 1.002353429794311523e-01 -6.713726520538330078e-01
5.189120173454284668e-01 1.105818077921867371e-01 4.173543453216552734e-01
8.956105113029479980e-01 -4.622737411409616470e-03 1.625799238681793213e-01
4.805004596710205078e-01 1.538524478673934937e-01 1.682861596345901489e-01
-1.372861117124557495e-01 -1.795699149370193481e-01 -3.600092530250549316e-01
-5.697682499885559082e-01 2.157467156648635864e-01 -1.577893048524856567e-01
-8.091006875038146973e-01 1.793059110641479492e-01 5.654051154851913452e-02
7.650632858276367188e-01 -1.716972738504409790e-01 -8.292467892169952393e-02
-5.443185567855834961e-01 2.107573896646499634e-01 -2.452821731567382812e-01
5.584611296653747559e-01 8.675082027912139893e-02 -4.712091386318206787e-01
2.940950728952884674e-02 1.159951165318489075e-01 -6.847834587097167969e-01
-6.665053963661193848e-01 -1.097885668277740479e-01 -1.295209378004074097e-01
-6.785114407539367676e-01 1.725972741842269897e-01 -3.617290258407592773e-01
-8.094864487648010254e-01 1.607353538274765015e-01 2.432866841554641724e-01
-1.639912277460098267e-01 2.316016256809234619e-01 3.179007768630981445e-02
2.258230149745941162e-01 -1.480918005108833313e-02 7.841680049896240234e-01
2.028970271348953247e-01 1.173369213938713074e-01 -6.302914023399353027e-01
-3.939072787761688232e-02 -1.193794757127761841e-01 -6.419604420661926270e-01
-6.928858160972595215e-01 -1.042873412370681763e-01 -9.596622735261917114e-02
-6.085609197616577148e-01 3.268608078360557556e-02 6.395726203918457031e-01
-8.668707609176635742e-01 1.364630311727523804e-01 -2.410052567720413208e-01
-4.885424673557281494e-01 -1.428774148225784302e-01 2.844412028789520264e-01
-8.025991916656494141e-01 1.611929088830947876e-01 -2.517881393432617188e-01
2.695744931697845459e-01 1.820273101329803467e-01 -2.815250754356384277e-01
-3.063219040632247925e-02 2.256005704402923584e-01 1.759106665849685669e-02
-2.703835964202880859e-01 -1.908207088708877563e-01 1.030292659997940063e-01
2.248794585466384888e-01 1.192780807614326477e-01 6.104751825332641602e-01
7.591588497161865234e-01 -1.689727306365966797e-01 1.726036071777343750e-01
-2.581705711781978607e-02 -1.722167134284973145e-01 -4.559916555881500244e-01
-5.077231526374816895e-01 2.190956175327301025e-01 1.775177270174026489e-01
-4.173206686973571777e-01 -1.692890524864196777e-01 -3.126121684908866882e-02
-2.620002925395965576e-01 -3.800478205084800720e-02 -7.323847413063049316e-01
-4.134140312671661377e-01 2.309579253196716309e-01 2.057003229856491089e-02
-3.180885612964630127e-01 1.646230518817901611e-01 5.616158246994018555e-01
-8.680999875068664551e-01 -3.623853996396064758e-02 1.291772723197937012e-01
4.414594769477844238e-01 1.672662496566772461e-01 -6.297113001346588135e-02
-3.158006072044372559e-01 1.432228088378906250e-01 -6.272700428962707520e-01
7.503888010978698730e-02 2.030927985906600952e-01 -2.954892516136169434e-01
-5.288321971893310547e-01 2.146897912025451660e-01 2.098399251699447632e-01
-9.770011156797409058e-02 -2.101611196994781494e-01 5.625262111425399780e-02
3.371266424655914307e-01 -2.206500321626663208e-01 1.600689888000488281e-01
4.609004855155944824e-01 -2.183403819799423218e-01 4.651191830635070801e-02
8.383405804634094238e-01 4.495370760560035706e-02 -8.261666446924209595e-02
1.183242276310920715e-01 -1.279136836528778076e-01 6.737573742866516113e-01
-6.008444428443908691e-01 -7.959213107824325562e-02 -4.358613789081573486e-01
1.698575913906097412e-01 2.035129517316818237e-01 1.564104706048965454e-01
-8.729145526885986328e-01 4.360549151897430420e-02 3.655185401439666748e-01
2.817632555961608887e-01 -2.127985507249832153e-01 -2.329224497079849243e-01
-9.269555807113647461e-01 -4.500434268265962601e-03 3.973462060093879700e-02
-1.727559268474578857e-01 -1.905349493026733398e-01 -2.411258071660995483e-01
6.872464418411254883e-01 -2.854381501674652100e-02 5.482195019721984863e-01
-6.215568780899047852e-01 2.129305005073547363e-01 -1.024088338017463684e-01
-3.540458381175994873e-01 2.326516211032867432e-01 -4.290749505162239075e-02
-4.659165441989898682e-02 -2.077216207981109619e-01 2.208843827247619629e-01
3.380497992038726807e-01 1.790302544832229614e-01 -1.985408365726470947e-01
6.320418715476989746e-01 1.224040538072586060e-01 7.503816485404968262e-02
-6.695260107517242432e-02 8.355093002319335938e-02 -7.494672536849975586e-01
-6.575255393981933594e-01 7.379860430955886841e-02 -5.808721780776977539e-01
-2.934372127056121826e-01 1.632425934076309204e-01 5.695684552192687988e-01
-2.212346345186233521e-01 -1.240439862012863159e-01 -5.704136490821838379e-01
-9.625690579414367676e-01 3.276235237717628479e-02 -2.533074468374252319e-02
1.124928072094917297e-01 -1.092850565910339355e-01 -6.803913116455078125e-01
-2.964863479137420654e-01 -1.882974207401275635e-01 -9.690746665000915527e-04
3.262180089950561523e-01 -1.684727966785430908e-01 -4.927636384963989258e-01
6.086399406194686890e-02 -2.204054445028305054e-01 7.401072978973388672e-02
-3.507395684719085693e-01 -1.506729125976562500e-01 4.128324389457702637e-01
3.275771737098693848e-01 1.765804290771484375e-01 2.323533296585083008e-01
9.040347337722778320e-01 -5.516856908798217773e-02 2.288094013929367065e-01
-6.170719265937805176e-01 2.154218554496765137e-01 -3.344882652163505554e-02
-8.534186482429504395e-01 -9.143844246864318848e-03 -2.866632342338562012e-01
2.524221241474151611e-01 -1.613670289516448975e-01 -5.309609770774841309e-01
-5.659741163253784180e-01 1.522731482982635498e-01 -5.159239172935485840e-01
4.013370871543884277e-01 1.677041798830032349e-01 1.894620358943939209e-01
-7.383618354797363281e-01 1.408326923847198486e-01 4.182389974594116211e-01
8.575575947761535645e-01 -1.403876394033432007e-02 -2.914324700832366943e-01
-6.688961386680603027e-01 -1.088940128684043884e-01 1.760436892509460449e-01
4.672029018402099609e-01 1.521847397089004517e-01 -2.349166572093963623e-01
7.337989211082458496e-01 -1.252050846815109253e-01 4.186066389083862305e-01
-1.525850147008895874e-01 1.002479195594787598e-01 -7.265753149986267090e-01
-2.567173242568969727e-01 -1.920912861824035645e-01 -6.693727523088455200e-02
5.531243085861206055e-01 -1.287835240364074707e-01 -5.278947949409484863e-01
-9.483225941658020020e-01 5.904309451580047607e-02 -1.757803410291671753e-01
2.566440999507904053e-01 1.964167356491088867e-01 7.554008066654205322e-02
1.223044916987419128e-01 -1.943202763795852661e-01 -3.711582720279693604e-01
-7.913128733634948730e-01 -5.674358457326889038e-02 -2.213477939367294312e-01
3.262638747692108154e-01 -1.826853752136230469e-01 -4.303541183471679688e-01
-7.615262269973754883e-02 1.198400929570198059e-01 -6.904213428497314453e-01
-2.268484607338905334e-02 2.135378867387771606e-01 -2.660824656486511230e-01
1.464013308286666870e-01 1.147908046841621399e-01 6.542375683784484863e-01
2.425752282142639160e-01 -2.073504030704498291e-01 -2.863625586032867432e-01
-1.449620425701141357e-01 1.945634782314300537e-01 -4.470480680465698242e-01
-6.186783313751220703e-02 1.580195277929306030e-01 5.803127884864807129e-01
-3.043646216392517090e-01 2.310841232538223267e-01 -1.251045018434524536e-01
-7.212695479393005371e-01 1.036901473999023438e-01 5.129586458206176758e-01
-1.496475469321012497e-02 5.136765539646148682e-02 7.879768610000610352e-01
-6.852660179138183594e-01 2.031307816505432129e-01 -1.156034991145133972e-01
1.516789793968200684e-01 2.790072746574878693e-02 7.847431302070617676e-01
8.901204168796539307e-02 -2.217411249876022339e-01 -1.488811429589986801e-02
2.118274122476577759e-01 -1.688826084136962891e-02 7.871677875518798828e-01
-8.051765561103820801e-01 -2.926172316074371338e-02 -3.176704049110412598e-01
-8.791145086288452148e-01 1.414512246847152710e-01 1.934898793697357178e-01
-8.595829010009765625e-01 6.483772397041320801e-02 -3.718622028827667236e-01
-7.400871515274047852e-01 -8.150748163461685181e-02 2.248860448598861694e-01
-4.924421906471252441e-01 2.129722833633422852e-01 2.559869289398193359e-01
4.324747323989868164e-01 -2.180141657590866089e-01 1.291277855634689331e-01
-8.136249184608459473e-01 1.742935776710510254e-01 1.228138059377670288e-01
4.668729752302169800e-02 -1.447165608406066895e-01 6.229716539382934570e-01
-1.185630783438682556e-01 1.488432288169860840e-01 -6.227919459342956543e-01
4.717803895473480225e-01 1.617869585752487183e-01 -3.135316818952560425e-02
-2.524842023849487305e-01 2.177687287330627441e-01 -3.004059791564941406e-01
3.065195381641387939e-01 3.462355956435203552e-02 -7.275441288948059082e-01
2.438899315893650055e-02 1.161247119307518005e-02 -7.929946780204772949e-01
5.016102790832519531e-01 1.067832410335540771e-01 4.530208706855773926e-01
2.354394085705280304e-02 -2.037650793790817261e-01 3.165386915206909180e-01
7.763372063636779785e-01 5.533925816416740417e-02 -2.492985725402832031e-01
9.291009604930877686e-02 1.485815346240997314e-01 -5.795642137527465820e-01
1.133151575922966003e-01 -7.488799095153808594e-02 -7.382255792617797852e-01
-2.931337058544158936e-01 2.188403457403182983e-01 2.750222384929656982e-01
3.982980847358703613e-01 -2.195043712854385376e-01 -8.883836865425109863e-02
7.429952621459960938e-01 8.599119633436203003e-02 -1.010045707225799561e-01
2.348889112472534180e-01 -2.099714279174804688e-01 -2.635995447635650635e-01
5.149130821228027344e-01 -1.438156366348266602e-01 5.424258112907409668e-01
-2.548493742942810059e-01 -1.524576097726821899e-01 4.821584820747375488e-01
-7.151891589164733887e-01 -5.353512987494468689e-02 4.169628918170928955e-01
-4.724483937025070190e-02 1.865149587392807007e-01 -4.677204787731170654e-01
-1.887021064758300781e-01 1.975537091493606567e-01 4.235160350799560547e-01
-1.603449583053588867e-01 4.188575968146324158e-02 7.925983667373657227e-01
-7.764448523521423340e-01 -1.499103195965290070e-02 4.340598881244659424e-01
-5.064264535903930664e-01 2.079176753759384155e-01 2.890700399875640869e-01
-6.271482110023498535e-01 -3.874645009636878967e-02 -5.235602855682373047e-01
-6.855184584856033325e-02 2.022688388824462891e-01 -3.823626339435577393e-01
-5.593920946121215820e-01 1.283587515354156494e-01 5.793490409851074219e-01
7.445509433746337891e-01 2.417839830741286278e-03 -4.508441388607025146e-01
7.619196772575378418e-01 1.476743817329406738e-02 4.123247265815734863e-01
-4.021102786064147949e-01 3.544220700860023499e-02 7.423884272575378418e-01
-7.708000540733337402e-01 1.887099146842956543e-01 6.267109513282775879e-02
3.852757215499877930e-01 8.262687176465988159e-02 -6.209552288055419922e-01
-6.109432578086853027e-01 1.689060032367706299e-01 -4.337033927440643311e-01
2.889014184474945068e-01 -6.106735393404960632e-02 7.538380026817321777e-01
8.757085800170898438e-01 -1.322133392095565796e-01 -5.892226099967956543e-02
6.915878653526306152e-01 4.700954630970954895e-02 -4.312832653522491455e-01
-3.309059143066406250e-02 -1.572548449039459229e-01 5.637537837028503418e-01
2.902093715965747833e-02 2.062801569700241089e-01 -3.015599548816680908e-01
-3.967134356498718262e-01 -1.064491122961044312e-01 -5.270106196403503418e-01
-1.859827637672424316e-01 1.005764305591583252e-01 -7.243936657905578613e-01
5.265102982521057129e-01 -2.132367491722106934e-01 2.440078556537628174e-02
3.055633008480072021e-01 -5.738187208771705627e-02 -7.296949625015258789e-01
5.153101682662963867e-01 1.329075992107391357e-01 2.959984242916107178e-01
-5.692831873893737793e-01 -3.268667031079530716e-03 6.482257246971130371e-01
2.288477569818496704e-01 -3.243027999997138977e-02 7.813980579376220703e-01
-7.129549980163574219e-02 -1.983940601348876953e-01 3.068969249725341797e-01
2.244176119565963745e-01 2.015269398689270020e-01 3.578796610236167908e-02
-1.950934678316116333e-01 1.745273470878601074e-01 -5.414347052574157715e-01
5.439845919609069824e-01 -2.009303122758865356e-01 2.419918477535247803e-01
3.414489328861236572e-01 1.643490046262741089e-01 -3.348522186279296875e-01
3.078313469886779785e-01 -1.818208843469619751e-01 4.806483387947082520e-01
-6.150236129760742188e-01 1.601696312427520752e-01 -4.614145457744598389e-01
-7.086130380630493164e-01 -9.191568195819854736e-02 -1.863558590412139893e-01
-4.181405007839202881e-01 1.852936148643493652e-01 -4.663080573081970215e-01
-1.441670805215835571e-01 -2.059154510498046875e-01 5.806347727775573730e-02
-7.702608704566955566e-01 1.169370487332344055e-01 -4.346014857292175293e-01
-3.729713261127471924e-01 -1.681168526411056519e-01 2.438739240169525146e-01
6.362506747245788574e-01 1.165994256734848022e-01 -1.654712408781051636e-01
6.657663732767105103e-02 -7.921638339757919312e-02 7.616656422615051270e-01
6.509094834327697754e-01 1.033731251955032349e-01 -2.500812411308288574e-01
4.656744748353958130e-02 -5.837796255946159363e-02 7.846333384513854980e-01
-3.708146214485168457e-01 1.605410575866699219e-01 5.650136470794677734e-01
9.994851052761077881e-02 1.600094586610794067e-01 5.247197151184082031e-01
6.307460069656372070e-01 1.129687577486038208e-01 2.119398266077041626e-01
-6.143694519996643066e-01 1.493983566761016846e-01 -4.941357374191284180e-01
-2.966081500053405762e-01 -1.716813147068023682e-01 -2.748900949954986572e-01
6.147824525833129883e-01 -1.428770720958709717e-01 -4.492299556732177734e-01
-9.448901414871215820e-01 9.185626357793807983e-02 1.810909807682037354e-01
-7.114122509956359863e-01 9.498272091150283813e-03 -5.199928283691406250e-01
-4.439196884632110596e-01 1.682473123073577881e-01 5.185824632644653320e-01
5.964249968528747559e-01 -1.707969754934310913e-01 -3.557554781436920166e-01
-8.700215220451354980e-01 1.322855055332183838e-01 2.576323747634887695e-01
-4.264898598194122314e-05 2.046625614166259766e-01 -3.339048922061920166e-01
-8.086209893226623535e-01 -4.017616435885429382e-02 3.017027676105499268e-01
6.158704161643981934e-01 -1.968703120946884155e-01 -1.428311020135879517e-01
1.495451331138610840e-01 7.667519897222518921e-02 -7.279949784278869629e-01
-4.818024933338165283e-01 -1.444690674543380737e-01 -2.356866598129272461e-01
-1.991633698344230652e-02 -1.909372508525848389e-01 3.969586789608001709e-01
-3.042389154434204102e-01 -1.828309446573257446e-01 -1.325316876173019409e-01
8.849605321884155273e-01 1.953242346644401550e-02 -2.936230041086673737e-03
-5.061962604522705078e-01 1.878387778997421265e-01 -4.182359278202056885e-01
5.461838841438293457e-02 -1.822867691516876221e-01 -4.275180697441101074e-01
-7.103546857833862305e-01 1.972275227308273315e-01 -1.399379968643188477e-01
2.896929979324340820e-01 1.175719350576400757e-01 5.819535851478576660e-01
2.939610779285430908e-01 -2.249225676059722900e-01 2.196240052580833435e-02
1.857744753360748291e-01 -1.651303917169570923e-01 5.618864297866821289e-01
-5.597022175788879395e-01 2.086078822612762451e-01 2.413614541292190552e-01
-1.180256679654121399e-01 -6.646153982728719711e-03 -7.851197719573974609e-01
1.805561929941177368e-01 -1.989549547433853149e-01 -3.479679822921752930e-01
-9.458718299865722656e-01 1.891855895519256592e-02 -8.613535016775131226e-02
-2.118162512779235840e-01 -1.862366348505020142e-01 2.908161580562591553e-01
7.476951479911804199e-01 1.685971766710281372e-02 4.283685386180877686e-01
-2.690925598144531250e-01 -1.647966951131820679e-01 -3.551163971424102783e-01
-6.469847559928894043e-01 -8.896484971046447754e-02 3.743661642074584961e-01
-1.271800100803375244e-01 2.269880026578903198e-01 1.355820894241333008e-01
-2.592531964182853699e-02 -1.867597550153732300e-01 -3.739513754844665527e-01
-2.549452483654022217e-01 2.316295206546783447e-01 9.577944874763488770e-02
-4.163039326667785645e-01 1.858946979045867920e-01 4.568980634212493896e-01
6.012805551290512085e-02 -2.074262350797653198e-01 -2.492481470108032227e-01
-4.164671301841735840e-01 2.213200181722640991e-01 2.170149534940719604e-01
-3.183624148368835449e-02 -2.152724117040634155e-01 5.420957133173942566e-02
-2.777037210762500763e-03 -4.642489552497863770e-02 7.937271595001220703e-01
-5.761751532554626465e-02 -2.111034691333770752e-01 -9.274112433195114136e-02
-4.136177897453308105e-02 2.263276875019073486e-01 8.258609101176261902e-03
-2.020523548126220703e-01 1.962591558694839478e-01 -4.437191784381866455e-01
-4.004101455211639404e-01 1.929703950881958008e-01 -4.363827705383300781e-01
2.736918628215789795e-03 -2.170658409595489502e-01 -3.273423761129379272e-02
-6.495727300643920898e-01 1.865019351243972778e-01 -3.199751973152160645e-01
-1.574739962816238403e-01 9.054632484912872314e-02 -7.399075627326965332e-01
-8.996587991714477539e-02 2.283669859170913696e-01 5.148203298449516296e-02
-3.272298276424407959e-01 -1.130260229110717773e-01 -5.505344271659851074e-01
-4.315373897552490234e-01 1.721885800361633301e-01 5.084096193313598633e-01
4.899718463420867920e-01 -1.841685622930526733e-01 -3.613063395023345947e-01
2.843689024448394775e-01 -1.621850878000259399e-01 -5.239996314048767090e-01
-1.576586216688156128e-01 -6.594356894493103027e-02 7.539274096488952637e-01
4.827052354812622070e-01 -1.515879929065704346e-01 5.360090136528015137e-01
-5.798727869987487793e-01 -4.938808456063270569e-02 -5.426649451255798340e-01
-9.636067599058151245e-02 -1.900275796651840210e-01 3.608540892601013184e-01
8.275391459465026855e-01 -1.486889570951461792e-01 -1.204959750175476074e-01
7.390002012252807617e-01 -1.300847679376602173e-01 -3.710382282733917236e-01
-2.506269216537475586e-01 3.491548076272010803e-02 -7.683734297752380371e-01
8.701979517936706543e-01 1.783781498670578003e-02 -1.524780839681625366e-01
-5.054498314857482910e-01 2.172894477844238281e-01 -2.132896780967712402e-01
-6.401155591011047363e-01 2.009516656398773193e-01 2.207403182983398438e-01
-3.276053071022033691e-01 -1.674232035875320435e-01 3.211195766925811768e-01
8.649569004774093628e-03 -2.072941660881042480e-01 2.722722589969635010e-01
-2.530969381332397461e-01 1.958199143409729004e-01 4.353456795215606689e-01
-2.308973520994186401e-01 -1.538267731666564941e-01 4.912951588630676270e-01
-8.410377502441406250e-01 1.685582846403121948e-01 -8.114953339099884033e-02
7.932724058628082275e-02 1.474282890558242798e-01 -5.880894660949707031e-01
-7.473745942115783691e-01 -8.042188733816146851e-02 2.114863097667694092e-01
-3.603354096412658691e-01 -7.688626181334257126e-03 -7.265530228614807129e-01
8.541551232337951660e-01 -1.122042089700698853e-01 -2.439556419849395752e-01
1.393358260393142700e-01 2.084760069847106934e-01 -1.434693783521652222e-01
4.880836308002471924e-01 9.404636919498443604e-02 5.122902989387512207e-01
3.340723365545272827e-02 -1.683820784091949463e-01 5.346331596374511719e-01
5.327491164207458496e-01 -2.113196700811386108e-01 -5.741480737924575806e-02
-8.463158011436462402e-01 9.555467218160629272e-02 3.846878409385681152e-01
-2.454577758908271790e-02 2.204516232013702393e-01 1.588599532842636108e-01
-4.315816611051559448e-02 2.138392031192779541e-01 2.592094242572784424e-01
-6.482873558998107910e-01 -9.903828799724578857e-02 3.156327605247497559e-01
-9.137442111968994141e-01 6.285258382558822632e-02 -2.722285091876983643e-01
1.732802242040634155e-01 -2.244328111410140991e-01 4.950497671961784363e-02
2.562146484851837158e-01 -2.078086733818054199e-01 -2.818064987659454346e-01
4.131292998790740967e-01 -1.838726252317428589e-01 -3.990701138973236084e-01
-8.618650436401367188e-01 -3.069353848695755005e-02 -1.693594902753829956e-01
-9.236128330230712891e-01 1.298736929893493652e-01 -9.188899397850036621e-02
-2.793231010437011719e-01 3.461461514234542847e-02 -7.622321248054504395e-01
-5.137532949447631836e-02 2.002533525228500366e-01 -3.896964192390441895e-01
4.587884545326232910e-01 -1.682414710521697998e-01 4.896954596042633057e-01
4.858104288578033447e-01 2.611639723181724548e-02 6.563075780868530273e-01
4.152265191078186035e-01 -1.149218901991844177e-01 -6.202671527862548828e-01
3.452196717262268066e-02 2.199893593788146973e-01 -9.158628433942794800e-02
-4.948104619979858398e-01 -1.530776321887969971e-01 -8.774758130311965942e-02
-6.103524565696716309e-02 -8.841221034526824951e-02 7.381868362426757812e-01
-8.578518629074096680e-01 1.650301963090896606e-01 1.680956780910491943e-02
-5.729566216468811035e-01 -1.325831264257431030e-01 1.945095956325531006e-01
-6.384427547454833984e-01 -6.589720491319894791e-03 -5.673133730888366699e-01
-1.312417387962341309e-01 -5.640692263841629028e-02 7.708392143249511719e-01
-4.157126843929290771e-01 1.726292818784713745e-01 5.116728544235229492e-01
-3.027406632900238037e-01 1.893785893917083740e-01 -4.739257693290710449e-01
1.457888931035995483e-01 1.911428272724151611e-01 -3.375118672847747803e-01
-5.930637121200561523e-01 1.939256042242050171e-01 3.221065402030944824e-01
-4.166301488876342773e-01 -1.110126078128814697e-01 -4.960425496101379395e-01
3.035784959793090820e-01 1.671953946352005005e-01 -3.587665259838104248e-01
-4.104575812816619873e-01 -1.526916474103927612e-01 -2.816191613674163818e-01
-1.357868611812591553e-01 -1.651390641927719116e-01 -4.446586668491363525e-01
-5.740972608327865601e-02 -2.081096023321151733e-01 2.028146386146545410e-01
-8.018589764833450317e-02 1.600188910961151123e-01 -5.839777588844299316e-01
-4.587742388248443604e-01 2.111111581325531006e-01 2.917303144931793213e-01
-5.049420595169067383e-01 4.173871129751205444e-02 -6.812846660614013672e-01
7.419282197952270508e-01 -1.385462135076522827e-01 3.697703480720520020e-01
3.637710586190223694e-03 1.336659491062164307e-01 6.434569954872131348e-01
1.957888901233673096e-01 -4.704605787992477417e-02 7.813670635223388672e-01
3.274413943290710449e-01 1.818217635154724121e-01 -1.827176511287689209e-01
3.954746723175048828e-01 -2.171489596366882324e-01 1.832638084888458252e-01
-3.841759264469146729e-01 -4.077266156673431396e-02 -6.823787689208984375e-01
7.009404897689819336e-02 -1.362105160951614380e-01 6.501938700675964355e-01
2.102577239274978638e-01 3.196682408452033997e-02 7.682582736015319824e-01
-1.399068385362625122e-01 2.054890245199203491e-01 -3.805195391178131104e-01
1.352457851171493530e-01 -1.328720152378082275e-01 -6.247321367263793945e-01
4.585395157337188721e-01 -2.174133658409118652e-01 1.006857454776763916e-01
-5.872926712036132812e-01 -8.500604331493377686e-02 4.698852896690368652e-01
4.755554348230361938e-02 -2.141149640083312988e-01 -1.605777442455291748e-01
-3.301991224288940430e-01 -1.743585765361785889e-01 2.489939033985137939e-01
7.174404263496398926e-01 -1.803183406591415405e-01 -1.235616505146026611e-01
-1.155953668057918549e-02 1.700434833765029907e-01 -5.326616168022155762e-01
5.444222092628479004e-01 1.428919881582260132e-01 -1.302157491445541382e-01
9.095178246498107910e-01 -1.090770214796066284e-01 -6.461300700902938843e-02
-5.584226250648498535e-01 -5.349232256412506104e-02 5.846149325370788574e-01
5.302876234054565430e-01 1.175427958369255066e-01 -3.773538768291473389e-01
-6.359604001045227051e-01 1.157006099820137024e-01 5.587114691734313965e-01
-2.422778904438018799e-01 1.921812146902084351e-01 -4.651563763618469238e-01
8.543301224708557129e-01 -1.431255489587783813e-01 -5.137824639678001404e-02
2.153981924057006836e-01 1.881846636533737183e-01 2.764943540096282959e-01
4.146525263786315918e-01 1.539976745843887329e-01 -3.123870193958282471e-01
-9.370850920677185059e-01 1.253346800804138184e-01 3.723531588912010193e-02
7.911716103553771973e-01 1.088603958487510681e-02 3.748943507671356201e-01
-5.845323204994201660e-01 -1.135416179895401001e-01 -2.939630746841430664e-01
3.026736974716186523e-01 5.677789449691772461e-02 7.093295454978942871e-01
-3.217540681362152100e-01 -1.371733546257019043e-01 -4.616518616676330566e-01
-1.954138725996017456e-01 -1.501158922910690308e-01 5.284729599952697754e-01
-4.528271555900573730e-01 -1.630494743585586548e-01 -2.793491631746292114e-02
-2.769975066184997559e-01 1.195552945137023926e-02 -7.617012262344360352e-01
3.196336925029754639e-01 -1.979964822530746460e-01 -3.454575538635253906e-01
4.991733133792877197e-01 5.598031729459762573e-02 -5.990457534790039062e-01
9.313512444496154785e-01 -8.307271450757980347e-02 8.100236207246780396e-02
2.983724884688854218e-02 1.895533055067062378e-01 4.085984826087951660e-01
-9.763035923242568970e-03 2.243330776691436768e-01 -2.454004809260368347e-02
2.264476418495178223e-01 1.316773891448974609e-01 -5.779277086257934570e-01
-3.083085119724273682e-01 -9.899436682462692261e-02 -6.025410890579223633e-01
-8.280617594718933105e-01 -5.936713889241218567e-02 -1.862923428416252136e-02
4.336129426956176758e-01 -2.167437225580215454e-01 -1.082464158535003662e-01
-1.871725022792816162e-01 1.647999584674835205e-01 5.692131519317626953e-01
8.643678426742553711e-01 -3.743426501750946045e-02 -3.035497665405273438e-01
2.667880356311798096e-01 -1.413460224866867065e-01 -5.933800935745239258e-01
7.831045985221862793e-01 6.978234648704528809e-02 1.004182025790214539e-01
4.224592447280883789e-01 -1.881018131971359253e-01 -3.728193044662475586e-01
6.103881597518920898e-01 1.165829002857208252e-01 2.316685020923614502e-01
-1.151267662644386292e-01 2.128714621067047119e-01 -3.180297613143920898e-01
-7.619722485542297363e-01 1.451174765825271606e-01 -3.754373192787170410e-01
4.564027488231658936e-01 -2.187276929616928101e-01 3.239534050226211548e-02
-5.290879011154174805e-01 2.000568807125091553e-01 3.301633000373840332e-01
-6.045654416084289551e-01 -5.329947918653488159e-02 -5.113050341606140137e-01
-5.464211702346801758e-01 2.218162119388580322e-01 6.537373363971710205e-02
-2.137655168771743774e-01 2.281249165534973145e-01 1.585499048233032227e-01
8.260766863822937012e-01 4.648752138018608093e-02 -1.400859802961349487e-01
-3.667574748396873474e-02 -1.837023943662643433e-01 4.358502924442291260e-01
6.920776963233947754e-01 -1.373552381992340088e-01 4.298891127109527588e-01
1.316793709993362427e-01 3.101215697824954987e-02 -7.759481668472290039e-01
5.859790444374084473e-01 -1.230451017618179321e-01 5.506315827369689941e-01
-8.414275050163269043e-01 -5.381225422024726868e-02 2.999120391905307770e-03
-2.557480037212371826e-01 1.338151991367340088e-01 -6.576672196388244629e-01
-4.832363128662109375e-01 -1.563151329755783081e-01 1.125684008002281189e-01
-1.281023621559143066e-01 -1.919136196374893188e-01 3.210487067699432373e-01
8.729328215122222900e-02 1.325515061616897583e-01 -6.305747628211975098e-01
-3.396621644496917725e-01 8.896741271018981934e-02 -7.152951359748840332e-01
-8.425249904394149780e-02 -1.401242315769195557e-01 6.100936532020568848e-01
-9.184744954109191895e-02 8.882936090230941772e-02 -7.432610392570495605e-01
2.950431704521179199e-01 1.596935987472534180e-01 4.010781943798065186e-01
-3.532750904560089111e-01 1.282953172922134399e-01 6.536279320716857910e-01
-9.128564596176147461e-01 1.056106090545654297e-01 2.440409809350967407e-01
-4.865131527185440063e-02 4.820372536778450012e-02 -7.820023298263549805e-01
-2.967434190213680267e-02 -2.677660807967185974e-02 -7.826493382453918457e-01
-4.185130000114440918e-01 -1.468277573585510254e-01 -3.145466446876525879e-01
-1.925900727510452271e-01 -1.889878511428833008e-01 -2.348600476980209351e-01
-4.059963822364807129e-01 -1.475717276334762573e-01 3.716384172439575195e-01
-7.247359305620193481e-02 -2.076954692602157593e-01 1.903017163276672363e-01
8.284496665000915527e-01 -8.826844394207000732e-02 -3.428609669208526611e-01
-5.679804086685180664e-01 1.354044228792190552e-01 -5.564076304435729980e-01
-3.082994520664215088e-01 1.995120942592620850e-01 -4.222591519355773926e-01
1.085615828633308411e-01 1.762830913066864014e-01 4.437761604785919189e-01
-8.807499706745147705e-02 1.022225767374038696e-01 7.252259850502014160e-01
6.507632136344909668e-01 -1.464789360761642456e-01 -4.084677696228027344e-01
-1.611807197332382202e-01 -2.782800421118736267e-02 -7.664885520935058594e-01
-9.081027507781982422e-01 1.390201002359390259e-01 -9.493648260831832886e-02
-5.765104293823242188e-01 6.165695935487747192e-02 6.539885401725769043e-01
3.294317424297332764e-02 1.758280396461486816e-01 4.813684821128845215e-01
-4.715168774127960205e-01 1.380866318941116333e-01 5.967211127281188965e-01
-5.458286404609680176e-01 -5.295750871300697327e-02 -5.626732110977172852e-01
-4.931178689002990723e-01 2.172684222459793091e-01 2.126227170228958130e-01
1.193812265992164612e-01 1.958526372909545898e-01 -3.219848871231079102e-01
3.341096043586730957e-01 1.022580340504646301e-01 -6.045554876327514648e-01
-1.266919374465942383e-01 -9.834411740303039551e-02 -6.722419857978820801e-01
-9.343121647834777832e-01 3.560977056622505188e-03 -4.994984716176986694e-02
2.553840279579162598e-01 1.608239263296127319e-01 -4.408337473869323730e-01
4.936737120151519775e-01 -2.004471123218536377e-01 -2.501643300056457520e-01
-2.982837259769439697e-01 -1.402331143617630005e-02 7.666327953338623047e-01
4.157526195049285889e-01 -5.315579101443290710e-02 7.180892825126647949e-01
4.483215212821960449e-01 -2.171461582183837891e-01 -8.028315752744674683e-02
4.106884822249412537e-03 -2.141847014427185059e-01 1.693696081638336182e-01
-6.979871988296508789e-01 1.552376449108123779e-01 -4.102302491664886475e-01
-8.171406984329223633e-01 1.740104109048843384e-01 -1.131163910031318665e-01
5.897063612937927246e-01 1.338311135768890381e-01 7.124385982751846313e-02
5.407903194427490234e-01 6.558436155319213867e-02 5.460900664329528809e-01
-3.660799860954284668e-01 1.563933491706848145e-01 -5.822156667709350586e-01
-7.261582612991333008e-01 -9.526150673627853394e-02 -7.131638377904891968e-02
2.637902200222015381e-01 1.419585049152374268e-01 5.109053850173950195e-01
2.140021473169326782e-01 -1.802572906017303467e-01 -4.549219310283660889e-01
7.173630595207214355e-01 9.670528769493103027e-02 5.827751010656356812e-02
2.794982492923736572e-01 1.818606108427047729e-01 -2.692812979221343994e-01
-1.569985896348953247e-01 2.238753587007522583e-01 2.017558217048645020e-01
1.358707398176193237e-01 1.048439964652061462e-01 -6.827940344810485840e-01
-6.649042367935180664e-01 1.386915296316146851e-01 4.888809025287628174e-01
-2.122877985239028931e-01 1.150431260466575623e-01 7.004225850105285645e-01
-5.408328771591186523e-01 -1.354958415031433105e-01 -2.005338668823242188e-01
-6.762425303459167480e-01 -8.383596688508987427e-02 3.520367145538330078e-01
2.042685002088546753e-01 -6.614106148481369019e-02 7.661964893341064453e-01
-1.289814859628677368e-01 1.796486079692840576e-01 5.059804916381835938e-01
4.660800993442535400e-01 -1.480763852596282959e-01 -5.190744996070861816e-01
-6.969909071922302246e-01 -9.878831356763839722e-02 1.963872313499450684e-01
5.810362100601196289e-02 -2.107257694005966187e-01 -2.124737054109573364e-01
4.130729138851165771e-01 -1.989172697067260742e-01 -3.092684447765350342e-01
-6.162972450256347656e-01 -1.283632963895797729e-01 -5.427561700344085693e-05
-2.041838020086288452e-01 2.306065708398818970e-01 -1.226866096258163452e-01
7.538691163063049316e-01 8.443824946880340576e-02 -3.150832280516624451e-02
-5.548350811004638672e-01 2.104305028915405273e-01 2.288206219673156738e-01
-9.301097989082336426e-01 2.549885958433151245e-02 -1.843203604221343994e-01
-2.770497500896453857e-01 -1.121648401021957397e-02 7.741133570671081543e-01
2.518208138644695282e-02 -1.476127654314041138e-01 6.106541752815246582e-01
-1.912482678890228271e-01 -1.358897536993026733e-01 -5.434094667434692383e-01
-7.798483967781066895e-01 1.737569868564605713e-01 -2.165715545415878296e-01
-5.270161628723144531e-01 -1.006392613053321838e-01 -4.355882406234741211e-01
3.223662972450256348e-01 -1.426292657852172852e-01 -5.801066756248474121e-01
-1.151593029499053955e-01 2.247988581657409668e-01 1.660639047622680664e-01
9.749183058738708496e-02 -2.165920734405517578e-01 2.070178091526031494e-01
2.326101660728454590e-01 1.370238661766052246e-01 5.487328767776489258e-01
6.070877313613891602e-01 1.003277376294136047e-01 3.459388315677642822e-01
6.870914995670318604e-02 9.082935005426406860e-02 -7.242988944053649902e-01
2.888646908104419708e-02 1.628128439188003540e-01 5.399476289749145508e-01
7.856020927429199219e-01 -1.880480907857418060e-02 -4.199444949626922607e-01
-6.514494121074676514e-02 -4.656788334250450134e-02 -7.638705968856811523e-01
-6.005775332450866699e-01 -1.141440197825431824e-01 -2.607432007789611816e-01
-9.702178835868835449e-02 1.361910104751586914e-01 6.513779759407043457e-01
-1.351222693920135498e-01 1.736893802881240845e-01 -5.411454439163208008e-01
-6.568815112113952637e-01 -9.983320534229278564e-02 -2.510072588920593262e-01
-4.758792817592620850e-01 1.196947842836380005e-01 -6.299014091491699219e-01
4.899980127811431885e-01 1.579980850219726562e-01 -3.503694012761116028e-02
-2.545597851276397705e-01 1.996345371007919312e-01 -4.259097278118133545e-01
-4.865057170391082764e-01 -7.798574864864349365e-02 5.835374593734741211e-01
-5.750764012336730957e-01 -8.511357754468917847e-02 -4.443772435188293457e-01
6.712635755538940430e-01 8.268002420663833618e-02 -3.333076536655426025e-01
3.708740472793579102e-01 -2.013656944036483765e-01 3.531686365604400635e-01
7.043541669845581055e-01 -2.178543992340564728e-02 5.280879139900207520e-01
7.196379303932189941e-01 7.512000203132629395e-02 -2.764571607112884521e-01
4.478093683719635010e-01 -1.345850080251693726e-01 -5.641669631004333496e-01
-4.961165785789489746e-01 -4.242057725787162781e-02 -6.184028983116149902e-01
5.401950478553771973e-01 1.449955552816390991e-01 9.373969584703445435e-02
-6.253806948661804199e-01 2.090760618448257446e-01 -1.605330407619476318e-01
2.671040594577789307e-01 -2.236287295818328857e-01 1.176305338740348816e-01
-5.263136029243469238e-01 -7.206282764673233032e-02 -5.317562222480773926e-01
-3.299892842769622803e-01 1.495382636785507202e-01 6.060334444046020508e-01
1.646839641034603119e-02 -2.004814743995666504e-01 3.418715894222259521e-01
6.469489932060241699e-01 -1.546427011489868164e-01 -3.821209073066711426e-01
1.372686922550201416e-01 2.025567144155502319e-01 -2.374533563852310181e-01
-4.262308180332183838e-01 2.301556915044784546e-01 3.997208178043365479e-02
-7.403135895729064941e-01 -5.585142597556114197e-02 -3.331973552703857422e-01
-4.873422086238861084e-01 -1.149403527379035950e-01 -4.152989685535430908e-01
-3.697032332420349121e-01 2.215494960546493530e-01 2.336351871490478516e-01
-4.750485420227050781e-01 2.105335891246795654e-01 -2.981353104114532471e-01
-7.274486869573593140e-02 1.796089857816696167e-01 -5.068492293357849121e-01
4.245179891586303711e-02 -2.075768113136291504e-01 -2.388947755098342896e-01
-4.422374665737152100e-01 2.048050910234451294e-01 -3.551171720027923584e-01
-3.825522363185882568e-01 1.561610996723175049e-01 -5.788165926933288574e-01
6.207777261734008789e-01 -1.686655133962631226e-01 -3.449107408523559570e-01
8.630410432815551758e-01 -1.134809553623199463e-01 2.434580624103546143e-01
-2.156894207000732422e-01 -1.228032410144805908e-01 6.168062090873718262e-01
-3.894281573593616486e-03 1.869868785142898560e-01 -4.510101675987243652e-01
-6.978505849838256836e-01 2.002603709697723389e-01 1.221960186958312988e-01
-5.098376870155334473e-01 2.152545154094696045e-01 2.206922173500061035e-01
1.013314202427864075e-01 -1.984494626522064209e-01 3.866961300373077393e-01
-4.521025717258453369e-01 -1.314704865217208862e-01 4.143512845039367676e-01
-5.567604303359985352e-02 -6.991189718246459961e-02 -7.367537021636962891e-01
-6.555498838424682617e-01 1.933587193489074707e-01 -2.692889869213104248e-01
6.692743301391601562e-01 -1.343789249658584595e-01 4.600075781345367432e-01
2.401231527328491211e-01 7.293201237916946411e-02 -7.061604857444763184e-01
-6.485602259635925293e-01 -1.046219095587730408e-01 -2.332006543874740601e-01
9.114205241203308105e-01 -9.183282405138015747e-02 -1.429023593664169312e-01
1.573412716388702393e-01 5.277945473790168762e-02 7.612363696098327637e-01
-2.663379311561584473e-01 -5.470566451549530029e-02 -7.095756530761718750e-01
-5.270481854677200317e-02 -1.984878182411193848e-01 3.194680511951446533e-01
-6.074143201112747192e-02 2.122071534395217896e-01 2.850392758846282959e-01
2.084642834961414337e-02 2.144697010517120361e-01 -2.192120105028152466e-01
-7.426180690526962280e-02 -8.966904878616333008e-02 7.339496016502380371e-01
-2.433995157480239868e-02 -1.301638484001159668e-01 6.540195345878601074e-01
-3.559806197881698608e-02 3.716488182544708252e-02 7.994052171707153320e-01
-3.983894586563110352e-01 -8.844746649265289307e-02 -5.799856185913085938e-01
3.307697176933288574e-01 1.553127169609069824e-01 -4.046796858310699463e-01
1.345850527286529541e-01 -2.230245918035507202e-01 -3.193083032965660095e-02
-6.814565658569335938e-01 1.087189987301826477e-01 -5.293087363243103027e-01
-4.027477800846099854e-01 -1.628235429525375366e-01 2.473155558109283447e-01
-3.994829058647155762e-01 1.611105650663375854e-01 -5.596817135810852051e-01
5.214604139328002930e-01 -7.794287800788879395e-02 6.528766751289367676e-01
1.765991002321243286e-01 2.075408995151519775e-01 7.806863635778427124e-03
-4.264611601829528809e-01 -1.225601881742477417e-01 -4.407232999801635742e-01
-5.250937342643737793e-01 2.227482646703720093e-01 -1.020023748278617859e-01
8.197835087776184082e-01 4.600536823272705078e-02 -1.712985783815383911e-01
3.694650232791900635e-01 1.698200702667236328e-01 2.305324226617813110e-01
-3.111338913440704346e-01 -1.289655715227127075e-01 5.456255674362182617e-01
2.442310750484466553e-01 9.856213629245758057e-02 6.557247042655944824e-01
-2.632980048656463623e-01 2.027703225612640381e-01 3.954387009143829346e-01
-3.164687454700469971e-01 1.229021102190017700e-01 -6.706895828247070312e-01
-2.342218607664108276e-01 2.332228124141693115e-01 2.003328502178192139e-02
7.786027789115905762e-01 -1.523568332195281982e-01 2.530159354209899902e-01
1.961133480072021484e-01 1.556105613708496094e-01 -5.053389668464660645e-01
5.092552900314331055e-01 1.467053145170211792e-01 1.806747168302536011e-01
-8.114894032478332520e-01 1.648991107940673828e-01 2.131226509809494019e-01
6.624546647071838379e-01 -1.096528246998786926e-01 -4.935901165008544922e-01
7.099688053131103516e-01 -1.102432981133460999e-01 4.759228825569152832e-01
-4.060797691345214844e-01 1.351133584976196289e-01 -6.245316267013549805e-01
-9.390130639076232910e-02 -2.059093415737152100e-01 1.907690316438674927e-01
-6.336454302072525024e-02 -1.374358236789703369e-01 -5.840755105018615723e-01
-1.515691578388214111e-01 -1.500803083181381226e-01 5.497625470161437988e-01
3.961728513240814209e-01 1.468636095523834229e-01 3.720312118530273438e-01
2.953967452049255371e-01 -2.241819500923156738e-01 -3.829993307590484619e-02
-5.200128555297851562e-01 -6.296834349632263184e-02 5.941652059555053711e-01
-6.275722980499267578e-01 -9.526948630809783936e-02 -3.319689631462097168e-01
2.381606400012969971e-01 1.977868229150772095e-01 -1.235311925411224365e-01
-6.192945837974548340e-01 2.042777985334396362e-01 2.164381891489028931e-01
2.618636488914489746e-01 -2.243422716856002808e-01 -4.425058513879776001e-02
2.252659648656845093e-01 1.841328889131546021e-01 -3.167397975921630859e-01
-3.902829810976982117e-02 -2.074199765920639038e-01 -1.814462393522262573e-01
2.458836138248443604e-01 1.885601729154586792e-01 -2.486761212348937988e-01
5.812137126922607422e-01 -1.901337057352066040e-01 -2.538786232471466064e-01
-3.100722134113311768e-01 -1.249791234731674194e-01 5.608613491058349609e-01
1.417933851480484009e-01 1.933699697256088257e-01 -3.230653405189514160e-01
4.342516362667083740e-01 -1.717106997966766357e-01 -4.473063051700592041e-01
5.826730132102966309e-01 -1.934472173452377319e-01 2.664363980293273926e-01
1.887556463479995728e-01 1.834106743335723877e-01 3.431321084499359131e-01
3.017315864562988281e-01 1.220882907509803772e-01 5.602842569351196289e-01
-4.288097023963928223e-01 2.294549196958541870e-01 6.573150306940078735e-02
-2.324447184801101685e-01 1.622707545757293701e-01 5.775915980339050293e-01
1.893870830535888672e-01 -8.204381912946701050e-03 7.912909984588623047e-01
2.518691308796405792e-02 -1.290341317653656006e-01 -6.269506812095642090e-01
3.436049222946166992e-01 1.566754877567291260e-01 3.708178102970123291e-01
-2.687697112560272217e-01 -1.676398217678070068e-01 3.840212523937225342e-01
-3.558797389268875122e-02 2.257022559642791748e-01 3.441746532917022705e-02
-3.940438032150268555e-01 -1.713066995143890381e-01 1.402900218963623047e-01
-3.017374277114868164e-01 -1.766155064105987549e-01 -2.203450500965118408e-01
-1.572866290807723999e-01 -1.925314366817474365e-01 2.874904572963714600e-01
-4.861279129981994629e-01 6.938689947128295898e-02 -6.817870140075683594e-01
-9.011881053447723389e-02 2.245445102453231812e-01 -1.692897677421569824e-01
8.680465221405029297e-01 -6.193940714001655579e-02 -2.985061705112457275e-01
7.138250470161437988e-01 2.711812034249305725e-02 4.520425498485565186e-01
3.839479982852935791e-01 -1.682976633310317993e-01 5.181227326393127441e-01
-3.888346552848815918e-01 1.904016882181167603e-01 4.435794651508331299e-01
6.417910009622573853e-02 2.140105366706848145e-01 1.555818170309066772e-01
-2.547855079174041748e-01 1.716909408569335938e-01 -5.503233671188354492e-01
8.920145630836486816e-01 -1.001277416944503784e-01 2.064792662858963013e-01
-4.295257627964019775e-01 1.686497777700424194e-01 5.219041109085083008e-01
-3.601734340190887451e-01 1.947873681783676147e-01 -4.379004240036010742e-01
-6.495316624641418457e-01 -1.127233207225799561e-01 -1.529272645711898804e-01
5.186684131622314453e-01 3.002549335360527039e-02 -6.243543028831481934e-01
-5.987408757209777832e-01 7.367715239524841309e-02 6.335086226463317871e-01
3.487328290939331055e-01 -2.213865369558334351e-01 -8.869855850934982300e-02
-2.009638547897338867e-01 -1.182179227471351624e-01 -5.972387790679931641e-01
6.821985840797424316e-01 7.069656997919082642e-02 -3.676058053970336914e-01
-4.581736922264099121e-01 2.027786821126937866e-01 -3.608214557170867920e-01
-2.512858808040618896e-01 -9.573865681886672974e-02 6.728932857513427734e-01
-4.997789114713668823e-02 -1.723245978355407715e-01 4.923828244209289551e-01
3.285741209983825684e-01 1.595806777477264404e-01 3.686309456825256348e-01
9.156334996223449707e-01 -1.005352288484573364e-01 1.063178703188896179e-01
-3.127881884574890137e-01 1.322972327470779419e-01 -6.526620984077453613e-01
-7.826059311628341675e-02 -1.952174156904220581e-01 -2.809698581695556641e-01
5.392520874738693237e-02 -1.982555538415908813e-01 -3.259722590446472168e-01
4.145426154136657715e-01 1.189302355051040649e-01 4.886506199836730957e-01
-5.956211090087890625e-01 2.037331610918045044e-01 2.486776858568191528e-01
-7.788560390472412109e-01 -9.312363341450691223e-03 -4.130377769470214844e-01
-4.630771577358245850e-01 -1.575334817171096802e-01 -1.212238222360610962e-01
3.603340387344360352e-01 1.433908492326736450e-01 4.286449551582336426e-01
7.939450740814208984e-01 5.591741949319839478e-02 -1.937402933835983276e-01
-8.526160120964050293e-01 1.342642307281494141e-01 -2.777872085571289062e-01
1.714581698179244995e-01 1.920494735240936279e-01 2.898364067077636719e-01
9.181677699089050293e-01 -1.048846244812011719e-01 3.918174654245376587e-02
7.500882446765899658e-02 1.590760499238967896e-01 -5.481615066528320312e-01
-5.939524769783020020e-01 -1.297101825475692749e-01 -1.166885942220687866e-01
-4.779364466667175293e-01 6.062864512205123901e-02 -6.897341609001159668e-01
-4.029546678066253662e-01 -1.719676256179809570e-01 -1.832857728004455566e-02
-4.983577430248260498e-01 -1.185751184821128845e-01 4.283633530139923096e-01
4.487386345863342285e-01 1.418900787830352783e-01 -3.482742607593536377e-01
-8.506914973258972168e-01 -4.937731474637985229e-02 -6.820034235715866089e-03
-6.037407517433166504e-01 6.159418821334838867e-02 -6.225918531417846680e-01
5.100502371788024902e-01 -4.025939851999282837e-04 6.662820577621459961e-01
-8.623446822166442871e-01 -2.819740399718284607e-02 -1.831466257572174072e-01
-1.870398670434951782e-01 -1.457041651010513306e-01 -5.075291395187377930e-01
2.870320081710815430e-01 -8.064994961023330688e-02 -7.099709510803222656e-01
-1.079911962151527405e-01 2.181786149740219116e-01 -2.649345099925994873e-01
-6.053574383258819580e-02 -2.129049450159072876e-01 7.520451396703720093e-02
8.251589536666870117e-01 1.846559904515743256e-02 2.890751659870147705e-01
1.210130751132965088e-02 2.182079702615737915e-01 -1.726023852825164795e-01
4.581048339605331421e-02 -1.707400083541870117e-01 5.269639492034912109e-01
-5.324186682701110840e-01 2.130587399005889893e-01 -2.339696735143661499e-01
4.802671074867248535e-02 -2.038574665784835815e-01 3.271563053131103516e-01
-6.763601675629615784e-03 -1.996019184589385986e-01 -2.879953682422637939e-01
-8.946109414100646973e-01 1.486791670322418213e-01 -5.809747427701950073e-02
1.814566738903522491e-02 -2.184799015522003174e-01 4.943704232573509216e-02
-1.501810699701309204e-01 -2.034458816051483154e-01 -8.276384323835372925e-02
-8.134422302246093750e-01 -6.354589015245437622e-02 1.074335426092147827e-01
-6.972030997276306152e-01 5.384026467800140381e-02 -5.554932951927185059e-01
1.706065982580184937e-01 7.281038165092468262e-02 7.310968041419982910e-01
-1.606478542089462280e-01 -1.775958240032196045e-01 -3.572579324245452881e-01
-1.642833650112152100e-01 1.849266439676284790e-01 -4.967049360275268555e-01
1.415510028600692749e-01 -1.449736505746841431e-01 -5.899140834808349609e-01
-6.908876299858093262e-01 1.947060078382492065e-01 2.031375318765640259e-01
6.739198565483093262e-01 -1.420038342475891113e-01 -4.023549258708953857e-01
1.529503762722015381e-01 -1.901402920484542847e-01 4.467873871326446533e-01
2.380239069461822510e-01 -2.052222043275833130e-01 3.510008454322814941e-01
-2.629338800907135010e-01 -1.106065884232521057e-01 -5.923345685005187988e-01
7.973440289497375488e-01 5.016218870878219604e-02 2.187302112579345703e-01
7.360856533050537109e-01 3.398748114705085754e-03 4.669841527938842773e-01
6.730814278125762939e-02 -1.637608855962753296e-01 -5.167877674102783203e-01
-1.716720461845397949e-01 1.527755558490753174e-01 -6.136849522590637207e-01
3.704504370689392090e-01 1.527111232280731201e-01 -3.781793117523193359e-01
6.025481820106506348e-01 1.318435966968536377e-01 1.695751212537288666e-03
-6.760707497596740723e-01 -1.034020483493804932e-01 -1.723673790693283081e-01
-5.229863524436950684e-02 2.165405750274658203e-01 2.356069982051849365e-01
3.546040356159210205e-01 1.739124357700347900e-01 2.129343897104263306e-01
-2.330674529075622559e-01 2.237266451120376587e-01 -2.391966283321380615e-01
5.190497636795043945e-01 -1.870795041322708130e-01 -3.264490365982055664e-01
-2.603415846824645996e-01 -1.925798058509826660e-01 8.330028504133224487e-02
-3.071992993354797363e-01 2.325119227170944214e-01 -8.367953449487686157e-02
-8.741326928138732910e-01 -3.522720932960510254e-02 1.000596284866333008e-01
1.851913779973983765e-01 1.735131144523620605e-01 4.107129871845245361e-01
7.845191359519958496e-01 -9.117775410413742065e-02 -4.006517231464385986e-01
-5.436058044433593750e-01 -1.092885583639144897e-01 4.195431470870971680e-01
1.684519350528717041e-01 8.911543339490890503e-02 7.036492228507995605e-01
-4.092110097408294678e-01 -1.463184058666229248e-01 -3.297328054904937744e-01
-6.382417082786560059e-01 -1.178783029317855835e-01 -1.252285093069076538e-01
-8.150964975357055664e-01 1.721563488245010376e-01 -1.426193565130233765e-01
-7.290028929710388184e-01 -5.867243930697441101e-02 -3.406709730625152588e-01
-2.242829650640487671e-01 1.053369641304016113e-01 -7.139567136764526367e-01
6.518138647079467773e-01 1.004814133048057556e-01 2.612721025943756104e-01
5.826582908630371094e-01 6.559011340141296387e-02 5.067211985588073730e-01
1.282892525196075439e-01 2.053111791610717773e-01 1.966299563646316528e-01
4.696228206157684326e-01 8.980073034763336182e-03 6.827949285507202148e-01
7.060116529464721680e-01 9.806773811578750610e-02 -1.187341660261154175e-01
9.015224575996398926e-01 -6.024257466197013855e-02 -2.209405601024627686e-01
4.685230851173400879e-01 -5.784384906291961670e-02 -6.726713180541992188e-01
