1.510135233402252197e-01 -8.504996076226234436e-03 -6.605031341314315796e-02
2.928865551948547363e-01 -2.403433620929718018e-02 8.513129502534866333e-02
2.795833349227905273e-02 -3.809337317943572998e-02 8.934314548969268799e-02
2.853325605392456055e-01 -8.002224564552307129e-02 1.046376023441553116e-02
7.768916338682174683e-02 6.157360970973968506e-03 -4.102851450443267822e-02
1.622840911149978638e-01 2.316243574023246765e-02 3.056007623672485352e-02
1.518093496561050415e-01 -9.258368611335754395e-02 -4.315339028835296631e-04
1.174256056547164917e-01 -3.983704373240470886e-03 8.954085409641265869e-02
5.459709465503692627e-02 -4.838367924094200134e-03 -5.213143303990364075e-02
1.412364244461059570e-01 1.050873845815658569e-02 -4.141238331794738770e-02
3.664073348045349121e-01 -2.220009639859199524e-02 4.827998951077461243e-02
1.032055169343948364e-01 -5.700504779815673828e-02 9.376434981822967529e-02
1.800226569175720215e-01 -9.198549389839172363e-02 6.648680660873651505e-03
3.169058561325073242e-01 3.308203071355819702e-03 -1.817479357123374939e-02
3.843390047550201416e-01 -3.166856616735458374e-02 2.432188019156455994e-02
2.653480768203735352e-01 -2.759017050266265869e-03 7.915374636650085449e-02
1.487742215394973755e-01 -8.947589993476867676e-02 -2.037630602717399597e-02
6.913561373949050903e-02 -9.072697162628173828e-02 2.856493927538394928e-03
2.041370570659637451e-01 2.318443357944488525e-02 1.991636678576469421e-02
2.898588031530380249e-02 -8.662222325801849365e-02 1.818994991481304169e-02
2.123297154903411865e-01 -7.988263666629791260e-02 6.089852750301361084e-02
-7.448785006999969482e-02 -2.196054905652999878e-02 8.052137680351734161e-03
3.325169086456298828e-01 -2.753715962171554565e-02 -4.219913855195045471e-02
-2.322103083133697510e-02 5.514658987522125244e-04 2.689696848392486572e-04
1.826028823852539062e-01 2.381682768464088440e-02 1.411650236696004868e-02
9.273149818181991577e-02 1.531198993325233459e-02 -2.264806255698204041e-02
1.931065618991851807e-01 -9.128474444150924683e-02 8.607297204434871674e-03
2.074335217475891113e-01 1.767013967037200928e-02 -2.132063359022140503e-02
2.359724044799804688e-01 -8.623724430799484253e-02 2.927635237574577332e-02
1.241482645273208618e-01 -7.858286798000335693e-02 -4.816676676273345947e-02
3.245194852352142334e-01 -6.464901566505432129e-02 4.524470120668411255e-02
1.455508619546890259e-01 2.117184922099113464e-02 -1.029609423130750656e-02
2.181301414966583252e-01 -7.133458554744720459e-02 -5.142473056912422180e-02
3.322789371013641357e-01 -4.919518902897834778e-02 -3.649955242872238159e-02
9.953526407480239868e-02 -1.692125573754310608e-02 9.691734611988067627e-02
2.241590321063995361e-01 -7.136826217174530029e-02 7.417289912700653076e-02
2.540797591209411621e-01 6.913565099239349365e-03 -3.720775246620178223e-02
1.912416815757751465e-01 1.011703535914421082e-02 7.269931584596633911e-02
1.640750318765640259e-01 -7.417307049036026001e-02 -5.417308583855628967e-02
-9.757831692695617676e-03 4.414856433868408203e-03 2.679299563169479370e-02
3.285348415374755859e-03 -5.274786800146102905e-02 7.779807597398757935e-02
2.612504661083221436e-01 5.606025457382202148e-03 6.903713196516036987e-02
-8.111879229545593262e-03 -2.685554325580596924e-03 -2.524946630001068115e-02
9.828068315982818604e-02 -4.871625453233718872e-03 8.832545578479766846e-02
2.139024734497070312e-01 -1.725015789270401001e-02 -6.861402839422225952e-02
1.750236749649047852e-01 -6.329038739204406738e-02 8.961058408021926880e-02
3.604114651679992676e-01 -9.893354028463363647e-03 -9.331372566521167755e-03
3.294094800949096680e-01 3.018256276845932007e-03 4.071278497576713562e-02
1.187447309494018555e-01 -5.897588282823562622e-02 -6.934285163879394531e-02
2.837138175964355469e-01 -4.448810592293739319e-02 -5.822696164250373840e-02
6.147712469100952148e-03 -7.036581635475158691e-02 6.045724079012870789e-02
2.715927362442016602e-01 -2.698939666152000427e-02 9.101695567369461060e-02
3.263306319713592529e-01 -7.004029303789138794e-02 1.831785961985588074e-02
2.860791087150573730e-01 -5.983329564332962036e-02 -4.711052402853965759e-02
5.959858745336532593e-02 -8.514438569545745850e-02 -2.455834671854972839e-02
4.016266018152236938e-02 -4.721095412969589233e-02 8.999172598123550415e-02
1.401139646768569946e-01 1.193972304463386536e-02 6.920207291841506958e-02
2.292411029338836670e-02 2.999238669872283936e-03 5.826589465141296387e-02
-4.321646690368652344e-02 -6.959171593189239502e-02 2.704760059714317322e-02
1.987121403217315674e-01 -8.427913486957550049e-02 -2.997990697622299194e-02
3.023399114608764648e-01 1.358635723590850830e-03 6.168074905872344971e-02
1.538943499326705933e-01 2.355746924877166748e-02 7.057307288050651550e-03
1.982186585664749146e-01 -1.751915179193019867e-02 -7.022198289632797241e-02
2.114324122667312622e-01 -7.672235369682312012e-05 -5.486568436026573181e-02
3.520571589469909668e-01 -2.307121083140373230e-02 5.969880521297454834e-02
2.454769909381866455e-01 -4.312555119395256042e-02 9.425007551908493042e-02
3.427887558937072754e-01 -4.943296313285827637e-03 4.829816892743110657e-02
1.186530292034149170e-01 -8.517917245626449585e-02 5.585660412907600403e-02
2.823901772499084473e-01 -1.958593726158142090e-03 7.365937530994415283e-02
2.076130658388137817e-01 -4.091791436076164246e-02 9.991636872291564941e-02
9.275317192077636719e-03 -6.823854893445968628e-02 -4.283640906214714050e-02
3.673657178878784180e-01 -5.171296745538711548e-02 7.933778688311576843e-04
2.647605240345001221e-01 -1.701578497886657715e-03 -4.735338315367698669e-02
2.607264816761016846e-01 -8.374404162168502808e-02 2.239440940320491791e-02
8.254327625036239624e-02 -8.322031795978546143e-02 5.661813169717788696e-02
2.387645095586776733e-01 2.101599797606468201e-02 2.198998257517814636e-02
3.648299574851989746e-01 -2.412883751094341278e-02 -2.084382250905036926e-02
3.358504921197891235e-02 -5.564992129802703857e-02 -6.079419329762458801e-02
2.306303530931472778e-01 -6.655484437942504883e-02 -5.497403070330619812e-02
-1.319539546966552734e-02 -6.696043536067008972e-03 5.741110444068908691e-02
4.513454437255859375e-02 -6.030229106545448303e-02 8.328740298748016357e-02
3.435061872005462646e-02 -7.008214294910430908e-02 -4.804357886314392090e-02
-7.113038003444671631e-02 -5.040020495653152466e-02 3.565019369125366211e-02
-6.249633431434631348e-02 -5.994309484958648682e-02 3.036286681890487671e-02
1.378020495176315308e-01 -4.350394755601882935e-02 1.017425209283828735e-01
8.321332186460494995e-02 1.903652772307395935e-02 -1.431190408766269684e-03
1.440089493989944458e-01 -2.752714604139328003e-02 1.029042676091194153e-01
5.625385046005249023e-02 1.363298296928405762e-02 -1.445499155670404434e-02
2.184139639139175415e-01 2.229118719696998596e-02 2.451517619192600250e-02
1.137910336256027222e-01 -8.504417538642883301e-02 -3.429945930838584900e-02
-9.081736207008361816e-03 -1.839919388294219971e-02 -4.598740860819816589e-02
2.324567288160324097e-01 -4.845514521002769470e-02 -6.794746965169906616e-02
-5.749931931495666504e-02 -6.360269337892532349e-02 -5.445557646453380585e-03
8.405528217554092407e-02 -9.127931296825408936e-02 -2.395673654973506927e-03
7.932066172361373901e-02 -8.045630529522895813e-03 8.842429518699645996e-02
1.645874977111816406e-01 -8.507921546697616577e-02 -3.334094211459159851e-02
3.384388685226440430e-01 -1.050620339810848236e-02 -2.842981740832328796e-02
2.451565265655517578e-01 1.257327198982238770e-02 5.935599654912948608e-02
3.092501759529113770e-01 -7.094252109527587891e-02 -1.514164451509714127e-02
1.128645688295364380e-01 -2.996651083230972290e-02 -7.518648356199264526e-02
3.382740616798400879e-01 -5.671241134405136108e-02 5.059939622879028320e-02
-1.066432893276214600e-02 -6.094160676002502441e-02 -4.358361661434173584e-02
1.172472089529037476e-01 2.069566771388053894e-02 3.829608857631683350e-02
1.174591183662414551e-01 7.773309946060180664e-03 -4.454000666737556458e-02
2.687662541866302490e-01 -8.158148825168609619e-02 -6.334367208182811737e-03
2.422813773155212402e-01 -7.816322147846221924e-02 5.668280646204948425e-02
2.870664894580841064e-01 1.538486778736114502e-02 2.000084146857261658e-02
1.290786862373352051e-01 -8.921725302934646606e-02 -2.193698287010192871e-02
1.126228272914886475e-02 -3.696632012724876404e-02 8.504603058099746704e-02
3.516982495784759521e-01 -6.027571484446525574e-02 1.602852717041969299e-03
2.425402253866195679e-01 -6.992293894290924072e-02 7.230217754840850830e-02
1.947506368160247803e-01 -7.830108702182769775e-02 -4.434303939342498779e-02
1.425852775573730469e-01 -8.625870198011398315e-02 -3.156935051083564758e-02
1.504725515842437744e-01 -3.854787349700927734e-02 -7.672747224569320679e-02
4.125433415174484253e-02 9.892083704471588135e-03 4.964677989482879639e-02
5.430869758129119873e-02 -3.481558337807655334e-02 -6.934765726327896118e-02
1.741122007369995117e-01 -1.962938532233238220e-02 1.008330583572387695e-01
2.618133127689361572e-01 -6.968119740486145020e-02 6.725557148456573486e-02
3.535631299018859863e-01 -3.010440804064273834e-02 -3.090574964880943298e-02
5.526523292064666748e-02 4.799220710992813110e-03 -3.783768415451049805e-02
5.599635094404220581e-02 -6.452193856239318848e-02 -5.868048593401908875e-02
-2.154545485973358154e-02 -7.293616235256195068e-02 -1.828274875879287720e-02
-8.440129458904266357e-02 -4.022301733493804932e-02 7.292049936950206757e-03
-5.450063943862915039e-02 -1.091359928250312805e-02 7.846206426620483398e-04
3.236924409866333008e-01 -1.786004938185214996e-02 7.218543440103530884e-02
1.914857774972915649e-01 -5.585741251707077026e-03 -6.236485019326210022e-02
6.308600306510925293e-03 8.787676692008972168e-03 1.908872090280056000e-02
1.737303733825683594e-01 1.888805627822875977e-02 -2.063201367855072021e-02
-1.779909431934356689e-02 -6.247579306364059448e-02 6.117456406354904175e-02
3.376698493957519531e-01 -5.839378014206886292e-02 -2.174269035458564758e-02
1.126904636621475220e-01 1.957393810153007507e-02 -1.158865448087453842e-02
1.378124356269836426e-01 -1.196971349418163300e-02 -6.843139231204986572e-02
1.362866014242172241e-01 -9.311711788177490234e-02 5.569403525441884995e-03
2.162938117980957031e-01 1.078470051288604736e-02 -3.749070689082145691e-02
9.010130912065505981e-02 1.241278648376464844e-02 6.058097258210182190e-02
1.918443590402603149e-01 -6.740911304950714111e-02 -6.000773981213569641e-02
1.844743192195892334e-01 -8.398769050836563110e-02 5.597930029034614563e-02
2.186332046985626221e-01 -5.125154554843902588e-02 -6.878247857093811035e-02
2.427290380001068115e-01 -7.954581081867218018e-02 -2.953965216875076294e-02
1.859054714441299438e-01 1.673424243927001953e-02 -2.675861865282058716e-02
2.303385734558105469e-01 1.755809038877487183e-02 -1.648768410086631775e-02
-1.456429064273834229e-02 -7.814411818981170654e-02 -4.490501247346401215e-03
-3.573437035083770752e-02 -5.186625570058822632e-02 -3.918663412332534790e-02
3.000309467315673828e-01 -1.999941468238830566e-02 -5.232289060950279236e-02
2.992504537105560303e-01 8.091121912002563477e-03 -1.664764061570167542e-02
2.201639115810394287e-02 1.183829084038734436e-02 9.717961773276329041e-03
7.541088759899139404e-02 -4.033380374312400818e-02 -7.242839038372039795e-02
1.059586182236671448e-01 -7.261036336421966553e-02 7.867692410945892334e-02
2.688263952732086182e-01 -4.807664081454277039e-02 -6.072313711047172546e-02
-5.597665905952453613e-03 -7.716163247823715210e-02 3.883493319153785706e-02
1.872736513614654541e-01 7.136933505535125732e-03 -4.703671112656593323e-02
2.546720206737518311e-02 -6.700038909912109375e-02 7.173705846071243286e-02
2.716106921434402466e-02 -8.541264384984970093e-02 -6.620741449296474457e-03
2.184909582138061523e-01 1.422992348670959473e-02 6.110790744423866272e-02
7.590598613023757935e-02 -9.078879654407501221e-02 2.305235713720321655e-02
6.536816805601119995e-02 1.087248697876930237e-02 -2.728962898254394531e-02
2.692813873291015625e-01 1.357542723417282104e-02 4.787446558475494385e-02
3.137946724891662598e-01 -3.892719745635986328e-02 -4.990066960453987122e-02
-4.175147414207458496e-02 -7.165923714637756348e-03 -6.713553331792354584e-03
3.355574905872344971e-01 1.648243516683578491e-03 -6.949025206267833710e-03
2.056835591793060303e-01 -7.467794418334960938e-02 7.221487164497375488e-02
2.419846951961517334e-01 -1.838991232216358185e-02 9.437413513660430908e-02
1.243390887975692749e-01 -9.073521196842193604e-02 3.622896224260330200e-02
3.482539355754852295e-01 -5.768835544586181641e-03 -1.380464714020490646e-02
-5.183009803295135498e-02 -6.074080988764762878e-02 -1.926609501242637634e-02
1.830093562602996826e-02 8.825216442346572876e-03 3.797356411814689636e-02
4.603000730276107788e-02 -5.231054127216339111e-02 -6.499004364013671875e-02
-3.140021860599517822e-02 -1.888152584433555603e-02 6.201522052288055420e-02
3.126298487186431885e-01 -2.139454521238803864e-02 -4.856601729989051819e-02
2.931059002876281738e-01 -7.302048802375793457e-02 4.594909027218818665e-02
2.562217712402343750e-01 -6.707808375358581543e-02 -4.815952479839324951e-02
6.849934905767440796e-02 -6.029474735260009766e-02 8.743262290954589844e-02
7.286322861909866333e-02 -4.730038344860076904e-04 7.939595729112625122e-02
2.036648392677307129e-01 -1.632846146821975708e-02 9.795770049095153809e-02
3.903420269489288330e-02 -8.172377198934555054e-02 -2.774463221430778503e-02
-4.687050580978393555e-01 5.586166679859161377e-02 7.459369301795959473e-02
-7.900934815406799316e-01 1.682413518428802490e-01 -5.588971078395843506e-02
-4.868115484714508057e-01 7.018136978149414062e-02 -9.135609120130538940e-02
-9.199544191360473633e-01 1.779822856187820435e-01 1.576586440205574036e-02
-6.774870753288269043e-01 9.570241719484329224e-02 -9.895575046539306641e-02
-1.007661700248718262e+00 7.151880860328674316e-02 -1.374899409711360931e-02
-6.884674429893493652e-01 1.042213886976242065e-01 9.036597609519958496e-02
-1.039388418197631836e+00 9.871535748243331909e-02 2.012503333389759064e-02
-8.018441200256347656e-01 6.900397688150405884e-02 8.438754081726074219e-02
-5.775077342987060547e-01 1.175063624978065491e-01 7.762966305017471313e-02
-5.931973457336425781e-01 2.798670157790184021e-02 7.605189830064773560e-02
-5.603975057601928711e-01 -4.078149795532226562e-04 -6.182903051376342773e-02
-5.882103443145751953e-01 4.822432249784469604e-02 8.470957726240158081e-02
-3.222524523735046387e-01 4.226522892713546753e-02 -5.083199217915534973e-02
-6.066889762878417969e-01 1.035200580954551697e-01 8.623507618904113770e-02
-4.668255448341369629e-01 1.464954018592834473e-01 -2.267470583319664001e-03
-4.244535565376281738e-01 -1.177244633436203003e-02 -2.743285335600376129e-02
-3.839539289474487305e-01 -5.556121468544006348e-03 -2.804634906351566315e-02
-9.549274444580078125e-01 6.533236056566238403e-02 4.734539240598678589e-02
-1.007606983184814453e+00 9.825721383094787598e-02 4.414840787649154663e-02
-9.841182231903076172e-01 5.849105864763259888e-02 1.354462187737226486e-02
-9.130023717880249023e-01 7.991398870944976807e-02 -6.947340816259384155e-02
-6.072031855583190918e-01 1.545011401176452637e-01 5.086418986320495605e-02
-7.321196794509887695e-01 5.822606384754180908e-03 -4.890473559498786926e-02
-6.934938430786132812e-01 8.307260274887084961e-02 -9.920407831668853760e-02
-8.519083261489868164e-01 1.597505062818527222e-02 1.015563216060400009e-02
-7.614884376525878906e-01 7.963944226503372192e-02 -9.471748024225234985e-02
-5.698570013046264648e-01 -7.802911102771759033e-03 3.950890898704528809e-02
-5.966628193855285645e-01 1.233829408884048462e-01 7.690310478210449219e-02
-9.819453954696655273e-01 8.237873017787933350e-02 4.843167215585708618e-02
-7.155714035034179688e-01 6.203022226691246033e-02 8.874008059501647949e-02
-6.553350090980529785e-01 9.888082742691040039e-02 -9.849933534860610962e-02
-3.192577064037322998e-01 6.653481721878051758e-02 2.803456969559192657e-02
-7.997967004776000977e-01 1.766352951526641846e-01 -4.192297905683517456e-02
-9.681599140167236328e-01 1.313481032848358154e-01 5.778780952095985413e-02
-7.482410669326782227e-01 1.352363377809524536e-01 8.011427521705627441e-02
-3.596540987491607666e-01 1.121084913611412048e-01 -1.166479941457509995e-02
-5.904984474182128906e-01 1.051512360572814941e-01 -9.449254721403121948e-02
-8.447442650794982910e-01 6.269571930170059204e-02 -7.812210172414779663e-02
-6.226239204406738281e-01 1.673694252967834473e-01 -4.121444001793861389e-02
-6.918672919273376465e-01 -1.101773232221603394e-02 1.268429914489388466e-03
-7.346792817115783691e-01 2.051780372858047485e-02 -6.814332306385040283e-02
-3.520376682281494141e-01 2.179256454110145569e-02 -5.377241224050521851e-02
-7.021398544311523438e-01 1.781571209430694580e-01 -3.154461458325386047e-02
-3.603116869926452637e-01 1.229316741228103638e-02 -4.856107383966445923e-02
-4.633975625038146973e-01 2.284869924187660217e-02 -7.740469276905059814e-02
-5.675657391548156738e-01 8.816365152597427368e-02 -9.700314700603485107e-02
-3.738237023353576660e-01 7.727822661399841309e-02 -6.667740643024444580e-02
-6.547110080718994141e-01 8.498997986316680908e-02 9.178120642900466919e-02
-7.692148089408874512e-01 1.538805514574050903e-01 6.742581725120544434e-02
-8.075699806213378906e-01 1.708387136459350586e-01 -5.151613056659698486e-02
-9.562300443649291992e-01 9.131581336259841919e-02 -6.034386157989501953e-02
-5.640906691551208496e-01 -1.764413714408874512e-02 1.343891862779855728e-02
-2.995764911174774170e-01 6.302252411842346191e-02 1.432272139936685562e-02
-7.294754981994628906e-01 -4.567228257656097412e-03 1.656263135373592377e-02
-8.210290670394897461e-01 1.772722303867340088e-01 3.664763644337654114e-02
-5.787806510925292969e-01 1.001692339777946472e-01 8.455362915992736816e-02
-4.417563378810882568e-01 6.704258918762207031e-02 6.998400390148162842e-02
-8.782857656478881836e-01 1.700108945369720459e-01 4.416547715663909912e-02
-5.154937505722045898e-01 5.203937739133834839e-02 -9.282700717449188232e-02
-4.210494160652160645e-01 2.487345784902572632e-02 -7.262887060642242432e-02
-1.000023841857910156e+00 6.705549359321594238e-02 1.628788001835346222e-02
-4.991533160209655762e-01 1.217724457383155823e-01 -7.374759018421173096e-02
-7.496245503425598145e-01 1.770002394914627075e-02 5.702552944421768188e-02
-3.708072900772094727e-01 1.023511737585067749e-01 3.063967637717723846e-02
-5.399557948112487793e-01 -1.677847653627395630e-02 -2.957834862172603607e-02
-8.029519319534301758e-01 9.368397295475006104e-03 2.558468282222747803e-02
-7.607825994491577148e-01 1.682201027870178223e-01 -5.623920261859893799e-02
-4.430691897869110107e-01 -2.530530095100402832e-03 3.661765158176422119e-02
-4.281510710716247559e-01 7.890529930591583252e-03 -6.138230860233306885e-02
-9.428449273109436035e-01 1.196692138910293579e-01 -6.595633924007415771e-02
-5.799046754837036133e-01 6.024901568889617920e-02 8.700798451900482178e-02
-5.477395057678222656e-01 1.617043763399124146e-01 1.248721312731504440e-02
-1.016763329505920410e+00 1.521288156509399414e-01 2.081854827702045441e-02
-8.150106072425842285e-01 1.566473841667175293e-01 -6.736547499895095825e-02
-4.144372344017028809e-01 1.053595542907714844e-02 4.551814496517181396e-02
-4.694717228412628174e-01 6.644132733345031738e-02 -8.925662934780120850e-02
-7.906437516212463379e-01 4.315324127674102783e-03 -1.794509589672088623e-02
-5.473250150680541992e-01 1.170369237661361694e-02 6.304223090410232544e-02
-8.128575086593627930e-01 7.639985531568527222e-02 -8.823680132627487183e-02
-9.097476005554199219e-01 8.985741436481475830e-02 7.320152223110198975e-02
-8.477413654327392578e-01 1.235084831714630127e-01 -8.260980993509292603e-02
-9.072689414024353027e-01 4.928364232182502747e-02 5.069816112518310547e-02
-4.904539883136749268e-01 1.482101678848266602e-01 -3.239895775914192200e-02
-6.318061351776123047e-01 1.491046547889709473e-01 6.161744892597198486e-02
-7.022254467010498047e-01 4.855287075042724609e-02 8.466199785470962524e-02
-8.373962640762329102e-01 1.988951116800308228e-02 -3.700447455048561096e-02
-6.789788007736206055e-01 -1.217741519212722778e-02 -1.123182382434606552e-02
-7.752482891082763672e-01 2.820419520139694214e-02 6.385079026222229004e-02
-8.659533858299255371e-01 8.165188133716583252e-02 7.933309674263000488e-02
-6.067029833793640137e-01 1.186128333210945129e-01 -9.027004241943359375e-02
-7.464207410812377930e-01 2.934513986110687256e-02 -7.441385835409164429e-02
-8.177501559257507324e-01 3.137586265802383423e-02 5.835847184062004089e-02
-3.140802383422851562e-01 1.864428073167800903e-02 1.185253914445638657e-02
-7.525995373725891113e-01 5.244910717010498047e-04 2.400597743690013885e-02
-9.812678694725036621e-01 1.062076985836029053e-01 -5.457781255245208740e-02
-4.461253285408020020e-01 1.137268245220184326e-01 -6.700608879327774048e-02
-7.929980754852294922e-01 5.132789537310600281e-02 -8.179751783609390259e-02
-5.655801296234130859e-01 1.644247025251388550e-01 -2.538562193512916565e-02
-9.386991858482360840e-01 1.266276240348815918e-01 6.640981882810592651e-02
-4.945466518402099609e-01 1.404090225696563721e-01 3.805786371231079102e-02
-4.536982178688049316e-01 1.304656267166137695e-01 3.593516722321510315e-02
-1.006148815155029297e+00 9.519774466753005981e-02 -4.050005599856376648e-02
-5.340608358383178711e-01 -1.813584566116333008e-02 1.201465632766485214e-02
-4.200281500816345215e-01 1.282185018062591553e-01 2.017753757536411285e-02
-3.954044878482818604e-01 4.623292014002799988e-02 5.858595296740531921e-02
-9.245420694351196289e-01 5.385369807481765747e-02 4.884975776076316833e-02
-1.011742115020751953e+00 7.117505371570587158e-02 8.792907465249300003e-04
-4.032492935657501221e-01 1.067019775509834290e-01 4.236548021435737610e-02
-5.605324506759643555e-01 7.641413807868957520e-02 -9.768234938383102417e-02
-6.507219076156616211e-01 1.400163620710372925e-01 7.201224565505981445e-02
-6.473563313484191895e-01 3.260089829564094543e-02 7.863897830247879028e-02
-7.740430831909179688e-01 1.759571731090545654e-01 -4.355473071336746216e-02
-5.052065849304199219e-01 1.487407386302947998e-01 2.673359401524066925e-02
-5.945256352424621582e-01 -7.171615958213806152e-03 -4.985125362873077393e-02
-4.151580929756164551e-01 1.083534955978393555e-02 -6.176929548382759094e-02
-6.855123639106750488e-01 1.258397996425628662e-01 8.311480283737182617e-02
-8.612818717956542969e-01 4.450851306319236755e-02 -6.196453422307968140e-02
-4.440153241157531738e-01 1.372011154890060425e-01 -3.061357326805591583e-02
-5.305217504501342773e-01 -1.258894056081771851e-02 -4.154009371995925903e-02
-6.566188335418701172e-01 4.375949501991271973e-04 4.732261598110198975e-02
-2.843394577503204346e-01 4.059656709432601929e-02 -1.530257705599069595e-02
-5.274971723556518555e-01 -2.695769071578979492e-03 4.653044044971466064e-02
-3.447810709476470947e-01 1.053029894828796387e-01 -1.291785575449466705e-02
-5.280450582504272461e-01 7.933154702186584473e-04 -6.319605559110641479e-02
-3.358903229236602783e-01 3.992537781596183777e-02 3.786738216876983643e-02
-9.663180708885192871e-01 1.720956265926361084e-01 2.411167835816740990e-03
-4.004411995410919189e-01 5.603849142789840698e-02 -7.714882493019104004e-02
-4.542772769927978516e-01 3.461514040827751160e-02 6.733160465955734253e-02
-4.209387898445129395e-01 1.035499721765518188e-01 5.171146616339683533e-02
-3.795863687992095947e-01 7.384233176708221436e-03 -4.962410405278205872e-02
-8.454896211624145508e-01 1.741018891334533691e-01 4.116756841540336609e-02
-8.438568115234375000e-01 1.557126641273498535e-01 6.353657692670822144e-02
-3.122759461402893066e-01 8.504862338304519653e-02 1.993533922359347343e-03
-6.702470779418945312e-01 4.768865182995796204e-02 -9.305291622877120972e-02
-9.279434680938720703e-01 1.190264225006103516e-01 7.028346508741378784e-02
-8.202247619628906250e-01 4.804867878556251526e-02 -7.485180348157882690e-02
-7.058529257774353027e-01 1.092248708009719849e-01 8.956096321344375610e-02
-9.472952485084533691e-01 1.669168621301651001e-01 -3.232054412364959717e-02
-9.937806129455566406e-01 1.626802235841751099e-01 -1.441804785281419754e-02
-7.415460348129272461e-01 5.308457463979721069e-02 -8.951744437217712402e-02
-7.233732342720031738e-01 1.834504902362823486e-01 5.043663084506988525e-03
-3.621872365474700928e-01 3.337980806827545166e-02 -6.317052245140075684e-02
-3.435772955417633057e-01 9.832111746072769165e-02 1.601344347000122070e-02
-9.970586299896240234e-01 1.640117466449737549e-01 5.204005166888237000e-03
-9.012451767921447754e-01 1.045064479112625122e-01 -7.660875469446182251e-02
-7.069991827011108398e-01 1.826907545328140259e-01 -7.205612026154994965e-03
-6.979560852050781250e-01 1.719992458820343018e-01 3.930737450718879700e-02
-2.954720258712768555e-01 7.251145690679550171e-02 -1.405851263552904129e-02
-5.735309720039367676e-01 7.639564573764801025e-03 -7.073577493429183960e-02
-8.739427328109741211e-01 1.230710893869400024e-01 -7.907462120056152344e-02
-8.166412115097045898e-01 1.023866236209869385e-02 1.937486790120601654e-02
-4.271036386489868164e-01 9.284694492816925049e-02 -7.540859282016754150e-02
-3.788152337074279785e-01 6.553437560796737671e-02 -7.119093835353851318e-02
-4.933327436447143555e-01 8.605293929576873779e-03 -6.967626512050628662e-02
-3.009206056594848633e-01 3.621718287467956543e-02 1.645330153405666351e-02
-5.525709390640258789e-01 6.613315641880035400e-02 8.562287688255310059e-02
-4.282228946685791016e-01 4.732815548777580261e-02 6.618769466876983643e-02
-9.502248764038085938e-01 6.434302777051925659e-02 -4.715705290436744690e-02
-6.037572622299194336e-01 -1.555580645799636841e-02 -2.683537267148494720e-02
-8.016179203987121582e-01 1.602025479078292847e-01 -6.479920446872711182e-02
-6.881340146064758301e-01 1.794052124023437500e-01 -2.284815534949302673e-02
-7.436136603355407715e-01 2.665102109313011169e-02 6.727049499750137329e-02
-5.356820821762084961e-01 8.605808019638061523e-02 8.281872421503067017e-02
-9.236032366752624512e-01 1.782126426696777344e-01 -1.182297244668006897e-02
-7.511628866195678711e-01 1.583695113658905029e-01 -6.795512139797210693e-02
-3.331674635410308838e-01 5.253508687019348145e-02 -5.665986984968185425e-02
-8.511193990707397461e-01 1.063140630722045898e-01 -8.521205186843872070e-02
-3.905804455280303955e-01 7.733181118965148926e-02 -7.180883735418319702e-02
-6.973517537117004395e-01 1.818481385707855225e-01 3.294109134003520012e-03
-6.020007729530334473e-01 1.622314155101776123e-01 3.684518858790397644e-02
-7.428038120269775391e-01 1.482361853122711182e-01 7.160876691341400146e-02
-8.558760285377502441e-01 3.245772793889045715e-02 4.870690405368804932e-02
-5.088127851486206055e-01 1.267289370298385620e-01 5.877106636762619019e-02
-7.243567109107971191e-01 5.119775980710983276e-02 8.455972373485565186e-02
-8.203706741333007812e-01 8.135513216257095337e-02 8.535745739936828613e-02
-6.106577515602111816e-01 1.301126331090927124e-01 7.451897114515304565e-02
-9.033336639404296875e-01 6.705599278211593628e-02 -6.618415564298629761e-02
-3.387500643730163574e-01 1.209652423858642578e-02 2.047152817249298096e-02
-8.362699747085571289e-01 1.179350167512893677e-02 3.387040924280881882e-04
-7.934491634368896484e-01 8.785978704690933228e-02 8.867235481739044189e-02
-2.883869409561157227e-01 4.189165681600570679e-02 5.233244970440864563e-03
-5.269170999526977539e-01 1.319015771150588989e-01 5.846589058637619019e-02
-2.978707849979400635e-01 6.487623602151870728e-02 -3.084702789783477783e-02
-3.764688670635223389e-01 1.085831820964813232e-01 -4.305491223931312561e-02
-5.861110091209411621e-01 6.795205920934677124e-02 -9.865594655275344849e-02
-8.370290994644165039e-01 9.550508111715316772e-02 8.508462458848953247e-02
-7.546821236610412598e-01 1.794464886188507080e-01 2.981947548687458038e-02
-8.694062829017639160e-01 2.942912653088569641e-02 3.854348510503768921e-02
-3.767157793045043945e-01 2.190401032567024231e-02 -6.143392622470855713e-02
-6.340575218200683594e-01 -1.423045992851257324e-03 4.671075940132141113e-02
-7.605808973312377930e-01 2.862557768821716309e-02 6.662870943546295166e-02
-6.960816383361816406e-01 7.555622607469558716e-02 9.178540110588073730e-02
-7.962054610252380371e-01 2.737758681178092957e-02 -6.248727813363075256e-02
-4.738626480102539062e-01 -2.302952110767364502e-03 4.202545434236526489e-02
-5.302761197090148926e-01 1.397417485713958740e-01 -6.317051500082015991e-02
-6.295193433761596680e-01 1.682503670454025269e-01 3.198854997754096985e-02
-8.362218737602233887e-01 1.833077073097229004e-01 1.875325292348861694e-02
-7.170477509498596191e-01 -7.505469024181365967e-03 8.356355130672454834e-03
-7.704430818557739258e-01 1.428136229515075684e-01 7.569442689418792725e-02
-7.394579052925109863e-01 1.360036879777908325e-01 -8.508595079183578491e-02
-5.818747878074645996e-01 1.514909416437149048e-02 6.693854928016662598e-02
-5.945006012916564941e-01 9.379146248102188110e-02 8.750813454389572144e-02
-7.159408330917358398e-01 1.724545061588287354e-01 -4.724052920937538147e-02
-7.787664532661437988e-01 1.858641356229782104e-01 -4.594035446643829346e-03
-7.367135882377624512e-01 8.652579039335250854e-02 9.164572507143020630e-02
-7.649681568145751953e-01 1.422028988599777222e-01 -8.076416701078414917e-02
-6.910997033119201660e-01 1.794463396072387695e-01 1.664804667234420776e-02
-6.512774825096130371e-01 6.733168661594390869e-02 -9.897884726524353027e-02
-4.916009902954101562e-01 1.478627324104309082e-01 2.077066712081432343e-02
-3.973075747489929199e-01 1.164738833904266357e-01 -4.376337677240371704e-02
-9.363316297531127930e-01 4.343729466199874878e-02 2.573916129767894745e-02
-3.329753577709197998e-01 9.946941584348678589e-02 -9.583186358213424683e-03
-6.495545506477355957e-01 1.723276078701019287e-01 2.761051245033740997e-02
-8.259230852127075195e-01 1.851772964000701904e-01 9.828640148043632507e-03
-7.795536518096923828e-01 8.119484037160873413e-02 8.901384472846984863e-02
-3.057301938533782959e-01 7.469569146633148193e-02 1.092579402029514313e-02
-7.188478112220764160e-01 1.478513181209564209e-01 -7.717022299766540527e-02
-6.746436953544616699e-01 6.007249653339385986e-02 8.930274844169616699e-02
-5.802302956581115723e-01 1.643163859844207764e-01 -3.410786017775535583e-02
-9.164925813674926758e-01 4.245875775814056396e-02 3.734191134572029114e-02
-7.108504772186279297e-01 8.945073187351226807e-02 -9.854466468095779419e-02
-6.320630908012390137e-01 1.063887178897857666e-01 -9.625177830457687378e-02
-7.858142852783203125e-01 8.622826635837554932e-02 -9.306069463491439819e-02
-7.470390200614929199e-01 1.458787918090820312e-02 -5.870836600661277771e-02
-8.140995502471923828e-01 2.184842899441719055e-02 4.717389121651649475e-02
-3.350168466567993164e-01 2.282742038369178772e-02 2.931301482021808624e-02
-8.760662674903869629e-01 2.160225808620452881e-02 8.792895823717117310e-03
-4.034467637538909912e-01 1.284613907337188721e-01 -4.233974963426589966e-03
-9.608711600303649902e-01 1.138940975069999695e-01 6.324209272861480713e-02
-6.987761855125427246e-01 6.934551149606704712e-02 -9.762077033519744873e-02
-9.834380149841308594e-01 1.140085905790328979e-01 5.646958574652671814e-02
-8.524209260940551758e-01 1.848074048757553101e-01 -7.745734415948390961e-03
-8.406766653060913086e-01 7.062467932701110840e-02 7.995867729187011719e-02
-2.883665263652801514e-01 6.067215651273727417e-02 -1.977984793484210968e-02
-5.055549144744873047e-01 -1.909674704074859619e-02 -1.610185392200946808e-02
-5.872411131858825684e-01 -1.252257823944091797e-02 -3.903216496109962463e-02
-2.919281423091888428e-01 2.754266560077667236e-02 -5.873178131878376007e-03
-5.823496580123901367e-01 -1.729317009449005127e-02 -2.336907200515270233e-02
-8.356880545616149902e-01 1.579883694648742676e-02 2.521316707134246826e-02
-5.968012213706970215e-01 7.402010262012481689e-03 -6.972979754209518433e-02
-4.985789060592651367e-01 2.865405753254890442e-02 7.058402150869369507e-02
-6.836864948272705078e-01 2.979668229818344116e-02 -8.260076493024826050e-02
-7.035431265830993652e-01 1.566136479377746582e-01 -6.859430670738220215e-02
-3.518799245357513428e-01 1.050401851534843445e-01 -2.873753570020198822e-02
-9.633107185363769531e-01 1.679233610630035400e-01 -2.299993857741355896e-02
-7.825331091880798340e-01 1.746361404657363892e-01 4.194714128971099854e-02
-6.291366815567016602e-01 1.255524903535842896e-01 -8.826588839292526245e-02
-1.003798484802246094e+00 8.211854100227355957e-02 -3.329405933618545532e-02
-6.776472330093383789e-01 1.664362549781799316e-01 4.611578583717346191e-02
-6.911326050758361816e-01 1.051941812038421631e-01 -9.723186492919921875e-02
-7.186483144760131836e-01 1.498143374919891357e-01 6.939435005187988281e-02
-6.947216987609863281e-01 -8.709289133548736572e-03 -2.335077524185180664e-02
-5.098006725311279297e-01 -6.061963737010955811e-03 4.043737053871154785e-02
-3.654866814613342285e-01 -8.594542741775512695e-04 -3.016338869929313660e-02
-5.759412050247192383e-01 -1.912431418895721436e-02 -1.099010184407234192e-02
-9.819158315658569336e-01 1.684566289186477661e-01 -1.140476670116186142e-04
-8.641845583915710449e-01 1.301892995834350586e-01 7.680200040340423584e-02
-6.986291408538818359e-01 1.493268460035324097e-01 6.858327984809875488e-02
-6.580816507339477539e-01 1.657913327217102051e-01 -5.192960426211357117e-02
-3.692604303359985352e-01 3.652899712324142456e-02 4.898618906736373901e-02
-7.876991033554077148e-01 2.558761835098266602e-02 5.874395370483398438e-02
-5.088047981262207031e-01 1.484284996986389160e-01 -4.223255440592765808e-02
-7.210103869438171387e-01 1.328497380018234253e-02 -6.240356713533401489e-02
-5.930837392807006836e-01 1.235730126500129700e-01 -8.652477711439132690e-02
-8.490477800369262695e-01 1.086260229349136353e-01 8.336997777223587036e-02
-4.441717863082885742e-01 1.055275574326515198e-01 5.765835568308830261e-02
-6.877097487449645996e-01 -2.081818878650665283e-03 3.795632347464561462e-02
-3.885758817195892334e-01 5.729727447032928467e-03 3.365544229745864868e-02
-4.594213068485260010e-01 -1.710798591375350952e-02 -1.565231382846832275e-02
-5.030846595764160156e-01 1.343617439270019531e-01 -6.247094273567199707e-02
-4.518318772315979004e-01 1.385163962841033936e-01 1.834151521325111389e-02
-3.310308456420898438e-01 7.809083908796310425e-02 2.904748357832431793e-02
-3.205891251564025879e-01 7.804322242736816406e-02 -4.071261361241340637e-02
-4.053733944892883301e-01 8.566818386316299438e-02 -7.290917634963989258e-02
-1.001699805259704590e+00 1.345518231391906738e-01 4.520739242434501648e-02
-3.729989826679229736e-01 1.544699817895889282e-02 3.848554939031600952e-02
-9.644626379013061523e-01 1.499825417995452881e-01 -4.655903950333595276e-02
-9.105252623558044434e-01 5.576475337147712708e-02 -5.581931397318840027e-02
-7.745006680488586426e-01 4.729827865958213806e-02 7.819151133298873901e-02
-6.714682579040527344e-01 -2.836897969245910645e-03 -4.705765098333358765e-02
-3.685039877891540527e-01 5.061127990484237671e-02 -6.883461028337478638e-02
-5.080784559249877930e-01 1.557849347591400146e-01 -1.239739451557397842e-02
-9.920315742492675781e-01 1.566024124622344971e-01 -2.800999023020267487e-02
-4.771390259265899658e-01 7.201524823904037476e-02 7.613576203584671021e-02
-8.355563879013061523e-01 1.592547595500946045e-01 -6.326551735401153564e-02
-8.102580308914184570e-01 5.548812076449394226e-02 7.791987806558609009e-02
-6.567636728286743164e-01 -1.230360567569732666e-02 -2.455139532685279846e-02
-5.294737815856933594e-01 1.824674010276794434e-02 6.711831688880920410e-02
-6.340444684028625488e-01 1.109912991523742676e-01 8.603412657976150513e-02
-9.476433992385864258e-01 4.427843168377876282e-02 1.574666798114776611e-02
-3.272075951099395752e-01 1.507824659347534180e-02 -3.584839031100273132e-02
-6.573116779327392578e-01 1.773405671119689941e-01 1.131417509168386459e-02
-9.395051002502441406e-01 1.768390238285064697e-01 -4.030731972306966782e-03
-6.539524793624877930e-01 4.925137385725975037e-02 -9.439828246831893921e-02
-6.719490289688110352e-01 1.648072898387908936e-01 -5.549106746912002563e-02
-4.278948009014129639e-01 1.044764518737792969e-01 -6.884445250034332275e-02
-6.612196564674377441e-01 1.554903090000152588e-01 -6.673233211040496826e-02
-8.616503477096557617e-01 6.621950119733810425e-02 -7.621652632951736450e-02
-4.741628766059875488e-01 1.417140364646911621e-01 2.556799352169036865e-02
-4.846162796020507812e-01 -1.830600202083587646e-02 -1.713627763092517853e-02
-3.361159563064575195e-01 6.244551390409469604e-02 3.839867562055587769e-02
-9.849608540534973145e-01 1.328545808792114258e-01 5.212251469492912292e-02
-6.844031214714050293e-01 -6.636887788772583008e-03 -3.488595038652420044e-02
-5.201116800308227539e-01 1.036675125360488892e-01 -8.799426257610321045e-02
-7.855607271194458008e-01 1.390078514814376831e-01 7.774563133716583252e-02
-7.433170080184936523e-01 2.149358391761779785e-03 -3.772142529487609863e-02
-5.268986821174621582e-01 1.077290624380111694e-01 7.483690977096557617e-02
-9.428896903991699219e-01 4.918553680181503296e-02 -3.180820867419242859e-02
-6.257358193397521973e-01 7.990301400423049927e-02 9.083804488182067871e-02
-3.570681512355804443e-01 4.441001266241073608e-02 4.694732278585433960e-02
-3.534829020500183105e-01 6.149045377969741821e-02 -6.376541405916213989e-02
-4.502754211425781250e-01 9.838482737541198730e-02 -7.816652953624725342e-02
-4.187613427639007568e-01 5.945067480206489563e-02 6.527957320213317871e-02
-6.395305991172790527e-01 6.550800800323486328e-02 9.023809432983398438e-02
-9.281623363494873047e-01 9.441331773996353149e-02 7.005433738231658936e-02
-9.095767140388488770e-01 1.533526778221130371e-01 5.785256996750831604e-02
-6.327022314071655273e-01 1.305895447731018066e-01 7.666984200477600098e-02
-8.044482469558715820e-01 1.552038788795471191e-01 6.592585146427154541e-02
-9.135527610778808594e-01 1.484385728836059570e-01 -6.076750531792640686e-02
-7.987898588180541992e-01 6.885933876037597656e-02 -8.819245547056198120e-02
-6.020672321319580078e-01 1.680823862552642822e-01 2.204600162804126740e-02
-6.749238371849060059e-01 1.798457950353622437e-01 -1.263777725398540497e-02
-4.009318053722381592e-01 -6.663046777248382568e-03 -3.321838378906250000e-02
-7.090360522270202637e-01 -4.966504871845245361e-03 2.476793527603149414e-02
-5.654243826866149902e-01 6.233083456754684448e-02 8.631534129381179810e-02
-7.157757878303527832e-01 1.349525451660156250e-01 -8.587269484996795654e-02
-8.073393106460571289e-01 6.794869899749755859e-03 -1.392171159386634827e-02
-4.890967011451721191e-01 1.050884053111076355e-01 -8.252123743295669556e-02
-7.541768550872802734e-01 -1.822732388973236084e-03 -1.773022301495075226e-02
-8.310580253601074219e-01 2.579437568783760071e-02 4.764852672815322876e-02
-3.175677359104156494e-01 4.311760514974594116e-02 2.966467104852199554e-02
-5.878057479858398438e-01 1.620178222656250000e-01 3.263197094202041626e-02
-7.591195702552795410e-01 4.985043406486511230e-02 8.118563890457153320e-02
-5.740578174591064453e-01 5.519659072160720825e-02 -9.647785872220993042e-02
-5.576298236846923828e-01 1.650697886943817139e-01 -1.181398611515760422e-02
-9.479117989540100098e-01 1.511419117450714111e-01 5.182781070470809937e-02
-8.240294456481933594e-01 1.117296218872070312e-01 -8.804009854793548584e-02
-6.546071171760559082e-01 -1.200661808252334595e-02 1.855001039803028107e-02
-1.027423143386840820e+00 1.299499422311782837e-01 -3.038804233074188232e-02
-6.395968794822692871e-01 1.181402951478958130e-01 -9.239429235458374023e-02
-6.077553629875183105e-01 -1.769061386585235596e-02 2.182137919589877129e-03
-9.297189712524414062e-01 4.721271246671676636e-02 3.773230314254760742e-02
-9.349682331085205078e-01 1.653774380683898926e-01 -3.890718519687652588e-02
-6.411430239677429199e-01 -1.542650908231735229e-02 4.147360101342201233e-03
-9.692221879959106445e-01 6.048243865370750427e-02 3.369747102260589600e-02
-7.375679612159729004e-01 -4.285395145416259766e-03 -1.769316568970680237e-02
-9.124815464019775391e-01 1.645988821983337402e-01 -4.585146531462669373e-02
-1.014535427093505859e+00 1.442415714263916016e-01 3.262869268655776978e-02
-4.799528121948242188e-01 -9.304612874984741211e-03 3.163771703839302063e-02
-8.493216633796691895e-01 6.165500730276107788e-02 7.478131353855133057e-02
-5.979101657867431641e-01 1.698439717292785645e-01 -2.242306247353553772e-02
-1.050754785537719727e+00 1.128575727343559265e-01 1.296031568199396133e-02
-8.609549999237060547e-01 5.542926117777824402e-02 6.895612925291061401e-02
-7.294088602066040039e-01 1.177401840686798096e-01 8.739079535007476807e-02
-4.145911037921905518e-01 1.093218624591827393e-01 -6.052342802286148071e-02
-7.361062169075012207e-01 1.486860811710357666e-01 -7.665370404720306396e-02
-5.033388733863830566e-01 1.085491105914115906e-01 7.013344764709472656e-02
-3.854494392871856689e-01 -8.218757808208465576e-03 9.299160446971654892e-04
-6.583611369132995605e-01 1.189650744199752808e-01 -9.273221343755722046e-02
-4.489556252956390381e-01 4.297567158937454224e-02 -8.384187519550323486e-02
-9.714092016220092773e-01 1.489197760820388794e-01 4.705007374286651611e-02
-5.434837937355041504e-01 9.235998988151550293e-02 -9.426908195018768311e-02
-3.889938890933990479e-01 1.205961257219314575e-01 -2.806329913437366486e-02
-6.957370638847351074e-01 1.392719447612762451e-01 -8.296316117048263550e-02
-8.714722394943237305e-01 1.038479730486869812e-01 8.094844967126846313e-02
-4.291733503341674805e-01 4.843024909496307373e-02 -8.196322619915008545e-02
-7.670348882675170898e-01 6.249710917472839355e-02 8.566604554653167725e-02
-5.619242191314697266e-01 1.276703029870986938e-01 6.907945126295089722e-02
-8.341107964515686035e-01 3.770558536052703857e-02 -6.328315287828445435e-02
-9.054239392280578613e-01 1.807495504617691040e-01 9.164882823824882507e-03
-6.254368424415588379e-01 9.730899333953857422e-02 8.908578753471374512e-02
-4.379270076751708984e-01 1.302786469459533691e-01 2.797790057957172394e-02
-7.078842520713806152e-01 1.398771107196807861e-01 7.630316168069839478e-02
-7.806130051612854004e-01 5.764905735850334167e-02 -8.665882796049118042e-02
-8.980422019958496094e-01 7.224924117326736450e-02 6.994888931512832642e-02
-9.548256397247314453e-01 1.617425084114074707e-01 3.888142108917236328e-02
-5.629957914352416992e-01 3.173159435391426086e-02 -8.812640607357025146e-02
-3.362126052379608154e-01 9.323064237833023071e-02 -3.580042719841003418e-02
-1.015367627143859863e+00 8.227994292974472046e-02 -2.405708283185958862e-02
-9.096411466598510742e-01 1.639455854892730713e-01 4.727226123213768005e-02
-5.195426940917968750e-01 -1.988214254379272461e-02 -5.784148816019296646e-03
-6.009651422500610352e-01 7.840958237648010254e-02 8.954070508480072021e-02
-9.449176788330078125e-01 1.068933010101318359e-01 6.741020083427429199e-02
-7.373218536376953125e-01 7.108034938573837280e-02 8.988682180643081665e-02
-3.919493257999420166e-01 -4.790499806404113770e-04 -4.258377850055694580e-02
-3.102630078792572021e-01 1.491332054138183594e-02 -1.336610643193125725e-03
-7.665011882781982422e-01 1.824725866317749023e-01 2.156510576605796814e-02
-6.454032659530639648e-01 8.862812072038650513e-02 -9.973709285259246826e-02
-4.597638249397277832e-01 9.252446144819259644e-02 6.822143495082855225e-02
-5.754121541976928711e-01 1.337130963802337646e-01 6.676552444696426392e-02
-4.549662172794342041e-01 1.470091193914413452e-02 5.650224909186363220e-02
-1.030104517936706543e+00 1.501176953315734863e-01 3.498043632134795189e-03
-7.209041714668273926e-01 1.802535355091094971e-01 2.206330560147762299e-02
-7.864128947257995605e-01 1.034960970282554626e-01 -9.285685420036315918e-02
-3.464810550212860107e-01 4.735611379146575928e-03 -3.095837123692035675e-02
-9.101863503456115723e-01 3.088502585887908936e-02 8.605943061411380768e-03
-8.949237465858459473e-01 2.902388945221900940e-02 2.104522287845611572e-02
-6.743408441543579102e-01 1.453370451927185059e-01 -7.761234045028686523e-02
-4.685451388359069824e-01 1.338006854057312012e-01 3.751345351338386536e-02
-6.956121325492858887e-01 1.632265448570251465e-01 5.326762795448303223e-02
-6.301935315132141113e-01 2.342361956834793091e-02 7.309182733297348022e-02
-8.656625151634216309e-01 1.523841619491577148e-01 6.437872350215911865e-02
-5.698182582855224609e-01 2.176623418927192688e-02 7.155539095401763916e-02
-6.517618298530578613e-01 -6.344467401504516602e-04 -5.437675118446350098e-02
-6.007804870605468750e-01 3.476818278431892395e-02 -8.970123529434204102e-02
-6.009284257888793945e-01 8.160823583602905273e-02 -9.932522475719451904e-02
-8.018404841423034668e-01 1.787338256835937500e-01 3.385173156857490540e-02
-7.780601382255554199e-01 8.035302162170410156e-04 -6.243416108191013336e-03
-6.667776107788085938e-01 1.494464874267578125e-01 6.567362695932388306e-02
-7.754307389259338379e-01 1.674310714006423950e-01 5.294243991374969482e-02
-1.033626794815063477e+00 1.046663299202919006e-01 -2.608365006744861603e-02
-4.526330828666687012e-01 -1.673296093940734863e-02 -4.562432877719402313e-05
-7.158907651901245117e-01 9.322999417781829834e-02 9.197156131267547607e-02
-5.582046508789062500e-01 -1.135720312595367432e-02 -4.385210946202278137e-02
-8.377165198326110840e-01 1.393127441406250000e-01 7.510971277952194214e-02
-5.916194915771484375e-01 -1.646452397108078003e-02 1.535435859113931656e-02
-7.454382777214050293e-01 5.500646308064460754e-02 8.465643227100372314e-02
-6.713378429412841797e-01 1.395577937364578247e-01 7.421360909938812256e-02
-8.752567768096923828e-01 1.371287554502487183e-01 7.268141210079193115e-02
-4.448379576206207275e-01 2.406449615955352783e-02 -7.581258565187454224e-02
-8.938425779342651367e-01 1.651666164398193359e-01 4.846927523612976074e-02
-9.989612102508544922e-01 7.892831414937973022e-02 3.653776273131370544e-02
-6.971114277839660645e-01 1.232876628637313843e-02 -6.531258672475814819e-02
-8.899295926094055176e-01 1.346318423748016357e-01 7.196286320686340332e-02
-4.136850833892822266e-01 1.307623833417892456e-01 4.542551003396511078e-03
-1.009464979171752930e+00 1.436030119657516479e-01 -3.279702737927436829e-02
-8.203837275505065918e-01 6.534211337566375732e-02 8.089309930801391602e-02
-8.206321597099304199e-01 1.832545399665832520e-01 -2.317201532423496246e-02
-8.948287963867187500e-01 1.764616817235946655e-01 -2.978520467877388000e-02
-2.923938930034637451e-01 4.099841788411140442e-02 -2.995740622282028198e-02
-7.945154905319213867e-01 1.790065318346023560e-02 -5.060534924268722534e-02
-5.134156942367553711e-01 -1.545926928520202637e-02 2.086327411234378815e-02
-4.396122097969055176e-01 -1.451946049928665161e-02 -2.239987626671791077e-02
-5.228033065795898438e-01 1.565005034208297729e-01 -2.690441533923149109e-02
-7.503035664558410645e-01 -3.657929599285125732e-03 -3.523374442011117935e-03
-5.460870862007141113e-01 -1.441004872322082520e-02 2.526998706161975861e-02
-5.078343749046325684e-01 4.113771021366119385e-03 -6.615594029426574707e-02
-6.698867678642272949e-01 -1.313920319080352783e-02 2.704672748222947121e-03
-7.481102347373962402e-01 1.756518483161926270e-01 -4.333331435918807983e-02
-6.302142143249511719e-01 1.612300127744674683e-01 4.578410834074020386e-02
-5.235075950622558594e-01 -1.712208241224288940e-02 -2.823452278971672058e-02
-8.446774482727050781e-01 1.763415187597274780e-01 -3.919087722897529602e-02
-6.119065284729003906e-01 -3.791831433773040771e-03 4.462659358978271484e-02
-6.613517403602600098e-01 8.045606315135955811e-02 -9.991721808910369873e-02
-4.014446437358856201e-01 9.817980229854583740e-03 4.170655831694602966e-02
-7.263658046722412109e-01 1.033058315515518188e-01 9.079530835151672363e-02
-8.750438690185546875e-01 1.819306612014770508e-01 -1.808199472725391388e-02
-6.220674514770507812e-01 1.303260028362274170e-02 -7.395245879888534546e-02
-5.023397207260131836e-01 1.037475168704986572e-01 -8.537163585424423218e-02
-9.005261659622192383e-01 1.716611385345458984e-01 3.782715648412704468e-02
-3.623876273632049561e-01 7.071412354707717896e-02 4.736844822764396667e-02
