-7.501028776168823242e-01 3.142878413200378418e-01 6.304533779621124268e-02
-6.869109272956848145e-01 1.803130358457565308e-01 1.172515451908111572e-01
-7.586962580680847168e-01 -3.953866660594940186e-02 5.491072684526443481e-02
-8.029649257659912109e-01 3.116937279701232910e-01 -1.401181221008300781e-01
-8.413583636283874512e-01 -2.604638040065765381e-02 -9.382399171590805054e-02
-7.081729173660278320e-01 1.662988364696502686e-01 2.144651859998703003e-01
-7.549909353256225586e-01 2.162464708089828491e-01 2.740762531757354736e-01
-7.074854373931884766e-01 5.530075728893280029e-02 -1.758494675159454346e-01
-6.855589747428894043e-01 2.147206813097000122e-01 1.332947984337806702e-02
-8.426575064659118652e-01 3.015973567962646484e-01 1.264098733663558960e-01
-7.687992453575134277e-01 2.899164259433746338e-01 1.915843486785888672e-01
-7.755601406097412109e-01 1.081149727106094360e-01 -3.144660890102386475e-01
-8.782582879066467285e-01 9.717540442943572998e-02 2.059771418571472168e-01
-6.975656747817993164e-01 2.831334620714187622e-02 -4.897698760032653809e-02
-7.846931815147399902e-01 3.023490309715270996e-01 -1.655586808919906616e-01
-7.753590345382690430e-01 2.109591662883758545e-01 -2.917768061161041260e-01
-7.204984426498413086e-01 -1.218295097351074219e-02 9.842955507338047028e-03
-8.775258064270019531e-01 5.098934471607208252e-02 -1.727167516946792603e-01
-8.671219348907470703e-01 2.326351404190063477e-01 2.041338086128234863e-01
-7.079103589057922363e-01 2.675840854644775391e-01 -3.806699067354202271e-02
-8.633549809455871582e-01 2.417051047086715698e-02 1.587671488523483276e-01
-7.803483605384826660e-01 1.183748245239257812e-04 2.064324617385864258e-01
-8.899034261703491211e-01 2.243652790784835815e-01 1.334239244461059570e-01
-6.850695610046386719e-01 1.911218464374542236e-01 8.963325619697570801e-02
-9.035228490829467773e-01 1.457773000001907349e-01 -1.257834136486053467e-01
-6.930962800979614258e-01 7.386440783739089966e-02 -1.357825100421905518e-01
-7.140870690345764160e-01 1.433371454477310181e-01 -2.376982122659683228e-01
-7.535608410835266113e-01 1.528718322515487671e-01 2.975141704082489014e-01
-7.552699446678161621e-01 -2.016027271747589111e-02 1.344975233078002930e-01
-7.388951182365417480e-01 1.046579182147979736e-01 2.732181549072265625e-01
-8.823258280754089355e-01 7.320225238800048828e-02 -1.834690421819686890e-01
-7.919033765792846680e-01 2.433675527572631836e-01 2.716853320598602295e-01
-7.625072002410888672e-01 -2.464134991168975830e-02 -1.509494632482528687e-01
-6.999863386154174805e-01 2.527977228164672852e-01 -3.213365748524665833e-02
-8.277940750122070312e-01 3.190625905990600586e-01 8.930665999650955200e-02
-6.915701031684875488e-01 5.137719959020614624e-02 -8.115217089653015137e-02
-8.535729646682739258e-01 3.053930997848510742e-01 6.250987946987152100e-02
-7.298829555511474609e-01 -2.306549251079559326e-02 -9.212501347064971924e-03
-8.180612921714782715e-01 -4.583118855953216553e-02 1.058255508542060852e-02
-6.878095269203186035e-01 1.985431462526321411e-01 1.001090556383132935e-01
-7.096812129020690918e-01 1.084420680999755859e-01 -2.226115465164184570e-01
-9.008678197860717773e-01 1.087447106838226318e-01 1.206465512514114380e-01
-7.121868133544921875e-01 2.632069587707519531e-01 -9.728189557790756226e-02
-6.794615983963012695e-01 1.823434829711914062e-01 -3.571347892284393311e-02
-7.205899953842163086e-01 -7.505714893341064453e-05 9.238939732313156128e-02
-9.011113047599792480e-01 2.106201648712158203e-01 -8.326701819896697998e-02
-7.969019412994384766e-01 1.034134849905967712e-01 3.087733983993530273e-01
-8.973044157028198242e-01 1.533107161521911621e-01 1.538269817829132080e-01
-8.514795899391174316e-01 1.005589962005615234e-03 -1.580092012882232666e-01
-7.554491758346557617e-01 -3.725057840347290039e-02 -7.942707091569900513e-02
-6.850752234458923340e-01 1.020492985844612122e-01 1.094079166650772095e-01
-7.134401798248291016e-01 2.622142434120178223e-02 1.361921727657318115e-01
-7.321046590805053711e-01 8.693912625312805176e-02 2.540315091609954834e-01
-7.998747229576110840e-01 1.250692009925842285e-01 -3.207953870296478271e-01
-8.498390316963195801e-01 -1.503421366214752197e-02 -1.113074123859405518e-01
-8.363776803016662598e-01 2.678127288818359375e-01 2.158685326576232910e-01
-8.712135553359985352e-01 2.894065380096435547e-01 1.330899819731712341e-02
-8.278803825378417969e-01 3.257246017456054688e-01 2.629004977643489838e-02
-8.558077812194824219e-01 2.763711214065551758e-01 1.616761088371276855e-01
-7.059385180473327637e-01 2.663651704788208008e-01 1.140396855771541595e-02
-8.767039775848388672e-01 8.183613419532775879e-02 1.987809240818023682e-01
-6.808373928070068359e-01 1.847248375415802002e-01 5.431133881211280823e-02
-6.789098381996154785e-01 1.161480918526649475e-01 -7.314895838499069214e-02
-6.915927529335021973e-01 1.460586786270141602e-01 -1.623382121324539185e-01
-7.213126420974731445e-01 7.417261600494384766e-03 1.203304454684257507e-01
-6.948158144950866699e-01 3.267719596624374390e-02 1.663515903055667877e-02
-9.059492349624633789e-01 1.712733954191207886e-01 9.459184110164642334e-02
-7.617301344871520996e-01 2.050313353538513184e-02 -2.420926839113235474e-01
-6.992549896240234375e-01 2.105374336242675781e-01 1.501282304525375366e-01
-6.892615556716918945e-01 2.206726819276809692e-01 -5.546761304140090942e-02
-9.068174958229064941e-01 2.010286003351211548e-01 3.308517858386039734e-02
-7.890221476554870605e-01 -8.575275540351867676e-03 1.914573311805725098e-01
-6.934334635734558105e-01 3.971580415964126587e-02 4.378003999590873718e-02
-7.147939205169677734e-01 1.326783895492553711e-01 2.352215349674224854e-01
-7.964317202568054199e-01 2.013038098812103271e-01 3.030087649822235107e-01
-7.264670729637145996e-01 7.855117321014404297e-03 -1.553966999053955078e-01
-8.820847868919372559e-01 6.739711016416549683e-02 1.655330210924148560e-01
-7.386142611503601074e-01 2.633615732192993164e-01 1.951478570699691772e-01
-7.504516243934631348e-01 -2.165108919143676758e-03 1.729880273342132568e-01
-9.113101363182067871e-01 1.443326175212860107e-01 -5.121973901987075806e-02
-8.983373641967773438e-01 2.252612113952636719e-01 -7.154956459999084473e-02
-7.868112325668334961e-01 -3.002980351448059082e-02 1.352967470884323120e-01
-8.482412695884704590e-01 2.382946014404296875e-01 2.367693781852722168e-01
-7.885282039642333984e-01 3.284344077110290527e-01 7.102942466735839844e-02
-7.127230167388916016e-01 2.607005238533020020e-01 1.148462668061256409e-01
-9.066692590713500977e-01 1.066528856754302979e-01 -8.193553984165191650e-02
-8.672591447830200195e-01 1.432213187217712402e-02 1.216288581490516663e-01
-7.721726894378662109e-01 3.243476152420043945e-01 7.365809381008148193e-02
-8.173877596855163574e-01 1.402338892221450806e-01 3.102170526981353760e-01
-8.837144970893859863e-01 2.128555029630661011e-01 -1.748737394809722900e-01
-8.421962261199951172e-01 2.710891962051391602e-01 -1.958841681480407715e-01
-9.019609689712524414e-01 1.172262206673622131e-01 -1.284228116273880005e-01
-8.856014013290405273e-01 3.470087796449661255e-02 -9.712406992912292480e-02
-7.128666043281555176e-01 2.212325036525726318e-01 1.888450533151626587e-01
-7.340020537376403809e-01 1.800926029682159424e-01 -2.670682668685913086e-01
-8.218162655830383301e-01 -3.709094226360321045e-02 7.778674364089965820e-02
-9.016610383987426758e-01 1.051205098628997803e-01 -1.215545311570167542e-01
-8.371131420135498047e-01 6.787123531103134155e-02 2.643811404705047607e-01
-8.448874354362487793e-01 1.442052125930786133e-01 2.856426239013671875e-01
-7.567239403724670410e-01 -3.376869857311248779e-02 8.442701399326324463e-02
-8.644131422042846680e-01 2.690651714801788330e-01 -1.471211016178131104e-01
-7.981331944465637207e-01 -4.388323426246643066e-02 -9.565029293298721313e-02
-6.944645047187805176e-01 1.122346147894859314e-01 1.657831072807312012e-01
-7.074747681617736816e-01 8.716082572937011719e-02 -2.059163898229598999e-01
-8.489892482757568359e-01 1.494918763637542725e-01 -2.850084602832794189e-01
-7.239360809326171875e-01 1.351484358310699463e-01 -2.598514258861541748e-01
-8.767650127410888672e-01 1.298123896121978760e-01 -2.309331595897674561e-01
-8.209457993507385254e-01 3.288823962211608887e-01 7.173498161137104034e-03
-7.651045918464660645e-01 3.120695948600769043e-01 -1.128077283501625061e-01
-7.059379816055297852e-01 4.076189547777175903e-02 -1.471348851919174194e-01
-7.217227220535278320e-01 1.420003026723861694e-01 2.511200606822967529e-01
-7.214540839195251465e-01 2.893197536468505859e-01 3.219426795840263367e-02
-7.448920607566833496e-01 1.915540695190429688e-01 -2.771622240543365479e-01
-8.289419412612915039e-01 3.055814504623413086e-01 -1.344021558761596680e-01
-8.572483062744140625e-01 -1.058176159858703613e-03 -1.331366449594497681e-01
-6.985896229743957520e-01 3.338469564914703369e-02 7.207815349102020264e-02
-8.287094831466674805e-01 -1.043497025966644287e-02 -1.788957715034484863e-01
-7.197340130805969238e-01 1.270052790641784668e-01 -2.508819699287414551e-01
-8.819202780723571777e-01 2.518104016780853271e-01 1.196328103542327881e-01
-7.873048782348632812e-01 2.294385135173797607e-01 -2.810305655002593994e-01
-7.893257737159729004e-01 2.528561055660247803e-01 2.611189782619476318e-01
-7.258035540580749512e-01 2.874089479446411133e-01 -7.894071936607360840e-02
-7.351723909378051758e-01 -3.030642867088317871e-03 -1.542919278144836426e-01
-8.101171851158142090e-01 3.490141779184341431e-02 -2.689900100231170654e-01
-6.840137243270874023e-01 2.043354213237762451e-01 4.390234127640724182e-02
-6.868537068367004395e-01 1.119221970438957214e-01 1.278719604015350342e-01
-9.047306776046752930e-01 1.006892547011375427e-01 -9.298085421323776245e-02
-9.030702114105224609e-01 1.793082356452941895e-01 -1.134597659111022949e-01
-6.795614361763000488e-01 1.574852466583251953e-01 7.641806453466415405e-02
-7.207995653152465820e-01 1.253598928451538086e-02 1.321275681257247925e-01
-8.945467472076416016e-01 6.119690835475921631e-02 9.115315973758697510e-02
-6.813687086105346680e-01 8.295851945877075195e-02 -5.072100833058357239e-02
-7.239252924919128418e-01 -7.831633090972900391e-03 7.737349718809127808e-02
-6.775020956993103027e-01 9.976693987846374512e-02 -2.514054300263524055e-03
-6.956527233123779297e-01 2.376812994480133057e-01 -6.185695156455039978e-02
-8.652394413948059082e-01 2.915713191032409668e-01 -6.411337107419967651e-02
-7.203036546707153320e-01 8.152346312999725342e-02 2.272368222475051880e-01
-9.125486016273498535e-01 1.475313454866409302e-01 1.112326327711343765e-02
-8.646246790885925293e-01 2.977817952632904053e-01 2.109832828864455223e-03
-8.400281667709350586e-01 6.827878206968307495e-02 -2.728171646595001221e-01
-8.806203007698059082e-01 1.537824273109436035e-01 2.150799036026000977e-01
-8.855572938919067383e-01 2.502462863922119141e-01 -9.924376010894775391e-02
-9.125685691833496094e-01 1.423413157463073730e-01 -1.555341854691505432e-02
-6.966949105262756348e-01 2.473016083240509033e-01 7.250714115798473358e-03
-7.070044875144958496e-01 1.964857131242752075e-01 -1.934876292943954468e-01
-7.789841294288635254e-01 2.267196029424667358e-02 2.415178567171096802e-01
-8.637216687202453613e-01 1.411587297916412354e-01 -2.610814273357391357e-01
-7.384437322616577148e-01 8.603961765766143799e-02 -2.724926471710205078e-01
-8.370879888534545898e-01 1.208492144942283630e-01 -2.987456917762756348e-01
-6.821945905685424805e-01 1.875438392162322998e-01 6.647778302431106567e-02
-6.911682486534118652e-01 4.563400894403457642e-02 -5.383950471878051758e-02
-8.548887968063354492e-01 4.216840863227844238e-02 -2.235777825117111206e-01
-8.946394920349121094e-01 7.165759056806564331e-02 -1.239957660436630249e-01
-8.192870020866394043e-01 3.003797531127929688e-01 1.708622723817825317e-01
-6.761832237243652344e-01 1.546960771083831787e-01 2.367315068840980530e-02
-7.518292665481567383e-01 6.238922476768493652e-03 -2.081127017736434937e-01
-7.447178959846496582e-01 -3.040033578872680664e-02 6.090486049652099609e-02
-8.739343881607055664e-01 1.216215491294860840e-01 2.291806489229202271e-01
-7.673649787902832031e-01 2.263779640197753906e-01 2.771764099597930908e-01
-8.237308263778686523e-01 1.663192361593246460e-02 2.201867699623107910e-01
-9.029151797294616699e-01 1.467695981264114380e-01 1.237909048795700073e-01
-6.757650375366210938e-01 1.498130708932876587e-01 -1.935887895524501801e-02
-7.348567247390747070e-01 2.708130180835723877e-01 -1.650325357913970947e-01
-7.292343974113464355e-01 2.871569395065307617e-01 -9.839277714490890503e-02
-9.108733534812927246e-01 1.131826639175415039e-01 -1.981605030596256256e-02
-7.069187164306640625e-01 2.584901750087738037e-01 8.528856188058853149e-02
-8.772193789482116699e-01 1.118704155087471008e-01 -2.253840863704681396e-01
-7.905412912368774414e-01 1.843294203281402588e-01 -3.112551569938659668e-01
-7.398494482040405273e-01 2.903895378112792969e-01 1.357501000165939331e-01
-7.201968431472778320e-01 1.290230453014373779e-01 2.469834387302398682e-01
-7.379621863365173340e-01 -2.329032123088836670e-02 -9.008152037858963013e-02
-7.038114070892333984e-01 2.230617254972457886e-01 -1.496854722499847412e-01
-8.716749548912048340e-01 2.798736989498138428e-01 -8.074774593114852905e-02
-8.545053601264953613e-01 -2.181573212146759033e-02 5.827157758176326752e-03
-8.514921069145202637e-01 1.711468398571014404e-02 1.767405867576599121e-01
-8.914110064506530762e-01 9.081343561410903931e-02 -1.641775816679000854e-01
-7.222949266433715820e-01 2.858129143714904785e-01 -6.342995911836624146e-02
-7.792384028434753418e-01 -3.397397696971893311e-02 -1.376755833625793457e-01
-6.900638341903686523e-01 6.780860573053359985e-02 9.757680445909500122e-02
-7.455136775970458984e-01 3.122478425502777100e-01 5.076736211776733398e-02
-6.776077747344970703e-01 1.684104949235916138e-01 -3.442364931106567383e-02
-8.771228790283203125e-01 6.900355219841003418e-03 -5.322296172380447388e-03
-7.770110964775085449e-01 1.640152186155319214e-01 3.120051324367523193e-01
-8.383966088294982910e-01 2.171044945716857910e-01 -2.682072222232818604e-01
-8.409737348556518555e-01 2.915754616260528564e-01 -1.531219482421875000e-01
-6.977736353874206543e-01 2.600009739398956299e-02 -3.257656097412109375e-02
-7.170717716217041016e-01 2.382291853427886963e-01 -1.749698966741561890e-01
-7.581636905670166016e-01 8.316627144813537598e-02 2.847299277782440186e-01
-7.536480426788330078e-01 -2.567005157470703125e-02 -1.310341358184814453e-01
-8.237490057945251465e-01 -3.715270757675170898e-02 -9.281061589717864990e-02
-7.119489908218383789e-01 1.883952766656875610e-01 -2.147507220506668091e-01
-7.584676146507263184e-01 9.009876102209091187e-02 -2.976046800613403320e-01
-8.914779424667358398e-01 2.264547944068908691e-01 -1.200388595461845398e-01
-7.597691416740417480e-01 3.193325996398925781e-01 7.022439688444137573e-02
-9.069036245346069336e-01 1.742688715457916260e-01 -8.714243024587631226e-02
-9.001315236091613770e-01 6.713075935840606689e-02 5.485288798809051514e-02
-8.694921731948852539e-01 4.237338900566101074e-02 -1.868471056222915649e-01
-7.372165918350219727e-01 2.600723803043365479e-01 -1.918017417192459106e-01
-8.926627635955810547e-01 1.839635223150253296e-01 -1.659754812717437744e-01
-8.275274038314819336e-01 2.944500148296356201e-01 -1.682034283876419067e-01
-6.807100772857666016e-01 9.943088889122009277e-02 -7.590535283088684082e-02
-9.026908874511718750e-01 1.762563586235046387e-01 1.153720989823341370e-01
-8.680248260498046875e-01 1.526866406202316284e-01 2.465465217828750610e-01
-7.293524742126464844e-01 4.804477840662002563e-02 2.153929322957992554e-01
-7.224484682083129883e-01 8.039534091949462891e-03 -1.418765932321548462e-01
-7.341660857200622559e-01 -2.696430683135986328e-02 -2.236855216324329376e-02
-8.320347070693969727e-01 1.881053596735000610e-01 -2.932113111019134521e-01
-7.592543363571166992e-01 1.900916099548339844e-01 2.932648360729217529e-01
-8.046019077301025391e-01 3.296379148960113525e-01 6.069600582122802734e-02
-8.204521536827087402e-01 2.732081711292266846e-01 2.246851027011871338e-01
-7.202314734458923340e-01 2.381758391857147217e-02 -1.694601178169250488e-01
-8.826205134391784668e-01 4.623720049858093262e-02 -1.433515101671218872e-01
-8.856428861618041992e-01 8.963409066200256348e-02 1.760770976543426514e-01
-8.925355672836303711e-01 2.482351958751678467e-01 -4.207522049546241760e-02
-8.653231859207153320e-01 4.469345510005950928e-02 -2.021738737821578979e-01
-8.321982622146606445e-01 -1.899452507495880127e-02 1.299021393060684204e-01
-7.015900015830993652e-01 2.372273057699203491e-02 -7.298161089420318604e-02
-8.832400441169738770e-01 5.412677675485610962e-02 -1.545826494693756104e-01
-7.810951471328735352e-01 -3.325794637203216553e-02 1.218196749687194824e-01
-7.142241001129150391e-01 2.574095427989959717e-01 1.313040554523468018e-01
-8.403920531272888184e-01 3.071298003196716309e-01 -1.028643175959587097e-01
-8.453062772750854492e-01 3.144695758819580078e-01 -3.244818374514579773e-02
-8.744531273841857910e-01 2.218411564826965332e-01 1.960082948207855225e-01
-7.464634776115417480e-01 1.929003000259399414e-01 2.785153985023498535e-01
-8.000428676605224609e-01 2.703022360801696777e-01 -2.325142920017242432e-01
-7.157760858535766602e-01 2.250062227249145508e-01 -1.900499761104583740e-01
-7.797568440437316895e-01 1.048769801855087280e-01 3.073717355728149414e-01
-8.485322594642639160e-01 3.082404285669326782e-02 -2.211610823869705200e-01
-7.520389556884765625e-01 -3.980757296085357666e-02 1.166056934744119644e-02
-8.625106811523437500e-01 1.581092476844787598e-01 -2.615602314472198486e-01
-8.312101960182189941e-01 2.789517045021057129e-01 2.037480771541595459e-01
-8.316242098808288574e-01 2.937392592430114746e-01 1.718698590993881226e-01
-8.144901394844055176e-01 2.479770779609680176e-01 -2.579585611820220947e-01
-8.521652221679687500e-01 1.415833234786987305e-01 2.753528654575347900e-01
-6.946835517883300781e-01 1.203160881996154785e-01 -1.752585172653198242e-01
-8.692438602447509766e-01 2.078858613967895508e-01 2.224137037992477417e-01
-8.119217753410339355e-01 1.083892285823822021e-01 -3.145762979984283447e-01
-9.006390571594238281e-01 2.282760888338088989e-01 1.940154284238815308e-02
-9.025799036026000977e-01 2.223466336727142334e-01 6.985855288803577423e-04
-8.969019651412963867e-01 1.733177751302719116e-01 1.499359309673309326e-01
-7.406782507896423340e-01 6.736069917678833008e-04 1.606792211532592773e-01
-8.298417329788208008e-01 1.310091614723205566e-01 -3.067524135112762451e-01
-7.312728166580200195e-01 1.819081455469131470e-01 2.608913779258728027e-01
-6.999917030334472656e-01 2.444659471511840820e-01 8.223877102136611938e-02
-7.024988532066345215e-01 1.370276808738708496e-01 -2.053815275430679321e-01
-8.747367858886718750e-01 2.637463212013244629e-01 1.247336417436599731e-01
-6.925864815711975098e-01 3.737542778253555298e-02 -5.721284542232751846e-03
-7.682322263717651367e-01 2.472688555717468262e-01 2.576690912246704102e-01
-7.066823244094848633e-01 3.305631130933761597e-02 1.219118386507034302e-01
-7.527360916137695312e-01 -3.178647160530090332e-02 -1.024516746401786804e-01
-8.915102481842041016e-01 2.535659074783325195e-01 1.584636047482490540e-02
-8.371353745460510254e-01 -3.632220625877380371e-02 -5.636508576571941376e-04
-8.818119168281555176e-01 9.501872956752777100e-02 1.935834288597106934e-01
-8.180788755416870117e-01 -4.386490583419799805e-02 3.917239606380462646e-02
-8.490733504295349121e-01 2.024181187152862549e-01 -2.649712562561035156e-01
-9.053118228912353516e-01 9.335966408252716064e-02 -7.507885247468948364e-02
-6.792827844619750977e-01 1.661426275968551636e-01 6.518305838108062744e-02
-7.592322230339050293e-01 2.782123088836669922e-01 -1.965414583683013916e-01
-8.699722886085510254e-01 2.305065691471099854e-01 -1.972637772560119629e-01
-7.397646903991699219e-01 4.727295786142349243e-02 2.334447503089904785e-01
-8.300143480300903320e-01 3.204177021980285645e-01 -6.389116495847702026e-02
-8.846334815025329590e-01 2.441053688526153564e-01 -1.205480173230171204e-01
-7.804043889045715332e-01 1.983053237199783325e-02 -2.532490193843841553e-01
-7.997004985809326172e-01 2.923307418823242188e-01 2.000469416379928589e-01
-7.784724831581115723e-01 4.880142956972122192e-02 -2.837401032447814941e-01
-7.556385993957519531e-01 6.257784366607666016e-02 -2.792119979858398438e-01
-8.485747575759887695e-01 9.372711181640625000e-02 -2.761510908603668213e-01
-7.666745185852050781e-01 6.585719436407089233e-02 2.796485424041748047e-01
-6.947426795959472656e-01 1.440395563840866089e-01 1.729701757431030273e-01
-7.984042763710021973e-01 -8.083105087280273438e-03 -2.095451503992080688e-01
-6.956599950790405273e-01 2.322936058044433594e-01 8.590298146009445190e-02
-9.048213362693786621e-01 1.396173238754272461e-01 1.105944290757179260e-01
-6.818744540214538574e-01 1.116523146629333496e-01 9.307292103767395020e-02
-7.588695287704467773e-01 1.079771518707275391e-01 -3.039326965808868408e-01
-7.434390783309936523e-01 5.409686267375946045e-02 2.460151016712188721e-01
-8.532721996307373047e-01 3.011418581008911133e-01 -8.205391466617584229e-02
-8.036226034164428711e-01 4.929476976394653320e-02 -2.854042649269104004e-01
-6.998870372772216797e-01 2.367295622825622559e-01 1.052394509315490723e-01
-9.017293453216552734e-01 1.603106409311294556e-01 1.290495693683624268e-01
-8.436822295188903809e-01 3.119335174560546875e-01 -6.541062891483306885e-02
-8.589687347412109375e-01 1.289694011211395264e-01 -2.693556547164916992e-01
-7.565014958381652832e-01 -4.077830910682678223e-02 3.362130001187324524e-02
-7.261807322502136230e-01 2.416669577360153198e-02 -1.874803900718688965e-01
-7.099699378013610840e-01 1.536967158317565918e-01 2.224766612052917480e-01
-7.183009982109069824e-01 4.638095945119857788e-02 1.867981553077697754e-01
-8.965124487876892090e-01 5.834623426198959351e-02 -7.927773892879486084e-02
-7.244892120361328125e-01 2.648445069789886475e-01 -1.475336104631423950e-01
-8.517858982086181641e-01 2.216054201126098633e-01 2.468549460172653198e-01
-7.019703388214111328e-01 2.542270421981811523e-01 -5.205776169896125793e-02
-7.638937234878540039e-01 3.209202885627746582e-01 -6.306270509958267212e-02
-7.093866467475891113e-01 1.026727482676506042e-01 2.125166654586791992e-01
-7.464919686317443848e-01 3.065098524093627930e-01 -8.557321876287460327e-02
-7.288475036621093750e-01 2.809604704380035400e-01 -1.190765947103500366e-01
-7.527434825897216797e-01 2.797970175743103027e-02 2.280558943748474121e-01
-7.255551815032958984e-01 2.748356461524963379e-01 1.324346661567687988e-01
-7.112873792648315430e-01 2.686718702316284180e-01 -6.827165931463241577e-02
-7.776578664779663086e-01 3.260263800621032715e-01 -6.259576231241226196e-02
-8.939090371131896973e-01 1.392318159341812134e-01 1.688304096460342407e-01
-6.928983330726623535e-01 1.094778329133987427e-01 -1.639643609523773193e-01
-8.603389263153076172e-01 1.143506169319152832e-02 1.398298442363739014e-01
-8.992102742195129395e-01 1.837344467639923096e-01 -1.339098960161209106e-01
-8.416967391967773438e-01 2.444562762975692749e-01 -2.365507185459136963e-01
-7.708263397216796875e-01 -4.819269478321075439e-02 -2.058217860758304596e-02
-8.155121207237243652e-01 1.739103794097900391e-01 3.080465197563171387e-01
-8.242264986038208008e-01 2.199094295501708984e-01 -2.793854475021362305e-01
-7.021269798278808594e-01 3.127407282590866089e-02 9.168966114521026611e-02
-7.278665900230407715e-01 -1.118050515651702881e-02 -1.001185104250907898e-01
-7.226105928421020508e-01 2.408531904220581055e-01 1.918854564428329468e-01
-7.869311571121215820e-01 2.912894487380981445e-01 2.009869813919067383e-01
-7.166198492050170898e-01 -4.936471581459045410e-03 3.755112737417221069e-02
-9.094576835632324219e-01 1.610782742500305176e-01 6.651835888624191284e-02
-8.731175661087036133e-01 2.771751880645751953e-01 8.905979990959167480e-02
-7.576029896736145020e-01 2.091396600008010864e-01 -2.802219092845916748e-01
-7.406733632087707520e-01 -2.139154076576232910e-02 9.239591658115386963e-02
-6.965551972389221191e-01 4.271835833787918091e-02 -9.823893755674362183e-02
-8.800395131111145020e-01 8.290600776672363281e-02 -2.003626376390457153e-01
-7.123280167579650879e-01 1.239588633179664612e-01 -2.331277430057525635e-01
-8.609744310379028320e-01 2.871591150760650635e-01 -1.073960140347480774e-01
-8.558938503265380859e-01 2.533228397369384766e-01 2.034888118505477905e-01
-6.838023662567138672e-01 1.648401618003845215e-01 -1.099334210157394409e-01
-7.797002196311950684e-01 7.680615037679672241e-02 -3.037964701652526855e-01
-8.997276425361633301e-01 1.444871872663497925e-01 -1.478814482688903809e-01
-6.990457773208618164e-01 1.422523111104965210e-01 -1.931840181350708008e-01
-8.334566354751586914e-01 3.296285867691040039e-04 -1.954926997423171997e-01
-7.183031439781188965e-01 2.797470092773437500e-01 7.497341930866241455e-02
-8.974168300628662109e-01 1.021233648061752319e-01 -1.443906873464584351e-01
-7.017111778259277344e-01 2.567798793315887451e-01 3.485297039151191711e-02
-7.486137151718139648e-01 2.674230933189392090e-01 2.071379721164703369e-01
-9.065332412719726562e-01 1.918394863605499268e-01 -6.581386923789978027e-02
-8.588044643402099609e-01 5.256716907024383545e-02 2.141519039869308472e-01
-6.783202290534973145e-01 1.118056774139404297e-01 5.549639463424682617e-02
-8.416962623596191406e-01 2.850189805030822754e-01 -1.680364459753036499e-01
-8.744143247604370117e-01 3.706797957420349121e-03 2.025512047111988068e-02
-7.942624688148498535e-01 2.057378739118576050e-02 2.410925328731536865e-01
-7.887703180313110352e-01 2.863897085189819336e-01 -2.036368846893310547e-01
-8.285499215126037598e-01 2.478432953357696533e-01 2.516089379787445068e-01
-6.986684799194335938e-01 1.586613059043884277e-01 1.857445240020751953e-01
-7.039915323257446289e-01 8.365153521299362183e-02 -1.921257972717285156e-01
-8.454661965370178223e-01 3.150990009307861328e-01 3.045217506587505341e-02
-8.963273763656616211e-01 2.058905661106109619e-01 1.252018511295318604e-01
-6.846752166748046875e-01 2.048151791095733643e-01 -5.126210674643516541e-02
-7.888367772102355957e-01 1.571920365095138550e-01 3.159146606922149658e-01
-8.207316994667053223e-01 1.914721876382827759e-01 -3.002558052539825439e-01
-7.940397858619689941e-01 3.682207316160202026e-02 2.612813711166381836e-01
-8.848723769187927246e-01 1.236841902136802673e-01 -2.061353027820587158e-01
-8.319008350372314453e-01 2.456741034984588623e-01 -2.470559328794479370e-01
-9.058690667152404785e-01 1.544004678726196289e-01 1.027597934007644653e-01
-7.745445966720581055e-01 1.632377505302429199e-01 -3.138679563999176025e-01
-8.558135032653808594e-01 2.936239242553710938e-01 1.117201074957847595e-01
-7.050777673721313477e-01 2.237624228000640869e-01 1.572493612766265869e-01
-9.026597738265991211e-01 1.592909693717956543e-01 -1.283697038888931274e-01
-8.806656599044799805e-01 2.661765515804290771e-01 -7.722568511962890625e-02
-7.057607769966125488e-01 2.027866840362548828e-01 1.847491413354873657e-01
-8.245040774345397949e-01 -2.725498378276824951e-02 -1.362647712230682373e-01
-8.671465516090393066e-01 -3.575608134269714355e-03 4.877730831503868103e-02
-7.050232887268066406e-01 4.289747774600982666e-02 1.347406655550003052e-01
-8.904989957809448242e-01 1.363448947668075562e-01 -1.884998530149459839e-01
-7.010749578475952148e-01 3.005474060773849487e-02 -9.356071054935455322e-02
-8.745080232620239258e-01 6.172653287649154663e-02 -1.969884485006332397e-01
-7.973768115043640137e-01 2.607763111591339111e-01 -2.466517984867095947e-01
-6.943266391754150391e-01 2.402137517929077148e-01 -2.528288401663303375e-02
-7.685734033584594727e-01 2.000401765108108521e-01 2.955324649810791016e-01
-7.874326705932617188e-01 -4.815199971199035645e-02 4.499319195747375488e-02
-6.906911134719848633e-01 1.728924065828323364e-01 -1.459814459085464478e-01
-8.723922371864318848e-01 3.113227337598800659e-02 1.419052481651306152e-01
-7.356558442115783691e-01 5.726769566535949707e-03 -1.763163506984710693e-01
-7.155138850212097168e-01 5.541852861642837524e-02 -2.018059492111206055e-01
-7.051559686660766602e-01 2.485557794570922852e-01 -1.013741791248321533e-01
-7.112576365470886230e-01 2.751865386962890625e-01 2.088364213705062866e-02
-8.568128347396850586e-01 -1.513487100601196289e-02 -7.336150109767913818e-02
-6.961163878440856934e-01 9.814941883087158203e-02 -1.721056252717971802e-01
-7.243854999542236328e-01 1.078409701585769653e-01 -2.569347023963928223e-01
-7.484466433525085449e-01 -1.629079878330230713e-02 -1.505181938409805298e-01
-8.081424236297607422e-01 2.515910565853118896e-01 2.607676982879638672e-01
-7.055548429489135742e-01 2.561028003692626953e-01 -7.803990691900253296e-02
-8.492279648780822754e-01 1.848759055137634277e-01 2.727840542793273926e-01
-7.469246387481689453e-01 1.337930560111999512e-03 -1.907983720302581787e-01
-7.863263487815856934e-01 2.667084336280822754e-02 -2.633551657199859619e-01
-6.814935207366943359e-01 1.297706067562103271e-01 -1.033764183521270752e-01
-7.260656952857971191e-01 2.471235990524291992e-01 -1.868570744991302490e-01
-8.927786350250244141e-01 1.545073837041854858e-01 1.735861301422119141e-01
-8.277670145034790039e-01 5.788013339042663574e-03 -2.140073627233505249e-01
-8.854254484176635742e-01 2.241840958595275879e-02 1.213645003736019135e-02
-8.752156496047973633e-01 2.576114833354949951e-01 1.376785039901733398e-01
-7.104710340499877930e-01 2.056587934494018555e-01 1.975969970226287842e-01
-8.053692579269409180e-01 1.545368134975433350e-02 -2.469803690910339355e-01
-7.641659379005432129e-01 2.716749906539916992e-03 -2.167896479368209839e-01
-9.101005196571350098e-01 1.507152318954467773e-01 -6.817086786031723022e-02
-8.632827997207641602e-01 8.182580769062042236e-02 2.325844615697860718e-01
-8.878355026245117188e-01 2.548830509185791016e-01 -6.451319158077239990e-02
-7.257051467895507812e-01 2.946168184280395508e-01 -2.266937680542469025e-02
-7.487788796424865723e-01 3.124592304229736328e-01 -5.967583134770393372e-02
-7.143436074256896973e-01 2.698090672492980957e-01 9.295815229415893555e-02
-7.700167298316955566e-01 3.047806024551391602e-01 1.554087251424789429e-01
-9.064153432846069336e-01 8.616955578327178955e-02 2.442902512848377228e-02
-7.407676577568054199e-01 3.102323710918426514e-01 -1.341346371918916702e-02
-7.888492345809936523e-01 2.088874578475952148e-01 -2.975389063358306885e-01
-7.076634764671325684e-01 1.099114120006561279e-02 5.256963521242141724e-02
-8.149222731590270996e-01 2.150943279266357422e-01 -2.888634502887725830e-01
-6.859830021858215332e-01 2.027521431446075439e-01 -7.371544092893600464e-02
-8.318716883659362793e-01 -3.900340199470520020e-02 -3.691993281245231628e-02
-6.893332004547119141e-01 2.094958126544952393e-01 9.156788140535354614e-02
-8.928945660591125488e-01 5.672045797109603882e-02 -1.058141887187957764e-01
-8.580768108367919922e-01 -1.788811385631561279e-02 -3.076007403433322906e-02
-8.671103119850158691e-01 2.761066555976867676e-01 1.239633113145828247e-01
-7.068638801574707031e-01 8.641809225082397461e-03 -3.865423053503036499e-02
-8.438455462455749512e-01 3.071066141128540039e-01 1.004112511873245239e-01
-8.633733987808227539e-01 2.484145313501358032e-01 1.929964572191238403e-01
-7.168614268302917480e-01 6.226205825805664062e-02 2.019400149583816528e-01
-6.763625144958496094e-01 1.523609757423400879e-01 -3.502048179507255554e-02
-8.421045541763305664e-01 1.587243974208831787e-01 2.885002493858337402e-01
-8.555389046669006348e-01 1.606110632419586182e-01 -2.733029127120971680e-01
-6.982269883155822754e-01 6.759264320135116577e-02 1.436447203159332275e-01
-7.000979781150817871e-01 1.779671311378479004e-01 -1.835740804672241211e-01
-6.786836385726928711e-01 1.786157935857772827e-01 2.949754707515239716e-02
-8.300191760063171387e-01 7.315301895141601562e-02 -2.871569395065307617e-01
-7.279367446899414062e-01 5.671767145395278931e-02 -2.333528101444244385e-01
-8.330628871917724609e-01 2.338831126689910889e-01 2.613648772239685059e-01
-7.014322280883789062e-01 4.612990468740463257e-02 -1.357768774032592773e-01
-6.759868860244750977e-01 1.265301257371902466e-01 2.777870371937751770e-02
-7.661927938461303711e-01 3.253945112228393555e-01 -2.913666516542434692e-02
-7.961499691009521484e-01 1.191999018192291260e-02 2.282534986734390259e-01
-8.050920963287353516e-01 -4.893149435520172119e-02 2.108345553278923035e-02
-6.875375509262084961e-01 1.418826580047607422e-01 -1.427047401666641235e-01
-6.891942620277404785e-01 8.085285127162933350e-02 -1.215730011463165283e-01
-7.010770440101623535e-01 2.520048916339874268e-01 5.969054996967315674e-02
-8.930094838142395020e-01 9.723468124866485596e-02 1.524641662836074829e-01
-7.782174944877624512e-01 -3.717944025993347168e-02 -1.241547316312789917e-01
-6.990475058555603027e-01 8.131068944931030273e-02 -1.717305183410644531e-01
-7.823832035064697266e-01 2.741523683071136475e-01 -2.236559540033340454e-01
-9.001510739326477051e-01 1.501676291227340698e-01 1.396669000387191772e-01
-6.829189658164978027e-01 1.718416064977645874e-01 9.588520973920822144e-02
-7.116324901580810547e-01 2.868860214948654175e-02 -1.477708220481872559e-01
-7.442377805709838867e-01 2.278988361358642578e-01 -2.477623969316482544e-01
-7.473247647285461426e-01 2.825731039047241211e-01 -1.673571467399597168e-01
-7.665637731552124023e-01 2.991861104965209961e-01 1.667301356792449951e-01
-7.492802143096923828e-01 -7.697775959968566895e-03 -1.751298457384109497e-01
-7.364478707313537598e-01 2.464676797389984131e-01 -2.118136733770370483e-01
-7.002539634704589844e-01 2.551463246345520020e-01 -6.242769770324230194e-03
-6.840490698814392090e-01 1.769163906574249268e-01 -1.004680097103118896e-01
-6.960161924362182617e-01 1.546290814876556396e-01 -1.791242361068725586e-01
-7.580214738845825195e-01 3.145743012428283691e-01 -8.378951251506805420e-02
-7.592625617980957031e-01 1.498199552297592163e-01 -3.065666854381561279e-01
-8.790597915649414062e-01 2.331184446811676025e-01 -1.651142686605453491e-01
-7.474787831306457520e-01 -3.726789355278015137e-02 -2.423968911170959473e-02
-8.676388859748840332e-01 -6.773978471755981445e-03 4.318610765039920807e-03
-8.211034536361694336e-01 -2.543960511684417725e-02 -1.483179479837417603e-01
-8.383845090866088867e-01 2.835461497306823730e-01 1.840788125991821289e-01
-8.906025886535644531e-01 1.904959082603454590e-01 1.678545922040939331e-01
-7.530565261840820312e-01 -4.012674093246459961e-02 -3.684378042817115784e-02
-8.457604050636291504e-01 1.996308565139770508e-01 2.709068953990936279e-01
-7.192792296409606934e-01 2.557887732982635498e-01 1.555084437131881714e-01
-8.710721731185913086e-01 2.906532585620880127e-02 -1.579886972904205322e-01
-9.097009897232055664e-01 1.821800023317337036e-01 -3.664121404290199280e-02
-7.807664275169372559e-01 1.390039175748825073e-01 3.146726787090301514e-01
-7.001219987869262695e-01 2.014284580945968628e-02 -1.880753599107265472e-02
-7.949066162109375000e-01 3.133162856101989746e-03 -2.306187450885772705e-01
-6.787084341049194336e-01 1.200917810201644897e-01 6.818237155675888062e-02
-7.352206110954284668e-01 2.975828647613525391e-01 -8.025784045457839966e-02
-6.974408030509948730e-01 2.457015812397003174e-01 -4.263282194733619690e-02
-7.374669909477233887e-01 4.046478867530822754e-02 2.216897308826446533e-01
-7.929278016090393066e-01 -3.296583890914916992e-04 2.077982127666473389e-01
-8.837766051292419434e-01 3.378731012344360352e-02 9.189803153276443481e-02
-8.069155812263488770e-01 3.276082277297973633e-01 7.497834414243698120e-02
-8.016122579574584961e-01 3.323914408683776855e-01 2.653619460761547089e-02
-8.653748035430908203e-01 9.609892964363098145e-03 -1.329555362462997437e-01
-8.786542415618896484e-01 2.508207559585571289e-01 -1.342579573392868042e-01
-7.811767458915710449e-01 1.770633608102798462e-01 3.105307817459106445e-01
-7.520360350608825684e-01 1.204318553209304810e-01 2.937915921211242676e-01
-7.539044022560119629e-01 3.133362829685211182e-01 8.702235668897628784e-02
-7.527061700820922852e-01 1.317660510540008545e-02 -2.210602760314941406e-01
-8.835064172744750977e-01 1.446941792964935303e-01 -2.123772501945495605e-01
-8.645270466804504395e-01 2.975669503211975098e-01 2.061446197330951691e-02
-7.687986493110656738e-01 -4.717274010181427002e-02 1.264844555407762527e-02
-6.974778771400451660e-01 1.245319992303848267e-01 1.819796860218048096e-01
-7.547698616981506348e-01 2.348753362894058228e-01 -2.542938292026519775e-01
-6.861035227775573730e-01 2.015010267496109009e-01 7.952814549207687378e-02
-8.293637633323669434e-01 1.526075750589370728e-01 -3.063063323497772217e-01
-8.865249752998352051e-01 1.699794381856918335e-01 -1.969898343086242676e-01
-7.529671192169189453e-01 9.707331657409667969e-03 2.000970542430877686e-01
-6.877174973487854004e-01 6.374818831682205200e-02 -7.847227156162261963e-02
-7.013509273529052734e-01 1.913303136825561523e-01 1.786140352487564087e-01
-6.778360605239868164e-01 1.455140411853790283e-01 6.247947365045547485e-02
-9.022781848907470703e-01 2.113026976585388184e-01 -6.982517242431640625e-02
-8.638387918472290039e-01 1.001265048980712891e-01 -2.523893415927886963e-01
-8.299431800842285156e-01 2.875390648841857910e-01 -1.812341213226318359e-01
-9.080662131309509277e-01 1.449927389621734619e-01 -9.102621674537658691e-02
-8.136918544769287109e-01 -1.355068385601043701e-02 -1.895844489336013794e-01
-6.829192638397216797e-01 1.312166452407836914e-01 1.099638342857360840e-01
-8.842890858650207520e-01 2.170477062463760376e-02 -4.618005082011222839e-02
-9.042388200759887695e-01 2.133052498102188110e-01 -3.232781589031219482e-02
-7.283120751380920410e-01 1.526894569396972656e-01 2.632248699665069580e-01
-6.781659126281738281e-01 1.005896702408790588e-01 -3.920645639300346375e-02
-9.098807573318481445e-01 1.701732575893402100e-01 5.285896360874176025e-02
-7.142961025238037109e-01 2.540835738182067871e-01 -1.339077502489089966e-01
-8.759082555770874023e-01 5.179628729820251465e-03 -2.234802395105361938e-02
-8.424177169799804688e-01 4.229088127613067627e-02 -2.458495795726776123e-01
-7.219074964523315430e-01 2.753997445106506348e-01 -1.073707342147827148e-01
-6.930569410324096680e-01 9.377877414226531982e-02 1.477825641632080078e-01
-8.689240217208862305e-01 9.824518859386444092e-02 -2.404423356056213379e-01
-8.965840339660644531e-01 1.315057873725891113e-01 1.554433256387710571e-01
-7.874600887298583984e-01 1.012675017118453979e-01 -3.159695863723754883e-01
-6.905088424682617188e-01 1.932069063186645508e-01 1.259005218744277954e-01
-7.695193290710449219e-01 3.128280043601989746e-01 1.275998502969741821e-01
-7.014765143394470215e-01 1.864548772573471069e-02 2.376486547291278839e-02
-7.746249437332153320e-01 5.265874415636062622e-02 2.731231451034545898e-01
-8.932918906211853027e-01 1.968091726303100586e-01 1.509502530097961426e-01
-9.119076728820800781e-01 1.619868427515029907e-01 -2.528634667396545410e-02
-9.030610322952270508e-01 7.293244451284408569e-02 3.308012336492538452e-02
-7.337791919708251953e-01 9.951746463775634766e-02 -2.710743248462677002e-01
-8.495682477951049805e-01 1.041669547557830811e-01 2.701373100280761719e-01
-8.830507993698120117e-01 1.424126327037811279e-01 2.079628407955169678e-01
-7.868035435676574707e-01 3.322594165802001953e-01 -1.361027709208428860e-03
-6.908414363861083984e-01 2.263389378786087036e-01 5.616656318306922913e-02
-6.808682680130004883e-01 8.571234345436096191e-02 4.219374060630798340e-02
-8.612043261528015137e-01 -6.801933050155639648e-04 -1.179398223757743835e-01
-6.843959689140319824e-01 6.449285149574279785e-02 1.833014003932476044e-02
-8.517825603485107422e-01 2.091448605060577393e-01 2.562429904937744141e-01
-8.085969090461730957e-01 3.056007623672485352e-01 1.652978956699371338e-01
-7.267209291458129883e-01 1.720454096794128418e-01 -2.576538920402526855e-01
-7.821230888366699219e-01 3.014249205589294434e-01 1.755526810884475708e-01
-8.019804954528808594e-01 9.163400530815124512e-02 -3.121902644634246826e-01
-7.897620201110839844e-01 -5.103166401386260986e-02 -2.271662466228008270e-02
-8.170956969261169434e-01 6.286054849624633789e-03 2.091452032327651978e-01
-6.876217126846313477e-01 2.145925760269165039e-01 5.993856489658355713e-02
-8.124338388442993164e-01 3.237673640251159668e-01 -8.248368650674819946e-02
-7.426763176918029785e-01 3.016094565391540527e-01 1.037256717681884766e-01
-7.197144627571105957e-01 2.476087510585784912e-01 1.725415736436843872e-01
-7.499200105667114258e-01 3.151469230651855469e-01 -4.360806196928024292e-02
-7.402901053428649902e-01 2.274936139583587646e-01 2.451674938201904297e-01
-7.212409973144531250e-01 -1.308357715606689453e-02 -2.732636965811252594e-02
-8.916876316070556641e-01 1.287854313850402832e-01 1.757221072912216187e-01
-8.763140439987182617e-01 2.252309322357177734e-01 -1.852898001670837402e-01
-7.240393757820129395e-01 2.081107795238494873e-01 2.311251461505889893e-01
-7.217356562614440918e-01 5.013730376958847046e-02 2.006506472826004028e-01
-7.014057636260986328e-01 1.139892861247062683e-01 1.927988678216934204e-01
-7.486144304275512695e-01 -3.086273372173309326e-02 7.445490360260009766e-02
-8.031271696090698242e-01 1.752846240997314453e-01 -3.141538798809051514e-01
-6.800180673599243164e-01 8.363129198551177979e-02 8.450090885162353516e-03
-8.969575166702270508e-01 9.879163652658462524e-02 1.342923045158386230e-01
-6.963244676589965820e-01 4.978731274604797363e-02 -1.140711680054664612e-01
-8.727935552597045898e-01 1.077698171138763428e-02 8.142762631177902222e-02
-7.671893239021301270e-01 2.947204709053039551e-01 1.788243204355239868e-01
-6.909726262092590332e-01 2.324483096599578857e-01 8.197819814085960388e-03
-7.651432156562805176e-01 2.225701212882995605e-01 -2.761497795581817627e-01
-8.683295249938964844e-01 1.125279963016510010e-01 -2.474733740091323853e-01
-8.797739148139953613e-01 2.564734518527984619e-01 -1.151411235332489014e-01
-8.969804644584655762e-01 2.269484102725982666e-01 8.086464554071426392e-02
-9.001551866531372070e-01 9.426748752593994141e-02 1.102305203676223755e-01
-9.034013748168945312e-01 1.866097599267959595e-01 1.011970862746238708e-01
-8.906188011169433594e-01 2.164605408906936646e-01 -1.412368565797805786e-01
-6.830339431762695312e-01 2.015738189220428467e-01 -3.492651879787445068e-02
-7.422107458114624023e-01 2.957347631454467773e-01 -1.164349913597106934e-01
-6.918617486953735352e-01 9.638471901416778564e-02 -1.515806317329406738e-01
-9.083132147789001465e-01 9.888423979282379150e-02 3.313864767551422119e-02
-9.081737995147705078e-01 9.448605775833129883e-02 -2.768960036337375641e-02
-7.688155770301818848e-01 2.565554976463317871e-01 2.470292150974273682e-01
-8.962529897689819336e-01 5.509617179632186890e-02 5.718469992280006409e-02
-8.200075626373291016e-01 -4.544614255428314209e-02 -2.304418478161096573e-03
-7.976101636886596680e-01 -2.130492031574249268e-02 -1.796317249536514282e-01
-7.770327925682067871e-01 3.231066465377807617e-01 -8.083838969469070435e-02
-6.799925565719604492e-01 1.206192597746849060e-01 -8.741485327482223511e-02
-8.758403658866882324e-01 2.511998414993286133e-01 1.486960053443908691e-01
-8.510317206382751465e-01 -1.035390794277191162e-02 -1.249662563204765320e-01
-6.847872138023376465e-01 2.112778425216674805e-01 -1.786175929009914398e-02
-7.880319952964782715e-01 -4.648420214653015137e-02 5.915487557649612427e-02
-8.550226688385009766e-01 -1.420739293098449707e-02 -9.036776423454284668e-02
-8.139638304710388184e-01 1.741813123226165771e-02 2.295154482126235962e-01
-9.094337821006774902e-01 1.114691570401191711e-01 4.410455375909805298e-02
-7.435734868049621582e-01 2.098401784896850586e-01 -2.630844116210937500e-01
-7.934838533401489258e-01 3.207490444183349609e-01 -1.064898595213890076e-01
-8.837087154388427734e-01 2.350169420242309570e-01 1.453941315412521362e-01
-6.759141683578491211e-01 1.558497548103332520e-01 5.004706792533397675e-03
-6.870487928390502930e-01 8.065044879913330078e-02 9.764467179775238037e-02
-8.826358914375305176e-01 2.279529571533203125e-01 1.607742309570312500e-01
-8.898646831512451172e-01 3.646965324878692627e-02 -6.417600065469741821e-02
-7.730894684791564941e-01 2.503997385501861572e-01 -2.528066337108612061e-01
-8.970372676849365234e-01 2.352713644504547119e-01 -4.791133105754852295e-02
-9.122064709663391113e-01 1.465525627136230469e-01 2.520037256181240082e-02
-8.137060403823852539e-01 -4.772137105464935303e-02 -1.572155579924583435e-02
-7.082378864288330078e-01 2.290038764476776123e-02 1.037158295512199402e-01
-8.011929392814636230e-01 -4.459774494171142578e-02 6.811761111021041870e-02
-8.263015151023864746e-01 2.910651564598083496e-01 1.853731721639633179e-01
-7.316976785659790039e-01 3.019439578056335449e-01 1.589808799326419830e-02
-7.634451985359191895e-01 1.227401047945022583e-01 3.040305376052856445e-01
-8.664726018905639648e-01 5.446077138185501099e-02 -2.113928943872451782e-01
-7.279976606369018555e-01 6.884401291608810425e-02 -2.438292503356933594e-01
-7.044292092323303223e-01 1.633614897727966309e-01 -2.059745937585830688e-01
-7.038030028343200684e-01 2.080519199371337891e-01 -1.703297495841979980e-01
-7.681549787521362305e-01 1.260130107402801514e-02 2.207479178905487061e-01
-7.521866559982299805e-01 3.008919656276702881e-01 -1.263411194086074829e-01
-8.756521940231323242e-01 2.070652395486831665e-01 2.062518596649169922e-01
-7.342751026153564453e-01 2.529680728912353516e-02 -2.083993107080459595e-01
-7.188643217086791992e-01 2.866824269294738770e-01 -6.538519635796546936e-03
-8.678665161132812500e-01 1.253419965505599976e-01 2.443266063928604126e-01
-7.312951683998107910e-01 -3.766611218452453613e-03 1.238461881875991821e-01
-8.679001331329345703e-01 1.898725181818008423e-01 2.367220073938369751e-01
-8.709911704063415527e-01 2.460761070251464844e-01 1.748447567224502563e-01
-8.319950699806213379e-01 3.077531754970550537e-01 -1.211567819118499756e-01
-8.822216987609863281e-01 1.785368025302886963e-01 -2.070184350013732910e-01
-8.413087725639343262e-01 -2.964526414871215820e-02 5.070492252707481384e-02
-8.567113876342773438e-01 2.257983386516571045e-01 -2.327671349048614502e-01
-8.071044683456420898e-01 -2.377577126026153564e-02 1.493861675262451172e-01
-7.637469172477722168e-01 4.908404499292373657e-02 -2.754851281642913818e-01
-9.073756933212280273e-01 1.301651000976562500e-01 -9.458899497985839844e-02
-9.098638892173767090e-01 1.696175038814544678e-01 -5.767144635319709778e-02
-7.093715667724609375e-01 1.393006294965744019e-01 -2.257994860410690308e-01
-7.428292632102966309e-01 -2.412521839141845703e-02 -1.062255054712295532e-01
-6.925113797187805176e-01 1.849838197231292725e-01 1.452884376049041748e-01
-7.423497438430786133e-01 1.145702600479125977e-02 -2.016877084970474243e-01
-8.780245780944824219e-01 7.215554267168045044e-02 1.852349787950515747e-01
-7.496140599250793457e-01 5.450081080198287964e-02 -2.662027776241302490e-01
-7.389638423919677734e-01 3.025599420070648193e-01 8.204587548971176147e-02
-7.261515855789184570e-01 2.869365215301513672e-01 9.170492738485336304e-02
-7.234891653060913086e-01 2.901885807514190674e-01 5.142811313271522522e-02
-8.549339771270751953e-01 2.637676000595092773e-01 1.889214664697647095e-01
-8.959845304489135742e-01 6.964050233364105225e-02 -1.114859655499458313e-01
-9.007515311241149902e-01 7.143018394708633423e-02 -7.365740835666656494e-02
-8.126309514045715332e-01 3.179096877574920654e-01 1.209733262658119202e-01
-8.854216337203979492e-01 4.682420939207077026e-02 1.162032410502433777e-01
-8.656228184700012207e-01 2.695364952087402344e-01 1.470751166343688965e-01
-7.274689674377441406e-01 1.236016154289245605e-01 -2.659476101398468018e-01
-8.147686123847961426e-01 5.449428409337997437e-02 2.725313603878021240e-01
-8.734880685806274414e-01 2.713704705238342285e-01 1.084382161498069763e-01
-6.899964809417724609e-01 1.095098555088043213e-01 1.436948329210281372e-01
-7.303840517997741699e-01 7.045075297355651855e-03 1.497630178928375244e-01
