8.539288491010665894e-02 -5.103475600481033325e-02 -7.677347958087921143e-02
1.481643915176391602e-01 -7.263350486755371094e-02 3.300890699028968811e-02
1.439888328313827515e-01 -5.712382867932319641e-02 -7.537445425987243652e-02
-1.812501251697540283e-02 -5.433852225542068481e-02 -7.999628782272338867e-02
3.672213479876518250e-02 -4.266246408224105835e-02 1.463551446795463562e-02
5.262179300189018250e-02 -6.500699371099472046e-02 4.540064558386802673e-02
1.740183681249618530e-01 -8.387101441621780396e-02 -4.833836480975151062e-02
8.267078548669815063e-02 -4.780685529112815857e-02 -5.287056043744087219e-02
1.138195469975471497e-01 -4.686095565557479858e-02 4.338831827044487000e-02
6.630504876375198364e-02 -5.033911392092704773e-02 -7.901284098625183105e-02
1.312572360038757324e-01 -7.221176475286483765e-02 3.695970401167869568e-02
9.282942116260528564e-02 -4.453127831220626831e-02 4.436075687408447266e-05
1.711126714944839478e-01 -5.674326419830322266e-02 3.230363503098487854e-02
8.848161995410919189e-02 -6.121866777539253235e-02 -1.276605874300003052e-01
7.973626255989074707e-02 -8.543598651885986328e-02 -1.284531801939010620e-01
1.656798422336578369e-01 -6.472591310739517212e-02 -9.407154470682144165e-02
1.125185713171958923e-01 -7.823114842176437378e-02 6.984069943428039551e-03
4.643842577934265137e-03 -4.983909428119659424e-02 -7.158391922712326050e-02
1.717747747898101807e-01 -5.665736645460128784e-02 -2.915954962372779846e-02
1.731851696968078613e-01 -5.966109782457351685e-02 -5.495718866586685181e-02
1.051251292228698730e-01 -8.633209019899368286e-02 -6.608867645263671875e-02
6.435635685920715332e-02 -7.358120381832122803e-02 1.534426957368850708e-02
9.949780255556106567e-02 -4.857228696346282959e-02 6.434290111064910889e-02
1.379578262567520142e-01 -8.761626482009887695e-02 -1.026461273431777954e-01
2.048817276954650879e-01 -6.869105249643325806e-02 -1.943818479776382446e-02
3.241807594895362854e-02 -7.200248539447784424e-02 2.075482159852981567e-03
1.402806788682937622e-01 -4.936575889587402344e-02 5.885496735572814941e-03
2.440117672085762024e-02 -7.993811368942260742e-02 -1.030167192220687866e-01
5.081946030259132385e-02 -4.262259602546691895e-02 2.162276580929756165e-02
1.330544650554656982e-01 -8.419010788202285767e-02 -3.388588130474090576e-02
2.060989141464233398e-01 -7.011467963457107544e-02 -3.513041883707046509e-02
7.233205437660217285e-02 -4.460440576076507568e-02 -2.365398034453392029e-02
1.253784000873565674e-01 -5.373527854681015015e-02 -6.970959901809692383e-02
1.326614469289779663e-01 -7.950121164321899414e-02 -1.472366303205490112e-01
1.355964839458465576e-01 -8.003266900777816772e-02 -2.148069441318511963e-03
1.386554390192031860e-01 -8.580650389194488525e-02 -5.148389562964439392e-02
1.516075730323791504e-01 -5.399637669324874878e-02 -4.139930754899978638e-02
8.920374512672424316e-02 -4.408034682273864746e-02 2.966097369790077209e-02
7.743171602487564087e-02 -8.321881294250488281e-02 -1.450013071298599243e-01
6.975351274013519287e-02 -6.846318393945693970e-02 4.065668210387229919e-02
9.851273149251937866e-02 -8.702709525823593140e-02 -8.650857955217361450e-02
1.049141883850097656e-01 -6.048601120710372925e-02 6.891453266143798828e-02
1.519417017698287964e-01 -8.599361032247543335e-02 -1.163521856069564819e-01
8.936490118503570557e-02 -8.321832120418548584e-02 -3.804229199886322021e-02
1.704874634742736816e-01 -7.828448712825775146e-02 -9.417608380317687988e-04
1.493314951658248901e-01 -8.727311342954635620e-02 -9.058583527803421021e-02
1.484307497739791870e-01 -7.462838292121887207e-02 -1.362130939960479736e-01
1.918666660785675049e-01 -6.670924276113510132e-02 1.864757388830184937e-02
9.687338769435882568e-02 -4.980804026126861572e-02 -6.141094490885734558e-02
1.689238846302032471e-02 -4.768875241279602051e-02 4.504143819212913513e-02
1.274093538522720337e-01 -5.056769400835037231e-02 -4.093846306204795837e-02
5.221921578049659729e-02 -8.054085075855255127e-02 -1.446494162082672119e-01
-2.260816842317581177e-02 -5.272276327013969421e-02 -6.453214585781097412e-02
1.409362405538558960e-01 -4.944312572479248047e-02 2.182533219456672668e-02
-7.112860679626464844e-03 -6.383804231882095337e-02 1.010950654745101929e-03
1.822808384895324707e-01 -7.378180325031280518e-02 -1.042810901999473572e-01
3.656148910522460938e-03 -5.566634982824325562e-02 3.585692867636680603e-02
1.907888054847717285e-01 -6.305030733346939087e-02 -4.392364248633384705e-02
1.998172402381896973e-01 -6.856729090213775635e-02 2.202101051807403564e-03
1.035581305623054504e-01 -7.529079914093017578e-02 2.112533524632453918e-02
1.511380672454833984e-01 -5.950197577476501465e-02 5.855122581124305725e-02
1.787764132022857666e-01 -5.708059668540954590e-02 7.965780794620513916e-03
4.927023127675056458e-02 -8.179683983325958252e-02 -6.078816205263137817e-02
2.723628282546997070e-02 -6.533131748437881470e-02 2.901414409279823303e-02
1.188878118991851807e-01 -8.780752122402191162e-02 -9.663660824298858643e-02
1.170344203710556030e-01 -7.806514203548431396e-02 -1.533371359109878540e-01
1.230987906455993652e-01 -4.700060188770294189e-02 1.574164256453514099e-02
1.857364177703857422e-02 -4.390231519937515259e-02 -1.714806072413921356e-02
1.234090626239776611e-01 -4.752620682120323181e-02 -4.562661051750183105e-03
1.573275029659271240e-01 -6.081284582614898682e-02 -8.358360826969146729e-02
1.363900601863861084e-01 -5.383083969354629517e-02 6.156807765364646912e-02
-3.461277484893798828e-02 -5.956175178289413452e-02 -5.219862237572669983e-02
8.791933953762054443e-02 -7.032881677150726318e-02 3.943353518843650818e-02
1.286087930202484131e-01 -4.803251475095748901e-02 3.318844363093376160e-02
-2.520567178726196289e-02 -5.105437710881233215e-02 -4.465236887335777283e-02
-2.605918049812316895e-02 -5.789554491639137268e-02 -9.143039584159851074e-03
1.381658911705017090e-01 -4.963811114430427551e-02 -1.012701913714408875e-02
1.102876663208007812e-02 -7.100080698728561401e-02 -1.404679007828235626e-02
1.109085530042648315e-01 -6.700540333986282349e-02 5.454541370272636414e-02
1.212902367115020752e-03 -7.541455328464508057e-02 -8.893172442913055420e-02
1.849703490734100342e-01 -8.346129208803176880e-02 -7.220234721899032593e-02
7.244811207056045532e-02 -6.137435510754585266e-02 6.267878413200378418e-02
-5.297660827636718750e-04 -4.594396799802780151e-02 -3.059631213545799255e-02
1.612901985645294189e-01 -8.632384240627288818e-02 -9.743055701255798340e-02
4.806533828377723694e-02 -7.948155701160430908e-02 -3.675454854965209961e-02
-1.412530988454818726e-02 -6.060671433806419373e-02 -1.064540892839431763e-01
1.152006760239601135e-01 -8.305639773607254028e-02 -2.614183165132999420e-02
1.504336297512054443e-01 -6.687859445810317993e-02 -1.162635236978530884e-01
1.315719187259674072e-01 -4.962815344333648682e-02 -2.396433800458908081e-02
5.545785278081893921e-02 -4.892519861459732056e-02 6.586332619190216064e-02
2.127677202224731445e-02 -7.580100744962692261e-02 -3.662768006324768066e-02
-6.872281432151794434e-03 -6.715106219053268433e-02 -1.537806540727615356e-02
-2.635614573955535889e-02 -6.630644202232360840e-02 -6.451179832220077515e-02
1.860870420932769775e-01 -8.158543705940246582e-02 -3.915343433618545532e-02
7.351727783679962158e-02 -8.020840585231781006e-02 -2.163636311888694763e-02
2.627386525273323059e-02 -7.978203892707824707e-02 -7.744210213422775269e-02
7.847654074430465698e-02 -7.374518364667892456e-02 2.107015624642372131e-02
9.926787763833999634e-02 -8.129909634590148926e-02 -1.698772236704826355e-02
9.241186082363128662e-02 -4.715286567807197571e-02 -4.014242812991142273e-02
3.403814136981964111e-02 -4.283201694488525391e-02 -4.971586167812347412e-04
1.850365996360778809e-01 -6.494852155447006226e-02 -6.919381022453308105e-02
1.326873153448104858e-02 -7.199586927890777588e-02 -1.377620995044708252e-01
-2.125300467014312744e-03 -7.067553699016571045e-02 -3.126482293009757996e-02
7.938296347856521606e-02 -4.756556451320648193e-02 6.488251686096191406e-02
1.599844694137573242e-01 -5.275408923625946045e-02 8.055083453655242920e-04
1.292884200811386108e-01 -6.628806143999099731e-02 5.592839047312736511e-02
-1.736059784889221191e-04 -4.729786887764930725e-02 -4.747908562421798706e-02
1.539422571659088135e-01 -5.652035772800445557e-02 -5.986174196004867554e-02
8.746764063835144043e-02 -6.453312188386917114e-02 5.851447954773902893e-02
2.146593481302261353e-02 -4.324419051408767700e-02 1.296068727970123291e-02
4.304831847548484802e-02 -6.452282518148422241e-02 -1.420165598392486572e-01
-1.294161379337310791e-02 -5.729020386934280396e-02 1.447818428277969360e-02
6.000697612762451172e-02 -4.441203922033309937e-02 4.938586428761482239e-02
4.352201893925666809e-02 -4.714243486523628235e-02 5.844258144497871399e-02
4.758171737194061279e-02 -5.394103378057479858e-02 -1.030865758657455444e-01
1.049453690648078918e-01 -8.746346831321716309e-02 -1.092222481966018677e-01
9.879097342491149902e-03 -4.396481812000274658e-02 3.661744296550750732e-03
8.409281820058822632e-02 -7.733535766601562500e-02 3.688685595989227295e-03
-2.822902053594589233e-02 -6.416841596364974976e-02 -8.295217156410217285e-02
1.298827975988388062e-01 -7.608388364315032959e-02 2.003155276179313660e-02
5.041640624403953552e-02 -4.640953242778778076e-02 -5.198935419321060181e-02
9.238342940807342529e-02 -5.766184628009796143e-02 -1.114253997802734375e-01
6.223189085721969604e-02 -6.178903579711914062e-02 -1.345383822917938232e-01
2.491285651922225952e-02 -5.024911463260650635e-02 -8.101422339677810669e-02
1.273312717676162720e-01 -8.690743148326873779e-02 -6.730718910694122314e-02
1.610285341739654541e-01 -8.633482456207275391e-02 -7.464452087879180908e-02
4.929259419441223145e-03 -5.640771239995956421e-02 -1.063581258058547974e-01
6.822938472032546997e-02 -8.532004058361053467e-02 -1.094374358654022217e-01
1.917691081762313843e-01 -7.936201244592666626e-02 -9.127354621887207031e-02
-1.855044811964035034e-02 -4.836137220263481140e-02 -2.753065153956413269e-02
-1.010653734207153320e+00 1.275638192892074585e-01 -6.944170594215393066e-02
-3.195352554321289062e-01 4.299813136458396912e-02 -9.912380576133728027e-02
-1.134521722793579102e+00 1.382195651531219482e-01 2.453579753637313843e-02
1.543855667114257812e-02 1.688522845506668091e-02 9.463355876505374908e-03
-5.070062875747680664e-01 1.847636699676513672e-02 -1.022113561630249023e-01
-1.042858719825744629e+00 1.282247751951217651e-01 -6.420937180519104004e-02
-4.250679612159729004e-01 -4.727618396282196045e-02 -3.456243127584457397e-02
-2.721070051193237305e-01 1.192344576120376587e-01 5.235943943262100220e-03
-1.073527932167053223e-01 -1.419314742088317871e-02 4.063363373279571533e-02
-6.930471062660217285e-01 1.060173660516738892e-02 6.621447950601577759e-02
-6.966307759284973145e-01 1.319206953048706055e-01 -8.164307475090026855e-02
-8.330948352813720703e-01 -3.565080463886260986e-03 -4.032514244318008423e-02
-1.133477687835693359e+00 7.621504366397857666e-02 1.930982619524002075e-02
-2.213164567947387695e-01 3.601066395640373230e-02 6.939820945262908936e-02
-9.705258011817932129e-01 1.391256749629974365e-01 -6.718642264604568481e-02
-1.352422237396240234e-01 2.487249672412872314e-03 -7.676531374454498291e-02
-3.874992728233337402e-01 -5.078109353780746460e-02 -2.141587063670158386e-02
-8.185093998908996582e-01 1.722767949104309082e-01 9.639997966587543488e-03
-9.862393140792846680e-01 8.053536713123321533e-02 6.456854194402694702e-02
-4.052686691284179688e-01 1.406598538160324097e-01 -1.521079428493976593e-02
-5.967825651168823242e-01 1.208946108818054199e-03 6.705668568611145020e-02
-3.991185128688812256e-01 7.395401597023010254e-03 -9.809056669473648071e-02
-1.124270439147949219e+00 1.367886066436767578e-01 -3.994989022612571716e-02
-7.782047986984252930e-02 -3.977231681346893311e-02 -2.008784562349319458e-02
-9.675145149230957031e-01 1.710432320833206177e-01 4.876550287008285522e-03
-1.918881535530090332e-01 -1.911599189043045044e-02 -7.396753132343292236e-02
-5.464883446693420410e-01 -2.552890777587890625e-02 -6.704296916723251343e-02
-7.489583492279052734e-01 -1.379898190498352051e-02 2.392912283539772034e-02
-5.826464891433715820e-01 1.425112485885620117e-01 -6.242757663130760193e-02
-8.583829402923583984e-01 2.492949366569519043e-03 2.260468527674674988e-02
-1.394244730472564697e-01 2.090301364660263062e-02 5.744166299700737000e-02
-1.073680162429809570e+00 1.610116809606552124e-01 -1.702894270420074463e-02
-2.822636961936950684e-01 1.071631908416748047e-01 -5.535018444061279297e-02
-1.052175521850585938e+00 1.625005900859832764e-01 1.353427674621343613e-02
-1.172618508338928223e+00 9.713841974735260010e-02 1.240059826523065567e-02
-9.493027925491333008e-01 1.294154226779937744e-01 -7.554265111684799194e-02
-6.201889514923095703e-01 2.707969397306442261e-03 -8.897181600332260132e-02
-3.014335930347442627e-01 1.230165883898735046e-01 1.303902547806501389e-02
-5.263697504997253418e-01 1.160311996936798096e-01 -8.511734008789062500e-02
-7.958414554595947266e-01 1.693039834499359131e-01 -2.944084256887435913e-02
-5.379698276519775391e-01 -2.510745078325271606e-02 4.366847127676010132e-02
-7.264848947525024414e-01 1.486543267965316772e-01 5.524587258696556091e-02
-1.701723635196685791e-01 9.512747824192047119e-02 1.555162947624921799e-02
-2.929253578186035156e-01 2.906255424022674561e-03 -9.259154647588729858e-02
-1.933096647262573242e-01 -1.064289361238479614e-02 5.466975644230842590e-02
-6.791660785675048828e-01 4.317264258861541748e-02 -1.035389602184295654e-01
-1.064923524856567383e+00 1.217558532953262329e-01 5.122202262282371521e-02
-5.635040402412414551e-01 -1.211955398321151733e-02 5.737510696053504944e-02
-7.689813375473022461e-01 9.769596159458160400e-02 8.447644859552383423e-02
-1.360877156257629395e-01 -1.817122101783752441e-02 -6.776230037212371826e-02
-4.689854681491851807e-01 -4.736778140068054199e-02 -1.718892157077789307e-02
-3.329615294933319092e-01 3.647495061159133911e-02 -1.004737466573715210e-01
-2.513111531734466553e-01 3.101119585335254669e-02 -9.374517202377319336e-02
-6.141119599342346191e-01 -9.362407028675079346e-03 5.567860975861549377e-02
-1.048837065696716309e+00 6.348337978124618530e-02 4.288933053612709045e-02
-1.780593395233154297e-01 4.846948012709617615e-02 -8.072902262210845947e-02
-9.440327882766723633e-01 5.354090780019760132e-02 6.073893234133720398e-02
-7.255672216415405273e-01 -2.385869622230529785e-02 -1.514041982591152191e-02
-9.347406029701232910e-01 1.626121625304222107e-02 -4.132831469178199768e-02
-1.328107714653015137e-01 6.373576819896697998e-03 5.401842668652534485e-02
-1.069661378860473633e+00 4.375321418046951294e-02 -1.720664091408252716e-03
-9.876875877380371094e-01 5.061991512775421143e-02 -6.724243611097335815e-02
-5.672081708908081055e-01 7.367754727602005005e-02 -1.061347424983978271e-01
-9.379354119300842285e-01 1.219882443547248840e-01 6.822987645864486694e-02
-6.538726687431335449e-01 1.647267639636993408e-01 1.224624086171388626e-02
-4.071332812309265137e-01 1.307646632194519043e-01 -4.957359284162521362e-02
-8.706678748130798340e-01 1.563648581504821777e-01 4.719389230012893677e-02
-8.895126581192016602e-01 8.769812434911727905e-02 7.769863307476043701e-02
-1.137192487716674805e+00 1.410956084728240967e-01 -3.042862936854362488e-02
-1.115108013153076172e+00 9.760060906410217285e-02 -5.364512652158737183e-02
-8.891935944557189941e-01 1.133102923631668091e-02 2.950042858719825745e-02
-1.051753520965576172e+00 1.468397378921508789e-01 3.921846300363540649e-02
-3.659208416938781738e-01 -4.626131057739257812e-02 1.767460629343986511e-02
-4.470862150192260742e-01 7.861047238111495972e-02 -1.001751795411109924e-01
-4.637285768985748291e-01 6.363267451524734497e-02 8.716715127229690552e-02
-9.129561185836791992e-01 1.587074100971221924e-01 -5.131511017680168152e-02
2.264213562011718750e-02 -6.050951778888702393e-04 2.030310221016407013e-03
-8.790147900581359863e-01 -4.194751381874084473e-04 -1.736338622868061066e-02
-5.027337670326232910e-01 4.365745931863784790e-02 -1.071528270840644836e-01
-1.119979858398437500e+00 1.398408114910125732e-01 2.840818837285041809e-02
-1.082354545593261719e+00 5.875688046216964722e-02 -4.232715815305709839e-02
-1.548914313316345215e-01 -4.045502841472625732e-02 -4.572860151529312134e-02
-9.932894706726074219e-01 1.425696909427642822e-01 -6.190401315689086914e-02
-9.633233547210693359e-01 1.112133115530014038e-01 -8.144588023424148560e-02
-5.671510696411132812e-01 -3.610875457525253296e-02 -4.195096343755722046e-02
-6.180245280265808105e-01 1.568083763122558594e-01 -4.075239226222038269e-02
-7.159937024116516113e-01 -2.043385058641433716e-02 1.739128679037094116e-02
-9.214941859245300293e-01 1.830859109759330750e-02 3.047987818717956543e-02
-1.339180171489715576e-01 2.088101208209991455e-02 -7.853596657514572144e-02
-4.907172918319702148e-02 4.747473448514938354e-02 -4.639988765120506287e-02
-4.065328240394592285e-01 -5.887366831302642822e-03 -9.180456399917602539e-02
-7.007941007614135742e-01 1.449830979108810425e-01 -6.889180839061737061e-02
-8.763630390167236328e-01 3.788052499294281006e-02 6.240246072411537170e-02
-5.127416253089904785e-01 -3.449649363756179810e-02 3.044771775603294373e-02
-8.104811906814575195e-01 1.677901446819305420e-01 -3.505496680736541748e-02
-8.170661926269531250e-01 8.199594914913177490e-02 -9.882382303476333618e-02
-9.055542349815368652e-01 1.731144189834594727e-01 -1.167106349021196365e-02
-8.564483523368835449e-01 1.614068150520324707e-01 4.021478071808815002e-02
-1.990275382995605469e-01 5.359917134046554565e-02 6.315427273511886597e-02
-8.293384313583374023e-01 1.664719283580780029e-01 -3.904319927096366882e-02
-8.518265485763549805e-01 5.908553674817085266e-02 -9.360590577125549316e-02
-9.863337874412536621e-02 7.836392521858215332e-02 6.274916231632232666e-03
-4.982991218566894531e-01 9.200158715248107910e-02 -9.788188338279724121e-02
-9.323813915252685547e-01 1.724984049797058105e-01 -1.178963296115398407e-02
-8.775659799575805664e-01 1.018926650285720825e-01 -9.182378649711608887e-02
-4.277310967445373535e-01 1.313372552394866943e-01 4.128172993659973145e-02
-1.085339307785034180e+00 1.332818418741226196e-01 4.234105721116065979e-02
-1.034589409828186035e-01 7.857076823711395264e-02 -2.793419733643531799e-02
-6.088756322860717773e-01 1.473284810781478882e-01 4.756726697087287903e-02
-6.857032775878906250e-01 1.561240851879119873e-01 4.176732525229454041e-02
-8.905831575393676758e-01 1.397317647933959961e-01 -7.302865386009216309e-02
-1.008721351623535156e+00 7.266301661729812622e-02 -7.382787019014358521e-02
-7.752041816711425781e-01 1.461235731840133667e-01 -6.976597756147384644e-02
-2.259692549705505371e-01 4.897549375891685486e-02 -8.800914883613586426e-02
-1.198254227638244629e-01 -4.202157258987426758e-02 6.698284298181533813e-03
-3.849818706512451172e-01 -4.161628335714340210e-02 2.770686149597167969e-02
-1.937683522701263428e-01 8.837888389825820923e-02 3.842952847480773926e-02
-1.748467087745666504e-01 8.191242814064025879e-02 -5.684562399983406067e-02
-4.441452026367187500e-02 1.340082287788391113e-02 -5.901117622852325439e-02
-7.445461750030517578e-01 1.045719534158706665e-01 8.353503793478012085e-02
-5.182941555976867676e-01 1.323035955429077148e-01 5.597281828522682190e-02
-1.139953851699829102e+00 1.040386259555816650e-01 3.274004906415939331e-02
-7.199247479438781738e-01 -6.843425333499908447e-03 -6.690470129251480103e-02
-6.698101758956909180e-01 1.053654551506042480e-01 -9.758801013231277466e-02
-6.616411209106445312e-01 -3.127079457044601440e-02 -6.742267869412899017e-03
-6.656410694122314453e-01 6.953520327806472778e-02 -1.062431260943412781e-01
-2.496085464954376221e-01 1.127791628241539001e-01 -2.955383062362670898e-02
-4.059751033782958984e-01 8.508945256471633911e-02 -9.428144991397857666e-02
-1.623349785804748535e-01 3.298405557870864868e-02 -8.208148926496505737e-02
-5.506898760795593262e-01 7.999437302350997925e-02 8.807454258203506470e-02
-8.354722857475280762e-01 5.760396644473075867e-02 7.746158540248870850e-02
-5.811108350753784180e-01 1.284006834030151367e-01 6.646186113357543945e-02
-1.135900020599365234e+00 6.856676936149597168e-02 2.002178691327571869e-03
-7.119858264923095703e-01 1.610418856143951416e-01 3.488067910075187683e-02
-1.006025314331054688e+00 1.424975693225860596e-01 5.010547116398811340e-02
-1.014145493507385254e+00 1.667917966842651367e-01 1.189920771867036819e-02
-9.873568415641784668e-01 1.654474735260009766e-01 -3.088854625821113586e-02
-5.976315140724182129e-01 1.329072862863540649e-01 6.368747353553771973e-02
-5.876212120056152344e-01 -1.803351938724517822e-02 -7.234173268079757690e-02
-5.470365285873413086e-01 -1.520653069019317627e-02 5.537382140755653381e-02
-7.924125194549560547e-01 6.129205226898193359e-03 -6.915664672851562500e-02
-7.440350055694580078e-01 3.266105800867080688e-02 7.568059861660003662e-02
-6.684163808822631836e-01 5.182201787829399109e-02 8.720341324806213379e-02
-1.105050325393676758e+00 8.372937142848968506e-02 3.803461790084838867e-02
-5.995050668716430664e-01 -3.744642436504364014e-02 -5.896931514143943787e-03
-3.512698411941528320e-02 -6.485767662525177002e-03 -5.258825048804283142e-02
-9.561935663223266602e-01 9.623728692531585693e-02 7.074077427387237549e-02
-5.071270465850830078e-01 -4.506445676088333130e-02 -1.454561296850442886e-02
-3.849359750747680664e-01 1.111119687557220459e-01 5.856790766119956970e-02
-5.522980690002441406e-01 1.419962942600250244e-01 -5.918932333588600159e-02
-5.168582201004028320e-01 8.165438473224639893e-02 -1.027822196483612061e-01
-3.142708539962768555e-02 -2.993664890527725220e-02 -2.392356656491756439e-02
-1.051097214221954346e-01 6.565597653388977051e-02 -5.119144544005393982e-02
8.577048778533935547e-03 5.274716764688491821e-03 1.453734841197729111e-02
-2.352973818778991699e-01 3.726875782012939453e-02 7.105617225170135498e-02
-5.913903117179870605e-01 4.285216704010963440e-02 -1.066421419382095337e-01
-9.059725999832153320e-01 7.251586765050888062e-02 7.389795780181884766e-02
-3.481991887092590332e-01 1.227299422025680542e-01 3.496777638792991638e-02
-2.431032061576843262e-01 9.968957304954528809e-02 -5.475818365812301636e-02
-1.058673143386840820e+00 4.007808491587638855e-02 -1.230796612799167633e-02
-5.914271473884582520e-01 -3.605222702026367188e-02 8.585962466895580292e-03
-3.216746449470520020e-01 -4.798968881368637085e-02 1.443116832524538040e-02
-1.841608881950378418e-01 -3.376612812280654907e-02 -5.974317342042922974e-02
-5.597509741783142090e-01 1.047719269990921021e-01 -9.476814419031143188e-02
-1.076254844665527344e-01 -3.204837441444396973e-03 -7.058381289243698120e-02
-2.683238685131072998e-01 8.632628619670867920e-02 5.877630040049552917e-02
-9.654077291488647461e-01 9.320862591266632080e-02 -8.382999151945114136e-02
-8.303401470184326172e-01 1.038145944476127625e-01 8.068640530109405518e-02
-9.299280643463134766e-01 1.263559311628341675e-01 -7.891148328781127930e-02
-7.636545896530151367e-01 1.564724743366241455e-01 -5.613347887992858887e-02
-1.118870139122009277e+00 8.140091598033905029e-02 -4.638991877436637878e-02
-3.748582899570465088e-01 -5.149342119693756104e-02 -1.321434322744607925e-02
-5.671947002410888672e-01 1.417821347713470459e-01 5.032508447766304016e-02
-8.045334219932556152e-01 1.125743910670280457e-01 7.951703667640686035e-02
-1.519340276718139648e-02 3.687673434615135193e-02 -3.862969949841499329e-02
-7.167854309082031250e-01 -2.371168881654739380e-02 3.454921767115592957e-03
-1.534474194049835205e-01 -4.735032469034194946e-02 -2.981021068990230560e-03
-7.527433633804321289e-01 1.052911877632141113e-01 -9.698388725519180298e-02
-9.726887941360473633e-01 1.610516160726547241e-01 -4.224043712019920349e-02
-3.323115706443786621e-01 1.242808401584625244e-01 2.584237605333328247e-02
-5.672243237495422363e-01 4.652311280369758606e-02 8.842203766107559204e-02
-2.833380103111267090e-01 -2.304721623659133911e-02 5.216685682535171509e-02
-3.998374640941619873e-01 9.459301829338073730e-02 7.285818457603454590e-02
-5.409444570541381836e-01 1.696106046438217163e-02 -1.009621247649192810e-01
-5.151760578155517578e-02 6.254706531763076782e-02 5.225887522101402283e-03
-5.243644118309020996e-01 -4.347443580627441406e-02 -2.198530733585357666e-02
-2.726147174835205078e-01 1.253056153655052185e-02 -9.395564347505569458e-02
-3.468228578567504883e-01 3.443353250622749329e-02 8.088718354701995850e-02
-3.349798917770385742e-02 -3.152587264776229858e-02 -8.404718711972236633e-03
-8.721420168876647949e-01 3.453974425792694092e-02 -8.000286668539047241e-02
-9.790731072425842285e-01 1.638788878917694092e-01 2.736448124051094055e-02
-1.954572796821594238e-01 1.015575528144836426e-01 -2.955152466893196106e-02
-2.894206643104553223e-01 7.784338295459747314e-02 6.749971956014633179e-02
-5.476424098014831543e-01 1.431372016668319702e-01 4.546556249260902405e-02
-9.544882774353027344e-01 1.663406193256378174e-01 -3.353373706340789795e-02
-7.936090230941772461e-01 1.680055260658264160e-01 2.489008381962776184e-02
-1.016443848609924316e+00 1.299237608909606934e-01 5.618060752749443054e-02
-4.802546203136444092e-01 7.545714080333709717e-02 8.619824051856994629e-02
-1.060045480728149414e+00 1.336131393909454346e-01 -5.816406384110450745e-02
-9.855833053588867188e-01 9.445628523826599121e-02 6.679002940654754639e-02
-7.433812022209167480e-01 1.695891916751861572e-01 1.240912545472383499e-02
-6.644910573959350586e-02 -3.455946594476699829e-02 -3.307207673788070679e-02
-6.135309934616088867e-01 -3.546956926584243774e-02 -2.606575936079025269e-02
-5.802175998687744141e-01 9.288322180509567261e-03 7.379381358623504639e-02
-8.490487337112426758e-01 4.267956316471099854e-02 6.941320747137069702e-02
-8.669505715370178223e-01 1.473281681537628174e-01 5.717634037137031555e-02
-3.084470927715301514e-01 2.754070237278938293e-02 -9.855879098176956177e-02
-1.954819858074188232e-01 2.079634368419647217e-02 6.557429581880569458e-02
-5.058554410934448242e-01 -3.960958868265151978e-02 1.924348250031471252e-02
-8.169220685958862305e-01 9.659599512815475464e-02 8.257109671831130981e-02
-6.105919480323791504e-01 1.121040433645248413e-03 6.596498191356658936e-02
-5.598325729370117188e-01 -3.039669245481491089e-02 -5.718613788485527039e-02
-8.491622209548950195e-01 9.252413362264633179e-02 8.095307648181915283e-02
-5.199894309043884277e-01 1.205984875559806824e-01 6.763511151075363159e-02
-1.078774690628051758e+00 1.168554127216339111e-01 4.957162588834762573e-02
-3.584865033626556396e-01 9.203819930553436279e-02 6.931155920028686523e-02
-4.325716495513916016e-01 -4.336503148078918457e-02 -4.637754708528518677e-02
-7.183315753936767578e-01 -1.822168380022048950e-02 -4.678043723106384277e-02
-9.125716090202331543e-01 3.843295574188232422e-02 5.631428584456443787e-02
-9.925439953804016113e-01 1.217449307441711426e-01 -7.443444430828094482e-02
-1.110776066780090332e-01 3.648191690444946289e-02 5.075139179825782776e-02
-8.216727972030639648e-01 1.359581053256988525e-01 6.751014292240142822e-02
-6.496658325195312500e-01 -3.146927058696746826e-02 -2.819452062249183655e-02
-7.085678577423095703e-01 1.682196408510208130e-01 1.092338468879461288e-02
-1.964587271213531494e-01 6.807754933834075928e-02 -7.444819808006286621e-02
-4.007773995399475098e-01 -6.715171039104461670e-04 7.137970626354217529e-02
-1.188684225082397461e+00 1.101103574037551880e-01 2.203855663537979126e-03
-6.111068725585937500e-01 2.498751133680343628e-02 8.078564703464508057e-02
-8.326931595802307129e-01 8.883088082075119019e-02 8.222993463277816772e-02
-3.642942607402801514e-01 -3.991304337978363037e-02 3.180563822388648987e-02
-6.554442644119262695e-01 6.987091153860092163e-02 8.952275663614273071e-02
-6.491030454635620117e-01 -1.695819944143295288e-02 -6.515870988368988037e-02
-6.005430817604064941e-01 7.447979599237442017e-02 -1.063081473112106323e-01
-8.534039855003356934e-01 1.445421576499938965e-01 6.010332331061363220e-02
-4.319999814033508301e-01 -3.641931712627410889e-02 3.477003425359725952e-02
-8.848495483398437500e-01 7.165791094303131104e-02 -9.238459169864654541e-02
-8.629626035690307617e-01 1.248118132352828979e-01 7.230295985937118530e-02
-6.211711764335632324e-01 1.619777530431747437e-01 1.432249043136835098e-02
-9.883700609207153320e-01 2.862376719713211060e-02 2.125320583581924438e-02
-3.181209266185760498e-01 -3.255395591259002686e-02 -6.904179602861404419e-02
-6.955524086952209473e-01 4.594140499830245972e-02 -1.032727509737014771e-01
-2.356421947479248047e-01 9.099322557449340820e-02 -6.368549168109893799e-02
-7.659035325050354004e-01 4.010434448719024658e-02 -9.641675651073455811e-02
-1.512689590454101562e-01 7.964346557855606079e-02 3.440371155738830566e-02
-1.913025975227355957e-01 8.149342983961105347e-02 -6.216029822826385498e-02
-1.254373788833618164e-02 -2.235615998506546021e-02 2.940232865512371063e-03
-2.231121957302093506e-01 7.414417713880538940e-02 5.820335075259208679e-02
-8.693561553955078125e-01 1.358051002025604248e-01 -7.709097117185592651e-02
-3.264923393726348877e-01 -1.083333045244216919e-02 6.342823803424835205e-02
-3.811804056167602539e-01 1.770238205790519714e-02 -1.008076369762420654e-01
-9.850025177001953125e-01 1.681789606809616089e-01 1.476427074521780014e-02
-8.260752558708190918e-01 1.711151897907257080e-01 -2.447177097201347351e-02
-8.647713661193847656e-01 1.734258383512496948e-01 -1.173274684697389603e-02
-3.332667052745819092e-01 -5.090899020433425903e-02 2.550507895648479462e-03
-2.734861969947814941e-01 -3.818883746862411499e-02 -6.055344641208648682e-02
-7.305147051811218262e-01 8.879350870847702026e-02 -1.021532937884330750e-01
-9.586395025253295898e-01 2.460931241512298584e-02 -4.717214033007621765e-02
-1.102461099624633789e+00 7.657683640718460083e-02 -4.994344338774681091e-02
-7.249343395233154297e-01 -1.268998533487319946e-02 3.316503763198852539e-02
-8.258890509605407715e-01 -7.257997989654541016e-03 8.938918821513652802e-03
-8.030155301094055176e-02 -2.189867198467254639e-02 2.907091006636619568e-02
-2.017093896865844727e-01 3.043356724083423615e-02 -8.808485418558120728e-02
-7.837921380996704102e-02 -8.608147501945495605e-03 -6.278451532125473022e-02
-5.501143336296081543e-01 1.577531397342681885e-01 -7.516583893448114395e-03
-3.403051495552062988e-01 2.056902274489402771e-02 -9.968232363462448120e-02
-4.681457281112670898e-01 3.052131272852420807e-02 8.475243300199508667e-02
-1.656630933284759521e-01 -3.233244270086288452e-02 3.291991725564002991e-02
-8.971354365348815918e-02 -5.067735910415649414e-03 4.233248159289360046e-02
-1.189919471740722656e+00 1.196788549423217773e-01 -8.496700786054134369e-03
-4.959800839424133301e-01 -1.002833247184753418e-02 -8.716262131929397583e-02
-1.094633698463439941e+00 1.162543967366218567e-01 4.610134288668632507e-02
-4.994880855083465576e-01 1.456647515296936035e-01 -4.159052297472953796e-02
-1.066436886787414551e+00 1.580103933811187744e-01 -2.908547595143318176e-02
-8.422130346298217773e-01 7.669362425804138184e-02 -9.695580601692199707e-02
-6.533128619194030762e-01 1.585035026073455811e-01 -4.261837527155876160e-02
-6.953663825988769531e-01 1.406066268682479858e-01 6.244485452771186829e-02
-4.577328860759735107e-01 1.105970218777656555e-01 -8.295941352844238281e-02
-8.615003824234008789e-01 -3.304652869701385498e-03 -1.970315352082252502e-02
-2.635276317596435547e-01 -4.313977062702178955e-02 2.502046152949333191e-02
-1.010201692581176758e+00 1.551986336708068848e-01 -4.613937437534332275e-02
-5.994061827659606934e-01 9.230193495750427246e-02 8.654002100229263306e-02
-2.260579764842987061e-01 1.032862737774848938e-01 2.714430913329124451e-02
-7.536771297454833984e-01 4.553112387657165527e-02 8.056658506393432617e-02
-4.278182089328765869e-01 1.179644316434860229e-01 5.864709988236427307e-02
-5.467345118522644043e-01 2.683717757463455200e-02 8.348671346902847290e-02
-4.893316030502319336e-01 3.268368542194366455e-03 -9.597639739513397217e-02
-2.956469953060150146e-01 1.242737770080566406e-01 -5.091790109872817993e-03
-5.962823033332824707e-01 1.184682399034500122e-01 -8.796730637550354004e-02
-6.358028054237365723e-01 3.072072751820087433e-02 -1.022764816880226135e-01
-1.807389855384826660e-01 -1.523158699274063110e-02 5.041591450572013855e-02
-2.118473947048187256e-01 7.299698144197463989e-02 -7.425808906555175781e-02
-1.196509897708892822e-01 6.314638257026672363e-02 -5.875417962670326233e-02
-2.270589768886566162e-01 -3.710535913705825806e-02 -5.944081768393516541e-02
-9.392881989479064941e-01 7.783539593219757080e-02 -8.653463423252105713e-02
-8.061821460723876953e-01 1.088069826364517212e-01 -9.400893002748489380e-02
-5.893525481224060059e-01 9.935304522514343262e-03 -9.566865861415863037e-02
-2.099561691284179688e-02 4.819878935813903809e-02 -2.761838585138320923e-02
-1.437337994575500488e-01 5.616468936204910278e-02 5.113191530108451843e-02
-9.008036255836486816e-01 2.097282186150550842e-02 -6.142506375908851624e-02
-1.818203032016754150e-01 -2.606406062841415405e-02 4.172537103295326233e-02
-3.479301333427429199e-01 8.029423654079437256e-02 -9.077090770006179810e-02
-8.481031656265258789e-02 7.207804173231124878e-02 -2.994469180703163147e-02
-5.369122028350830078e-01 9.487856924533843994e-02 8.348878473043441772e-02
-6.923956871032714844e-01 8.450195193290710449e-02 8.825091272592544556e-02
-5.776943564414978027e-01 1.162068694829940796e-01 7.525266706943511963e-02
-1.154197454452514648e+00 1.378747075796127319e-01 -2.552901953458786011e-02
-4.755498170852661133e-01 4.042148590087890625e-02 -1.065570563077926636e-01
-6.792862415313720703e-01 -4.991382360458374023e-03 -7.574924081563949585e-02
-3.718560636043548584e-01 -5.621723830699920654e-03 6.798331439495086670e-02
-7.993744611740112305e-01 3.169073164463043213e-02 -8.895968645811080933e-02
-3.698072433471679688e-01 4.015525430440902710e-02 -1.026991382241249084e-01
-4.887028634548187256e-01 -4.618375748395919800e-02 -1.737257651984691620e-02
-3.545629084110260010e-01 1.148134469985961914e-02 7.591953873634338379e-02
-3.877066969871520996e-01 1.177921444177627563e-01 -6.549645960330963135e-02
-7.856179475784301758e-01 1.018117070198059082e-01 -9.711223095655441284e-02
-7.572777271270751953e-01 1.708823144435882568e-01 -1.605489291250705719e-02
-9.261053800582885742e-01 1.137175336480140686e-01 7.178258895874023438e-02
-2.168931066989898682e-01 1.836767047643661499e-02 -8.979284018278121948e-02
-2.196042239665985107e-01 -2.431282401084899902e-02 4.699917510151863098e-02
-7.931935191154479980e-01 4.501542076468467712e-02 -9.555510431528091431e-02
-6.964156031608581543e-01 -1.467271894216537476e-02 3.604733943939208984e-02
-7.355433702468872070e-01 3.127060830593109131e-03 5.381605401635169983e-02
-9.143687486648559570e-01 8.612118661403656006e-03 1.009501237422227859e-02
-8.471985459327697754e-01 1.289884448051452637e-01 7.095266133546829224e-02
-2.587321102619171143e-01 1.171119809150695801e-01 -1.621206477284431458e-02
-5.145173668861389160e-01 1.834178343415260315e-02 8.063769340515136719e-02
-7.212250232696533203e-01 9.969432651996612549e-02 -9.952676296234130859e-02
-3.385088443756103516e-01 -4.589629173278808594e-02 1.982704922556877136e-02
-9.286807775497436523e-01 8.033987134695053101e-02 7.272434234619140625e-02
-2.336715459823608398e-01 -1.677854359149932861e-02 5.427570268511772156e-02
-7.502992749214172363e-01 1.303981393575668335e-01 -8.360707759857177734e-02
-5.657984614372253418e-01 -3.918975591659545898e-02 3.842324949800968170e-03
-8.266467452049255371e-01 2.585661783814430237e-02 -8.142258226871490479e-02
-1.064152717590332031e+00 1.495805531740188599e-01 -4.331921413540840149e-02
-9.110856056213378906e-01 1.238633096218109131e-01 6.972108781337738037e-02
-9.614157080650329590e-01 1.408737301826477051e-01 5.630837753415107727e-02
-6.266207695007324219e-01 -1.873190701007843018e-02 -6.616567075252532959e-02
-7.771468162536621094e-01 5.213354527950286865e-02 8.097518235445022583e-02
-8.027835488319396973e-01 8.097643405199050903e-02 8.412913233041763306e-02
-8.684996366500854492e-01 9.076499938964843750e-02 7.955812662839889526e-02
-8.606762886047363281e-01 1.043634116649627686e-01 7.879517972469329834e-02
-8.247776627540588379e-01 1.611454039812088013e-02 5.259798839688301086e-02
-5.163363814353942871e-01 -2.462305128574371338e-04 7.021728903055191040e-02
-4.648028910160064697e-01 6.632690131664276123e-02 -1.045391410589218140e-01
-8.531895279884338379e-02 -3.256095945835113525e-02 1.709724962711334229e-02
-7.908959388732910156e-01 -1.466043293476104736e-02 -1.913059316575527191e-02
-1.097325325012207031e+00 5.632945150136947632e-02 1.158419158309698105e-02
-8.161780834197998047e-01 4.647159948945045471e-02 7.520701736211776733e-02
-7.357656955718994141e-01 -6.223805248737335205e-03 4.170547425746917725e-02
-1.032557010650634766e+00 3.285970538854598999e-02 -4.977201111614704132e-03
-6.560999155044555664e-01 3.131263703107833862e-02 -1.014096513390541077e-01
-3.663544058799743652e-01 2.286713942885398865e-02 7.991789281368255615e-02
-9.917466640472412109e-01 2.276931703090667725e-02 -3.358494024723768234e-03
-3.957156538963317871e-01 3.029535152018070221e-02 8.277455717325210571e-02
-5.367499589920043945e-01 -2.161219716072082520e-03 6.796289235353469849e-02
-7.834546566009521484e-01 1.022394448518753052e-01 8.307243138551712036e-02
-6.953113675117492676e-01 2.709037810564041138e-02 7.681562006473541260e-02
-6.367819905281066895e-01 -2.744548022747039795e-02 -4.772615805268287659e-02
-1.020033597946166992e+00 3.215062618255615234e-02 9.440670721232891083e-03
-4.005912542343139648e-01 -4.820851236581802368e-02 7.666201330721378326e-03
-8.841193914413452148e-01 6.199122965335845947e-02 7.351399213075637817e-02
-5.415534377098083496e-01 3.307638317346572876e-02 -1.057327240705490112e-01
-7.451170682907104492e-02 4.738975316286087036e-03 4.255227372050285339e-02
-7.064951658248901367e-01 1.473039388656616211e-03 5.624178424477577209e-02
-7.104033231735229492e-01 4.594122618436813354e-02 -1.024052351713180542e-01
-7.567366957664489746e-01 1.690837442874908447e-01 1.729596778750419617e-02
-7.075336575508117676e-01 1.683001816272735596e-01 -1.885125786066055298e-02
-3.677422106266021729e-01 -1.899792999029159546e-02 5.789739266037940979e-02
-2.012678980827331543e-01 9.518451988697052002e-02 -4.727159813046455383e-02
-5.387274622917175293e-01 1.230926066637039185e-01 -8.016683161258697510e-02
-9.544831514358520508e-02 1.345150545239448547e-02 4.864972457289695740e-02
-4.291205704212188721e-01 8.404428511857986450e-02 8.048249036073684692e-02
-7.532397508621215820e-01 2.957841940224170685e-02 -9.308641403913497925e-02
-5.702345967292785645e-01 1.516850143671035767e-01 -4.382812231779098511e-02
-7.840259671211242676e-01 6.449417769908905029e-02 -1.006411686539649963e-01
-5.301744341850280762e-01 -3.732468932867050171e-02 -4.693641141057014465e-02
-4.312572479248046875e-01 6.321190297603607178e-02 8.558101952075958252e-02
-9.199029803276062012e-01 8.270509541034698486e-03 -2.492872625589370728e-02
-3.218690752983093262e-01 1.272333264350891113e-01 9.529680944979190826e-03
-5.246592760086059570e-01 7.511900365352630615e-02 8.809662610292434692e-02
-6.498973965644836426e-01 4.589866101741790771e-02 -1.054043695330619812e-01
-1.097274720668792725e-01 5.091060698032379150e-02 -6.481587886810302734e-02
-2.994067370891571045e-01 -1.247592270374298096e-02 -8.564774692058563232e-02
-6.262877583503723145e-01 -3.503459692001342773e-02 -1.709625869989395142e-02
-9.812909364700317383e-01 1.556891500949859619e-01 4.021722450852394104e-02
-2.173667848110198975e-01 -7.978558540344238281e-03 -8.273273706436157227e-02
-1.693983972072601318e-01 9.527206420898437500e-02 -3.045411035418510437e-02
-6.386353969573974609e-01 7.728175818920135498e-02 -1.058112308382987976e-01
-1.232211887836456299e-01 -1.302395015954971313e-02 -6.890410184860229492e-02
-1.358161270618438721e-01 6.917548924684524536e-02 -5.824660509824752808e-02
-4.306819438934326172e-01 8.567545562982559204e-03 -9.889586269855499268e-02
-3.443419039249420166e-01 -2.147921919822692871e-02 5.540517345070838928e-02
-6.306892633438110352e-01 -3.061731159687042236e-02 1.528020668774843216e-02
-1.102025508880615234e+00 1.395997703075408936e-01 -4.431722685694694519e-02
-4.524868130683898926e-01 -1.681604236364364624e-02 5.883352831006050110e-02
-8.403279185295104980e-01 3.617883473634719849e-02 -8.598434180021286011e-02
-2.834963798522949219e-01 8.449699729681015015e-03 7.101483643054962158e-02
-7.723597288131713867e-01 2.704514935612678528e-02 6.947395950555801392e-02
-6.055311560630798340e-01 9.892452508211135864e-03 -9.468908607959747314e-02
-4.260260462760925293e-01 -1.286585628986358643e-02 -8.706156909465789795e-02
-3.175967037677764893e-01 1.274053454399108887e-01 -1.663549616932868958e-02
-3.963069617748260498e-01 3.489062190055847168e-02 -1.038815602660179138e-01
-3.274553120136260986e-01 -4.159992188215255737e-02 2.929569780826568604e-02
-1.537773907184600830e-01 9.158945083618164062e-02 1.378903631120920181e-02
-4.526031613349914551e-01 1.459950506687164307e-01 9.705265052616596222e-03
-7.615166902542114258e-01 8.523029834032058716e-02 -1.016195863485336304e-01
-6.928148269653320312e-01 7.522371411323547363e-02 -1.051517799496650696e-01
-1.006020784378051758e+00 2.817370742559432983e-02 -2.746897190809249878e-02
-6.329473257064819336e-01 9.599505364894866943e-02 -1.009730920195579529e-01
-3.255957961082458496e-01 1.955019310116767883e-02 -9.872063249349594116e-02
-3.098634183406829834e-01 1.124731227755546570e-01 4.080631956458091736e-02
-7.380414009094238281e-01 -2.010515332221984863e-02 8.173971436917781830e-03
-1.807029545307159424e-01 -4.569562524557113647e-02 1.091286633163690567e-02
-5.715323090553283691e-01 1.312897205352783203e-01 -7.506835460662841797e-02
-3.553242087364196777e-01 -5.094143003225326538e-02 -2.748752012848854065e-02
-5.115774869918823242e-01 8.093279600143432617e-02 8.647350221872329712e-02
-4.226376414299011230e-01 1.813935860991477966e-02 8.031688630580902100e-02
-5.126523971557617188e-02 2.661038935184478760e-02 -5.896841362118721008e-02
-5.386971831321716309e-01 1.219694316387176514e-01 6.826307624578475952e-02
-7.784790992736816406e-01 -1.500224322080612183e-02 6.147216074168682098e-03
-1.044318437576293945e+00 3.721743822097778320e-02 -2.220985479652881622e-02
-7.932845950126647949e-01 1.178608164191246033e-01 -9.061623364686965942e-02
-6.743939518928527832e-01 1.663224846124649048e-01 1.064646337181329727e-02
-4.000363945960998535e-01 1.402270793914794922e-01 6.668176501989364624e-05
-4.478718042373657227e-01 -4.087577015161514282e-02 -5.073842033743858337e-02
-9.499165415763854980e-02 2.553180977702140808e-02 -7.055637240409851074e-02
-1.046963930130004883e+00 1.101728826761245728e-01 -6.950268149375915527e-02
-5.034536123275756836e-02 -3.359121084213256836e-02 -2.666908875107765198e-02
-1.926187574863433838e-01 7.324689626693725586e-02 5.228704586625099182e-02
-7.060056924819946289e-02 5.234691128134727478e-02 -5.109659209847450256e-02
-4.142076075077056885e-01 5.216956138610839844e-02 -1.043163985013961792e-01
1.124852895736694336e-02 3.427094221115112305e-02 -7.688665762543678284e-03
-7.915834188461303711e-01 1.182462871074676514e-01 7.780072838068008423e-02
-2.878899276256561279e-01 -2.513525635004043579e-02 -7.584731280803680420e-02
-9.013736844062805176e-01 1.687849462032318115e-01 -3.184780478477478027e-02
-9.732238054275512695e-01 1.139355525374412537e-01 6.689134240150451660e-02
-1.049129366874694824e+00 4.375767707824707031e-02 -3.688785806298255920e-02
-5.165896415710449219e-01 4.614559933543205261e-02 8.827423304319381714e-02
-2.586090564727783203e-01 -4.463655501604080200e-02 -4.877680540084838867e-02
-9.802572727203369141e-01 1.447328627109527588e-01 5.145680159330368042e-02
-4.179168045520782471e-01 1.391957700252532959e-01 1.999617367982864380e-02
-4.256063103675842285e-01 1.412467807531356812e-01 -2.773312479257583618e-02
-7.093577384948730469e-01 1.400467902421951294e-01 6.353539973497390747e-02
-6.149052381515502930e-01 1.289278864860534668e-01 -8.061872422695159912e-02
-1.098987579345703125e+00 9.342458099126815796e-02 -5.777624621987342834e-02
-4.544932246208190918e-01 9.310690313577651978e-02 -9.431456774473190308e-02
-5.298723578453063965e-01 1.489263176918029785e-01 3.057884052395820618e-02
-5.817881226539611816e-01 -3.772821277379989624e-02 -3.030735254287719727e-02
-4.584979116916656494e-01 1.231499686837196350e-01 5.785837396979331970e-02
-6.051560640335083008e-01 1.547620892524719238e-01 3.329432010650634766e-02
-9.821165204048156738e-01 3.909714519977569580e-02 -5.862200260162353516e-02
-2.825492322444915771e-01 7.657188922166824341e-02 -8.428160101175308228e-02
-2.803587019443511963e-01 9.602886438369750977e-02 -6.871358305215835571e-02
-2.145725786685943604e-01 1.088748350739479065e-01 -6.879837717860937119e-03
-1.840659976005554199e-01 7.824003696441650391e-03 -8.454781025648117065e-02
-3.819929957389831543e-01 7.172864675521850586e-02 -9.779947251081466675e-02
-1.292325258255004883e-01 3.971860557794570923e-02 5.392771586775779724e-02
-8.446205854415893555e-01 1.424049735069274902e-01 -7.272653281688690186e-02
-6.391003131866455078e-01 3.632912412285804749e-02 8.409710973501205444e-02
-3.758658766746520996e-01 1.240721568465232849e-01 4.052281379699707031e-02
-4.982036054134368896e-01 -1.499589532613754272e-03 6.993810087442398071e-02
-3.324671983718872070e-01 8.745391666889190674e-02 -8.466097712516784668e-02
-3.458030521869659424e-01 7.296581566333770752e-02 7.661560922861099243e-02
-1.201913058757781982e-01 7.980963587760925293e-02 -3.698911145329475403e-02
-6.033909320831298828e-02 -3.719883412122726440e-02 -1.698910072445869446e-02
-9.470431804656982422e-01 7.214944809675216675e-02 6.834390759468078613e-02
-3.176787793636322021e-01 1.844226568937301636e-02 7.624165713787078857e-02
-4.102057218551635742e-01 1.115147024393081665e-01 6.213150545954704285e-02
-5.215910673141479492e-01 9.060209244489669800e-02 8.422575145959854126e-02
-1.029280424118041992e+00 1.266779303550720215e-01 -6.714475899934768677e-02
-4.363744258880615234e-01 -3.592700511217117310e-02 -6.134095042943954468e-02
-5.691250562667846680e-01 2.002070471644401550e-02 -1.012715846300125122e-01
-3.910498023033142090e-01 1.202590018510818481e-01 4.953267797827720642e-02
-9.119970202445983887e-01 1.435925513505935669e-01 -6.852353364229202271e-02
-1.062509298324584961e+00 1.066203415393829346e-01 5.398711934685707092e-02
-7.883883118629455566e-01 1.349497735500335693e-01 -8.001985400915145874e-02
-2.497522234916687012e-01 -1.911532133817672729e-03 6.432972103357315063e-02
-1.049150586128234863e+00 1.487536579370498657e-01 -4.742695018649101257e-02
-1.000348091125488281e+00 6.063212081789970398e-02 5.354332923889160156e-02
-7.382841706275939941e-01 1.240907534956932068e-01 -8.790010958909988403e-02
-3.568215966224670410e-01 -2.758722752332687378e-02 4.928527027368545532e-02
-7.045623660087585449e-01 5.278196185827255249e-03 -8.236148953437805176e-02
-6.464691162109375000e-01 1.514442265033721924e-01 4.552366212010383606e-02
-4.444265961647033691e-01 3.723582997918128967e-02 8.562463521957397461e-02
-7.042249441146850586e-01 1.491477191448211670e-01 5.351194739341735840e-02
-6.816926598548889160e-01 3.266715258359909058e-02 8.044692128896713257e-02
-5.619453787803649902e-01 4.332286119461059570e-02 -1.071503162384033203e-01
-9.975177049636840820e-01 1.521421372890472412e-01 4.239860177040100098e-02
-9.295203685760498047e-01 9.467698633670806885e-03 -1.274681650102138519e-03
-7.018250226974487305e-02 6.567858904600143433e-02 1.475522760301828384e-02
-1.695681810379028320e-01 6.996483355760574341e-02 -6.700849533081054688e-02
-1.056818485260009766e+00 8.099493384361267090e-02 -6.577818095684051514e-02
-2.365155816078186035e-01 -3.051102161407470703e-03 -8.649060130119323730e-02
-8.025326132774353027e-01 1.985717192292213440e-02 5.998622253537178040e-02
-9.802160859107971191e-01 8.649074286222457886e-02 -8.157012611627578735e-02
