4.915096983313560486e-02 -2.207835391163825989e-02 2.856130301952362061e-01
1.402582228183746338e-02 3.280954062938690186e-02 5.771111249923706055e-01
-8.102847263216972351e-03 4.324915260076522827e-02 6.096441149711608887e-01
3.994977846741676331e-02 8.607792668044567108e-03 2.342538535594940186e-01
1.618783622980117798e-01 -1.875942759215831757e-02 2.309980243444442749e-01
5.280823633074760437e-02 1.596179232001304626e-02 2.836472392082214355e-01
-1.699301153421401978e-01 3.647359833121299744e-02 4.833700358867645264e-01
6.686700880527496338e-02 1.144051272422075272e-02 4.615869224071502686e-01
-2.386811226606369019e-01 4.854585975408554077e-02 7.589002251625061035e-01
-2.548748813569545746e-02 6.112029310315847397e-03 4.958840310573577881e-01
-9.817613661289215088e-02 -1.573221758008003235e-03 4.556528329849243164e-01
-1.284954547882080078e-01 5.855038762092590332e-04 2.970684766769409180e-01
-9.241849184036254883e-02 5.247770622372627258e-02 5.744060873985290527e-01
-6.471541523933410645e-02 1.793011277914047241e-02 5.759043097496032715e-01
-8.526951074600219727e-03 4.033012315630912781e-03 4.770188629627227783e-01
-2.267648428678512573e-01 6.398585438728332520e-02 7.213646173477172852e-01
1.285862177610397339e-02 -3.322447091341018677e-02 1.727037727832794189e-01
1.153001189231872559e-02 2.309661358594894409e-02 3.330667614936828613e-01
-2.115834504365921021e-01 6.589851528406143188e-02 7.348384857177734375e-01
1.751325726509094238e-01 -2.286390960216522217e-02 6.107324361801147461e-02
-2.557885050773620605e-01 4.414705932140350342e-02 7.282691001892089844e-01
-6.510958075523376465e-03 -1.122100278735160828e-03 1.951563805341720581e-01
1.773539483547210693e-01 -3.696808591485023499e-03 2.134095132350921631e-01
7.253871858119964600e-02 3.052045591175556183e-03 4.218415319919586182e-01
2.205797657370567322e-02 1.696857810020446777e-02 2.899100184440612793e-01
-6.886088848114013672e-02 -1.900152489542961121e-02 2.019726932048797607e-01
-1.052633225917816162e-01 4.807519167661666870e-02 5.344364643096923828e-01
1.208570003509521484e-01 -3.661269322037696838e-02 1.395429968833923340e-01
1.276183873414993286e-03 -8.407488465309143066e-03 1.592307835817337036e-01
1.224098056554794312e-01 -4.364350810647010803e-02 4.233059287071228027e-02
5.815654993057250977e-03 -1.681652106344699860e-02 1.258847117424011230e-01
-1.016276180744171143e-01 4.731995519250631332e-03 2.816277444362640381e-01
-5.700632929801940918e-03 -2.775282785296440125e-02 2.355359494686126709e-01
7.977159321308135986e-02 1.671843230724334717e-02 2.968977391719818115e-01
-1.536561548709869385e-01 5.289655644446611404e-03 4.945008456707000732e-01
-1.688202917575836182e-01 6.628903746604919434e-02 7.469322681427001953e-01
1.132758706808090210e-01 1.646349579095840454e-02 4.045453071594238281e-01
-2.031003981828689575e-01 5.636174604296684265e-02 6.370631456375122070e-01
1.845584660768508911e-01 -2.051972970366477966e-02 1.914965957403182983e-01
-2.088547050952911377e-01 4.177638888359069824e-02 5.442185997962951660e-01
1.144070923328399658e-01 1.743278652429580688e-02 3.418462872505187988e-01
6.140697374939918518e-02 -1.388891413807868958e-02 1.093860566616058350e-01
1.101647764444351196e-01 -2.377126738429069519e-02 5.364209413528442383e-02
-1.644034385681152344e-01 1.973292417824268341e-02 3.967765271663665771e-01
-2.617564797401428223e-01 4.923727363348007202e-02 7.524181604385375977e-01
-1.477957814931869507e-01 2.327470481395721436e-02 6.248848438262939453e-01
-1.126502603292465210e-01 4.448129236698150635e-02 5.076363086700439453e-01
1.284984871745109558e-02 -4.844740033149719238e-03 4.155710637569427490e-01
-1.665452867746353149e-01 5.513281002640724182e-02 6.090529561042785645e-01
-9.393455088138580322e-02 5.922393873333930969e-02 6.897805929183959961e-01
1.193640232086181641e-01 -4.624048247933387756e-03 3.445127606391906738e-01
1.448194384574890137e-01 -2.905182540416717529e-02 2.814581990242004395e-02
1.118696331977844238e-01 -2.820135280489921570e-02 3.672879934310913086e-02
9.032124280929565430e-02 -1.490088924765586853e-02 9.691408276557922363e-02
-6.863722950220108032e-02 1.175495982170104980e-02 5.430058240890502930e-01
-6.609332561492919922e-02 2.456124871969223022e-02 6.094900369644165039e-01
1.915661096572875977e-01 -3.547193482518196106e-02 8.592817187309265137e-02
-1.983587592840194702e-01 3.162022307515144348e-02 6.732182502746582031e-01
-5.694203078746795654e-03 4.538887739181518555e-02 5.509087443351745605e-01
-1.308941841125488281e-01 9.830674156546592712e-03 3.266026973724365234e-01
-1.362832188606262207e-01 2.269500494003295898e-02 6.204818487167358398e-01
-9.371292591094970703e-02 1.354592014104127884e-02 3.129093050956726074e-01
1.232580989599227905e-01 -2.703425288200378418e-02 2.145215719938278198e-01
-2.638995945453643799e-01 4.174546897411346436e-02 7.056645154953002930e-01
-1.440351754426956177e-01 1.593640074133872986e-02 3.622424304485321045e-01
1.490323990583419800e-01 -4.354234784841537476e-02 1.516789197921752930e-02
-4.807493463158607483e-02 -2.319765836000442505e-02 2.631942629814147949e-01
-1.534797996282577515e-01 2.702142484486103058e-02 4.206376075744628906e-01
-2.013337761163711548e-01 3.505899757146835327e-02 6.931844949722290039e-01
-3.967997804284095764e-02 3.080144152045249939e-02 6.203973293304443359e-01
-1.516828089952468872e-01 -4.218744114041328430e-03 3.777528405189514160e-01
-2.835027314722537994e-02 1.517845503985881805e-02 2.892605066299438477e-01
-1.343349516391754150e-01 6.235783547163009644e-02 7.477327585220336914e-01
-1.964168399572372437e-01 9.483776055276393890e-03 4.924919307231903076e-01
-1.449089050292968750e-01 3.516971319913864136e-02 6.887702345848083496e-01
8.233027160167694092e-02 2.256175875663757324e-02 3.543511033058166504e-01
-9.956648945808410645e-02 2.583908289670944214e-02 6.292116641998291016e-01
7.327455282211303711e-02 -1.373925246298313141e-02 3.316081464290618896e-01
-2.142412401735782623e-02 2.579761669039726257e-02 3.545677661895751953e-01
-1.978749930858612061e-01 6.742692738771438599e-02 7.604067325592041016e-01
-1.055047363042831421e-01 5.421578884124755859e-02 5.906666517257690430e-01
-1.349368095397949219e-01 5.313833430409431458e-02 5.827574729919433594e-01
-6.111805140972137451e-02 -1.606347598135471344e-02 1.886059194803237915e-01
-1.701862961053848267e-01 2.285565435886383057e-02 4.153588414192199707e-01
-1.016335785388946533e-01 4.100578278303146362e-02 4.788790345191955566e-01
8.698393404483795166e-02 -1.037627831101417542e-02 3.427685797214508057e-01
-2.514173090457916260e-01 6.575575470924377441e-02 7.774502038955688477e-01
-6.103914976119995117e-02 1.177037879824638367e-02 2.849903106689453125e-01
-1.080711483955383301e-01 -1.180117949843406677e-02 3.500061929225921631e-01
1.003922894597053528e-02 3.416324034333229065e-04 4.475921094417572021e-01
1.786211580038070679e-01 -8.367581292986869812e-03 1.622436195611953735e-01
7.903000712394714355e-02 -2.710397168993949890e-02 2.369084805250167847e-01
-2.079455852508544922e-01 2.184124663472175598e-02 6.021893620491027832e-01
8.442413806915283203e-02 -4.046330228447914124e-02 1.015101969242095947e-01
-7.048228383064270020e-02 5.580511689186096191e-02 6.352612972259521484e-01
-5.299224704504013062e-02 -8.363785222172737122e-03 4.059107601642608643e-01
-4.721212014555931091e-02 -4.411309957504272461e-03 4.347591400146484375e-01
-2.860822528600692749e-02 1.975433528423309326e-02 3.166677951812744141e-01
-1.192956119775772095e-01 3.945077955722808838e-02 6.988096237182617188e-01
-2.042365223169326782e-01 1.671764627099037170e-02 5.611670613288879395e-01
1.607851535081863403e-01 -2.501336485147476196e-02 4.611954092979431152e-02
1.290374249219894409e-01 -4.338683933019638062e-02 1.950153708457946777e-02
1.473930031061172485e-01 -2.350565418601036072e-02 2.189202904701232910e-01
-1.763984262943267822e-01 6.575437635183334351e-02 7.258892059326171875e-01
-1.405419260263442993e-01 1.770020276308059692e-02 5.900493860244750977e-01
1.641609519720077515e-01 -4.175347462296485901e-02 4.101693630218505859e-03
1.934467405080795288e-01 -3.888006135821342468e-02 4.202419519424438477e-02
-1.246103495359420776e-01 2.304734289646148682e-02 3.799750804901123047e-01
7.396467030048370361e-02 2.886524237692356110e-02 4.630146622657775879e-01
9.607461094856262207e-02 1.864821463823318481e-02 3.264662325382232666e-01
1.233217567205429077e-01 -3.267377242445945740e-02 1.722418367862701416e-01
-4.875428229570388794e-02 5.304307490587234497e-02 6.310310363769531250e-01
8.289468288421630859e-02 -3.571445867419242859e-02 1.603036820888519287e-01
-4.802152514457702637e-02 4.012133926153182983e-02 6.554270982742309570e-01
-5.061740428209304810e-02 -2.202416956424713135e-02 2.768186032772064209e-01
5.614387616515159607e-02 -2.002652734518051147e-02 2.982080876827239990e-01
6.631934642791748047e-02 -9.288376197218894958e-03 1.295622885227203369e-01
1.814521998167037964e-01 -3.228772059082984924e-02 2.155274152755737305e-02
6.202306970953941345e-02 -3.602184355258941650e-02 1.577488929033279419e-01
-2.576549053192138672e-01 4.485945403575897217e-02 6.165182590484619141e-01
-1.069010347127914429e-01 -3.232001326978206635e-03 4.399416446685791016e-01
1.641458868980407715e-01 -2.834534645080566406e-02 3.201213479042053223e-02
1.106589287519454956e-01 -1.228471472859382629e-02 1.076086461544036865e-01
7.052738964557647705e-02 -2.614605799317359924e-02 5.933144688606262207e-02
6.162246689200401306e-02 -3.933057188987731934e-02 1.078338623046875000e-01
1.539840102195739746e-01 -4.170080646872520447e-02 6.620737910270690918e-02
1.436960101127624512e-01 -4.384944215416908264e-02 3.053966164588928223e-02
-4.161797836422920227e-02 -2.184850163757801056e-03 4.492172002792358398e-01
-5.080440267920494080e-02 3.492660075426101685e-02 4.238362610340118408e-01
-8.715532720088958740e-03 1.769033446907997131e-02 5.465106964111328125e-01
7.724821567535400391e-02 -1.467933133244514465e-02 1.010248959064483643e-01
-8.741630613803863525e-02 4.175545275211334229e-02 4.810573458671569824e-01
-1.398087143898010254e-01 4.732527583837509155e-02 7.371816635131835938e-01
-1.572701483964920044e-01 6.536478549242019653e-02 7.299888134002685547e-01
2.566678449511528015e-02 -3.583742305636405945e-02 1.360062956809997559e-01
-1.834180951118469238e-01 4.220967739820480347e-02 5.266699790954589844e-01
-6.248172745108604431e-02 3.211189433932304382e-02 4.058929383754730225e-01
-3.367743268609046936e-02 1.915143057703971863e-02 5.677527785301208496e-01
-7.365982234477996826e-02 -2.480963245034217834e-03 4.504825174808502197e-01
1.095277369022369385e-01 -3.834561631083488464e-02 1.268373429775238037e-01
6.447829306125640869e-03 1.822533831000328064e-02 2.997829616069793701e-01
5.570251122117042542e-02 -2.483417093753814697e-02 2.624623775482177734e-01
1.765133440494537354e-01 -4.204279929399490356e-02 2.709570527076721191e-02
-6.813235580921173096e-02 3.800410404801368713e-02 4.492902457714080811e-01
-2.671642899513244629e-01 3.689677268266677856e-02 6.598390340805053711e-01
1.014803647994995117e-01 -9.366983547806739807e-03 1.237930953502655029e-01
-1.191133260726928711e-01 3.685943037271499634e-02 4.568375647068023682e-01
-7.426955550909042358e-02 4.117378592491149902e-02 4.744692742824554443e-01
3.895942494273185730e-02 3.673538938164710999e-02 4.885189235210418701e-01
2.288489416241645813e-02 -1.876703090965747833e-02 3.176438212394714355e-01
8.010843396186828613e-02 -3.836945444345474243e-02 3.646263480186462402e-02
-1.329410672187805176e-01 2.853758819401264191e-02 6.524426341056823730e-01
-4.686601459980010986e-04 4.479720816016197205e-02 5.741062760353088379e-01
1.548001766204833984e-01 -1.313317753374576569e-02 1.089299321174621582e-01
-1.767259389162063599e-01 2.673828601837158203e-02 4.386931061744689941e-01
-1.884830147027969360e-01 6.514015793800354004e-02 7.165684103965759277e-01
-1.333028823137283325e-01 5.927374213933944702e-02 6.427947282791137695e-01
-1.668747812509536743e-01 1.199705991894006729e-02 5.447170138359069824e-01
-7.794498652219772339e-02 3.322775661945343018e-02 4.176656603813171387e-01
-2.264648228883743286e-01 5.137585848569869995e-02 7.731313705444335938e-01
-1.050731986761093140e-01 1.299038715660572052e-02 5.579152107238769531e-01
-3.373723849654197693e-02 4.563425108790397644e-02 5.203717947006225586e-01
3.077557310461997986e-02 -3.272659331560134888e-02 1.904792934656143188e-01
9.975406527519226074e-02 -4.251481220126152039e-02 4.000186920166015625e-02
-1.114805638790130615e-01 4.961451143026351929e-02 5.483099222183227539e-01
1.975260674953460693e-04 6.471607834100723267e-03 2.308738082647323608e-01
7.628652453422546387e-02 -5.218837410211563110e-03 1.488927006721496582e-01
-1.998202651739120483e-01 6.132390722632408142e-02 6.781522035598754883e-01
-2.232958078384399414e-01 1.939218118786811829e-02 5.638074278831481934e-01
4.733767732977867126e-02 -3.429940715432167053e-02 1.758509874343872070e-01
-6.785528361797332764e-02 -2.018880099058151245e-02 2.833759784698486328e-01
-2.359516546130180359e-02 1.271284744143486023e-02 5.308562517166137695e-01
9.656788408756256104e-02 -3.788649290800094604e-02 1.350234448909759521e-01
-2.560740709304809570e-01 5.162939429283142090e-02 7.672948837280273438e-01
1.144546419382095337e-01 1.556833740323781967e-02 3.155806660652160645e-01
9.605513513088226318e-02 2.272415533661842346e-02 3.807210624217987061e-01
4.528842493891716003e-02 2.511436305940151215e-02 3.546006381511688232e-01
-4.240608587861061096e-02 -2.596092969179153442e-02 2.229920774698257446e-01
3.056271001696586609e-02 -3.360700234770774841e-02 8.069697022438049316e-02
-2.327373921871185303e-01 5.719328671693801880e-02 6.654264926910400391e-01
1.866232976317405701e-02 1.295193284749984741e-02 2.641740143299102783e-01
-1.593009009957313538e-02 2.401494979858398438e-02 3.415758907794952393e-01
-1.198860704898834229e-01 -1.962035894393920898e-04 4.616869390010833740e-01
2.394419163465499878e-03 4.307162761688232422e-02 5.220306515693664551e-01
-8.269835263490676880e-02 1.581049337983131409e-02 5.702509880065917969e-01
-2.551023960113525391e-01 5.679254978895187378e-02 6.858116388320922852e-01
9.602369368076324463e-02 -3.038430586457252502e-02 3.556448221206665039e-02
2.851492539048194885e-02 1.178809721022844315e-02 4.950447976589202881e-01
7.370555400848388672e-02 -1.121363416314125061e-02 1.183139681816101074e-01
-2.123803794384002686e-01 3.540134429931640625e-02 5.142552852630615234e-01
-9.108735620975494385e-02 -1.376327127218246460e-02 3.438980877399444580e-01
-9.437136352062225342e-02 2.158428356051445007e-02 3.541054427623748779e-01
4.393920674920082092e-02 -1.462386734783649445e-02 3.402601480484008789e-01
8.267328143119812012e-02 -5.582297220826148987e-03 3.717965483665466309e-01
5.632478743791580200e-03 -3.362001851201057434e-02 1.419655680656433105e-01
-2.640771567821502686e-01 6.331855058670043945e-02 7.630416154861450195e-01
-1.887195110321044922e-01 2.361185103654861450e-02 6.234241724014282227e-01
5.333631113171577454e-02 -2.563427016139030457e-02 7.004511356353759766e-02
8.163434267044067383e-02 1.528820116072893143e-02 4.576613306999206543e-01
2.003387212753295898e-01 -2.941019088029861450e-02 4.746046662330627441e-02
-4.788519814610481262e-02 3.822198510169982910e-02 4.490406513214111328e-01
2.299591526389122009e-02 -1.625307276844978333e-02 3.361792266368865967e-01
4.302585497498512268e-02 -3.805614635348320007e-02 9.499838948249816895e-02
-3.895815461874008179e-03 -5.419766530394554138e-04 4.484284818172454834e-01
-1.197399497032165527e-01 3.420198336243629456e-02 4.402727186679840088e-01
-1.627896577119827271e-01 -1.390707679092884064e-03 3.708691895008087158e-01
-6.274129450321197510e-02 1.016879640519618988e-02 5.320459604263305664e-01
-6.719905883073806763e-02 5.132073909044265747e-02 5.689461231231689453e-01
7.416453957557678223e-02 -4.059156030416488647e-02 9.197515249252319336e-02
1.103016436100006104e-01 5.901029333472251892e-03 2.232991158962249756e-01
-2.130743712186813354e-01 5.329024419188499451e-02 6.207234263420104980e-01
1.827593594789505005e-01 -6.997652351856231689e-03 1.860678642988204956e-01
-1.732047647237777710e-01 6.649820506572723389e-02 7.621072530746459961e-01
1.444984227418899536e-01 -2.979114651679992676e-05 1.961154937744140625e-01
1.398961097002029419e-01 -3.676458075642585754e-02 6.411731243133544922e-03
4.116160050034523010e-02 3.034886717796325684e-02 4.018496572971343994e-01
-2.441046684980392456e-01 6.115829572081565857e-02 8.026711940765380859e-01
1.204362064599990845e-01 -2.180405333638191223e-02 6.020295619964599609e-02
-1.877859681844711304e-01 1.312958262860774994e-02 5.424042940139770508e-01
9.417632222175598145e-02 2.151781693100929260e-02 4.422265887260437012e-01
-9.277384728193283081e-03 1.515315193682909012e-02 2.834374904632568359e-01
-1.335101760923862457e-02 -1.452528126537799835e-02 1.464362740516662598e-01
-2.890026569366455078e-02 -5.856024101376533508e-03 1.872773617506027222e-01
6.165031716227531433e-02 2.492575906217098236e-02 3.612509369850158691e-01
4.912298545241355896e-02 -2.829375490546226501e-02 2.353282570838928223e-01
-2.436919510364532471e-01 4.877511039376258850e-02 6.194088459014892578e-01
1.222314089536666870e-01 6.251758895814418793e-03 2.322256714105606079e-01
3.957486525177955627e-02 -3.100118413567543030e-02 2.106368988752365112e-01
-2.678951621055603027e-02 -2.192571386694908142e-02 3.284855186939239502e-02
2.034088969230651855e-02 -2.738736942410469055e-02 -2.740616723895072937e-02
1.652448773384094238e-01 -4.063929617404937744e-02 1.163198202848434448e-01
3.405498266220092773e-01 -3.729243949055671692e-02 -4.561267048120498657e-02
1.188202202320098877e-02 -2.980140596628189087e-02 6.453669816255569458e-02
8.663859218358993530e-02 -3.604570776224136353e-02 -4.610820859670639038e-02
1.850946843624114990e-01 4.397766664624214172e-03 -1.282959878444671631e-01
1.530258506536483765e-01 -1.592561043798923492e-02 1.022642105817794800e-01
2.984493374824523926e-01 -1.928901486098766327e-02 -1.649571657180786133e-01
1.191335916519165039e-01 -3.470898047089576721e-02 -9.641039371490478516e-02
-2.505691349506378174e-02 -8.761674165725708008e-03 -8.800961822271347046e-02
9.107498824596405029e-02 -4.007244855165481567e-02 8.869432657957077026e-02
9.231746196746826172e-02 -3.221936896443367004e-02 -8.783355355262756348e-02
7.350697368383407593e-02 -3.879717737436294556e-02 3.054982423782348633e-02
2.694972157478332520e-01 -9.484842419624328613e-03 -1.393505632877349854e-01
3.008036613464355469e-01 -4.981742054224014282e-02 -4.906910285353660583e-02
-1.171863079071044922e-02 -1.366093661636114120e-02 -8.199071139097213745e-02
2.243579328060150146e-01 -1.361196860671043396e-03 -1.394816935062408447e-01
2.732158899307250977e-01 -3.590113297104835510e-02 5.969563126564025879e-02
1.369110345840454102e-01 -2.485310658812522888e-02 1.314726173877716064e-01
1.386395543813705444e-01 5.927588790655136108e-04 2.679542824625968933e-02
1.723976731300354004e-01 -4.755134135484695435e-02 -1.364373601973056793e-02
2.356375604867935181e-01 -5.109292455017566681e-03 -6.205335259437561035e-02
1.728637516498565674e-01 -1.324291341006755829e-02 -2.079667598009109497e-01
-7.628151774406433105e-02 -7.500229403376579285e-03 4.641931504011154175e-02
2.032377421855926514e-01 1.937761902809143066e-03 -1.101287752389907837e-01
5.071297287940979004e-03 -1.212175656110048294e-02 1.319335401058197021e-01
1.768271028995513916e-01 -4.892957955598831177e-02 3.296084702014923096e-02
5.824633687734603882e-02 -2.675903961062431335e-02 1.401795893907546997e-01
3.303161859512329102e-01 -4.396795853972434998e-02 -1.895412430167198181e-02
-6.411552429199218750e-03 1.419458724558353424e-02 8.284702897071838379e-03
-5.395197868347167969e-02 2.072630450129508972e-03 8.346667885780334473e-02
6.057730317115783691e-02 1.022161357104778290e-02 -1.649330407381057739e-01
6.018864363431930542e-02 1.578181795775890350e-02 -8.620879054069519043e-02
4.833401739597320557e-02 -2.601808682084083557e-02 -8.247414976358413696e-02
3.331578373908996582e-01 -4.324654117226600647e-02 -9.376190602779388428e-02
1.710886210203170776e-01 -3.846386820077896118e-02 -1.120401173830032349e-01
1.880741715431213379e-01 -4.406095296144485474e-02 -7.814467698335647583e-02
1.118858531117439270e-01 -4.311225190758705139e-02 2.023828402161598206e-02
2.065092027187347412e-01 -3.446417301893234253e-02 -1.550881564617156982e-01
2.841567993164062500e-01 -2.756540663540363312e-02 2.550663053989410400e-02
2.686319053173065186e-01 -1.331156212836503983e-02 -1.800027638673782349e-01
3.076586723327636719e-01 -4.646909236907958984e-02 1.471008360385894775e-02
1.846659481525421143e-01 -1.333951950073242188e-04 -1.889906823635101318e-01
5.826191604137420654e-02 -8.016638457775115967e-03 1.189212203025817871e-01
2.917415499687194824e-01 -4.786432534456253052e-02 2.862248942255973816e-02
2.226449251174926758e-01 -2.884575165808200836e-03 -1.704588085412979126e-01
2.775534987449645996e-03 -2.644602581858634949e-02 2.266973257064819336e-03
9.377574175596237183e-02 1.747660338878631592e-03 -1.929149478673934937e-01
2.503834962844848633e-01 -3.273255750536918640e-02 -1.730486899614334106e-01
2.502038776874542236e-01 -3.836791962385177612e-02 -1.479497402906417847e-01
1.429865062236785889e-01 8.241092786192893982e-03 -6.706999987363815308e-02
-2.262426912784576416e-02 -2.311133593320846558e-02 6.176050007343292236e-02
3.577446192502975464e-02 -2.372328191995620728e-03 1.044631004333496094e-01
2.849957346916198730e-01 -2.115896344184875488e-02 -8.092060685157775879e-03
1.256884634494781494e-01 -4.377990216016769409e-02 -1.810077577829360962e-03
1.375942230224609375e-01 2.679279074072837830e-03 1.077439263463020325e-02
1.263703852891921997e-01 -2.594302408397197723e-03 5.906689167022705078e-02
-2.272514998912811279e-02 1.195318624377250671e-02 3.299447149038314819e-02
1.063279956579208374e-01 6.290769204497337341e-03 1.050586625933647156e-02
1.520251631736755371e-01 -4.377323389053344727e-02 -4.505163431167602539e-02
4.219070076942443848e-03 1.396670378744602203e-02 -1.266843527555465698e-01
2.780439853668212891e-01 -4.758600890636444092e-02 -8.650753647089004517e-02
1.525020301342010498e-01 8.249467238783836365e-03 -1.246899664402008057e-01
2.015086710453033447e-01 -1.944223605096340179e-02 8.007116615772247314e-02
3.219959139823913574e-01 -4.786662757396697998e-02 -3.014516457915306091e-02
-6.958454847335815430e-03 -5.221273750066757202e-03 -1.223602518439292908e-01
7.407149672508239746e-02 -3.031613118946552277e-02 -8.173000812530517578e-02
6.892032921314239502e-03 -1.691418513655662537e-02 -8.862020075321197510e-02
1.494680941104888916e-01 -1.222093403339385986e-02 9.060806781053543091e-02
2.703651189804077148e-01 -4.584933072328567505e-02 -1.019326224923133850e-01
2.514151930809020996e-01 -7.931204512715339661e-03 -6.251433491706848145e-02
1.901930421590805054e-01 -3.379258140921592712e-02 1.166378706693649292e-01
5.499823391437530518e-02 -3.608708083629608154e-02 2.426571026444435120e-02
2.648252248764038086e-01 -2.634786814451217651e-02 4.456683993339538574e-02
1.155742555856704712e-01 -3.951092809438705444e-02 -4.865361750125885010e-02
1.782940924167633057e-01 3.307132050395011902e-03 -1.686455458402633667e-01
2.237837463617324829e-01 -2.851873636245727539e-02 8.919584006071090698e-02
2.043788880109786987e-01 1.723933964967727661e-04 -6.584095954895019531e-02
8.172062784433364868e-02 -3.743772208690643311e-02 -2.070163376629352570e-02
1.320728063583374023e-01 -4.542573541402816772e-02 4.608671367168426514e-02
-4.950287938117980957e-02 -8.230961859226226807e-03 -5.202382430434226990e-02
2.511674761772155762e-01 -1.017715409398078918e-02 -3.527528420090675354e-02
6.877634674310684204e-02 1.417197473347187042e-02 -1.331023573875427246e-01
-4.815132915973663330e-02 9.658955037593841553e-03 4.728495329618453979e-02
-8.705709874629974365e-02 7.596930488944053650e-03 3.608535975217819214e-03
1.097353771328926086e-01 -4.188093543052673340e-02 -4.854245111346244812e-03
1.262187957763671875e-01 -4.463873058557510376e-02 6.264436990022659302e-02
1.487845927476882935e-02 -2.393263019621372223e-02 -5.115721374750137329e-02
2.880924344062805176e-01 -1.393575035035610199e-02 -8.975409716367721558e-02
1.477844268083572388e-01 -3.271002322435379028e-02 1.320677995681762695e-01
1.038861349225044250e-01 9.639963507652282715e-03 -2.319809235632419586e-02
2.365000396966934204e-01 -2.829506248235702515e-02 7.837793976068496704e-02
2.417616546154022217e-02 -4.315378144383430481e-03 1.141093075275421143e-01
9.584270417690277100e-02 -1.235685683786869049e-02 -1.822425276041030884e-01
2.199572622776031494e-01 -4.574963450431823730e-02 -8.410170674324035645e-02
1.171139478683471680e-01 -3.200730681419372559e-02 1.376063376665115356e-01
1.134969890117645264e-01 -3.760851547122001648e-02 1.237742602825164795e-01
-1.778735220432281494e-02 1.087612845003604889e-02 -1.233455911278724670e-01
-7.377320528030395508e-02 1.122865825891494751e-03 -4.583692550659179688e-02
3.221500515937805176e-01 -2.715773507952690125e-02 -4.493920132517814636e-02
2.426475882530212402e-01 -4.656549543142318726e-03 -9.481314569711685181e-02
1.718046963214874268e-01 -1.644137315452098846e-03 8.522450923919677734e-03
2.950166463851928711e-01 -4.337476193904876709e-02 -1.199475824832916260e-01
1.061854511499404907e-01 1.254377141594886780e-02 -8.675638586282730103e-02
2.979760169982910156e-01 -3.613688796758651733e-02 3.236245363950729370e-02
2.829266339540481567e-02 -2.969531714916229248e-02 -1.630785316228866577e-02
1.097296178340911865e-01 1.241383515298366547e-02 -1.008442789316177368e-01
-6.925955414772033691e-02 6.301803514361381531e-03 -6.359349191188812256e-02
1.908264458179473877e-01 -4.412685334682464600e-02 1.003120988607406616e-01
4.430111497640609741e-02 1.239370927214622498e-02 2.598583698272705078e-03
7.459769397974014282e-02 1.458548568189144135e-02 -6.927296519279479980e-02
1.837060898542404175e-01 -4.768136888742446899e-02 7.466576993465423584e-02
3.809660673141479492e-03 1.621476374566555023e-02 -2.395227923989295959e-02
1.399101018905639648e-01 5.071980878710746765e-03 -1.829973608255386353e-01
-1.802071928977966309e-02 1.600521244108676910e-02 -9.474201500415802002e-02
3.055538237094879150e-02 1.543266884982585907e-02 -2.793534845113754272e-02
3.056321442127227783e-01 -1.830407790839672089e-02 -1.379434019327163696e-01
1.902819424867630005e-02 -8.691387251019477844e-03 -1.372239738702774048e-01
1.376363635063171387e-02 8.222740143537521362e-03 5.433651804924011230e-02
2.485921382904052734e-01 -3.396206721663475037e-02 7.929858565330505371e-02
1.361460983753204346e-01 -4.079620167613029480e-02 -6.041178852319717407e-02
4.612816870212554932e-02 -2.989423274993896484e-02 -4.719270765781402588e-02
2.033398747444152832e-01 -3.039862588047981262e-02 -1.722413450479507446e-01
1.353811174631118774e-01 -2.360376529395580292e-03 5.035070329904556274e-02
1.638414710760116577e-01 -1.417071092873811722e-02 8.856425434350967407e-02
1.796793490648269653e-01 -3.784302622079849243e-02 -1.220553219318389893e-01
3.392919898033142090e-02 1.214742101728916168e-02 1.216248050332069397e-02
2.808592915534973145e-01 -1.836466044187545776e-02 -1.836292892694473267e-01
2.290306538343429565e-01 -2.424612641334533691e-03 -9.271091967821121216e-02
1.255155354738235474e-01 -1.606899313628673553e-02 -1.880054324865341187e-01
7.375843822956085205e-02 -2.124206349253654480e-02 1.425672173500061035e-01
1.177879720926284790e-01 8.160883560776710510e-03 -2.239695936441421509e-02
2.519712150096893311e-01 -4.949839413166046143e-02 5.027301609516143799e-02
1.064866110682487488e-01 -4.061169922351837158e-02 -2.013169974088668823e-02
8.086703717708587646e-02 1.455811224877834320e-02 -1.026133969426155090e-01
-4.749940335750579834e-02 1.013157889246940613e-02 -9.386434406042098999e-02
3.066306114196777344e-01 -3.108955174684524536e-02 -1.654802411794662476e-01
-9.091913700103759766e-03 1.532657630741596222e-02 -5.414228886365890503e-03
2.795296907424926758e-02 -1.307712402194738388e-02 -1.301152408123016357e-01
5.016990005970001221e-02 5.942057818174362183e-03 5.450709909200668335e-02
1.201939210295677185e-01 -9.939718060195446014e-03 -1.979688405990600586e-01
1.942355036735534668e-01 -1.299501210451126099e-02 5.845177918672561646e-02
1.057636141777038574e-01 -4.950594156980514526e-04 6.159660220146179199e-02
-6.993475556373596191e-02 -9.269022382795810699e-03 6.364045292139053345e-02
3.241221904754638672e-01 -2.443334273993968964e-02 -7.953517138957977295e-02
3.331720083951950073e-02 1.659713126718997955e-02 -1.028978452086448669e-01
1.080727800726890564e-01 -4.222635552287101746e-02 8.133102953433990479e-02
9.305755794048309326e-02 7.931539788842201233e-03 7.667265832424163818e-03
-4.010453820228576660e-02 1.548604853451251984e-02 -7.461073994636535645e-02
-1.336777210235595703e-02 -2.481593936681747437e-02 3.466554731130599976e-02
-3.020048141479492188e-02 1.609142683446407318e-02 -1.789266988635063171e-02
2.621181309223175049e-01 -4.193133115768432617e-02 -1.293849050998687744e-01
2.465470135211944580e-01 -5.976493470370769501e-03 -8.005860447883605957e-02
2.329742312431335449e-01 -5.034692585468292236e-02 -3.257009387016296387e-02
9.153640270233154297e-02 -3.319021314382553101e-03 8.596911281347274780e-02
3.130322694778442383e-01 -4.513212293386459351e-02 -1.001604273915290833e-01
-2.502003312110900879e-02 -1.710402593016624451e-02 1.138691902160644531e-01
4.263909161090850830e-02 -3.416675701737403870e-02 2.159481868147850037e-02
2.563618421554565430e-01 -6.931285373866558075e-03 -1.016008704900741577e-01
-4.285618662834167480e-03 -1.900348253548145294e-02 -5.914855748414993286e-02
1.601126044988632202e-01 -4.589043557643890381e-02 -2.534184977412223816e-02
2.168013751506805420e-01 -4.820123687386512756e-02 -5.415417626500129700e-02
2.439409196376800537e-01 -5.139610171318054199e-02 -1.425793208181858063e-02
-4.380947351455688477e-02 -5.166982300579547882e-03 1.062045544385910034e-01
1.289118081331253052e-01 -3.412042930722236633e-02 -1.095070093870162964e-01
7.001388818025588989e-02 -5.324202589690685272e-03 -1.814906299114227295e-01
5.807009339332580566e-02 -4.715486429631710052e-03 -1.755483746528625488e-01
4.442832618951797485e-02 -3.398632630705833435e-02 9.222663938999176025e-02
1.057982444763183594e-01 -1.135711185634136200e-02 -1.894672811031341553e-01
2.351970672607421875e-01 -5.142679810523986816e-02 -1.700688153505325317e-03
-5.002528429031372070e-03 -2.558759972453117371e-02 9.100615978240966797e-02
6.955219805240631104e-02 1.072442531585693359e-02 5.340166389942169189e-04
3.347731828689575195e-01 -3.727617114782333374e-02 -1.235452890396118164e-01
1.772353202104568481e-01 -4.596208781003952026e-02 8.968006074428558350e-02
1.747372746467590332e-01 5.523744970560073853e-03 -1.362747251987457275e-01
1.497188210487365723e-02 -2.061059884727001190e-02 -7.642860710620880127e-02
2.372508049011230469e-01 -1.599406823515892029e-02 2.878887578845024109e-02
1.006334275007247925e-01 -1.753963902592658997e-02 -1.703181415796279907e-01
2.033273577690124512e-01 1.941403374075889587e-03 -1.295645385980606079e-01
2.037499248981475830e-01 -2.834103815257549286e-02 1.030366718769073486e-01
2.563841938972473145e-01 -2.017831057310104370e-02 2.773703634738922119e-02
-8.280615508556365967e-02 7.865086197853088379e-03 -2.873982302844524384e-02
2.311513125896453857e-01 -4.538347199559211731e-02 -9.358610212802886963e-02
-8.164326846599578857e-02 -5.045234225690364838e-03 3.567495942115783691e-02
-1.525734364986419678e-02 7.644651457667350769e-03 6.398834288120269775e-02
1.689887642860412598e-01 -4.827602207660675049e-02 4.671401530504226685e-02
7.136686891317367554e-02 -2.483064867556095123e-02 -1.152739524841308594e-01
1.865633428096771240e-01 -4.672180116176605225e-02 -4.619905352592468262e-02
-3.374151885509490967e-02 1.088945753872394562e-02 4.138977080583572388e-02
9.467426687479019165e-02 -4.154456406831741333e-02 5.829580128192901611e-02
-3.029842674732208252e-02 8.672133088111877441e-03 5.751049518585205078e-02
1.830732822418212891e-01 -2.369742281734943390e-02 1.063110828399658203e-01
9.185019135475158691e-02 1.363523490726947784e-02 -1.171753630042076111e-01
2.737154960632324219e-01 -2.265236712992191315e-02 1.752879098057746887e-02
5.698546767234802246e-02 -1.800545305013656616e-02 -1.362638473510742188e-01
1.120868921279907227e-01 -4.347413778305053711e-02 5.101151764392852783e-02
1.720224320888519287e-01 -4.059823229908943176e-02 -9.639440476894378662e-02
1.164931505918502808e-01 6.553808227181434631e-03 -2.706417813897132874e-03
1.696001887321472168e-01 -1.974496617913246155e-02 -1.958227455615997314e-01
2.095362693071365356e-01 -1.109348982572555542e-02 3.224699944257736206e-02
-1.201203465461730957e-02 -2.133121713995933533e-02 -2.484240569174289703e-02
1.037982702255249023e-01 -3.505564853549003601e-02 1.308789998292922974e-01
3.241154551506042480e-01 -4.765911400318145752e-02 -4.646221548318862915e-02
5.857166647911071777e-02 1.571618579328060150e-02 -7.384680956602096558e-02
2.208522558212280273e-01 -3.071524947881698608e-02 -1.759243160486221313e-01
2.353698909282684326e-01 -5.013433843851089478e-02 4.985567182302474976e-02
2.365221679210662842e-01 -2.965712919831275940e-02 -1.823744028806686401e-01
-8.177445828914642334e-02 -2.535933628678321838e-03 5.622033774852752686e-02
1.431883722543716431e-01 8.815191686153411865e-03 -8.238179981708526611e-02
1.417875289916992188e-02 -2.949455939233303070e-02 8.637426793575286865e-02
2.521408200263977051e-01 -2.496273815631866455e-02 5.336897820234298706e-02
3.435558080673217773e-01 -3.350157290697097778e-02 -9.023457765579223633e-02
-7.051838934421539307e-02 1.019760407507419586e-02 2.744170278310775757e-02
7.055082172155380249e-02 -3.787132352590560913e-02 1.403487101197242737e-02
2.082930207252502441e-01 -5.047598481178283691e-02 3.496218472719192505e-02
1.441093832254409790e-01 -3.385584056377410889e-02 -1.233816668391227722e-01
1.273202002048492432e-01 7.564650848507881165e-03 -1.722260862588882446e-01
2.427320480346679688e-01 -4.078304767608642578e-02 -1.323450505733489990e-01
2.292887866497039795e-01 -3.298841416835784912e-03 -7.409310340881347656e-02
1.186270192265510559e-01 -2.056968770921230316e-02 1.313223838806152344e-01
2.322357594966888428e-01 -1.107588782906532288e-02 -2.012351304292678833e-01
2.846990227699279785e-01 -1.478678267449140549e-02 -6.311083585023880005e-02
3.379631787538528442e-02 1.047109626233577728e-02 2.817450836300849915e-02
2.041242420673370361e-01 1.247163861989974976e-03 -8.768844604492187500e-02
1.199760586023330688e-01 -4.417374357581138611e-02 2.987813949584960938e-02
-6.528694927692413330e-02 4.557067528367042542e-03 6.663946062326431274e-02
-8.212298154830932617e-03 1.678054220974445343e-02 -3.125847876071929932e-02
2.206694483757019043e-01 -6.406108848750591278e-03 -1.757491752505302429e-02
9.809820353984832764e-02 1.263562217354774475e-02 -6.583150476217269897e-02
-5.668109655380249023e-02 1.400739140808582306e-02 -6.126454472541809082e-02
5.701404809951782227e-02 -4.043253138661384583e-03 1.047800332307815552e-01
1.009408235549926758e-01 -1.869719661772251129e-02 1.336832940578460693e-01
-6.272390484809875488e-02 -1.186671759933233261e-02 1.594227552413940430e-02
-8.532063663005828857e-02 7.042579352855682373e-03 2.311030775308609009e-02
1.978050619363784790e-01 -4.684967175126075745e-02 8.441471308469772339e-02
-3.924107551574707031e-02 6.914023309946060181e-03 6.685924530029296875e-02
3.086665868759155273e-01 -4.207426309585571289e-02 -1.239367797970771790e-01
-9.376540780067443848e-03 -1.915335841476917267e-02 1.227820217609405518e-01
1.108997911214828491e-01 1.166804507374763489e-02 -7.052711397409439087e-02
6.587155163288116455e-02 -3.773948550224304199e-02 7.455492019653320312e-02
3.170320987701416016e-01 -2.117517217993736267e-02 -1.010868176817893982e-01
3.153045773506164551e-01 -2.051097527146339417e-02 -1.141801699995994568e-01
3.120840191841125488e-01 -3.549610450863838196e-02 1.132186502218246460e-02
2.858873009681701660e-01 -4.984946548938751221e-02 -5.748630687594413757e-02
1.429768651723861694e-01 -2.918204478919506073e-02 -1.487703919410705566e-01
-1.658578217029571533e-02 -2.351334691047668457e-02 1.803392916917800903e-02
1.344586461782455444e-01 5.263578146696090698e-03 -1.050078496336936951e-02
8.329276740550994873e-02 -3.865460306406021118e-02 -4.680264741182327271e-03
-9.599179029464721680e-04 -2.732441946864128113e-02 3.815149515867233276e-02
1.598730683326721191e-03 1.745015569031238556e-02 -5.855946242809295654e-02
-4.326549172401428223e-02 1.593405194580554962e-02 -2.458246052265167236e-02
-7.410518825054168701e-02 -2.448817715048789978e-03 -3.044758364558219910e-02
2.757766842842102051e-01 -4.895433038473129272e-02 -7.092127203941345215e-02
-6.121012568473815918e-02 8.175062015652656555e-03 5.069205164909362793e-02
2.024075090885162354e-01 -3.690166398882865906e-03 -1.950350254774093628e-01
2.773642539978027344e-01 -4.327912628650665283e-02 -1.219636946916580200e-01
1.886387914419174194e-01 3.225566819310188293e-03 -1.520364582538604736e-01
2.830178141593933105e-01 -1.232069637626409531e-02 -1.355357319116592407e-01
1.166222244501113892e-01 -5.984655581414699554e-03 8.416659384965896606e-02
2.198178768157958984e-01 -4.395768046379089355e-04 -1.234503313899040222e-01
1.151845306158065796e-01 1.193793676793575287e-02 -1.124198213219642639e-01
4.319462180137634277e-02 1.102690212428569794e-02 -1.573685705661773682e-01
1.026885211467742920e-01 -2.751046791672706604e-02 -1.282685250043869019e-01
3.270149230957031250e-02 1.290037482976913452e-02 -1.450286507606506348e-01
2.425140738487243652e-01 -4.651623219251632690e-02 -8.820068836212158203e-02
5.749112367630004883e-02 -2.341713383793830872e-02 -1.095253452658653259e-01
2.169425338506698608e-01 -4.257062077522277832e-02 -1.097893267869949341e-01
1.446318775415420532e-01 -1.542618870735168457e-02 -1.973012983798980713e-01
2.179699540138244629e-01 -1.889690756797790527e-02 -2.052480280399322510e-01
5.325199663639068604e-02 8.246157318353652954e-03 3.563219308853149414e-02
1.320258975028991699e-01 -7.505360990762710571e-03 8.139549940824508667e-02
1.159724965691566467e-01 -4.015179723501205444e-02 1.110771447420120239e-01
-1.937352120876312256e-02 -2.301317080855369568e-02 8.385157585144042969e-02
4.873027652502059937e-02 -3.156701847910881042e-02 1.200971603393554688e-01
8.784393966197967529e-02 1.147879660129547119e-02 -2.799124084413051605e-02
4.724986106157302856e-02 1.640896685421466827e-02 -8.498430252075195312e-02
1.895593404769897461e-01 -3.017929941415786743e-02 -1.681361943483352661e-01
8.119590580463409424e-02 6.926730275154113770e-03 2.695956826210021973e-02
2.306216359138488770e-01 -4.899337887763977051e-02 -5.336729809641838074e-02
5.453301966190338135e-02 3.166142851114273071e-03 7.004541903734207153e-02
1.456064730882644653e-02 1.312144845724105835e-02 -1.367333680391311646e-01
-4.122884571552276611e-02 1.296045258641242981e-03 9.157793968915939331e-02
1.440904140472412109e-01 -3.604052215814590454e-02 -1.087861731648445129e-01
1.750677824020385742e-01 1.476939767599105835e-03 -2.602939121425151825e-02
1.697245538234710693e-01 -4.494255036115646362e-02 -5.114881694316864014e-02
-2.401803433895111084e-02 1.328034140169620514e-02 2.057445421814918518e-02
1.081818789243698120e-01 -2.559702098369598389e-02 -1.425688266754150391e-01
4.452616721391677856e-02 -3.183479979634284973e-02 -2.300160378217697144e-02
2.292023599147796631e-01 -1.663340814411640167e-02 4.151251167058944702e-02
-2.014875411987304688e-03 8.200200274586677551e-03 5.861798673868179321e-02
2.766074985265731812e-02 1.571777276694774628e-02 -1.201266124844551086e-01
8.986298739910125732e-02 1.272311247885227203e-02 -5.180097371339797974e-02
2.421611845493316650e-01 -5.145517736673355103e-02 2.209577709436416626e-02
1.976671814918518066e-01 -2.549253404140472412e-04 -4.450998082756996155e-02
1.193515136837959290e-01 -3.629952669143676758e-02 -8.404635637998580933e-02
2.758852541446685791e-01 -5.086728185415267944e-02 1.670734956860542297e-02
2.158714979887008667e-01 -5.987455137073993683e-03 -1.959748417139053345e-01
2.104374021291732788e-01 -5.069186538457870483e-02 1.183733716607093811e-02
1.580475121736526489e-01 -2.095419168472290039e-02 1.142468750476837158e-01
1.495563983917236328e-02 1.670649833977222443e-02 -4.114167392253875732e-02
-2.914369106292724609e-02 -1.476794108748435974e-02 -4.735546559095382690e-02
2.098752260208129883e-01 -1.741557195782661438e-02 6.467808783054351807e-02
-4.913486540317535400e-02 -1.329975761473178864e-02 -1.551315933465957642e-02
-3.487545251846313477e-02 -1.972337812185287476e-02 7.711040228605270386e-02
-3.327718377113342285e-02 -1.674347743391990662e-02 -2.229217253625392914e-02
1.487490683794021606e-01 -4.589866846799850464e-02 -5.257252603769302368e-03
2.330521941184997559e-01 -4.205963388085365295e-02 -1.206982135772705078e-01
4.391749948263168335e-02 1.564656384289264679e-02 -1.198299303650856018e-01
1.136709749698638916e-02 -2.407294139266014099e-02 1.244446188211441040e-01
1.947530806064605713e-01 -4.658675193786621094e-02 -5.608364567160606384e-02
1.824913024902343750e-01 -1.858179271221160889e-02 -2.017790377140045166e-01
-5.332118272781372070e-02 -9.559467434883117676e-03 -3.595410287380218506e-02
2.689566612243652344e-01 -4.991430044174194336e-02 3.547953069210052490e-02
-5.735965073108673096e-02 -6.689532659947872162e-03 9.621809422969818115e-02
-4.269386827945709229e-02 1.362971588969230652e-02 1.396355032920837402e-02
5.914565175771713257e-02 -3.227923065423965454e-02 -4.391315951943397522e-02
3.788065165281295776e-02 -1.313971914350986481e-02 -1.390070021152496338e-01
2.570556998252868652e-01 -2.837643027305603027e-02 -1.865976750850677490e-01
3.341434597969055176e-01 -4.546257108449935913e-02 -5.570198595523834229e-02
1.907435655593872070e-01 -4.967752844095230103e-02 3.750012814998626709e-02
2.539653182029724121e-01 -6.209565326571464539e-03 -1.175237670540809631e-01
1.439097970724105835e-01 -4.544564336538314819e-02 7.712785899639129639e-02
6.223405897617340088e-02 -2.742286212742328644e-02 -8.918312937021255493e-02
1.495122164487838745e-01 5.227439105510711670e-04 1.612381637096405029e-02
3.260285556316375732e-01 -4.558869078755378723e-02 -8.276394009590148926e-02
3.051549792289733887e-01 -4.808732122182846069e-02 -7.458351552486419678e-02
1.457775384187698364e-02 -2.731847390532493591e-02 1.110374331474304199e-01
3.417546302080154419e-02 1.687896437942981720e-02 -8.805492520332336426e-02
-4.599727690219879150e-02 -1.626161672174930573e-02 9.960442781448364258e-03
3.089894652366638184e-01 -4.881855100393295288e-02 -5.999268591403961182e-02
2.898687422275543213e-01 -4.968989640474319458e-02 1.666551083326339722e-02
2.373428046703338623e-01 -3.853375464677810669e-02 -1.440829932689666748e-01
2.233416438102722168e-01 -4.104466736316680908e-02 9.710340201854705811e-02
1.469822674989700317e-01 3.978747874498367310e-03 -1.296181231737136841e-02
1.799231916666030884e-01 -8.401293307542800903e-04 -9.129423648118972778e-03
2.977576255798339844e-01 -2.695518545806407928e-02 3.125935792922973633e-03
1.255581974983215332e-01 9.153986349701881409e-03 -1.586888283491134644e-01
6.088835746049880981e-02 -3.639405220746994019e-02 9.006401896476745605e-02
-1.939713954925537109e-03 -1.228255592286586761e-02 -1.015206202864646912e-01
2.133188694715499878e-01 -2.859690226614475250e-03 -1.821964234113693237e-01
2.446869909763336182e-01 -7.838360965251922607e-03 -4.740731418132781982e-02
3.230426609516143799e-01 -3.755178302526473999e-02 -2.730740234255790710e-03
-2.642856538295745850e-02 -5.045596510171890259e-03 -1.007695868611335754e-01
2.572827041149139404e-01 -4.927151650190353394e-02 -6.310399621725082397e-02
3.034364879131317139e-01 -5.007158219814300537e-02 -3.520447760820388794e-02
7.942160964012145996e-02 -1.428153365850448608e-03 -1.892714202404022217e-01
-2.672456204891204834e-02 2.315957099199295044e-03 9.092856198549270630e-02
1.632364094257354736e-02 1.695829443633556366e-02 -9.735034406185150146e-02
1.706047207117080688e-01 -8.560532703995704651e-03 5.659039318561553955e-02
1.461974829435348511e-01 -4.076697677373886108e-02 -7.171045243740081787e-02
6.916141510009765625e-02 6.462270393967628479e-03 3.941789269447326660e-02
9.575121104717254639e-03 1.245069876313209534e-02 2.132729440927505493e-02
7.197381556034088135e-02 1.476764120161533356e-02 -1.178962290287017822e-01
2.979811429977416992e-01 -4.587359726428985596e-02 -1.003894433379173279e-01
6.545735895633697510e-02 -3.590013086795806885e-02 -1.015715487301349640e-02
2.580696940422058105e-01 -7.462706416845321655e-03 -1.465273201465606689e-01
1.876061260700225830e-01 -5.411710590124130249e-03 1.924154907464981079e-02
2.693666219711303711e-01 -1.127118896692991257e-02 -6.541351974010467529e-02
2.236051112413406372e-02 -3.163605928421020508e-02 5.686632543802261353e-02
1.262029111385345459e-01 -3.623257577419281006e-02 1.299799233675003052e-01
-2.028672397136688232e-02 1.700433529913425446e-02 -3.778222203254699707e-02
1.003766357898712158e-01 8.639849722385406494e-03 -7.119046524167060852e-03
3.048391342163085938e-01 -2.281046658754348755e-02 -3.504233807325363159e-02
1.170893013477325439e-01 3.358587622642517090e-03 2.561387792229652405e-02
2.868096828460693359e-01 -4.430921375751495361e-02 4.592008143663406372e-02
1.358795613050460815e-01 -3.034617751836776733e-02 -1.379972696304321289e-01
1.346428692340850830e-02 -1.172627136111259460e-02 -1.210578978061676025e-01
3.184910118579864502e-01 -2.674213238060474396e-02 -1.552754342555999756e-01
2.662038207054138184e-01 -3.338509052991867065e-02 -1.710398793220520020e-01
8.780963718891143799e-02 -3.376261889934539795e-02 -6.996236741542816162e-02
2.327822446823120117e-01 -3.416395187377929688e-02 -1.645758301019668579e-01
2.511053532361984253e-02 -3.168662637472152710e-02 7.867394387722015381e-02
1.008128821849822998e-01 -3.595497459173202515e-02 -6.613983958959579468e-02
3.070774078369140625e-01 -2.857327088713645935e-02 -4.730124026536941528e-03
9.746392071247100830e-02 -4.017333686351776123e-02 -9.483661502599716187e-03
1.178471595048904419e-01 -2.940228767693042755e-02 -1.298848986625671387e-01
1.967138051986694336e-01 -4.380654543638229370e-02 -8.713465929031372070e-02
2.541149854660034180e-01 -1.729176938533782959e-02 1.472694054245948792e-02
2.278481125831604004e-01 -1.824903301894664764e-03 -1.081221401691436768e-01
3.412411361932754517e-02 -3.217574208974838257e-02 7.057309150695800781e-03
5.335102975368499756e-02 1.370524987578392029e-02 -2.156695723533630371e-02
-2.534946799278259277e-02 -2.253972738981246948e-02 4.729627072811126709e-02
-3.993405401706695557e-02 1.631179265677928925e-02 -5.803348496556282043e-02
2.454213500022888184e-01 -5.091311782598495483e-02 3.567456454038619995e-02
-7.056954503059387207e-02 -2.760239876806735992e-03 7.947480678558349609e-02
7.044848799705505371e-02 1.248166896402835846e-02 -2.181041613221168518e-02
2.089074552059173584e-01 -4.062423110008239746e-02 -1.198766082525253296e-01
1.133038774132728577e-01 1.828154549002647400e-03 4.052966088056564331e-02
1.562279015779495239e-01 6.421849131584167480e-03 -6.146584451198577881e-02
2.284685373306274414e-01 -6.231322884559631348e-03 -3.272501379251480103e-02
2.983894348144531250e-01 -1.592803746461868286e-02 -1.037637442350387573e-01
3.309412002563476562e-01 -3.390309214591979980e-02 -2.941384352743625641e-02
2.202067077159881592e-01 -4.980786889791488647e-02 -3.167801350355148315e-02
1.522335261106491089e-01 6.211467087268829346e-03 -4.959108680486679077e-02
3.044267743825912476e-02 -1.805332861840724945e-02 1.401013135910034180e-01
-7.161214947700500488e-02 1.215514354407787323e-02 2.307210117578506470e-03
1.832414567470550537e-01 3.727111965417861938e-03 -7.672311365604400635e-02
2.657247185707092285e-01 -1.505536772310733795e-02 -1.853641495108604431e-02
8.769498020410537720e-02 1.137452945113182068e-02 -1.572414636611938477e-01
1.913149058818817139e-01 -4.974869638681411743e-02 1.623430475592613220e-02
