-7.101084589958190918e-01 2.539704367518424988e-02 -6.800461560487747192e-02
-9.108254909515380859e-01 -5.436293780803680420e-03 3.663349896669387817e-02
-7.884652614593505859e-01 8.616422116756439209e-02 -6.547158956527709961e-02
-8.074600100517272949e-01 1.345497667789459229e-01 5.908733233809471130e-02
-9.317404627799987793e-01 1.332744359970092773e-01 4.215044900774955750e-03
-7.987084388732910156e-01 2.462527528405189514e-02 8.715859800577163696e-02
-5.545226335525512695e-01 1.400904208421707153e-01 -1.609697565436363220e-02
-7.485700249671936035e-01 1.723730564117431641e-02 -5.958893895149230957e-02
-4.202849864959716797e-01 7.698793709278106689e-02 5.494007840752601624e-02
-4.367742836475372314e-01 8.565805852413177490e-02 5.580234527587890625e-02
-2.589884698390960693e-01 7.237417250871658325e-02 -2.558523975312709808e-02
-6.029061079025268555e-01 7.180857658386230469e-02 8.548806607723236084e-02
-3.140849173069000244e-01 1.768870651721954346e-02 -3.672929853200912476e-02
-5.814542770385742188e-01 1.179976165294647217e-01 6.152847781777381897e-02
-8.938759565353393555e-01 1.403577923774719238e-01 2.490114606916904449e-02
-5.718183517456054688e-01 1.388581544160842896e-01 -2.462411858141422272e-02
-7.679066658020019531e-01 5.162131041288375854e-03 -4.745824262499809265e-02
-6.796278357505798340e-01 8.557646721601486206e-02 -7.502728700637817383e-02
-7.484180927276611328e-01 1.470027565956115723e-01 2.291933633387088776e-02
-8.265630006790161133e-01 1.437189877033233643e-01 3.587052691727876663e-03
-1.033748388290405273e+00 1.131951808929443359e-01 5.691877752542495728e-02
-1.054421663284301758e+00 3.962766379117965698e-02 6.916815042495727539e-02
-5.006561279296875000e-01 3.603838384151458740e-03 4.604258015751838684e-02
-3.175589442253112793e-01 1.310742273926734924e-02 -2.377487905323505402e-02
-4.966650009155273438e-01 1.359326541423797607e-01 -1.209850795567035675e-02
-4.447239935398101807e-01 4.082026332616806030e-02 -7.792374491691589355e-02
-6.923965215682983398e-01 -1.978226751089096069e-02 2.529125846922397614e-02
-4.340805411338806152e-01 -7.373012602329254150e-03 -2.841969393193721771e-02
-5.480399131774902344e-01 1.099326610565185547e-01 6.318027526140213013e-02
-7.049613595008850098e-01 8.026955276727676392e-02 -7.472637295722961426e-02
-7.640228867530822754e-01 2.616497874259948730e-02 8.758872002363204956e-02
-6.503658294677734375e-01 9.235215932130813599e-02 8.541638404130935669e-02
-3.975305855274200439e-01 1.052566170692443848e-01 -5.493642389774322510e-02
-5.748723149299621582e-01 4.716509580612182617e-02 -8.183446526527404785e-02
-4.654324650764465332e-01 1.140829920768737793e-01 4.250451549887657166e-02
-5.422352552413940430e-01 3.929580003023147583e-02 7.519540190696716309e-02
-8.362922668457031250e-01 6.992154568433761597e-02 9.840498864650726318e-02
-7.065654397010803223e-01 1.409402787685394287e-01 -2.335341274738311768e-02
-7.208343744277954102e-01 9.578856825828552246e-02 -6.842098385095596313e-02
1.708953380584716797e-01 -5.441127717494964600e-02 8.092932403087615967e-02
3.277102708816528320e-01 -1.097055971622467041e-01 3.789130747318267822e-01
5.615288764238357544e-02 -4.976826533675193787e-02 8.017024397850036621e-01
6.315664947032928467e-02 -1.500827521085739136e-01 1.238059252500534058e-01
1.805552840232849121e-01 -9.020922333002090454e-02 -1.799359321594238281e-01
8.417528867721557617e-02 -1.562767326831817627e-01 1.052916049957275391e-04
1.492404341697692871e-01 -1.532859951257705688e-01 1.533420681953430176e-01
1.314513385295867920e-01 -1.410874724388122559e-01 -3.226780891418457031e-01
3.244145214557647705e-02 -9.768140316009521484e-02 6.302995681762695312e-01
9.766525030136108398e-02 -2.583721280097961426e-02 4.846385717391967773e-01
-3.053307533264160156e-03 -4.696225002408027649e-02 1.818520128726959229e-01
2.149981558322906494e-01 -1.536133885383605957e-01 4.525329172611236572e-02
1.645926833152770996e-01 -3.386740386486053467e-02 7.947586178779602051e-01
2.408115267753601074e-01 -1.371528357267379761e-01 -1.833930909633636475e-01
2.462603002786636353e-01 -1.219897344708442688e-01 5.051333904266357422e-01
1.283402740955352783e-01 -1.054795160889625549e-01 -2.882456779479980469e-01
2.089236080646514893e-01 -3.496891632676124573e-02 4.328746795654296875e-01
3.095976710319519043e-01 -6.254253536462783813e-02 4.025264978408813477e-01
1.304396837949752808e-01 -1.576566696166992188e-01 -1.767824590206146240e-01
3.373479545116424561e-01 -8.499678224325180054e-02 4.006988704204559326e-01
3.067904710769653320e-01 -1.294085979461669922e-01 8.471176028251647949e-02
4.491814225912094116e-02 -1.491446346044540405e-01 9.567530453205108643e-02
9.391599148511886597e-02 -1.513822376728057861e-01 1.527965068817138672e-01
-7.902774214744567871e-02 -9.288728237152099609e-02 3.401433825492858887e-01
9.269670397043228149e-02 -9.041048586368560791e-02 -2.326341867446899414e-01
2.640950381755828857e-01 -1.430719643831253052e-01 1.641539037227630615e-01
2.298158407211303711e-01 -1.450440287590026855e-01 2.362186163663864136e-01
-6.043592095375061035e-02 -7.007621973752975464e-02 6.488551199436187744e-02
3.026655912399291992e-01 -1.319696307182312012e-01 1.721727848052978516e-01
1.316271126270294189e-01 -7.651789486408233643e-02 8.162497878074645996e-01
-1.430761814117431641e-02 -3.737109526991844177e-02 4.745240211486816406e-01
2.261406481266021729e-01 -1.502909511327743530e-01 -1.143575906753540039e-01
3.329245150089263916e-01 -7.833634316921234131e-02 4.377856552600860596e-01
-8.905981481075286865e-02 -9.534708410501480103e-02 2.381082028150558472e-01
2.223369479179382324e-01 -1.375815570354461670e-01 3.618721365928649902e-01
2.152579277753829956e-02 -1.004481092095375061e-01 -2.564978599548339844e-01
1.995605230331420898e-01 -9.811194986104965210e-02 -1.966976523399353027e-01
-5.349586904048919678e-02 -1.279287338256835938e-01 -2.964767813682556152e-02
9.085708856582641602e-02 -2.518814057111740112e-02 5.204258561134338379e-01
1.982429623603820801e-01 -3.593655303120613098e-02 7.735478878021240234e-01
1.395703852176666260e-02 -1.288075000047683716e-01 3.374449908733367920e-01
1.328894644975662231e-01 -3.057912364602088928e-02 3.734322190284729004e-01
-2.078810334205627441e-02 -5.304286628961563110e-02 1.385756731033325195e-01
2.941361665725708008e-01 -1.098223850131034851e-01 5.210943222045898438e-01
1.707245111465454102e-01 -1.422889232635498047e-01 3.336617350578308105e-01
1.764834225177764893e-01 -1.514861136674880981e-01 1.822614818811416626e-01
2.049630582332611084e-01 -1.173626035451889038e-01 -2.532790303230285645e-01
1.464005112648010254e-01 -6.731145083904266357e-02 8.454427123069763184e-01
1.656794995069503784e-01 -1.583607643842697144e-01 -3.712344169616699219e-02
2.856545746326446533e-01 -8.845645934343338013e-02 6.678518056869506836e-01
1.387445479631423950e-01 -1.567604541778564453e-01 -1.949388384819030762e-01
1.559725850820541382e-01 -1.092738807201385498e-01 6.516088247299194336e-01
8.408632874488830566e-02 -1.248535215854644775e-01 4.873805642127990723e-01
2.310081422328948975e-01 -7.192120701074600220e-02 1.249106228351593018e-02
1.317436397075653076e-01 -1.562606990337371826e-01 -2.084299325942993164e-01
8.999001979827880859e-02 -3.397797420620918274e-02 2.913345992565155029e-01
1.824533045291900635e-01 -1.392637938261032104e-01 3.698158860206604004e-01
1.268325150012969971e-01 -1.541066318750381470e-01 -2.429656386375427246e-01
1.477873623371124268e-01 -1.398636400699615479e-01 3.651848435401916504e-01
-3.945277631282806396e-02 -8.497075736522674561e-02 -1.014889478683471680e-01
2.119847536087036133e-01 -7.477054744958877563e-02 8.101214766502380371e-01
1.318616569042205811e-01 -1.447697132825851440e-01 2.947757244110107422e-01
7.699519395828247070e-02 -3.678707033395767212e-02 2.470959573984146118e-01
1.622645109891891479e-01 -4.369761049747467041e-02 1.941438317298889160e-01
-2.918882668018341064e-02 -4.412044957280158997e-02 3.159787654876708984e-01
2.509303987026214600e-01 -4.066344350576400757e-02 4.908357262611389160e-01
3.021351993083953857e-01 -9.923658519983291626e-02 5.731662511825561523e-01
2.114781439304351807e-01 -1.169368475675582886e-01 5.813335776329040527e-01
1.623483449220657349e-01 -2.684752643108367920e-02 5.367555618286132812e-01
2.910980582237243652e-01 -1.306169778108596802e-01 2.974531054496765137e-01
1.160082221031188965e-01 -1.561273187398910522e-01 6.740941107273101807e-02
1.811914294958114624e-01 -1.502972841262817383e-01 -2.307485342025756836e-01
1.374654471874237061e-03 -7.077924907207489014e-02 6.932812929153442383e-01
9.758426249027252197e-02 -1.563237458467483521e-01 3.316971659660339355e-02
-8.124172687530517578e-03 -5.508848279714584351e-02 6.864069104194641113e-01
1.208883747458457947e-01 -1.590442061424255371e-01 -8.749991655349731445e-02
1.150812879204750061e-01 -1.376761943101882935e-01 3.778250217437744141e-01
2.450362145900726318e-01 -8.858294785022735596e-02 -7.467648386955261230e-02
9.575879573822021484e-02 -9.676616638898849487e-02 -2.630017995834350586e-01
3.211269378662109375e-01 -1.070157662034034729e-01 8.890503644943237305e-02
2.120348811149597168e-01 -3.481279313564300537e-02 4.488986134529113770e-01
2.400383353233337402e-02 -1.412802785634994507e-01 1.900791376829147339e-01
1.677957177162170410e-01 -1.339395642280578613e-01 4.354963898658752441e-01
7.520665228366851807e-02 -2.762158960103988647e-02 6.907679438591003418e-01
8.082496374845504761e-02 -1.564618945121765137e-01 -1.573526561260223389e-01
1.905893981456756592e-01 -1.501781344413757324e-01 -2.156572341918945312e-01
6.031696498394012451e-02 -3.227811306715011597e-02 3.362118899822235107e-01
2.712014317512512207e-02 -9.042247384786605835e-02 6.624956130981445312e-01
2.887162566184997559e-01 -1.054309681057929993e-01 5.672290325164794922e-01
-9.405344724655151367e-03 -1.415334641933441162e-01 3.637227416038513184e-02
2.665273547172546387e-01 -4.696993902325630188e-02 4.170978069305419922e-01
2.135227173566818237e-01 -8.270376175642013550e-02 -9.384849667549133301e-02
-4.401376843452453613e-02 -1.173960864543914795e-01 -1.806018054485321045e-01
1.099390387535095215e-01 -3.240511193871498108e-02 3.226566314697265625e-01
2.120763510465621948e-01 -4.291794821619987488e-02 2.900423109531402588e-01
8.182943612337112427e-02 -4.307190701365470886e-02 1.579312980175018311e-01
1.942925155162811279e-02 -1.084433868527412415e-01 -2.809454202651977539e-01
1.522724330425262451e-01 -1.332862079143524170e-01 4.421119689941406250e-01
3.082568943500518799e-02 -1.433877795934677124e-01 1.725042909383773804e-01
-4.901647567749023438e-02 -1.031541079282760620e-01 4.051664471626281738e-01
5.449052155017852783e-02 -7.758415490388870239e-02 -1.540921628475189209e-01
-5.710785090923309326e-02 -8.216436952352523804e-02 -4.053127765655517578e-02
6.972595304250717163e-02 -4.175195470452308655e-02 8.024817109107971191e-01
1.834152340888977051e-01 -1.083084046840667725e-01 -2.555219531059265137e-01
1.123460009694099426e-01 -2.565757185220718384e-02 4.930523633956909180e-01
1.205735355615615845e-01 -1.097225695848464966e-01 6.376513838768005371e-01
-7.933625578880310059e-02 -1.010246202349662781e-01 2.743902206420898438e-01
1.835501492023468018e-01 -4.727458953857421875e-02 1.773096621036529541e-01
1.568066328763961792e-01 -1.185026466846466064e-01 -3.072647452354431152e-01
1.943444013595581055e-01 -3.843965008854866028e-02 8.003860116004943848e-01
-5.754016339778900146e-02 -8.764628320932388306e-02 4.718439579010009766e-01
1.125950068235397339e-01 -2.488403022289276123e-02 5.306551456451416016e-01
2.882166504859924316e-01 -8.235976099967956543e-02 6.839083433151245117e-01
1.613365411758422852e-01 -1.527995318174362183e-01 1.621275544166564941e-01
1.096180826425552368e-01 -3.707512095570564270e-02 8.177860379219055176e-01
2.690283954143524170e-02 -1.503942012786865234e-01 -4.793462157249450684e-02
-6.869672238826751709e-02 -8.915759623050689697e-02 4.172004759311676025e-01
2.387764602899551392e-01 -1.107232272624969482e-01 -1.820391118526458740e-01
1.264165639877319336e-01 -7.022846490144729614e-02 -9.397956728935241699e-02
-2.775719761848449707e-02 -4.092696309089660645e-02 4.694915711879730225e-01
1.730301380157470703e-01 -1.559287011623382568e-01 -1.671232581138610840e-01
1.930775493383407593e-01 -1.164235174655914307e-01 -2.668030858039855957e-01
3.037658333778381348e-01 -1.024276316165924072e-01 5.482285618782043457e-01
-3.088517487049102783e-02 -4.931026697158813477e-02 2.205346226692199707e-01
2.421775460243225098e-01 -1.489622890949249268e-01 -5.571898818016052246e-02
1.749897003173828125e-02 -1.413442492485046387e-01 -2.501046061515808105e-01
2.457729727029800415e-01 -3.901496157050132751e-02 5.122269392013549805e-01
3.175736367702484131e-01 -1.236662939190864563e-01 2.363850325345993042e-01
5.092669278383255005e-02 -1.064230948686599731e-01 5.994178056716918945e-01
1.553693711757659912e-01 -6.613799184560775757e-02 -4.197314381599426270e-02
2.626359462738037109e-03 -6.953063607215881348e-02 -6.088900566101074219e-02
3.004652261734008789e-01 -5.658876523375511169e-02 4.616034924983978271e-01
1.320307254791259766e-01 -5.159388482570648193e-02 7.539398968219757080e-02
-1.957842707633972168e-02 -6.763244420289993286e-02 6.522117853164672852e-01
4.626755416393280029e-02 -5.515899136662483215e-02 3.220812976360321045e-02
9.509504586458206177e-02 -3.556206822395324707e-02 8.001777529716491699e-01
1.269602477550506592e-01 -6.800032407045364380e-02 8.392111063003540039e-01
3.206827491521835327e-02 -1.514284461736679077e-01 -8.605888485908508301e-02
5.557592958211898804e-02 -5.792544409632682800e-02 1.356899738311767578e-03
8.857703953981399536e-02 -2.484220266342163086e-02 5.518777370452880859e-01
1.935403198003768921e-01 -3.033855557441711426e-02 6.898065805435180664e-01
3.151008486747741699e-01 -8.550804108381271362e-02 5.918385982513427734e-01
2.924822568893432617e-01 -5.472863465547561646e-02 4.220795035362243652e-01
2.113591432571411133e-01 -7.621966302394866943e-02 -5.326518416404724121e-02
2.777158021926879883e-01 -1.128960698843002319e-01 5.339635610580444336e-01
1.703203022480010986e-01 -4.707746207714080811e-02 1.616945713758468628e-01
3.170048892498016357e-01 -1.214834526181221008e-01 8.979947865009307861e-02
2.124382257461547852e-01 -6.000780686736106873e-02 8.440797030925750732e-02
1.423121541738510132e-01 -1.517263352870941162e-01 1.841351389884948730e-01
-2.360549569129943848e-02 -6.507854908704757690e-02 1.523736119270324707e-02
-6.854535639286041260e-02 -1.174308061599731445e-01 1.398827433586120605e-01
8.445554226636886597e-02 -1.519372463226318359e-01 1.264934390783309937e-01
3.229460716247558594e-01 -1.207970678806304932e-01 1.708485037088394165e-01
1.629431843757629395e-01 -1.114140748977661133e-01 6.368171572685241699e-01
8.220545202493667603e-02 -1.355840563774108887e-01 3.731315135955810547e-01
1.012699604034423828e-01 -2.442272007465362549e-02 6.088329553604125977e-01
1.467923820018768311e-01 -6.169100850820541382e-02 -1.122385263442993164e-02
3.093236088752746582e-01 -6.483062356710433960e-02 3.527385294437408447e-01
1.526664346456527710e-01 -1.476755142211914062e-01 2.562095820903778076e-01
3.093647956848144531e-01 -1.094928085803985596e-01 4.764598011970520020e-01
1.228596717119216919e-01 -5.861228704452514648e-02 1.107960939407348633e-03
6.676554679870605469e-02 -2.634489536285400391e-02 6.288932561874389648e-01
1.506860554218292236e-01 -2.850154787302017212e-02 4.465897977352142334e-01
-7.710039615631103516e-03 -4.995524883270263672e-02 1.503748893737792969e-01
8.075399696826934814e-02 -2.837565541267395020e-02 4.113905727863311768e-01
2.199887931346893311e-01 -7.278713583946228027e-02 -1.390609145164489746e-02
6.543110311031341553e-02 -3.935763239860534668e-02 7.881783843040466309e-01
5.978722870349884033e-02 -6.629469990730285645e-02 7.939233779907226562e-01
-5.226258933544158936e-02 -8.078605681657791138e-02 5.201780796051025391e-01
2.037245035171508789e-01 -6.064504384994506836e-02 6.391918659210205078e-02
-1.691965758800506592e-02 -1.011187732219696045e-01 5.140416622161865234e-01
-4.031294584274291992e-02 -8.041770756244659424e-02 -7.162141799926757812e-02
1.008862704038619995e-01 -3.945405036211013794e-02 2.076021134853363037e-01
2.928879857063293457e-01 -7.167350500822067261e-02 1.801629513502120972e-01
1.315583288669586182e-01 -4.978090897202491760e-02 9.453174471855163574e-02
1.954971253871917725e-01 -9.854193776845932007e-02 7.154018282890319824e-01
2.391497790813446045e-01 -1.035517528653144836e-01 -1.575931906700134277e-01
2.275016456842422485e-01 -1.248061954975128174e-01 4.993546605110168457e-01
2.846656739711761475e-01 -1.213893443346023560e-01 4.391176104545593262e-01
3.213340640068054199e-01 -6.968300789594650269e-02 3.830363750457763672e-01
1.252157986164093018e-02 -3.770125284790992737e-02 3.030425012111663818e-01
6.537672877311706543e-02 -1.089944690465927124e-01 5.985791683197021484e-01
2.612151503562927246e-01 -8.053477853536605835e-02 1.198232173919677734e-02
2.448228895664215088e-01 -4.351104795932769775e-02 3.819417655467987061e-01
5.473166704177856445e-03 -6.220595166087150574e-02 7.167322635650634766e-01
1.989866346120834351e-01 -1.526701450347900391e-01 -1.661254465579986572e-01
1.935467272996902466e-01 -7.825431972742080688e-02 -9.222939610481262207e-02
-6.520335376262664795e-02 -1.011321395635604858e-01 3.546905815601348877e-01
1.305440813302993774e-01 -2.877261489629745483e-02 4.123406112194061279e-01
1.986772716045379639e-01 -1.538075655698776245e-01 9.727391600608825684e-02
2.792733311653137207e-01 -4.917167872190475464e-02 6.328326463699340820e-01
1.425710469484329224e-01 -7.663932442665100098e-02 -1.303338408470153809e-01
2.435054332017898560e-01 -4.806199297308921814e-02 2.980387806892395020e-01
7.364030927419662476e-02 -1.404052823781967163e-01 3.021195530891418457e-01
1.696960031986236572e-01 -2.673739939928054810e-02 6.181600093841552734e-01
-5.458213388919830322e-02 -5.829808861017227173e-02 1.783793866634368896e-01
-3.371945023536682129e-02 -1.228016391396522522e-01 2.663771212100982666e-01
3.243648409843444824e-01 -1.085940226912498474e-01 4.140432476997375488e-01
1.511838436126708984e-01 -7.520377635955810547e-02 -1.141591072082519531e-01
1.690284907817840576e-01 -4.299474135041236877e-02 2.118363678455352783e-01
2.903967350721359253e-02 -3.006089106202125549e-02 4.726825356483459473e-01
5.111791193485260010e-03 -3.537687659263610840e-02 3.834820389747619629e-01
1.965272128582000732e-01 -5.312706530094146729e-02 1.292940080165863037e-01
-4.417473077774047852e-02 -1.292478591203689575e-01 -1.158708035945892334e-01
-7.290630042552947998e-02 -6.167276576161384583e-02 2.474884986877441406e-01
3.387025743722915649e-02 -1.510878801345825195e-01 -1.463448405265808105e-01
-3.805728256702423096e-02 -4.401807487010955811e-02 4.401512742042541504e-01
-3.528377413749694824e-02 -5.581118911504745483e-02 1.412300169467926025e-01
9.438421577215194702e-02 -1.101878881454467773e-01 -3.133330345153808594e-01
7.236883789300918579e-02 -6.061731278896331787e-02 -2.706322073936462402e-02
-5.797021090984344482e-02 -1.142553240060806274e-01 2.616817653179168701e-01
2.986827492713928223e-02 -1.494586616754531860e-01 -1.775216460227966309e-01
1.016477867960929871e-01 -1.577977836132049561e-01 -2.137890458106994629e-02
1.855313032865524292e-02 -4.380903393030166626e-02 7.237190008163452148e-01
2.543496489524841309e-01 -1.469182372093200684e-01 -1.910123229026794434e-02
1.206738278269767761e-01 -8.286704123020172119e-02 7.881423830986022949e-01
1.956993043422698975e-01 -7.991512119770050049e-02 8.022711277008056641e-01
1.267473846673965454e-01 -1.569695174694061279e-01 5.103702843189239502e-02
1.446862369775772095e-01 -2.528940141201019287e-02 5.685478448867797852e-01
3.926352411508560181e-02 -2.865988761186599731e-02 5.945263504981994629e-01
-5.884119868278503418e-02 -7.640296965837478638e-02 5.085523724555969238e-01
1.011476665735244751e-01 -1.583898067474365234e-01 -9.029954671859741211e-02
-4.528352618217468262e-02 -4.769133031368255615e-02 4.818857908248901367e-01
5.051530897617340088e-02 -1.536065936088562012e-01 -3.370279073715209961e-02
-6.565932929515838623e-02 -6.716413795948028564e-02 4.856065213680267334e-01
1.267955005168914795e-01 -3.130073845386505127e-02 3.533664643764495850e-01
3.038805127143859863e-01 -5.830790102481842041e-02 5.652328729629516602e-01
8.403167128562927246e-02 -1.532710790634155273e-01 9.471338987350463867e-02
1.492750644683837891e-02 -1.022431477904319763e-01 5.728443264961242676e-01
2.168333828449249268e-01 -1.516709178686141968e-01 -1.255384981632232666e-01
2.125241607427597046e-02 -3.082733228802680969e-02 5.610046386718750000e-01
2.122953087091445923e-01 -5.347336456179618835e-02 1.526191085577011108e-01
2.874306440353393555e-01 -7.774340361356735229e-02 1.066746413707733154e-01
-3.624723851680755615e-02 -9.899023920297622681e-02 4.767147302627563477e-01
1.800391077995300293e-01 -1.167931929230690002e-01 5.945776700973510742e-01
2.709767222404479980e-01 -1.273764818906784058e-01 4.060379266738891602e-01
2.422556579113006592e-01 -8.479708433151245117e-02 -5.741974711418151855e-02
2.730530202388763428e-01 -6.964363902807235718e-02 1.317833513021469116e-01
5.986879765987396240e-02 -1.404702812433242798e-01 -3.150478005409240723e-01
7.857497036457061768e-02 -9.203917533159255981e-02 7.167834043502807617e-01
2.823328971862792969e-02 -1.496568769216537476e-01 7.267087697982788086e-03
1.651157438755035400e-01 -1.274823993444442749e-01 5.020419359207153320e-01
2.676335573196411133e-01 -7.217635214328765869e-02 9.352657198905944824e-02
-3.882302343845367432e-02 -1.335943639278411865e-01 1.911079883575439453e-02
1.757002174854278564e-01 -9.805604070425033569e-02 7.228269577026367188e-01
-9.103000164031982422e-02 -9.392122179269790649e-02 8.330759406089782715e-02
8.881898224353790283e-02 -8.667456358671188354e-02 7.518059015274047852e-01
5.295494198799133301e-02 -2.803717553615570068e-02 4.640930891036987305e-01
-4.218679666519165039e-02 -1.005704775452613831e-01 4.475356340408325195e-01
1.264292597770690918e-01 -2.624587714672088623e-02 4.818143248558044434e-01
2.038965970277786255e-01 -3.621128574013710022e-02 3.882848024368286133e-01
3.113595247268676758e-01 -1.210418492555618286e-01 4.214783012866973877e-02
2.092619836330413818e-01 -1.535018384456634521e-01 -1.135288178920745850e-01
2.587796151638031006e-01 -5.371775105595588684e-02 7.575891017913818359e-01
2.589414715766906738e-01 -4.222229123115539551e-02 5.054403543472290039e-01
1.695214807987213135e-01 -4.302722960710525513e-02 8.424457907676696777e-01
1.000347882509231567e-01 -2.845206856727600098e-02 4.042660295963287354e-01
1.788691282272338867e-01 -1.566614210605621338e-01 3.684298694133758545e-02
1.641868650913238525e-01 -1.133558154106140137e-01 -2.892506122589111328e-01
7.279920578002929688e-02 -2.547611296176910400e-02 5.529822111129760742e-01
3.391807675361633301e-01 -9.404028207063674927e-02 3.021068572998046875e-01
4.333489388227462769e-02 -7.538549602031707764e-02 -1.350678801536560059e-01
1.034437119960784912e-01 -1.575343310832977295e-01 -1.673539578914642334e-01
9.048259258270263672e-02 -1.002962365746498108e-01 -2.787565588951110840e-01
2.901904284954071045e-01 -1.077642440795898438e-01 5.468987822532653809e-01
-1.272395253181457520e-03 -6.397517025470733643e-02 -9.508609771728515625e-03
1.870351433753967285e-01 -1.258331537246704102e-01 5.143181085586547852e-01
2.045117616653442383e-01 -3.239594027400016785e-02 4.900991916656494141e-01
1.769505441188812256e-01 -9.749625623226165771e-02 -2.198112010955810547e-01
1.106511205434799194e-01 -7.681033015251159668e-02 8.061945438385009766e-01
1.859005093574523926e-01 -2.978669106960296631e-02 7.018048763275146484e-01
3.076814115047454834e-03 -6.708839535713195801e-02 -4.158908128738403320e-02
2.184383869171142578e-01 -3.645986318588256836e-02 7.327415347099304199e-01
1.639851927757263184e-01 -1.171045973896980286e-01 5.933462977409362793e-01
1.552278101444244385e-01 -1.588373333215713501e-01 -7.880252599716186523e-02
1.057639494538307190e-01 -2.891410887241363525e-02 7.484005689620971680e-01
-5.601823329925537109e-03 -1.415114104747772217e-01 6.491307914257049561e-02
9.825764596462249756e-02 -9.318416565656661987e-02 -2.457779645919799805e-01
2.770460247993469238e-01 -4.777744039893150330e-02 4.808776378631591797e-01
1.515317708253860474e-01 -3.214067220687866211e-02 3.629225194454193115e-01
5.596648156642913818e-02 -4.016372933983802795e-02 2.054759263992309570e-01
1.516276001930236816e-01 -2.775821834802627563e-02 4.705952703952789307e-01
3.213696479797363281e-01 -7.901420444250106812e-02 5.714169144630432129e-01
2.169189006090164185e-01 -1.015419885516166687e-01 6.870940923690795898e-01
6.927968561649322510e-02 -1.509323120117187500e-01 -2.519530057907104492e-01
1.987356841564178467e-01 -1.431297808885574341e-01 3.083080351352691650e-01
1.258073896169662476e-01 -1.135366931557655334e-01 6.121184825897216797e-01
1.421089172363281250e-01 -1.212857365608215332e-01 5.554093122482299805e-01
2.711967229843139648e-01 -1.408195942640304565e-01 1.857255995273590088e-01
2.332900464534759521e-01 -1.477176249027252197e-01 1.716223210096359253e-01
1.532879918813705444e-01 -1.027895808219909668e-01 -2.629780769348144531e-01
2.982751280069351196e-02 -6.149560213088989258e-02 -1.789274811744689941e-02
1.816598922014236450e-01 -1.211039349436759949e-01 -2.887852787971496582e-01
2.010248899459838867e-01 -1.497711986303329468e-01 1.929116249084472656e-01
3.880160301923751831e-02 -4.349622502923011780e-02 1.717405319213867188e-01
2.330926656723022461e-01 -1.484161019325256348e-01 1.546077877283096313e-01
1.095600798726081848e-01 -1.461709439754486084e-01 -3.090416193008422852e-01
1.646944284439086914e-01 -7.956885546445846558e-02 8.102309703826904297e-01
2.160938829183578491e-01 -1.070984452962875366e-01 -2.092376947402954102e-01
9.812657535076141357e-02 -1.573041975498199463e-01 -5.234241485595703125e-03
9.152857959270477295e-02 -1.144182831048965454e-01 5.834328532218933105e-01
-2.791619300842285156e-02 -1.330404579639434814e-01 -1.688961982727050781e-01
2.901530861854553223e-01 -7.660628110170364380e-02 1.253105401992797852e-01
1.611244231462478638e-01 -1.433619856834411621e-01 3.202044367790222168e-01
1.671076416969299316e-01 -3.390718996524810791e-02 3.521288633346557617e-01
-5.366210639476776123e-02 -1.250998377799987793e-01 1.189870536327362061e-01
7.719974219799041748e-02 -1.472732722759246826e-01 -2.927340269088745117e-01
6.941668689250946045e-02 -6.677179038524627686e-02 -7.856863737106323242e-02
-4.270531237125396729e-02 -5.549187958240509033e-02 5.715309381484985352e-01
1.990265399217605591e-01 -3.112180531024932861e-02 5.108320116996765137e-01
2.539927959442138672e-01 -1.263446807861328125e-01 4.504238665103912354e-01
-6.500253081321716309e-02 -9.818889200687408447e-02 3.779977262020111084e-01
1.510266512632369995e-01 -1.558356285095214844e-01 9.132239222526550293e-02
2.525613307952880859e-01 -1.279307007789611816e-01 4.355935752391815186e-01
6.362671405076980591e-02 -1.537203490734100342e-01 -1.946666836738586426e-01
4.066493362188339233e-02 -3.381853178143501282e-02 7.071355581283569336e-01
7.664446532726287842e-02 -2.620095014572143555e-02 4.891107976436614990e-01
2.682333588600158691e-01 -1.339018046855926514e-01 -1.123528778553009033e-01
3.367658555507659912e-01 -1.033653169870376587e-01 3.515903949737548828e-01
1.202697828412055969e-01 -1.150948330760002136e-01 5.974924564361572266e-01
-3.862351179122924805e-03 -5.906787887215614319e-02 4.039317369461059570e-02
9.784370660781860352e-03 -1.057097762823104858e-01 -2.638741731643676758e-01
1.457554996013641357e-01 -2.620635181665420532e-02 6.892458200454711914e-01
1.598194241523742676e-01 -5.103450268507003784e-02 1.045373380184173584e-01
4.118531942367553711e-02 -5.888005718588829041e-02 -1.110523939132690430e-03
2.911987900733947754e-01 -8.247224986553192139e-02 8.309549093246459961e-02
1.121088713407516479e-01 -9.409654885530471802e-02 7.304721474647521973e-01
4.992958903312683105e-02 -7.661386579275131226e-02 7.533486485481262207e-01
1.227710247039794922e-01 -1.587852537631988525e-01 -1.286350190639495850e-01
1.078175529837608337e-01 -3.684416785836219788e-02 2.476295083761215210e-01
1.241306737065315247e-01 -3.516296669840812683e-02 2.820518016815185547e-01
-6.807713210582733154e-02 -1.201704815030097961e-01 6.822279095649719238e-02
3.219708800315856934e-01 -1.189679577946662903e-01 1.205922663211822510e-01
1.365810334682464600e-01 -1.591650992631912231e-01 -7.489922642707824707e-02
2.818992733955383301e-01 -1.033993139863014221e-01 5.956457257270812988e-01
2.025275975465774536e-01 -6.879068911075592041e-02 -9.527742862701416016e-03
2.714734971523284912e-01 -1.422822028398513794e-01 -3.088891506195068359e-03
-2.240942418575286865e-02 -1.249540746212005615e-01 2.811554074287414551e-01
1.546794176101684570e-01 -4.478656128048896790e-02 8.516216278076171875e-01
2.728242278099060059e-01 -6.109508126974105835e-02 2.206000685691833496e-01
2.529271841049194336e-01 -4.585263133049011230e-02 3.705253601074218750e-01
3.164526820182800293e-01 -1.216767206788063049e-01 2.961080968379974365e-01
7.271181792020797729e-02 -1.488754898309707642e-01 1.677026152610778809e-01
8.330903947353363037e-02 -1.225268766283988953e-01 5.080306529998779297e-01
1.331083923578262329e-01 -4.157436266541481018e-02 1.941702961921691895e-01
-4.189126193523406982e-02 -1.243423968553543091e-01 -1.687250435352325439e-01
1.524667590856552124e-01 -2.595819532871246338e-02 5.497221946716308594e-01
1.636828184127807617e-01 -3.568617627024650574e-02 3.145335912704467773e-01
1.439740359783172607e-01 -2.611753344535827637e-02 5.155628919601440430e-01
1.108118072152137756e-01 -5.212844908237457275e-02 5.908645689487457275e-02
1.478943526744842529e-01 -9.980232268571853638e-02 7.116285562515258789e-01
2.456314861774444580e-02 -5.619750916957855225e-02 3.668326139450073242e-02
2.397763580083847046e-01 -5.508358404040336609e-02 7.995329499244689941e-01
3.318452835083007812e-02 -3.748621791601181030e-02 7.220647931098937988e-01
1.272478848695755005e-01 -1.251926422119140625e-01 5.151514410972595215e-01
1.468099355697631836e-01 -3.099783509969711304e-02 3.802547454833984375e-01
1.797837316989898682e-01 -8.139133453369140625e-02 -1.290190517902374268e-01
-8.555860817432403564e-02 -7.016633450984954834e-02 2.481039464473724365e-01
-3.244465589523315430e-02 -1.341794729232788086e-01 -1.259296536445617676e-01
1.875570565462112427e-01 -1.570253372192382812e-01 -2.906149625778198242e-02
-2.896633744239807129e-02 -9.317058324813842773e-02 -1.638122200965881348e-01
2.602618336677551270e-01 -4.217500984668731689e-02 6.165673732757568359e-01
1.829199939966201782e-01 -6.151754409074783325e-02 2.665990591049194336e-02
3.229951858520507812e-02 -1.444373726844787598e-01 1.573299169540405273e-01
2.339432388544082642e-02 -1.484965384006500244e-01 2.182833850383758545e-02
2.637619972229003906e-01 -4.408615827560424805e-02 4.792813360691070557e-01
2.227573096752166748e-02 -1.232907325029373169e-01 -3.067823052406311035e-01
1.963607072830200195e-01 -1.387422829866409302e-01 3.696374297142028809e-01
1.259549558162689209e-01 -1.425957381725311279e-01 3.221015334129333496e-01
1.407942920923233032e-01 -1.341661512851715088e-01 4.300615191459655762e-01
1.263344138860702515e-01 -1.520863175392150879e-01 1.706059277057647705e-01
-6.168526411056518555e-02 -1.162240579724311829e-01 -1.093924641609191895e-01
1.015065312385559082e-01 -1.097224205732345581e-01 6.261946558952331543e-01
-5.219683051109313965e-02 -8.602679520845413208e-02 4.990616440773010254e-01
6.060549616813659668e-02 -7.213142514228820801e-02 -1.178566813468933105e-01
2.203154712915420532e-01 -3.462692350149154663e-02 6.895688176155090332e-01
1.351736038923263550e-01 -2.707132697105407715e-02 4.647475481033325195e-01
9.919746965169906616e-02 -1.308182477951049805e-01 4.421830177307128906e-01
9.533877670764923096e-02 -5.398823320865631104e-02 3.603185713291168213e-02
1.487187594175338745e-01 -4.236047714948654175e-02 1.970592290163040161e-01
2.611653804779052734e-01 -7.433833926916122437e-02 7.573676109313964844e-01
2.579783201217651367e-01 -5.382855609059333801e-02 2.621663510799407959e-01
1.302572339773178101e-02 -1.333951801061630249e-01 -2.820568680763244629e-01
-2.737002074718475342e-02 -4.436319693922996521e-02 5.675605535507202148e-01
-5.686241388320922852e-02 -1.214064806699752808e-01 1.666017770767211914e-01
1.799996346235275269e-01 -1.552962809801101685e-01 8.532629907131195068e-02
9.406679868698120117e-02 -5.542448535561561584e-02 2.167144417762756348e-02
1.824039369821548462e-01 -4.122936353087425232e-02 2.562329769134521484e-01
8.716557919979095459e-02 -4.648054763674736023e-02 1.162100881338119507e-01
1.139998584985733032e-01 -2.548342943191528320e-02 6.832686662673950195e-01
7.422982901334762573e-02 -1.472929418087005615e-01 1.988589763641357422e-01
3.134630620479583740e-01 -6.891519576311111450e-02 5.981708765029907227e-01
1.870517134666442871e-01 -3.354534134268760681e-02 4.005264639854431152e-01
1.940978020429611206e-01 -3.755464404821395874e-02 3.376160860061645508e-01
8.915837109088897705e-02 -1.442277580499649048e-01 -3.155469298362731934e-01
6.595180928707122803e-02 -3.894529864192008972e-02 2.180993705987930298e-01
1.724440306425094604e-01 -1.563395261764526367e-01 6.102390587329864502e-02
8.689063787460327148e-02 -2.734000235795974731e-02 4.373949468135833740e-01
1.017267256975173950e-01 -7.880431413650512695e-02 7.937539815902709961e-01
-9.883135557174682617e-03 -1.424231678247451782e-01 -8.869767189025878906e-03
1.597210317850112915e-01 -1.508394479751586914e-01 2.014354467391967773e-01
2.356465309858322144e-01 -1.285560429096221924e-01 4.526113271713256836e-01
2.602751255035400391e-01 -1.170280501246452332e-01 -1.497744321823120117e-01
2.072332501411437988e-01 -1.551393419504165649e-01 -3.509545326232910156e-02
1.866081953048706055e-01 -1.184560954570770264e-01 5.796101093292236328e-01
-9.290382266044616699e-02 -9.358438849449157715e-02 1.226461827754974365e-01
1.712033003568649292e-01 -1.294787675142288208e-01 -3.069173097610473633e-01
8.448518812656402588e-03 -1.415760964155197144e-01 1.327554881572723389e-01
2.970166802406311035e-01 -1.147953569889068604e-01 4.700847268104553223e-01
3.397496044635772705e-02 -4.536591097712516785e-02 1.514350324869155884e-01
2.373696863651275635e-02 -3.045619279146194458e-02 4.911561608314514160e-01
8.010305464267730713e-03 -3.292281180620193481e-02 4.773520231246948242e-01
2.657274603843688965e-01 -4.840556904673576355e-02 7.029181122779846191e-01
1.684107333421707153e-01 -1.473975479602813721e-01 2.590539157390594482e-01
2.178185284137725830e-01 -1.414445191621780396e-01 3.138549029827117920e-01
2.665065526962280273e-01 -1.065590977668762207e-01 6.018264293670654297e-01
2.653534710407257080e-02 -3.526290878653526306e-02 3.225378990173339844e-01
2.541341185569763184e-01 -4.086253792047500610e-02 6.361928582191467285e-01
1.242079287767410278e-01 -1.588323414325714111e-01 -3.899827599525451660e-02
1.087982803583145142e-01 -1.406458020210266113e-01 -3.300030827522277832e-01
1.505842953920364380e-01 -8.013730496168136597e-02 -1.477455198764801025e-01
1.125617325305938721e-01 -4.799799621105194092e-02 1.043681055307388306e-01
3.350582718849182129e-01 -1.092340499162673950e-01 2.753071784973144531e-01
7.279604673385620117e-03 -4.143844544887542725e-02 2.459845989942550659e-01
-7.265926897525787354e-02 -8.023265004158020020e-02 2.833344042301177979e-02
1.741598844528198242e-01 -3.114059567451477051e-02 4.256879687309265137e-01
2.128701955080032349e-01 -1.313790977001190186e-01 4.446190595626831055e-01
1.179032474756240845e-01 -2.433332055807113647e-02 6.029940843582153320e-01
1.560070365667343140e-01 -2.750176191329956055e-02 7.118307352066040039e-01
-5.651724338531494141e-02 -8.441970497369766235e-02 -5.618730187416076660e-02
1.290299743413925171e-01 -1.541485339403152466e-01 1.285071820020675659e-01
-3.989112377166748047e-02 -1.254989802837371826e-01 2.015443444252014160e-01
2.319481968879699707e-01 -6.537884473800659180e-02 7.008412480354309082e-02
5.004194378852844238e-02 -4.643357545137405396e-02 7.886238694190979004e-01
-6.602874398231506348e-02 -9.241009503602981567e-02 -6.685951352119445801e-02
2.731191515922546387e-01 -7.780605554580688477e-02 6.277108192443847656e-02
9.323917329311370850e-03 -1.213196218013763428e-01 4.070630073547363281e-01
4.629421234130859375e-02 -1.230007559061050415e-01 4.580835700035095215e-01
-6.470321118831634521e-02 -1.154857128858566284e-01 2.054693400859832764e-01
1.058510690927505493e-01 -8.563711494207382202e-02 -2.039953768253326416e-01
-6.893761456012725830e-02 -5.740410834550857544e-02 3.747427463531494141e-01
-7.897928357124328613e-03 -1.394201517105102539e-01 -1.884665787220001221e-01
3.917902708053588867e-03 -8.189617842435836792e-02 6.617654561996459961e-01
1.185729131102561951e-01 -2.657334506511688232e-02 4.636281728744506836e-01
9.549696743488311768e-02 -1.173011362552642822e-01 5.636782646179199219e-01
6.045706197619438171e-02 -7.480060309171676636e-02 -1.368137896060943604e-01
2.009862810373306274e-01 -3.062062337994575500e-02 5.488624572753906250e-01
3.170351386070251465e-01 -6.501806527376174927e-02 4.509062469005584717e-01
-4.301470518112182617e-02 -5.215799063444137573e-02 5.531381368637084961e-01
3.124676346778869629e-01 -1.101386398077011108e-01 4.587764441967010498e-01
2.196597903966903687e-01 -1.470699012279510498e-01 -1.788416504859924316e-01
1.152315288782119751e-01 -2.437940239906311035e-02 6.200884580612182617e-01
1.499977111816406250e-01 -1.246303766965866089e-01 5.275341272354125977e-01
-4.137948155403137207e-02 -1.265591531991958618e-01 1.765287220478057861e-01
2.550326585769653320e-01 -6.636539846658706665e-02 7.789236307144165039e-01
3.590530157089233398e-02 -1.390136182308197021e-01 2.550533413887023926e-01
1.306272447109222412e-01 -1.321557909250259399e-01 -3.357792496681213379e-01
8.763168752193450928e-02 -3.042810410261154175e-02 3.596731722354888916e-01
-5.461663007736206055e-02 -5.017646774649620056e-02 3.893566131591796875e-01
2.273961901664733887e-03 -1.445605307817459106e-01 2.051632106304168701e-02
2.543314695358276367e-01 -1.319507956504821777e-01 3.854910731315612793e-01
1.519120633602142334e-01 -3.524647653102874756e-02 8.120468854904174805e-01
1.948518604040145874e-01 -1.549017131328582764e-01 6.920439004898071289e-02
1.874327659606933594e-01 -4.400970786809921265e-02 2.254348397254943848e-01
2.077394574880599976e-01 -6.802211701869964600e-02 4.586905241012573242e-03
-8.827899396419525146e-02 -7.292447239160537720e-02 2.627393603324890137e-01
3.135100901126861572e-01 -6.370294094085693359e-02 5.459395647048950195e-01
2.093041539192199707e-01 -3.790574148297309875e-02 3.694337010383605957e-01
5.880061537027359009e-02 -5.290585011243820190e-02 4.985733330249786377e-02
1.575703620910644531e-01 -1.287494599819183350e-01 4.894398748874664307e-01
6.783025711774826050e-02 -6.051384657621383667e-02 8.125195503234863281e-01
-6.219765543937683105e-02 -8.131236582994461060e-02 -1.906353235244750977e-02
3.364552557468414307e-01 -1.012371331453323364e-01 2.286886870861053467e-01
1.102112978696823120e-02 -3.224560245871543884e-02 5.099517703056335449e-01
1.911453902721405029e-01 -1.494865715503692627e-01 2.097555249929428101e-01
-1.481151580810546875e-02 -9.949623048305511475e-02 5.298526287078857422e-01
2.844847440719604492e-01 -1.308822184801101685e-01 3.205596506595611572e-01
-1.717743277549743652e-02 -4.918273910880088806e-02 1.817553043365478516e-01
-8.551150560379028320e-03 -5.178312584757804871e-02 1.287881582975387573e-01
2.429401576519012451e-01 -9.908682852983474731e-02 -1.320961117744445801e-01
9.861038625240325928e-02 -1.527445018291473389e-01 1.306321918964385986e-01
2.673194408416748047e-01 -1.312767267227172852e-01 3.663112223148345947e-01
-5.537481606006622314e-02 -7.629010826349258423e-02 -4.499763250350952148e-03
1.592385470867156982e-01 -1.192129328846931458e-01 5.759122371673583984e-01
3.053613305091857910e-01 -1.152001917362213135e-01 4.383395016193389893e-01
-3.369775414466857910e-02 -7.627047598361968994e-02 5.940861105918884277e-01
2.493282407522201538e-01 -4.310468584299087524e-02 4.112408161163330078e-01
5.812617391347885132e-02 -2.656141668558120728e-02 5.320148468017578125e-01
2.244103550910949707e-01 -3.427572548389434814e-02 6.480020284652709961e-01
2.044559717178344727e-01 -1.150623112916946411e-01 6.001585721969604492e-01
1.247470527887344360e-01 -1.405598223209381104e-01 3.481040894985198975e-01
-7.952445745468139648e-02 -6.431512534618377686e-02 3.209739923477172852e-01
-3.578506410121917725e-02 -1.111867278814315796e-01 3.828246891498565674e-01
1.674970984458923340e-01 -1.579919904470443726e-01 -8.566498756408691406e-03
4.937816411256790161e-02 -9.869843721389770508e-02 -2.658826708793640137e-01
1.397753506898880005e-02 -6.074377149343490601e-02 2.564132213592529297e-03
2.516570985317230225e-01 -4.227688536047935486e-02 6.896212100982666016e-01
-4.851756989955902100e-02 -1.158235073089599609e-01 2.885279059410095215e-01
1.710794270038604736e-01 -2.700873464345932007e-02 5.760568380355834961e-01
7.574335485696792603e-02 -2.899905294179916382e-02 7.166437506675720215e-01
7.322195917367935181e-02 -6.494796276092529297e-02 -6.420132517814636230e-02
1.738627254962921143e-02 -4.145075753331184387e-02 2.272585332393646240e-01
1.200054585933685303e-02 -1.179810017347335815e-01 4.443264007568359375e-01
9.636803716421127319e-02 -1.052867844700813293e-01 -2.972002029418945312e-01
1.871429830789566040e-01 -2.878962457180023193e-02 5.590029954910278320e-01
-3.005203604698181152e-02 -6.881595402956008911e-02 -5.451619625091552734e-03
2.317482233047485352e-02 -6.990535557270050049e-02 -8.307436108589172363e-02
6.864073872566223145e-02 -1.546909511089324951e-01 1.085028052330017090e-02
1.783698797225952148e-03 -1.048495769500732422e-01 5.297317504882812500e-01
2.344755828380584717e-01 -1.426411569118499756e-01 2.694168984889984131e-01
2.784701883792877197e-01 -6.141185015439987183e-02 2.373182177543640137e-01
1.858571469783782959e-01 -3.561269119381904602e-02 3.554176688194274902e-01
2.650789022445678711e-01 -4.656122997403144836e-02 6.845552921295166016e-01
2.013348937034606934e-01 -1.537657976150512695e-01 -1.380234360694885254e-01
-4.766531288623809814e-02 -5.021720752120018005e-02 5.049617290496826172e-01
2.112040966749191284e-01 -1.246170848608016968e-01 5.142334699630737305e-01
2.066788524389266968e-01 -9.000981599092483521e-02 -1.468816101551055908e-01
2.573083341121673584e-01 -5.025501921772956848e-02 3.119401335716247559e-01
4.872408509254455566e-02 -4.162482172250747681e-02 7.731699347496032715e-01
-5.463856458663940430e-02 -1.073944643139839172e-01 3.479280173778533936e-01
1.605078279972076416e-01 -3.789688274264335632e-02 2.740488350391387939e-01
4.922723770141601562e-02 -3.225181624293327332e-02 3.493654429912567139e-01
2.969081401824951172e-01 -8.261130750179290771e-02 6.610021591186523438e-01
6.856748461723327637e-02 -1.034135967493057251e-01 -2.898071408271789551e-01
1.219580322504043579e-01 -1.590144336223602295e-01 -6.566429138183593750e-02
8.622422814369201660e-03 -1.351603269577026367e-01 -2.674989700317382812e-01
1.354023665189743042e-01 -9.191317856311798096e-02 7.519749402999877930e-01
1.782150715589523315e-01 -2.751672267913818359e-02 6.011860370635986328e-01
2.752747535705566406e-01 -1.420686542987823486e-01 4.921914637088775635e-02
1.490776687860488892e-01 -9.031547605991363525e-02 7.631794214248657227e-01
1.526063978672027588e-01 -1.583681255578994751e-01 -1.303804516792297363e-01
7.114048302173614502e-02 -1.536350846290588379e-01 -2.137919664382934570e-01
1.348851174116134644e-01 -8.261004090309143066e-02 7.944903969764709473e-01
1.120978817343711853e-01 -1.564639061689376831e-01 5.247095227241516113e-02
2.191578447818756104e-01 -1.295994967222213745e-01 -2.425158619880676270e-01
2.500478029251098633e-01 -4.782238975167274475e-02 3.241675496101379395e-01
2.464434653520584106e-01 -8.051986247301101685e-02 7.609459757804870605e-01
2.925123274326324463e-01 -5.362832918763160706e-02 5.991686582565307617e-01
3.293704390525817871e-01 -8.340582996606826782e-02 5.165780782699584961e-01
1.521784365177154541e-01 -3.345846757292747498e-02 3.383480906486511230e-01
2.247870266437530518e-01 -1.195855066180229187e-01 -2.265504002571105957e-01
7.125635445117950439e-02 -3.455707803368568420e-02 7.686317563056945801e-01
1.980238109827041626e-01 -8.408054709434509277e-02 7.854028344154357910e-01
-6.089557707309722900e-02 -5.508932843804359436e-02 4.520246982574462891e-01
2.600807845592498779e-01 -8.501347154378890991e-02 -2.068442106246948242e-02
2.598929405212402344e-01 -8.432477712631225586e-02 7.297976016998291016e-01
-8.162812888622283936e-02 -9.554647654294967651e-02 3.042301833629608154e-01
2.278444170951843262e-01 -4.924700781702995300e-02 2.374259233474731445e-01
-8.920130133628845215e-02 -1.008520871400833130e-01 7.129648327827453613e-02
1.732494682073593140e-02 -6.057238206267356873e-02 7.411642074584960938e-01
5.836606770753860474e-02 -3.068745881319046021e-02 7.089779376983642578e-01
1.559725105762481689e-01 -9.622628986835479736e-02 -2.327336668968200684e-01
-3.429023921489715576e-02 -1.261757910251617432e-01 2.181065976619720459e-01
2.238575369119644165e-02 -3.417031094431877136e-02 3.568883538246154785e-01
2.873401641845703125e-01 -5.074001476168632507e-02 5.017385482788085938e-01
3.174788653850555420e-01 -6.592351943254470825e-02 4.230502247810363770e-01
-6.635159254074096680e-02 -9.513533860445022583e-02 3.928758800029754639e-01
2.279149442911148071e-01 -1.180288940668106079e-01 5.601489543914794922e-01
6.857562065124511719e-02 -2.761679887771606445e-02 4.464264512062072754e-01
1.250687241554260254e-01 -1.268472075462341309e-01 4.985976219177246094e-01
3.073489367961883545e-01 -6.487238407135009766e-02 6.162744164466857910e-01
-3.528800606727600098e-02 -4.418988898396492004e-02 3.593452572822570801e-01
2.454179376363754272e-01 -3.822858259081840515e-02 5.595007538795471191e-01
1.654282957315444946e-01 -1.307558715343475342e-01 4.694434702396392822e-01
9.421014785766601562e-02 -1.497682929039001465e-01 1.841655224561691284e-01
2.926550805568695068e-01 -1.207547187805175781e-01 4.231259226799011230e-01
8.761584758758544922e-02 -8.230779320001602173e-02 7.698838710784912109e-01
6.727907061576843262e-02 -6.992375850677490234e-02 -1.027574241161346436e-01
-6.360572576522827148e-02 -6.702364981174468994e-02 1.087026596069335938e-01
2.412281036376953125e-01 -9.510263800621032715e-02 7.037351131439208984e-01
-8.754758536815643311e-02 -8.028203994035720825e-02 1.211735755205154419e-01
4.005730897188186646e-02 -2.825438231229782104e-02 5.218898653984069824e-01
2.625308185815811157e-02 -3.919534757733345032e-02 2.499908506870269775e-01
1.093699485063552856e-01 -2.990389242768287659e-02 7.628746032714843750e-01
1.482318937778472900e-01 -3.408628329634666443e-02 3.220409750938415527e-01
-1.569017767906188965e-02 -1.392209231853485107e-01 -1.501078009605407715e-01
2.985588312149047852e-01 -6.633313745260238647e-02 6.665951013565063477e-01
-5.152508616447448730e-03 -1.072766259312629700e-01 4.970878064632415771e-01
-8.393897116184234619e-02 -1.085932552814483643e-01 9.829968214035034180e-02
3.169656395912170410e-01 -9.269205480813980103e-02 5.576134324073791504e-01
1.496281474828720093e-02 -1.366833597421646118e-01 2.374819964170455933e-01
6.307845562696456909e-02 -3.524686768651008606e-02 2.783177793025970459e-01
1.995272040367126465e-01 -1.522913724184036255e-01 1.381870508193969727e-01
-3.525447845458984375e-02 -1.235874444246292114e-01 2.499664127826690674e-01
2.963475286960601807e-01 -1.062758266925811768e-01 -2.091148495674133301e-02
2.152408957481384277e-01 -9.939886629581451416e-02 7.009308338165283203e-01
2.089427858591079712e-01 -1.224074065685272217e-01 5.360113978385925293e-01
2.547600567340850830e-01 -1.468147188425064087e-01 9.087224304676055908e-02
2.876403033733367920e-01 -9.728071093559265137e-02 6.207749843597412109e-01
