8.417844772338867188e-01 2.303797937929630280e-02 4.153995215892791748e-02
-1.714544892311096191e-01 2.377800345420837402e-01 6.237366423010826111e-02
-7.683358192443847656e-01 2.139408290386199951e-01 -5.566128715872764587e-02
-3.546898365020751953e-01 2.296627908945083618e-01 -2.875069975852966309e-01
9.403613209724426270e-01 -5.812186002731323242e-02 5.693754926323890686e-02
6.958471611142158508e-03 2.219347655773162842e-01 -1.253992468118667603e-01
-5.260969400405883789e-01 -1.214562505483627319e-01 -3.066925108432769775e-01
-8.860106468200683594e-01 8.297020569443702698e-03 -2.270921170711517334e-01
-3.880522847175598145e-01 -1.683056950569152832e-01 -1.467930674552917480e-01
-4.118387699127197266e-01 -1.404875367879867554e-01 -3.584380149841308594e-01
3.832975029945373535e-01 1.139415949583053589e-01 5.085875391960144043e-01
-7.259162068367004395e-01 -8.173518627882003784e-02 -1.210459917783737183e-01
-4.993159174919128418e-01 5.042426288127899170e-02 7.278608083724975586e-01
-5.474796295166015625e-01 1.949583590030670166e-01 -4.460018277168273926e-01
-6.521473526954650879e-01 3.429028019309043884e-02 6.306895017623901367e-01
3.672891855239868164e-01 -1.924133002758026123e-01 -4.801148474216461182e-01
-5.996439456939697266e-01 1.313754078000783920e-02 -6.262045502662658691e-01
1.390779614448547363e-01 -5.950939282774925232e-02 8.117129206657409668e-01
-3.503931760787963867e-01 -1.488327234983444214e-01 -3.843502402305603027e-01
-1.703824996948242188e-01 -1.486358493566513062e-01 -5.339273810386657715e-01
-4.630377888679504395e-02 1.167493313550949097e-01 7.166699767112731934e-01
6.090483814477920532e-02 -2.075960189104080200e-01 4.030952453613281250e-01
3.013904690742492676e-01 -2.395436316728591919e-01 1.819566190242767334e-01
-8.003333210945129395e-01 1.197982802987098694e-01 -4.481725990772247314e-01
1.586155965924263000e-02 -2.194905132055282593e-01 -2.140254527330398560e-01
2.656201720237731934e-01 -2.350089699029922485e-01 -1.917817890644073486e-01
8.207093477249145508e-01 2.117947489023208618e-02 1.968758702278137207e-01
-8.847109079360961914e-01 2.366815134882926941e-02 -2.817322313785552979e-01
-8.905780911445617676e-01 1.403138339519500732e-01 3.010070323944091797e-01
8.877562284469604492e-01 -4.561792593449354172e-03 1.404826529324054718e-02
3.715041279792785645e-01 -2.432809025049209595e-01 -4.732093214988708496e-02
3.974419832229614258e-01 -2.151431590318679810e-01 4.033060073852539062e-01
7.240193486213684082e-01 -2.295778691768646240e-02 5.092411041259765625e-01
-5.367228984832763672e-01 -1.270052641630172729e-01 -2.423265576362609863e-01
-6.390154361724853516e-01 2.253255993127822876e-01 1.888410001993179321e-01
-8.879424333572387695e-01 1.823651939630508423e-01 3.105444461107254028e-02
6.452811956405639648e-01 -2.125143259763717651e-01 -2.362906336784362793e-01
8.041229248046875000e-01 -1.794645637273788452e-01 2.508507668972015381e-01
2.147342413663864136e-01 8.208113908767700195e-02 -7.034293413162231445e-01
-7.337553054094314575e-02 -2.203778922557830811e-01 5.448548123240470886e-02
-4.752164483070373535e-01 -1.335723549127578735e-01 3.578364849090576172e-01
-4.180361032485961914e-01 2.397641688585281372e-01 1.597052812576293945e-01
-6.108853816986083984e-01 5.199315398931503296e-02 6.651179194450378418e-01
-2.116923183202743530e-01 -1.520743519067764282e-01 5.391899943351745605e-01
8.831588625907897949e-01 -1.632091701030731201e-01 -1.016128659248352051e-01
7.682653665542602539e-01 5.807400867342948914e-02 -3.129197657108306885e-02
-9.735760092735290527e-01 1.144951656460762024e-01 -9.294302761554718018e-02
-5.651617646217346191e-01 1.837045848369598389e-01 -4.810346364974975586e-01
9.130300879478454590e-01 -4.940394312143325806e-02 1.906556487083435059e-01
1.143535785377025604e-02 -1.273846477270126343e-01 -6.689120531082153320e-01
-1.220482662320137024e-01 2.320402264595031738e-01 -1.449514925479888916e-01
8.936854451894760132e-02 -2.202913463115692139e-01 3.166958987712860107e-01
-4.156482219696044922e-01 -1.325268447399139404e-01 4.470832645893096924e-01
-1.017688736319541931e-01 2.217766046524047852e-01 2.626274228096008301e-01
1.674242168664932251e-01 1.377707719802856445e-01 -5.810886025428771973e-01
-2.519081234931945801e-01 -1.551782786846160889e-01 4.945725500583648682e-01
5.802953243255615234e-01 -6.970559805631637573e-02 -6.382627487182617188e-01
-4.583041667938232422e-01 -1.280238330364227295e-01 -3.705647885799407959e-01
-1.399914622306823730e-01 -1.698524951934814453e-01 -4.575910866260528564e-01
-5.735875368118286133e-01 -5.370851606130599976e-02 -5.328862071037292480e-01
1.727497577667236328e-01 -1.640798449516296387e-01 6.296055912971496582e-01
-9.279342889785766602e-01 2.141592837870121002e-02 1.695636361837387085e-01
3.915424942970275879e-01 1.479003280401229858e-01 3.104652166366577148e-01
-6.923617124557495117e-01 1.122255995869636536e-01 -5.568930506706237793e-01
-3.266650438308715820e-01 1.450193673372268677e-01 -6.560550332069396973e-01
-7.081134915351867676e-01 3.283374384045600891e-02 5.812659263610839844e-01
-1.472921669483184814e-01 -1.709114015102386475e-01 4.946118593215942383e-01
-3.508352041244506836e-01 -1.737104356288909912e-01 2.223861515522003174e-01
5.481652021408081055e-01 1.028303653001785278e-01 -3.550260365009307861e-01
-3.054125048220157623e-02 1.937893182039260864e-01 4.339380562305450439e-01
-4.392215013504028320e-01 -5.138639360666275024e-02 -6.454483270645141602e-01
-2.554807662963867188e-01 -1.581377536058425903e-01 -4.287181794643402100e-01
-3.483504056930541992e-01 1.889742016792297363e-01 -5.220783948898315430e-01
6.241590380668640137e-01 7.173646986484527588e-02 -3.874507546424865723e-01
1.047311909496784210e-02 2.045445442199707031e-01 3.314668238162994385e-01
-2.603716403245925903e-02 1.815086007118225098e-01 4.975705742835998535e-01
6.665264368057250977e-01 -1.310330331325531006e-01 5.468224287033081055e-01
-2.259183973073959351e-01 -1.999709308147430420e-01 -5.374955013394355774e-02
-2.983245253562927246e-01 2.348117679357528687e-01 2.217685729265213013e-01
2.440993040800094604e-01 1.924640834331512451e-01 -8.275792002677917480e-02
-6.348219513893127441e-01 2.147739678621292114e-01 -2.852839827537536621e-01
-8.271486759185791016e-01 -3.770201280713081360e-02 1.942836791276931763e-01
-3.088798373937606812e-02 2.068641930818557739e-01 -3.515688180923461914e-01
5.791425704956054688e-01 7.847670465707778931e-02 -4.263973534107208252e-01
5.575320720672607422e-01 -1.423680037260055542e-01 -5.671316981315612793e-01
-6.437458992004394531e-01 1.028969883918762207e-01 -6.005451083183288574e-01
6.763104200363159180e-01 -1.516301184892654419e-01 4.994639158248901367e-01
-5.654273033142089844e-01 -1.124300584197044373e-01 -2.967610359191894531e-01
-4.944325610995292664e-02 1.718824207782745361e-01 5.501273274421691895e-01
6.112911105155944824e-01 6.624614447355270386e-02 -4.296167194843292236e-01
5.451291799545288086e-01 1.183045655488967896e-01 2.454866617918014526e-01
-2.228552103042602539e-01 -1.381904184818267822e-01 -5.427613854408264160e-01
8.046972751617431641e-02 2.162114977836608887e-01 -2.838305756449699402e-02
-4.816929101943969727e-01 1.956379562616348267e-01 4.720920622348785400e-01
-4.278442636132240295e-02 -2.221229821443557739e-01 1.241590827703475952e-01
-6.611779928207397461e-01 -1.419599540531635284e-02 5.696572661399841309e-01
-2.875968813896179199e-01 -1.030126661062240601e-01 -6.179651021957397461e-01
5.606990456581115723e-01 7.690192759037017822e-02 -4.572210013866424561e-01
7.303763031959533691e-01 -4.598969966173171997e-02 -5.106883049011230469e-01
6.366525888442993164e-01 1.008542478084564209e-01 1.379024833440780640e-01
3.513197898864746094e-01 -2.349084466695785522e-01 -2.023236006498336792e-01
-3.399325013160705566e-01 2.434926182031631470e-01 -7.867741584777832031e-02
-1.194917187094688416e-01 -6.285375356674194336e-02 -7.607557177543640137e-01
-5.690200254321098328e-02 -1.234003230929374695e-01 7.013527154922485352e-01
-1.916118711233139038e-01 -1.677646934986114502e-01 -4.306912422180175781e-01
-3.559593558311462402e-01 -9.506844729185104370e-02 -5.977594852447509766e-01
4.566943645477294922e-01 1.335296928882598877e-01 -3.127411007881164551e-01
3.236690163612365723e-01 -2.265810221433639526e-01 3.316971659660339355e-01
3.344547152519226074e-01 1.775453686714172363e-01 -4.810471087694168091e-02
-3.460729718208312988e-01 -7.037516683340072632e-02 -6.633265614509582520e-01
2.575058341026306152e-01 -1.752611547708511353e-01 5.951297879219055176e-01
-3.062140941619873047e-01 1.895556896924972534e-01 -5.220280289649963379e-01
-3.319929838180541992e-01 -1.246152147650718689e-01 5.619565248489379883e-01
3.038778528571128845e-02 2.200626283884048462e-01 -1.107886582612991333e-01
-4.842761158943176270e-01 2.224553078413009644e-01 -3.215948045253753662e-01
-3.031693696975708008e-01 2.260663956403732300e-01 -3.151895701885223389e-01
3.822665810585021973e-01 -3.639033809304237366e-02 -7.425539493560791016e-01
7.266288399696350098e-01 -1.626917272806167603e-01 -3.940230607986450195e-01
-7.502527832984924316e-01 2.050826698541641235e-01 2.253774851560592651e-01
-3.972808718681335449e-01 -1.492086499929428101e-01 3.695539236068725586e-01
2.044533938169479370e-01 -2.410286962985992432e-01 6.643658131361007690e-02
-2.888580560684204102e-01 3.068736195564270020e-02 -7.810742259025573730e-01
2.641014456748962402e-01 9.349807351827621460e-02 -6.560763716697692871e-01
3.513240814208984375e-01 1.160213351249694824e-01 5.296081900596618652e-01
3.892315626144409180e-01 -2.334397882223129272e-01 2.605780363082885742e-01
7.851269841194152832e-01 -9.187457710504531860e-02 4.697819948196411133e-01
5.460115075111389160e-01 -2.179980725049972534e-01 -2.813891172409057617e-01
-8.314581513404846191e-01 1.727916300296783447e-01 2.901797890663146973e-01
2.311026602983474731e-01 1.947886794805526733e-01 6.309153884649276733e-02
2.839776501059532166e-02 2.241907827556133270e-02 8.279200196266174316e-01
-3.002507686614990234e-01 2.139957696199417114e-01 3.984093964099884033e-01
-1.244557276368141174e-01 2.168918102979660034e-01 3.240769803524017334e-01
-3.692192435264587402e-01 -1.286256015300750732e-01 -4.684807360172271729e-01
-9.463570713996887207e-01 1.353826969861984253e-01 1.723328530788421631e-01
-5.394670963287353516e-01 1.818517893552780151e-01 5.056205391883850098e-01
8.720103502273559570e-01 -1.563609093427658081e-01 -1.848364174365997314e-01
-9.124269336462020874e-02 -2.171710729598999023e-01 1.165168285369873047e-01
8.811761140823364258e-01 -9.230392053723335266e-03 1.439689844846725464e-01
-9.770570397377014160e-01 1.205585747957229614e-01 5.760293081402778625e-02
-8.979811072349548340e-01 1.756140403449535370e-02 -2.276951074600219727e-01
-4.861435294151306152e-01 2.420519292354583740e-01 -7.444556057453155518e-02
-6.541064977645874023e-01 9.270043112337589264e-03 -5.772789716720581055e-01
-2.752265334129333496e-01 -1.934561133384704590e-01 7.210584357380867004e-03
-2.410160005092620850e-01 -1.940468102693557739e-01 1.925591677427291870e-01
5.095924735069274902e-01 1.196493133902549744e-01 3.120547235012054443e-01
2.148081660270690918e-01 -1.769561171531677246e-01 5.889806747436523438e-01
1.928935497999191284e-01 -2.398757189512252808e-01 1.003410667181015015e-01
5.389384627342224121e-01 1.272005885839462280e-01 -1.692414730787277222e-01
-6.821029782295227051e-01 1.889845430850982666e-01 3.933857679367065430e-01
-1.862252056598663330e-01 -1.637576520442962646e-01 -4.558952450752258301e-01
-3.442861437797546387e-01 6.456683576107025146e-02 7.771008610725402832e-01
-4.144386202096939087e-02 2.265467494726181030e-01 1.161669492721557617e-01
3.500264883041381836e-01 1.349070966243743896e-01 -4.509028792381286621e-01
5.113428235054016113e-01 1.009875610470771790e-01 -4.205494225025177002e-01
-7.186287641525268555e-01 -9.352290071547031403e-03 5.152277350425720215e-01
-4.598268866539001465e-01 2.358804345130920410e-01 2.031572014093399048e-01
-6.769007444381713867e-01 -9.049353748559951782e-02 2.530494928359985352e-01
4.884891510009765625e-01 -1.280585229396820068e-01 -6.258397102355957031e-01
-4.535959362983703613e-01 -1.354709118604660034e-01 -3.309719860553741455e-01
-6.318066716194152832e-01 -7.565233856439590454e-02 -3.878974616527557373e-01
3.719522953033447266e-01 -2.249764949083328247e-01 -2.952053844928741455e-01
-3.201196193695068359e-01 1.642006263136863708e-02 7.953796386718750000e-01
6.117963194847106934e-01 -5.412247963249683380e-03 -5.909981131553649902e-01
-5.762189030647277832e-01 2.376506477594375610e-01 -6.269584596157073975e-02
-6.284129023551940918e-01 6.014496088027954102e-02 6.530712842941284180e-01
3.647612929344177246e-01 -2.018303424119949341e-01 -4.378745555877685547e-01
4.498169422149658203e-01 -2.234700173139572144e-01 -2.883515954017639160e-01
4.849867224693298340e-01 1.355390250682830811e-01 2.285217195749282837e-01
-3.023669123649597168e-01 -1.730301529169082642e-01 -2.729234099388122559e-01
2.419589906930923462e-01 1.171756982803344727e-01 -6.050236225128173828e-01
2.205715179443359375e-01 -2.351920902729034424e-01 -1.719855070114135742e-01
2.859562039375305176e-01 -2.412116378545761108e-01 -9.456987679004669189e-02
-4.653499722480773926e-01 -7.053004205226898193e-02 -5.843837261199951172e-01
-7.748113870620727539e-01 1.722714155912399292e-01 3.699333071708679199e-01
-1.700009554624557495e-01 2.383476346731185913e-01 1.925131306052207947e-02
-7.112583518028259277e-02 -1.985189914703369141e-01 3.813816606998443604e-01
4.025532007217407227e-01 1.412409991025924683e-01 -3.476484119892120361e-01
-4.312628507614135742e-01 -1.463938355445861816e-01 3.367484211921691895e-01
-8.522413372993469238e-01 1.487061381340026855e-01 -3.270755410194396973e-01
4.144133925437927246e-01 3.563384339213371277e-02 6.892932057380676270e-01
-6.016601920127868652e-01 2.365200668573379517e-01 -2.294046804308891296e-03
-4.054371714591979980e-01 2.383895516395568848e-01 1.832063347101211548e-01
4.121480137109756470e-02 -2.138060182332992554e-01 3.435072302818298340e-01
-8.475581556558609009e-02 2.307132780551910400e-01 -1.109362542629241943e-01
3.612892031669616699e-01 -1.314130127429962158e-01 6.917887330055236816e-01
6.559993624687194824e-01 -2.085159122943878174e-01 2.921684682369232178e-01
-4.945288896560668945e-01 1.808136701583862305e-01 -5.201756358146667480e-01
-3.409217000007629395e-01 1.322967708110809326e-01 6.898344159126281738e-01
-2.206652611494064331e-01 -1.173354014754295349e-01 -6.135810017585754395e-01
9.090051054954528809e-01 -4.922378808259963989e-02 2.053169906139373779e-01
1.812981963157653809e-01 -3.058930672705173492e-02 8.180893063545227051e-01
-2.549442648887634277e-01 -1.299148648977279663e-01 5.967615246772766113e-01
-5.247009992599487305e-01 -6.924344599246978760e-02 5.774517059326171875e-01
-2.165751717984676361e-02 2.136190533638000488e-01 2.775046229362487793e-01
-1.174601092934608459e-01 -1.835387647151947021e-01 4.458534121513366699e-01
-2.732136249542236328e-01 -5.460293218493461609e-02 -7.251392602920532227e-01
9.312935173511505127e-03 -2.185680568218231201e-01 2.693535387516021729e-01
-6.634381413459777832e-02 2.188505381345748901e-01 2.642374038696289062e-01
-5.599730014801025391e-01 9.770055115222930908e-02 6.724343895912170410e-01
6.424155831336975098e-01 6.416945159435272217e-02 -3.907633721828460693e-01
5.178513526916503906e-01 -2.182688117027282715e-01 3.381575345993041992e-01
4.634643793106079102e-01 1.018562018871307373e-01 4.746646881103515625e-01
7.152900099754333496e-01 -2.169674485921859741e-01 -3.805603459477424622e-02
-7.858464121818542480e-02 -1.879906631074845791e-03 -8.118626475334167480e-01
4.615567922592163086e-01 -2.027048468589782715e-01 4.517912566661834717e-01
2.924795746803283691e-01 1.659733355045318604e-01 -3.288482129573822021e-01
-1.984970271587371826e-01 -1.584413945674896240e-01 -4.730635583400726318e-01
-2.055934518575668335e-01 -8.665592223405838013e-02 -6.955051422119140625e-01
5.174629092216491699e-01 -2.161284536123275757e-01 3.528211712837219238e-01
5.213760137557983398e-01 -5.430737510323524475e-02 6.960911154747009277e-01
2.625668644905090332e-01 -2.432068884372711182e-01 2.195693179965019226e-02
-8.740848302841186523e-01 8.481705188751220703e-02 3.987296521663665771e-01
-9.088193178176879883e-01 1.739228963851928711e-01 6.108664907515048981e-03
-5.321513414382934570e-01 -1.240905448794364929e-01 3.242163658142089844e-01
6.225379109382629395e-01 3.091660887002944946e-02 -5.201958417892456055e-01
5.695354342460632324e-01 1.028217226266860962e-01 3.127814531326293945e-01
5.974031686782836914e-01 -2.288272827863693237e-01 1.653743833303451538e-01
-5.882443785667419434e-01 2.328071892261505127e-01 1.513718217611312866e-01
-4.353081583976745605e-01 -1.468693166971206665e-01 -2.764185965061187744e-01
-4.819298386573791504e-01 -1.291505694389343262e-01 -3.288612961769104004e-01
-1.916385889053344727e-01 -1.933777183294296265e-01 2.945797443389892578e-01
4.236048460006713867e-01 -1.212366744875907898e-01 -6.605862975120544434e-01
1.145872324705123901e-01 -2.311928272247314453e-01 2.050376087427139282e-01
4.680151939392089844e-01 -2.369857132434844971e-01 1.829491704702377319e-01
3.664656877517700195e-01 1.656443476676940918e-01 -1.867121160030364990e-01
-3.240428566932678223e-01 -1.813033223152160645e-01 -1.261669248342514038e-01
-1.346367448568344116e-01 2.332821190357208252e-01 -1.365274786949157715e-01
-1.131317168474197388e-01 2.195993512868881226e-01 2.928497195243835449e-01
6.467030048370361328e-01 6.428297609090805054e-02 3.840539455413818359e-01
1.188684999942779541e-01 -2.136865109205245972e-01 -3.381768465042114258e-01
-3.572440147399902344e-01 -1.706539541482925415e-01 2.465808689594268799e-01
-4.723443388938903809e-01 -3.113459981977939606e-02 6.933298110961914062e-01
-1.110728904604911804e-01 -3.269609808921813965e-02 8.213609457015991211e-01
-4.586310982704162598e-01 1.573370099067687988e-01 6.075997948646545410e-01
-9.695165604352951050e-02 -1.102030128240585327e-01 7.204449772834777832e-01
3.046249747276306152e-01 2.090100757777690887e-02 -7.495638132095336914e-01
-3.442834019660949707e-01 2.102817147970199585e-01 4.220647215843200684e-01
4.449229240417480469e-01 1.535237282514572144e-01 9.609508514404296875e-02
-2.086429595947265625e-01 -1.835197061300277710e-01 -3.108620047569274902e-01
2.256419360637664795e-01 1.322450488805770874e-01 5.646570324897766113e-01
4.355800747871398926e-01 -7.344775646924972534e-02 -7.096988558769226074e-01
-8.785652369260787964e-02 2.288199514150619507e-01 1.508350521326065063e-01
4.676459431648254395e-01 1.384109556674957275e-01 -2.480624020099639893e-01
6.432083845138549805e-01 -2.266714125871658325e-01 -6.614422798156738281e-02
2.093233317136764526e-01 1.203135475516319275e-01 -6.142510175704956055e-01
6.586716175079345703e-01 6.785214692354202271e-02 3.455317914485931396e-01
-7.704062461853027344e-01 1.815683394670486450e-01 3.373011350631713867e-01
1.056074798107147217e-01 -1.526576727628707886e-01 -6.166974902153015137e-01
1.366655975580215454e-01 9.428323060274124146e-02 7.154457569122314453e-01
7.372626662254333496e-02 -2.329796552658081055e-01 9.948602318763732910e-02
-6.728767156600952148e-01 -4.724893718957901001e-02 -4.375045597553253174e-01
7.321753352880477905e-02 -1.105089560151100159e-01 -7.151910066604614258e-01
-1.670676320791244507e-01 -1.583110094070434570e-01 -4.950504302978515625e-01
4.887728095054626465e-01 -2.204691320657730103e-01 -2.950926125049591064e-01
7.486751079559326172e-01 -2.041456997394561768e-01 1.800875365734100342e-01
-6.387524008750915527e-01 -1.141556277871131897e-01 6.024540588259696960e-02
4.354137182235717773e-01 -2.378925085067749023e-01 1.882400661706924438e-01
4.890317320823669434e-01 1.318570524454116821e-01 2.551679611206054688e-01
-7.661988139152526855e-01 -5.964063853025436401e-02 2.367496639490127563e-01
-5.091549158096313477e-01 -2.914004027843475342e-02 -6.375687122344970703e-01
-4.224972724914550781e-01 -1.530294269323348999e-01 -2.460265159606933594e-01
3.240103721618652344e-01 1.751045882701873779e-01 1.577007919549942017e-01
5.889796614646911621e-01 -1.520715504884719849e-01 5.598909854888916016e-01
1.197707355022430420e-01 2.018681913614273071e-01 2.321522235870361328e-01
3.573565483093261719e-01 -7.713945116847753525e-03 -7.468408942222595215e-01
-8.473554849624633789e-01 1.944836527109146118e-01 7.668635249137878418e-02
-5.090796351432800293e-01 2.286471575498580933e-01 2.600817680358886719e-01
-1.559118032455444336e-01 -1.903768032789230347e-01 3.651912808418273926e-01
2.892082333564758301e-01 7.604120671749114990e-02 6.864390969276428223e-01
-6.476333737373352051e-01 2.157990485429763794e-01 -2.657712996006011963e-01
2.273372560739517212e-01 1.385043412446975708e-01 5.392316579818725586e-01
-4.553132653236389160e-01 -7.358467578887939453e-02 6.241174340248107910e-01
4.144346117973327637e-01 -1.757910698652267456e-01 5.706782341003417969e-01
-8.357163071632385254e-01 1.768214106559753418e-01 -2.509067654609680176e-01
-5.583316087722778320e-04 1.528325080871582031e-01 6.049182415008544922e-01
9.035985469818115234e-01 -1.894581504166126251e-02 7.267963886260986328e-02
8.807120323181152344e-01 -6.264006346464157104e-02 -2.935497164726257324e-01
-3.239790201187133789e-01 -1.027605086565017700e-01 -5.966545939445495605e-01
5.353395342826843262e-01 1.197066754102706909e-01 2.568457126617431641e-01
7.668706178665161133e-01 -1.780563890933990479e-01 -2.888147234916687012e-01
5.023391842842102051e-01 2.366909384727478027e-02 -6.400560736656188965e-01
3.164332732558250427e-02 -2.033271789550781250e-01 4.167845547199249268e-01
5.442354679107666016e-01 -1.595449149608612061e-01 -5.334529876708984375e-01
-3.970170617103576660e-01 -1.448853462934494019e-01 3.989117443561553955e-01
4.454065561294555664e-01 1.541995853185653687e-01 7.274846732616424561e-02
-1.327385008335113525e-01 1.770202815532684326e-01 -5.540351271629333496e-01
7.114560008049011230e-01 6.645039469003677368e-02 2.293301373720169067e-01
-5.295534133911132812e-01 2.247587591409683228e-01 2.840493917465209961e-01
2.203675508499145508e-01 1.954085752367973328e-02 -7.783867120742797852e-01
7.432314753532409668e-01 6.005848199129104614e-02 -1.745842993259429932e-01
-1.825201511383056641e-01 -2.071333676576614380e-01 8.215230889618396759e-03
4.759507179260253906e-01 1.174316331744194031e-01 3.825162351131439209e-01
-4.233635663986206055e-01 -9.938791394233703613e-02 5.762463808059692383e-01
-3.873305320739746094e-01 -1.384573131799697876e-01 4.483670890331268311e-01
-6.077976226806640625e-01 -5.170177668333053589e-02 -5.029308795928955078e-01
7.558257579803466797e-01 3.189118951559066772e-02 -3.168619573116302490e-01
-2.870159968733787537e-02 9.641020745038986206e-02 7.536568045616149902e-01
3.174840211868286133e-01 -2.383609861135482788e-01 -1.553723514080047607e-01
3.052227497100830078e-01 -2.412652820348739624e-01 -9.995611011981964111e-02
-3.293659538030624390e-03 -2.141166925430297852e-01 -2.545047998428344727e-01
-5.808032751083374023e-01 -1.102310791611671448e-01 -2.821068465709686279e-01
-9.849596023559570312e-01 1.049658134579658508e-01 3.848578780889511108e-04
-1.397179439663887024e-03 -1.649970710277557373e-01 5.922235846519470215e-01
-1.587915122509002686e-01 9.457859396934509277e-02 -7.560052275657653809e-01
-2.855582833290100098e-01 2.433594763278961182e-01 -1.981717161834239960e-02
4.639758467674255371e-01 -2.274507433176040649e-01 -2.497603297233581543e-01
-7.161656618118286133e-01 -2.941616997122764587e-02 -4.328468143939971924e-01
8.270025998353958130e-02 -8.464577049016952515e-02 7.895941734313964844e-01
-3.438841551542282104e-02 -1.989861279726028442e-01 -3.564346134662628174e-01
-7.075691223144531250e-01 -8.176603913307189941e-02 2.374921143054962158e-01
-6.273635029792785645e-01 1.402152925729751587e-01 5.745682120323181152e-01
6.679503917694091797e-01 -1.264865994453430176e-01 -5.260418057441711426e-01
-2.706441283226013184e-01 -7.301738858222961426e-02 -6.952645778656005859e-01
-7.230374813079833984e-01 -2.863488718867301941e-02 4.639203250408172607e-01
5.295380353927612305e-01 1.335261464118957520e-01 -9.724126756191253662e-02
8.766261935234069824e-01 -3.662005811929702759e-02 2.727425992488861084e-01
-4.791879057884216309e-01 2.385546118021011353e-01 1.561746001243591309e-01
8.204723149538040161e-02 2.128422558307647705e-01 -1.441160291433334351e-01
-9.938857704401016235e-02 -2.141026258468627930e-01 1.705246120691299438e-01
4.527484178543090820e-01 9.202554821968078613e-02 5.237957835197448730e-01
4.693062305450439453e-01 1.491972953081130981e-01 -6.451477110385894775e-02
-8.894774317741394043e-02 1.797414720058441162e-01 5.299920439720153809e-01
2.279407903552055359e-02 -6.364557147026062012e-02 -7.804127931594848633e-01
7.585291862487792969e-01 2.036757394671440125e-02 -3.556511104106903076e-01
-9.606925249099731445e-01 1.405274420976638794e-01 5.422330275177955627e-02
-4.946255683898925781e-01 -1.510531753301620483e-01 -2.009981684386730194e-02
1.442752778530120850e-01 -2.381215840578079224e-01 -1.694775931537151337e-02
-2.684807181358337402e-01 3.911485895514488220e-03 -7.810462713241577148e-01
-6.183397173881530762e-01 1.253639310598373413e-01 6.061976552009582520e-01
9.259580373764038086e-01 -1.405743509531021118e-01 5.526281520724296570e-02
-8.466732501983642578e-02 -1.480343472212553024e-02 -8.073611259460449219e-01
-5.462605953216552734e-01 2.306380718946456909e-01 2.182835042476654053e-01
-5.107164978981018066e-01 2.115082293748855591e-01 3.831515908241271973e-01
-8.200463056564331055e-01 -4.740137234330177307e-02 1.201103776693344116e-01
-3.793777823448181152e-01 7.789382338523864746e-02 7.582584023475646973e-01
1.345671415328979492e-01 1.945728808641433716e-01 2.892369031906127930e-01
-3.291096687316894531e-01 2.434955686330795288e-01 6.694442778825759888e-02
5.796848535537719727e-01 8.744361996650695801e-02 3.841101825237274170e-01
-8.425856828689575195e-01 1.964683532714843750e-01 6.238469481468200684e-02
-8.319272994995117188e-01 -5.120722111314535141e-03 3.486563265323638916e-01
-2.641564980149269104e-02 -2.169442623853683472e-01 2.485730201005935669e-01
-2.364489138126373291e-01 -1.892291754484176636e-02 8.049977421760559082e-01
7.828450202941894531e-01 -3.089200705289840698e-02 4.423769116401672363e-01
-7.084665298461914062e-01 -8.310075104236602783e-02 2.218847870826721191e-01
-8.740966320037841797e-01 -1.757991127669811249e-02 -1.139591485261917114e-01
3.184305429458618164e-01 -2.439436316490173340e-01 5.881019309163093567e-02
-3.522762656211853027e-01 2.268956452608108521e-01 3.082904815673828125e-01
9.001740813255310059e-01 -1.772335357964038849e-02 9.131224453449249268e-02
-3.796312808990478516e-01 -1.634892821311950684e-01 2.788688838481903076e-01
6.164976954460144043e-01 -1.530991941690444946e-01 -5.091376304626464844e-01
5.955157279968261719e-01 -2.141555398702621460e-01 -2.724147140979766846e-01
8.574813604354858398e-02 -1.768215596675872803e-01 5.716527700424194336e-01
-3.041663765907287598e-01 2.433743476867675781e-01 5.048964917659759521e-02
3.816173076629638672e-01 -2.365437448024749756e-01 2.253764867782592773e-01
1.073250174522399902e-02 2.229985892772674561e-01 7.259745895862579346e-02
6.257667541503906250e-01 9.449049085378646851e-02 2.456945776939392090e-01
4.066366553306579590e-01 -5.340701341629028320e-02 7.516124248504638672e-01
5.360959172248840332e-01 -2.248842120170593262e-01 -2.321162223815917969e-01
4.656900763511657715e-01 -2.390644699335098267e-01 -1.019633114337921143e-01
3.601508736610412598e-01 -1.927675306797027588e-01 5.209123492240905762e-01
3.770000338554382324e-01 1.689880490303039551e-01 -6.665983796119689941e-02
2.653507590293884277e-01 -1.157895177602767944e-01 -7.035605907440185547e-01
-7.098554372787475586e-01 2.243989259004592896e-01 -2.497697621583938599e-02
-2.262742668390274048e-01 1.612216085195541382e-01 -6.190617680549621582e-01
3.357243537902832031e-01 1.775108873844146729e-01 -3.225338459014892578e-02
-8.176575303077697754e-01 -7.674147840589284897e-03 3.693615496158599854e-01
-7.891169190406799316e-02 -2.069134414196014404e-01 3.008811771869659424e-01
3.218591809272766113e-01 -2.223761975765228271e-01 3.645235002040863037e-01
3.048968315124511719e-02 2.217208892107009888e-01 3.104868158698081970e-02
-1.167753413319587708e-01 2.339849025011062622e-01 7.407140731811523438e-02
6.226643323898315430e-01 -1.253675073385238647e-01 -5.599911808967590332e-01
3.129740431904792786e-02 -1.232389435172080994e-01 -6.826458573341369629e-01
-4.456001520156860352e-01 -1.399461925029754639e-01 3.611417114734649658e-01
4.927352070808410645e-01 -2.388874888420104980e-01 -7.808695733547210693e-02
-3.946030735969543457e-01 -1.482028663158416748e-01 -3.314917981624603271e-01
-6.826190650463104248e-02 -2.122514545917510986e-01 2.537210285663604736e-01
-1.979121863842010498e-01 1.713654845952987671e-01 -5.849430561065673828e-01
-7.317298650741577148e-01 -3.589442372322082520e-02 -3.891400098800659180e-01
5.249695181846618652e-01 5.008787289261817932e-02 -5.736186504364013672e-01
1.866811960935592651e-01 7.608292251825332642e-02 -7.249109148979187012e-01
6.237819194793701172e-01 -2.138946950435638428e-01 -2.484714090824127197e-01
6.088645458221435547e-01 -2.244324386119842529e-01 2.076743096113204956e-01
-7.863252162933349609e-01 -5.766096338629722595e-02 1.776499599218368530e-01
-4.704388380050659180e-01 -9.768050909042358398e-02 5.396250486373901367e-01
5.786640644073486328e-01 1.438917778432369232e-02 6.024378538131713867e-01
-5.064525604248046875e-01 -6.089093163609504700e-02 6.143926382064819336e-01
6.692420691251754761e-02 1.469291150569915771e-01 5.988643169403076172e-01
-5.802087783813476562e-01 -9.876810014247894287e-03 -6.140257120132446289e-01
-2.720870971679687500e-01 -1.544838398694992065e-01 4.807297289371490479e-01
-6.651286482810974121e-01 2.286628782749176025e-01 8.724837005138397217e-02
9.180659055709838867e-01 -4.114447534084320068e-02 -1.265532523393630981e-01
-7.501471042633056641e-01 -2.904346957802772522e-02 4.216466248035430908e-01
-9.523884654045104980e-01 3.046551905572414398e-02 5.493629351258277893e-02
-6.107736825942993164e-01 2.128531634807586670e-01 3.211181461811065674e-01
-1.372517645359039307e-01 1.822817921638488770e-01 5.327399373054504395e-01
6.834339350461959839e-02 -2.267898470163345337e-01 2.244837880134582520e-01
2.332021445035934448e-01 -2.226189523935317993e-01 -3.072991073131561279e-01
9.397482126951217651e-02 -2.344945669174194336e-01 9.580451250076293945e-02
3.731282353401184082e-01 1.371404975652694702e-01 4.088350832462310791e-01
-4.491241648793220520e-02 8.536203950643539429e-02 -7.632721662521362305e-01
6.536173820495605469e-01 -2.870751358568668365e-02 -5.757246613502502441e-01
-1.059810519218444824e-01 -2.072977572679519653e-01 -2.106898576021194458e-01
-9.438786655664443970e-02 -2.001785337924957275e-01 3.472230136394500732e-01
1.000946238636970520e-01 1.489674448966979980e-01 -5.766363739967346191e-01
1.566180288791656494e-01 1.818652749061584473e-01 3.683899641036987305e-01
5.850070714950561523e-02 1.210829243063926697e-01 6.798707246780395508e-01
-7.772606015205383301e-01 3.730789758265018463e-04 -4.219651520252227783e-01
1.295509189367294312e-01 -2.305125147104263306e-01 -1.781457811594009399e-01
1.868418902158737183e-01 -2.034599632024765015e-01 4.702068269252777100e-01
7.099480032920837402e-01 -1.914216876029968262e-01 3.316172361373901367e-01
-5.211003422737121582e-01 2.123653292655944824e-01 -3.721491992473602295e-01
-9.357449412345886230e-01 1.597054153680801392e-01 3.153640776872634888e-02
1.429000347852706909e-01 1.565218716859817505e-01 -5.230914950370788574e-01
-9.149854779243469238e-01 9.964574128389358521e-03 1.628785878419876099e-01
-6.415874958038330078e-01 2.322845011949539185e-01 -5.139862373471260071e-02
-6.589270234107971191e-01 2.115725129842758179e-01 -2.854110002517700195e-01
-6.917557120323181152e-01 -7.541301846504211426e-02 3.251295387744903564e-01
8.218447566032409668e-01 -9.452892839908599854e-02 -4.004229307174682617e-01
-1.529303491115570068e-01 -1.843645423650741577e-01 -3.622981011867523193e-01
-7.258123159408569336e-01 -7.735049724578857422e-02 2.176207900047302246e-01
6.952807903289794922e-01 2.258215472102165222e-02 4.564090967178344727e-01
-5.016971230506896973e-01 -4.005761072039604187e-02 6.600129604339599609e-01
1.746963858604431152e-01 9.983217716217041016e-02 6.881772875785827637e-01
-2.590336203575134277e-01 -1.795373111963272095e-01 -2.791483998298645020e-01
-2.982158064842224121e-01 7.412974722683429718e-03 7.998195886611938477e-01
3.145556449890136719e-01 7.742803543806076050e-02 -6.643666028976440430e-01
8.663994669914245605e-01 -1.745886504650115967e-01 -6.226564571261405945e-02
-7.393707036972045898e-01 1.306279450654983521e-01 -4.941979646682739258e-01
-1.003220379352569580e-01 -1.618674844503402710e-01 5.634916424751281738e-01
9.292981624603271484e-01 -4.139560461044311523e-02 -2.622111886739730835e-02
4.158971905708312988e-01 -2.286327332258224487e-01 3.009372949600219727e-01
7.533677220344543457e-01 -1.759816855192184448e-01 -3.161490261554718018e-01
-1.210243552923202515e-01 2.189088165760040283e-01 -3.107104599475860596e-01
5.437781810760498047e-01 1.151203066110610962e-01 -2.804886698722839355e-01
2.713676095008850098e-01 -2.395803183317184448e-01 1.724238842725753784e-01
4.731545448303222656e-01 -2.404815554618835449e-01 1.044919639825820923e-01
-4.084772467613220215e-01 -1.642664074897766113e-01 1.982680708169937134e-01
-9.134815931320190430e-01 1.190806627273559570e-01 -2.788062691688537598e-01
-4.190920591354370117e-01 1.656409949064254761e-01 -5.880253314971923828e-01
-3.523474931716918945e-01 2.375419139862060547e-01 1.962267756462097168e-01
-4.926898479461669922e-01 -5.192015692591667175e-02 6.444898247718811035e-01
5.748224854469299316e-01 -2.293267548084259033e-01 -1.477288305759429932e-01
8.066030740737915039e-01 3.168612718582153320e-02 1.727679371833801270e-01
-6.362924575805664062e-01 1.610292792320251465e-01 -5.098717212677001953e-01
-1.391346901655197144e-01 1.735832840204238892e-01 -5.684440732002258301e-01
9.349376559257507324e-01 -5.131592229008674622e-02 -5.837028846144676208e-02
-3.019511103630065918e-01 -3.216544538736343384e-02 7.744287252426147461e-01
-1.503129154443740845e-01 -1.866743415594100952e-01 -3.485346138477325439e-01
2.306742370128631592e-01 1.302916854619979858e-01 -5.691287517547607422e-01
8.496003597974777222e-02 -2.219882160425186157e-01 2.969321608543395996e-01
-2.098130285739898682e-01 -2.033914178609848022e-01 3.186554834246635437e-02
-6.290299892425537109e-01 2.316868454217910767e-01 1.065451800823211670e-01
5.356829166412353516e-01 -2.215429097414016724e-01 3.029531240463256836e-01
-4.764637351036071777e-01 1.639264523983001709e-01 5.845642685890197754e-01
-2.034871876239776611e-01 -1.125055029988288879e-01 6.761674880981445312e-01
-8.912740349769592285e-01 -1.411386765539646149e-02 5.358856543898582458e-02
-2.270695194602012634e-02 -2.228838652372360229e-01 -1.037255078554153442e-01
-3.752066493034362793e-01 -1.212737262248992920e-01 -4.942931532859802246e-01
-6.431393325328826904e-02 6.333235651254653931e-02 -7.895079851150512695e-01
-3.982779383659362793e-01 -1.561191231012344360e-01 -2.635422646999359131e-01
4.313987493515014648e-02 2.204423695802688599e-01 -3.207989037036895752e-02
4.577525258064270020e-01 1.454169396311044693e-02 6.919121146202087402e-01
2.695054411888122559e-01 -1.744354218244552612e-01 -5.570711493492126465e-01
-9.119258522987365723e-01 1.718206703662872314e-02 2.158625274896621704e-01
4.613314568996429443e-02 2.036008536815643311e-01 3.065786659717559814e-01
1.379486918449401855e-01 -1.872394979000091553e-01 -4.951065182685852051e-01
2.334737032651901245e-02 -2.159041315317153931e-01 -2.602283060550689697e-01
2.362550050020217896e-01 -2.134858220815658569e-01 4.196509718894958496e-01
-5.334013104438781738e-01 2.142485827207565308e-01 3.572229444980621338e-01
-7.386801242828369141e-01 8.344376087188720703e-02 5.605430603027343750e-01
8.498108386993408203e-01 -1.282894760370254517e-01 -3.174200952053070068e-01
-5.197453498840332031e-01 2.410476058721542358e-01 5.750494450330734253e-02
-9.358853101730346680e-01 1.519718319177627563e-01 1.288336217403411865e-01
-8.491349220275878906e-01 1.032366454601287842e-01 4.261159896850585938e-01
-8.177606463432312012e-01 -4.805641993880271912e-02 -8.318762481212615967e-02
4.282768368721008301e-01 9.039785712957382202e-02 5.523805022239685059e-01
4.364282488822937012e-01 3.812270238995552063e-02 -6.631425023078918457e-01
-5.887083411216735840e-01 2.312693893909454346e-01 -1.728090494871139526e-01
-4.405610561370849609e-01 -7.998017221689224243e-02 -5.786650180816650391e-01
1.391848176717758179e-01 2.075961679220199585e-01 -9.292133152484893799e-02
1.638217717409133911e-01 -5.923722684383392334e-02 -7.830404639244079590e-01
1.979143172502517700e-01 -2.069973200559616089e-01 4.525375962257385254e-01
3.393548130989074707e-01 7.580995559692382812e-02 -6.535044312477111816e-01
-5.702400207519531250e-01 -9.455643594264984131e-02 4.359232485294342041e-01
-9.622219204902648926e-01 1.312929093837738037e-01 1.168237924575805664e-01
4.752817749977111816e-01 -2.414516806602478027e-01 -1.144118979573249817e-02
-6.499351263046264648e-01 -3.059588000178337097e-02 -5.114535093307495117e-01
2.962658405303955078e-01 -2.295439094305038452e-01 -2.572459280490875244e-01
-1.495676487684249878e-01 5.936017259955406189e-02 -7.920686006546020508e-01
-5.716282129287719727e-01 2.076869904994964600e-01 -3.732368052005767822e-01
4.600506424903869629e-01 -2.163076400756835938e-01 -3.352469503879547119e-01
6.101052165031433105e-01 -1.852066367864608765e-01 4.491078853607177734e-01
-1.501764208078384399e-01 -5.841073021292686462e-02 7.914417386054992676e-01
-5.893455147743225098e-01 1.897552907466888428e-01 -4.459510445594787598e-01
-2.549101412296295166e-01 -6.495603919029235840e-02 7.510490417480468750e-01
7.629247754812240601e-02 -2.340664863586425781e-01 3.047602809965610504e-02
-8.706283569335937500e-01 9.963424503803253174e-02 -3.740303218364715576e-01
-1.693093478679656982e-01 -1.631054282188415527e-01 -4.711784422397613525e-01
5.862222611904144287e-02 -2.267239987850189209e-01 2.145917862653732300e-01
4.937161803245544434e-01 5.434547737240791321e-02 5.960207581520080566e-01
-8.691523969173431396e-02 9.091470390558242798e-02 7.696366906166076660e-01
-1.791159212589263916e-01 1.343696713447570801e-01 6.925622820854187012e-01
5.006048679351806641e-01 -1.893383115530014038e-01 -4.557458758354187012e-01
2.066954076290130615e-01 -1.101922318339347839e-01 7.509834170341491699e-01
1.719280481338500977e-01 -2.397735565900802612e-01 4.949726164340972900e-02
-2.594137191772460938e-01 2.423549145460128784e-01 -4.037228599190711975e-02
7.263659834861755371e-01 -2.144085913896560669e-01 9.222811460494995117e-02
6.106823086738586426e-01 -1.996072381734848022e-01 3.859337270259857178e-01
8.060026168823242188e-01 -1.962640285491943359e-01 -5.042880401015281677e-02
6.707074046134948730e-01 -2.169746607542037964e-01 1.991224586963653564e-01
6.310694217681884766e-01 9.700127691030502319e-02 -2.103797793388366699e-01
-2.150794565677642822e-01 -9.368341416120529175e-02 7.149600982666015625e-01
-4.338740706443786621e-01 -1.586208492517471313e-01 -1.535898447036743164e-01
-4.851938486099243164e-01 4.258235171437263489e-02 7.351607084274291992e-01
4.140552878379821777e-01 1.556936055421829224e-01 -1.880872398614883423e-01
6.592714786529541016e-01 -2.175399959087371826e-01 2.116639465093612671e-01
-4.503203034400939941e-01 -1.611355543136596680e-01 1.142396498471498489e-02
4.889099299907684326e-02 -2.186759710311889648e-01 -2.533451318740844727e-01
-3.625406622886657715e-01 -1.742772907018661499e-01 1.797634661197662354e-01
4.002642631530761719e-01 1.529176384210586548e-01 -2.555855512619018555e-01
-1.217147111892700195e-01 -7.610017061233520508e-02 -7.410728335380554199e-01
2.873168587684631348e-01 -2.127763479948043823e-01 -3.825328052043914795e-01
-2.053159326314926147e-01 -2.013168483972549438e-01 -9.991867840290069580e-02
2.366870492696762085e-01 -2.245846092700958252e-01 3.396583497524261475e-01
-7.810124158859252930e-01 -3.165157884359359741e-02 3.564387559890747070e-01
-5.863212347030639648e-01 -1.046031415462493896e-01 -3.096497356891632080e-01
-2.262066155672073364e-01 -1.381817311048507690e-01 5.851461887359619141e-01
-5.206151008605957031e-01 2.386955469846725464e-01 1.224185824394226074e-01
4.346008896827697754e-01 -2.402833998203277588e-01 -9.907822310924530029e-02
-6.866726279258728027e-02 2.306572794914245605e-01 -6.734406948089599609e-02
4.032050967216491699e-01 -1.375233680009841919e-01 6.694365739822387695e-01
7.827946543693542480e-02 1.377443224191665649e-01 -6.235774159431457520e-01
-3.713809251785278320e-01 1.362576633691787720e-01 -6.671455502510070801e-01
-7.384828925132751465e-01 1.411004513502120972e-01 4.924015700817108154e-01
-4.257417321205139160e-01 2.444397211074829102e-01 -1.892998069524765015e-02
-1.323253512382507324e-01 -1.211854666471481323e-01 6.828501820564270020e-01
4.107599258422851562e-01 -3.140349173918366432e-03 7.354295253753662109e-01
3.307681679725646973e-01 -1.488827168941497803e-01 -6.262406706809997559e-01
9.412122964859008789e-01 -6.243020296096801758e-02 7.593630254268646240e-02
4.532869458198547363e-01 1.535297334194183350e-01 7.307768799364566803e-03
-8.553866147994995117e-01 3.313351655378937721e-03 3.247631788253784180e-01
-6.685512065887451172e-01 3.842047974467277527e-02 6.194300055503845215e-01
8.793361186981201172e-01 -1.739845424890518188e-02 1.990604996681213379e-01
-6.944296956062316895e-01 -6.552766263484954834e-02 3.732511699199676514e-01
-6.052230000495910645e-01 2.262213528156280518e-01 2.164959907531738281e-01
4.608115553855895996e-01 1.427630484104156494e-01 2.123744487762451172e-01
5.534048080444335938e-01 -2.369175851345062256e-01 -9.970415383577346802e-03
3.914303183555603027e-01 -1.971457302570343018e-01 -4.553662538528442383e-01
-9.214045405387878418e-01 1.673467755317687988e-01 4.179664701223373413e-02
-8.612483143806457520e-01 1.899923682212829590e-01 8.045876026153564453e-02
1.127207279205322266e-01 -2.027035653591156006e-01 -4.084697961807250977e-01
2.601684927940368652e-01 -1.184814646840095520e-01 7.323393821716308594e-01
2.366374880075454712e-01 5.527880787849426270e-02 7.474907040596008301e-01
-3.388793766498565674e-02 -2.245176285505294800e-01 5.016601085662841797e-02
9.022048115730285645e-01 -1.574156880378723145e-01 6.945280730724334717e-02
-7.985793948173522949e-01 3.446120396256446838e-02 -4.505851864814758301e-01
-6.632320284843444824e-01 2.231018841266632080e-01 -1.792442202568054199e-01
3.183448314666748047e-01 -2.418474107980728149e-01 -8.939187228679656982e-02
-1.692350506782531738e-01 -1.185753569006919861e-01 -6.344246268272399902e-01
5.885907411575317383e-01 -2.177104204893112183e-01 -2.515442669391632080e-01
-3.453646302223205566e-01 -1.759417653083801270e-01 -1.526456177234649658e-01
6.896218061447143555e-01 8.762189745903015137e-02 -4.482872784137725830e-02
2.647876143455505371e-01 -2.429977953433990479e-01 6.397325545549392700e-02
7.422417998313903809e-01 -1.931812018156051636e-01 2.783309519290924072e-01
-5.098485350608825684e-01 1.410680711269378662e-01 6.287674903869628906e-01
7.506943941116333008e-01 5.893644317984580994e-02 1.534256786108016968e-01
-1.404654681682586670e-01 8.943229913711547852e-02 -7.628001570701599121e-01
-5.520316585898399353e-02 -2.220761328935623169e-01 -2.057531476020812988e-02
6.535106897354125977e-01 9.656054526567459106e-02 -1.240266412496566772e-01
-6.340418457984924316e-01 -1.055172607302665710e-01 2.389397919178009033e-01
6.071262061595916748e-02 -1.361374855041503906e-01 -6.559135317802429199e-01
8.207467794418334961e-01 -1.573735028505325317e-01 3.169672191143035889e-01
1.004390344023704529e-01 -2.166869193315505981e-01 -3.056082129478454590e-01
9.063723087310791016e-01 -1.072410792112350464e-01 2.506197690963745117e-01
-1.007275730371475220e-01 -1.320039778947830200e-01 -6.238068938255310059e-01
-6.812437772750854492e-01 -7.198096811771392822e-02 3.656364977359771729e-01
-2.795198559761047363e-01 2.375889420509338379e-01 1.766700148582458496e-01
3.124498724937438965e-01 1.238322705030441284e-01 5.322165489196777344e-01
8.047269582748413086e-01 -3.371130675077438354e-02 -4.015539586544036865e-01
1.959904134273529053e-01 -1.694993525743484497e-01 -5.725747942924499512e-01
8.032271265983581543e-01 -1.128647699952125549e-01 4.320735931396484375e-01
4.348793625831604004e-01 1.290756464004516602e-01 3.736875951290130615e-01
2.446787208318710327e-01 -2.009060531854629517e-01 4.903189539909362793e-01
-1.330536007881164551e-01 -5.617877468466758728e-02 7.976889014244079590e-01
6.750967502593994141e-01 6.825309246778488159e-02 3.099248409271240234e-01
4.781396389007568359e-01 -1.267358660697937012e-01 6.622771024703979492e-01
-4.849325120449066162e-02 2.225564271211624146e-01 2.001476585865020752e-01
4.081123471260070801e-01 -1.358560323715209961e-01 -6.385949254035949707e-01
-3.529887199401855469e-01 2.431643456220626831e-01 8.863791823387145996e-02
7.566462755203247070e-01 -1.871022880077362061e-01 2.912991642951965332e-01
-2.767079472541809082e-01 2.083297520875930786e-01 -4.320921897888183594e-01
2.743738293647766113e-01 4.393904283642768860e-02 7.483181953430175781e-01
7.667596340179443359e-01 -2.047095149755477905e-01 -8.236491680145263672e-02
7.707544565200805664e-01 -6.441880483180284500e-03 4.159272611141204834e-01
2.339329570531845093e-01 -1.952129900455474854e-01 5.166035294532775879e-01
-4.481590986251831055e-01 -1.331143826246261597e-01 -3.541581630706787109e-01
-2.765463590621948242e-01 -1.619613319635391235e-01 -3.864608407020568848e-01
6.002741456031799316e-01 8.362353593111038208e-02 3.695398569107055664e-01
-7.495369911193847656e-01 -6.429398804903030396e-02 2.528025209903717041e-01
1.974938437342643738e-03 -1.584897637367248535e-01 6.166405677795410156e-01
4.272718429565429688e-01 -2.179521173238754272e-01 -3.347568511962890625e-01
-3.903432488441467285e-01 2.395734786987304688e-01 1.667113006114959717e-01
9.187442064285278320e-01 -7.273512333631515503e-02 -2.001757174730300903e-01
1.603956222534179688e-01 -2.194617837667465210e-01 -3.105672597885131836e-01
4.448397755622863770e-01 -1.624680310487747192e-01 -5.647745132446289062e-01
-8.937626481056213379e-01 1.470332592725753784e-01 2.749288380146026611e-01
3.555056452751159668e-01 1.263723820447921753e-01 -4.850093126296997070e-01
7.972926497459411621e-01 -6.735035032033920288e-02 -4.384093582630157471e-01
-6.409821510314941406e-01 -3.713516984134912491e-03 6.051282882690429688e-01
6.353113055229187012e-01 -1.635045409202575684e-01 -4.691414833068847656e-01
2.931787371635437012e-01 -2.960031479597091675e-02 -7.721009254455566406e-01
5.686165690422058105e-01 -2.349818348884582520e-01 -4.583134502172470093e-02
5.058519840240478516e-01 -1.835091710090637207e-01 5.132248997688293457e-01
4.550287872552871704e-02 -1.893600523471832275e-01 -4.569475948810577393e-01
-9.979209303855895996e-02 -2.166516482830047607e-01 -4.699707403779029846e-02
-7.609887123107910156e-01 1.830510348081588745e-01 -3.316896557807922363e-01
-4.067226648330688477e-01 2.442108094692230225e-01 -5.366492643952369690e-02
2.127360850572586060e-01 1.796555966138839722e-01 3.205645978450775146e-01
-6.745060682296752930e-01 1.938128024339675903e-01 3.777459859848022461e-01
-2.816127538681030273e-01 2.094191163778305054e-01 4.242756664752960205e-01
-6.628840565681457520e-01 -9.942778199911117554e-02 -1.618732064962387085e-01
8.239663839340209961e-01 -1.850456297397613525e-01 -1.298612505197525024e-01
7.204305529594421387e-01 -2.121464759111404419e-01 -1.163487732410430908e-01
-7.923803925514221191e-01 2.096116542816162109e-01 -3.191751614212989807e-02
-1.639461368322372437e-01 -2.042423933744430542e-01 -1.523286551237106323e-01
-1.679701805114746094e-01 1.491536796092987061e-01 -6.495102643966674805e-01
2.345468252897262573e-01 1.890811473131179810e-01 -1.891876757144927979e-01
