2.732051163911819458e-02 -7.252542674541473389e-02 4.576159268617630005e-02
-9.227133542299270630e-02 -6.531522423028945923e-02 -3.072510659694671631e-02
-2.424250729382038116e-02 -6.542280316352844238e-02 -5.234386771917343140e-02
-4.162694141268730164e-02 -8.488869667053222656e-02 -4.465146735310554504e-02
6.864959746599197388e-02 -7.520915567874908447e-02 2.398517541587352753e-02
-1.300683617591857910e-01 -7.730629295110702515e-02 -4.324844479560852051e-02
2.697654068470001221e-02 -8.634341508150100708e-02 -2.752697095274925232e-03
-6.743821501731872559e-02 -9.219519793987274170e-02 -5.819093436002731323e-03
-1.419427394866943359e-01 -7.838838547468185425e-02 2.926111593842506409e-02
-1.147851869463920593e-01 -6.735837459564208984e-02 2.932354109361767769e-04
-9.176440536975860596e-03 -8.881802111864089966e-02 -1.498931832611560822e-02
-8.474339544773101807e-02 -8.948610723018646240e-02 -2.801054529845714569e-02
-8.030125498771667480e-02 -6.383273005485534668e-02 1.616764697246253490e-03
2.727680653333663940e-02 -8.647634834051132202e-02 1.560432370752096176e-02
-2.496974915266036987e-02 -7.787895947694778442e-02 -5.765766650438308716e-02
1.457873731851577759e-03 -8.782689273357391357e-02 3.278368338942527771e-02
-7.177630811929702759e-02 -8.668027818202972412e-02 5.077818408608436584e-02
-1.029513180255889893e-01 -9.243532270193099976e-02 6.794936954975128174e-03
-8.902847766876220703e-02 -9.129710495471954346e-02 3.183460235595703125e-02
-1.475884616374969482e-01 -8.862894028425216675e-02 3.411746118217706680e-03
5.150400102138519287e-04 -6.067011505365371704e-02 7.722367299720644951e-04
-1.058292090892791748e-01 -7.237509638071060181e-02 3.603670001029968262e-02
-1.725135743618011475e-02 -8.585733920335769653e-02 -3.600889444351196289e-02
6.652029603719711304e-02 -6.480257958173751831e-02 -8.491297252476215363e-03
-6.460092961788177490e-03 -6.632682681083679199e-02 3.693726658821105957e-02
-7.042763382196426392e-02 -9.063377231359481812e-02 -2.108303457498550415e-02
1.684818416833877563e-03 -7.826740294694900513e-02 5.428006127476692200e-02
1.498323678970336914e-02 -6.048621237277984619e-02 -9.145673364400863647e-03
-9.503386914730072021e-02 -8.763615041971206665e-02 4.555493220686912537e-02
-1.109440922737121582e-01 -6.784671545028686523e-02 -3.227380663156509399e-02
-2.523664571344852448e-02 -8.898731321096420288e-02 -2.199746109545230865e-02
-8.973166346549987793e-02 -7.724192738533020020e-02 -5.640720203518867493e-02
-1.696240156888961792e-03 -8.955918252468109131e-02 1.448954548686742783e-02
-8.378744125366210938e-03 -8.209453523159027100e-02 -4.638433456420898438e-02
-8.191634714603424072e-02 -6.999483704566955566e-02 3.799889609217643738e-02
-6.399609148502349854e-02 -6.300677359104156494e-02 6.216934882104396820e-03
2.871772646903991699e-02 -6.134293973445892334e-02 -2.272855862975120544e-02
-1.316747367382049561e-01 -7.088121026754379272e-02 1.021529734134674072e-02
1.340195536613464355e-03 -6.042870134115219116e-02 -2.131226658821105957e-02
-7.918291538953781128e-02 -6.491821259260177612e-02 -3.757856413722038269e-02
3.459958732128143311e-02 -7.692878693342208862e-02 -4.299085587263107300e-02
-4.527884721755981445e-02 -9.219769388437271118e-02 1.082260347902774811e-02
-2.796762436628341675e-02 -9.038259834051132202e-02 3.030479699373245239e-02
-8.775361627340316772e-02 -1.142985224723815918e-01 1.066123694181442261e-02
-5.683974176645278931e-02 -8.930479735136032104e-02 -2.843305468559265137e-03
-2.473868988454341888e-02 -1.232206523418426514e-01 1.203454434871673584e-01
9.008452296257019043e-02 -1.700938642024993896e-01 -8.072532713413238525e-02
1.922389678657054901e-02 -7.948252558708190918e-02 7.315322756767272949e-02
-2.188138850033283234e-02 -1.859605014324188232e-01 -1.269573420286178589e-01
-6.755242124199867249e-03 -1.454100310802459717e-01 1.066605895757675171e-01
-5.203261971473693848e-04 -8.885705471038818359e-02 -2.480395585298538208e-01
6.835520267486572266e-03 -8.819045126438140869e-02 9.622646868228912354e-02
4.040856659412384033e-02 -6.473620980978012085e-02 -2.301653474569320679e-02
-2.324180118739604950e-02 -1.273220032453536987e-01 -3.091278076171875000e-01
6.675168126821517944e-02 -6.492897868156433105e-02 -1.937756687402725220e-02
6.799130886793136597e-02 -1.602511852979660034e-01 -2.934052348136901855e-01
9.320706129074096680e-02 -1.280373185873031616e-01 8.311384916305541992e-02
7.660512626171112061e-02 -7.446940243244171143e-02 -2.127655446529388428e-01
-4.478646442294120789e-03 -1.743854582309722900e-01 1.346454769372940063e-02
1.497187316417694092e-01 -8.939946442842483521e-02 -1.609538495540618896e-01
-5.786437541246414185e-04 -1.523230075836181641e-01 9.324201941490173340e-02
-7.413088530302047729e-02 -1.713433265686035156e-01 -1.710078716278076172e-01
4.680970311164855957e-02 -9.538991004228591919e-02 -2.943893074989318848e-01
1.739186421036720276e-02 -6.880058348178863525e-02 -1.427622735500335693e-01
1.116480603814125061e-01 -8.429576456546783447e-02 3.937208652496337891e-02
-6.465018540620803833e-02 -9.069311618804931641e-02 -3.844315558671951294e-02
3.874825313687324524e-03 -1.282788515090942383e-01 1.282091289758682251e-01
1.066736802458763123e-01 -1.584791392087936401e-01 -3.496416658163070679e-02
-2.471559308469295502e-02 -1.473185867071151733e-01 -3.088924288749694824e-01
-2.011563628911972046e-03 -1.606942713260650635e-01 7.039797306060791016e-02
5.749198794364929199e-02 -6.716728210449218750e-02 9.047180414199829102e-03
6.631463766098022461e-02 -7.252228260040283203e-02 -2.034960985183715820e-01
-1.579510234296321869e-02 -7.740896940231323242e-02 2.488629519939422607e-02
1.063274592161178589e-01 -1.010487079620361328e-01 -2.850310802459716797e-01
6.125611811876296997e-02 -1.235531419515609741e-01 1.164937615394592285e-01
-1.502729766070842743e-02 -7.227958738803863525e-02 -3.981339186429977417e-02
1.130918115377426147e-01 -8.933347463607788086e-02 -2.486817538738250732e-01
1.976370066404342651e-02 -1.839098185300827026e-01 -1.947294771671295166e-01
1.222385168075561523e-01 -1.504084169864654541e-01 -3.572934865951538086e-02
1.322985440492630005e-01 -1.240534856915473938e-01 2.194081246852874756e-02
-9.756050258874893188e-02 -1.361184567213058472e-01 -1.717535704374313354e-01
6.909958273172378540e-02 -6.406927108764648438e-02 -3.543197363615036011e-02
4.452882707118988037e-02 -1.810348033905029297e-01 -1.989408135414123535e-01
-1.051566079258918762e-01 -1.298201680183410645e-01 -1.073395684361457825e-01
1.088325381278991699e-01 -9.079807251691818237e-02 5.896671116352081299e-02
-1.208120770752429962e-02 -8.041908591985702515e-02 -1.904008984565734863e-01
7.187351584434509277e-03 -1.836750805377960205e-01 -2.032437622547149658e-01
7.195858657360076904e-02 -1.775649040937423706e-01 -1.523717939853668213e-01
6.893806159496307373e-03 -1.863945722579956055e-01 -1.528848558664321899e-01
6.322401016950607300e-02 -8.068219572305679321e-02 -2.462536692619323730e-01
-8.301670104265213013e-02 -1.014265120029449463e-01 -6.626673042774200439e-02
-2.079826407134532928e-02 -1.700999587774276733e-01 -2.702042162418365479e-01
4.967563971877098083e-02 -9.087841212749481201e-02 1.062205135822296143e-01
-1.596957445144653320e-03 -9.963081777095794678e-02 1.160672903060913086e-01
-1.515443064272403717e-02 -1.629349142313003540e-01 -2.939188182353973389e-01
-6.740044802427291870e-02 -1.235469281673431396e-01 -2.430340647697448730e-01
9.873887151479721069e-02 -6.718240678310394287e-02 -4.271801561117172241e-02
-5.556673556566238403e-02 -1.643689572811126709e-01 2.870687842369079590e-02
5.827141925692558289e-02 -1.776141226291656494e-01 -2.115325331687927246e-01
9.132219851016998291e-02 -9.896919876337051392e-02 9.102554619312286377e-02
-6.538221240043640137e-02 -1.761781871318817139e-01 -1.608277261257171631e-01
1.242898255586624146e-01 -8.778871595859527588e-02 -2.272931486368179321e-01
1.428048219531774521e-02 -7.564317435026168823e-02 5.237428843975067139e-02
3.508419170975685120e-02 -1.814122200012207031e-01 -6.374893337488174438e-02
-6.318362057209014893e-02 -1.744173169136047363e-01 -4.080673307180404663e-02
7.895705103874206543e-02 -9.399043768644332886e-02 -2.871218323707580566e-01
4.398706927895545959e-02 -1.670058220624923706e-01 2.776394784450531006e-02
7.428549230098724365e-02 -8.860449492931365967e-02 -2.733972370624542236e-01
8.505555987358093262e-02 -1.736605763435363770e-01 -1.654191464185714722e-01
5.917938426136970520e-02 -1.463571935892105103e-01 -3.268233537673950195e-01
8.214797824621200562e-02 -6.591948866844177246e-02 -1.370761841535568237e-01
-4.051661118865013123e-03 -7.757398486137390137e-02 4.500141739845275879e-02
-2.096059732139110565e-02 -1.806784719228744507e-01 -3.304781764745712280e-02
4.870348423719406128e-02 -1.760824322700500488e-01 -3.270487487316131592e-02
-3.002328611910343170e-02 -1.217902153730392456e-01 -2.969741523265838623e-01
-1.833017356693744659e-02 -7.376275956630706787e-02 -2.413375675678253174e-02
-5.033458769321441650e-02 -9.955283254384994507e-02 6.658577919006347656e-02
1.575313210487365723e-01 -1.058184504508972168e-01 -4.937077686190605164e-02
2.621189132332801819e-02 -1.835982650518417358e-01 -7.951693981885910034e-02
-1.974253542721271515e-02 -8.861101418733596802e-02 7.623718678951263428e-02
6.093088537454605103e-02 -1.785708665847778320e-01 -1.923627406358718872e-01
-6.177581846714019775e-02 -1.496537029743194580e-01 6.317998468875885010e-02
4.469124227762222290e-02 -1.706380099058151245e-01 8.612751960754394531e-03
-3.386365249752998352e-03 -1.827087998390197754e-01 -4.773478209972381592e-02
-6.605026125907897949e-02 -1.645906567573547363e-01 -2.267949134111404419e-01
4.948894679546356201e-02 -6.579336524009704590e-02 -1.432433724403381348e-01
4.519406706094741821e-02 -1.830093413591384888e-01 -1.479657739400863647e-01
3.441609442234039307e-04 -1.792554408311843872e-01 -1.795829832553863525e-02
1.393170803785324097e-01 -1.178612709045410156e-01 1.227319985628128052e-02
1.528234779834747314e-01 -1.364882439374923706e-01 -1.302274912595748901e-01
1.316690444946289062e-01 -1.346534639596939087e-01 4.241466522216796875e-04
1.447007991373538971e-02 -9.478376805782318115e-02 1.136990934610366821e-01
5.511528998613357544e-02 -1.811725050210952759e-01 -1.572882235050201416e-01
4.991222172975540161e-02 -1.821336597204208374e-01 -1.239119395613670349e-01
1.437037140130996704e-01 -8.172102272510528564e-02 -8.100152015686035156e-02
-1.257012225687503815e-02 -1.835443675518035889e-01 -1.985392719507217407e-01
6.630280613899230957e-02 -1.360532790422439575e-01 9.856459498405456543e-02
2.622587420046329498e-02 -1.008526086807250977e-01 1.238431781530380249e-01
1.198099553585052490e-01 -1.393207907676696777e-01 -2.748378515243530273e-01
3.135722503066062927e-02 -1.848757863044738770e-01 -1.428171098232269287e-01
1.611949652433395386e-01 -1.222083494067192078e-01 -1.532725095748901367e-01
1.496726423501968384e-01 -1.129550486803054810e-01 -1.547571271657943726e-02
-7.880194485187530518e-02 -1.720772981643676758e-01 -1.341286599636077881e-01
1.545263379812240601e-01 -9.465148299932479858e-02 -5.667035654187202454e-02
1.566332876682281494e-01 -1.213609874248504639e-01 -5.884181708097457886e-02
-1.029475554823875427e-01 -1.371962130069732666e-01 -1.436344981193542480e-01
-5.176920443773269653e-02 -8.584733307361602783e-02 -1.521486043930053711e-02
1.001779735088348389e-01 -1.681612730026245117e-01 -1.091728135943412781e-01
9.058529138565063477e-02 -7.268896698951721191e-02 -1.932196617126464844e-01
4.664690047502517700e-02 -1.788713037967681885e-01 -5.510766804218292236e-02
-6.241527944803237915e-02 -1.783594489097595215e-01 -1.408803910017013550e-01
-1.971935853362083435e-03 -8.028616011142730713e-02 -2.054863423109054565e-01
-2.165999263525009155e-03 -7.010086625814437866e-02 -2.244590222835540771e-02
-5.031952634453773499e-03 -9.415379166603088379e-02 -2.625682950019836426e-01
1.185479164123535156e-01 -7.722575962543487549e-02 -2.814821898937225342e-03
9.697572886943817139e-02 -1.573187559843063354e-01 -2.662435173988342285e-01
7.260321825742721558e-02 -6.710707396268844604e-02 5.771741271018981934e-04
-8.920998126268386841e-02 -1.292788237333297729e-01 3.009735047817230225e-02
-9.284666180610656738e-02 -1.472988575696945190e-01 4.714660346508026123e-03
-4.088057205080986023e-03 -7.051618397235870361e-02 -1.099094226956367493e-01
8.608134090900421143e-02 -1.735875606536865234e-01 -1.293349713087081909e-01
2.959726750850677490e-02 -1.818432509899139404e-01 -2.107286900281906128e-01
-9.774157777428627014e-03 -1.676233559846878052e-01 4.504948854446411133e-02
-7.097737863659858704e-03 -1.811533123254776001e-01 -3.294456750154495239e-02
4.436624050140380859e-02 -1.209220066666603088e-01 -3.346047103404998779e-01
-8.349273353815078735e-02 -1.411579102277755737e-01 -2.207954525947570801e-01
-3.232623636722564697e-02 -1.145334094762802124e-01 -2.835278213024139404e-01
4.114604741334915161e-02 -1.754726767539978027e-01 -1.786447316408157349e-02
-8.200569078326225281e-03 -1.866003572940826416e-01 -1.223683804273605347e-01
-6.506701558828353882e-02 -1.150190085172653198e-01 7.233662903308868408e-02
-4.403306543827056885e-02 -1.465481668710708618e-01 8.719927072525024414e-02
-7.055988162755966187e-02 -1.627086400985717773e-01 1.197417080402374268e-02
3.981348872184753418e-02 -1.609304696321487427e-01 5.593018233776092529e-02
1.083039641380310059e-01 -1.472351849079132080e-01 -2.782852053642272949e-01
-6.962622702121734619e-02 -1.060061305761337280e-01 4.394160211086273193e-02
8.936993032693862915e-02 -1.309777945280075073e-01 -3.206664919853210449e-01
2.290040254592895508e-02 -1.144713684916496277e-01 -3.245458006858825684e-01
4.679159075021743774e-02 -1.811046004295349121e-01 -8.428540825843811035e-02
2.034919150173664093e-02 -1.033874228596687317e-01 -3.050329387187957764e-01
-4.607357829809188843e-02 -8.233278989791870117e-02 -3.493730723857879639e-02
2.733128145337104797e-03 -7.593586295843124390e-02 -1.840940117835998535e-01
-3.453617542982101440e-02 -8.672318607568740845e-02 -1.843476146459579468e-01
1.473096292465925217e-02 -1.706782728433609009e-01 2.886013686656951904e-02
-1.996701024472713470e-02 -1.829040497541427612e-01 -5.460654199123382568e-02
1.338252574205398560e-01 -7.633800804615020752e-02 -1.119656860828399658e-01
-3.288789838552474976e-02 -1.830027103424072266e-01 -1.781144738197326660e-01
8.339185267686843872e-03 -6.893639266490936279e-02 -1.247273832559585571e-01
-4.443953186273574829e-02 -8.281488716602325439e-02 -1.153222173452377319e-01
6.048604846000671387e-03 -1.235916689038276672e-01 -3.268680572509765625e-01
7.004904747009277344e-02 -6.989689171314239502e-02 -1.843539625406265259e-01
1.948300562798976898e-02 -6.540365517139434814e-02 -6.887955963611602783e-02
3.505046293139457703e-02 -6.989791244268417358e-02 -1.750669777393341064e-01
-2.298679761588573456e-02 -1.850412189960479736e-01 -1.642336547374725342e-01
1.145078539848327637e-01 -1.491691470146179199e-01 -2.608197331428527832e-01
-1.806307025253772736e-02 -8.448521792888641357e-02 6.208850443363189697e-02
4.668963700532913208e-02 -7.153585553169250488e-02 -1.943639516830444336e-01
1.338682621717453003e-01 -8.092205226421356201e-02 -1.698725968599319458e-01
-8.310072124004364014e-02 -1.036311537027359009e-01 -2.326208353042602539e-02
7.697524875402450562e-02 -1.106522679328918457e-01 1.094734817743301392e-01
-8.876726031303405762e-02 -1.654280722141265869e-01 -1.418663114309310913e-01
-7.914305478334426880e-02 -1.168207526206970215e-01 -1.997981369495391846e-01
4.982119426131248474e-02 -1.102016717195510864e-01 1.253946870565414429e-01
5.109603703022003174e-02 -6.730061769485473633e-02 -1.608844399452209473e-01
-4.967626184225082397e-02 -1.811718940734863281e-01 -1.558747142553329468e-01
1.525594200938940048e-02 -1.787578612565994263e-01 -1.944399625062942505e-02
-3.133671730756759644e-02 -1.705712527036666870e-01 -2.593225538730621338e-01
1.022920459508895874e-01 -9.217192977666854858e-02 -2.681816816329956055e-01
6.081333011388778687e-02 -1.437230706214904785e-01 8.870099484920501709e-02
-8.303695917129516602e-02 -1.473824977874755859e-01 3.124934434890747070e-02
-6.884974241256713867e-02 -1.354072391986846924e-01 -2.523313760757446289e-01
8.411950618028640747e-02 -6.692431867122650146e-02 -1.417877525091171265e-02
-4.118504375219345093e-02 -8.314379304647445679e-02 -1.354013085365295410e-01
1.385438740253448486e-01 -1.455017924308776855e-01 -1.958771944046020508e-01
-1.032295748591423035e-01 -1.292833238840103149e-01 -1.264571249485015869e-01
-1.482714526355266571e-02 -1.851266771554946899e-01 -8.264923095703125000e-02
1.321467757225036621e-02 -8.664797991514205933e-02 -2.518168091773986816e-01
1.279986053705215454e-01 -8.078734576702117920e-02 -1.861988604068756104e-01
-2.673948742449283600e-02 -8.629538118839263916e-02 -1.986120045185089111e-01
-9.413212537765502930e-02 -1.339111030101776123e-01 1.516763865947723389e-02
-1.058978363871574402e-01 -1.448530256748199463e-01 -6.433296203613281250e-02
-8.171186596155166626e-02 -1.135378330945968628e-01 -1.808046698570251465e-01
1.085874140262603760e-01 -6.855036318302154541e-02 -1.154873296618461609e-01
-3.644104301929473877e-02 -1.835508644580841064e-01 -1.598922908306121826e-01
3.856977075338363647e-02 -1.648089289665222168e-01 4.181849956512451172e-02
1.359901390969753265e-02 -1.663766652345657349e-01 -2.957414388656616211e-01
7.435187697410583496e-03 -1.673941910266876221e-01 4.545935988426208496e-02
1.100048981606960297e-02 -1.583681255578994751e-01 7.647252082824707031e-02
-3.043738566339015961e-02 -1.656237840652465820e-01 4.589109122753143311e-02
-1.995064876973628998e-02 -1.049411371350288391e-01 -2.776505053043365479e-01
7.893081754446029663e-02 -7.054012268781661987e-02 2.145891636610031128e-02
-2.709491364657878876e-02 -1.417386680841445923e-01 1.056341975927352905e-01
8.945430070161819458e-02 -1.679063737392425537e-01 -2.243163585662841797e-01
6.902126222848892212e-02 -6.674854457378387451e-02 -1.561016142368316650e-01
1.478726714849472046e-01 -1.344256848096847534e-01 -5.920362472534179688e-02
5.312597751617431641e-02 -6.361128389835357666e-02 -1.083719506859779358e-01
-2.466108836233615875e-02 -1.780887097120285034e-01 -2.312056422233581543e-01
1.291253603994846344e-02 -1.525348573923110962e-01 -3.235266804695129395e-01
7.385631650686264038e-02 -7.713583856821060181e-02 -2.280318886041641235e-01
4.345188289880752563e-02 -6.827203929424285889e-02 1.858409494161605835e-02
-8.284664154052734375e-02 -1.706146746873855591e-01 -1.037473455071449280e-01
6.861513108015060425e-02 -6.534814834594726562e-02 -1.392640024423599243e-01
1.315291970968246460e-03 -7.052950561046600342e-02 -5.268432199954986572e-03
7.922956347465515137e-02 -1.644889414310455322e-01 -2.648895382881164551e-01
1.284895092248916626e-01 -1.520534008741378784e-01 -7.435537129640579224e-02
1.319753937423229218e-02 -6.739656627178192139e-02 -1.118344962596893311e-01
1.171156950294971466e-02 -8.041761815547943115e-02 -2.223444879055023193e-01
4.073065146803855896e-02 -1.543343216180801392e-01 -3.210834860801696777e-01
3.742541372776031494e-02 -1.629343330860137939e-01 -3.031165599822998047e-01
-4.500376060605049133e-03 -7.002456486225128174e-02 -9.627465903759002686e-02
5.949588492512702942e-02 -1.759205460548400879e-01 -5.092995986342430115e-02
-8.099363744258880615e-02 -1.002266779541969299e-01 -5.116651952266693115e-02
-4.014736413955688477e-02 -8.540172874927520752e-02 2.518740296363830566e-02
3.730209171772003174e-02 -1.351876109838485718e-01 -3.384917378425598145e-01
8.177680894732475281e-03 -1.843597888946533203e-01 -7.117390632629394531e-02
4.945055395364761353e-02 -6.305315345525741577e-02 -6.192604824900627136e-02
5.011236667633056641e-02 -1.106605082750320435e-01 -3.240402042865753174e-01
3.779079765081405640e-02 -6.561871618032455444e-02 -1.311624348163604736e-01
-6.680877506732940674e-02 -9.642660617828369141e-02 1.024077832698822021e-02
-4.012578725814819336e-02 -1.548223793506622314e-01 -2.865485548973083496e-01
-1.079730875790119171e-02 -1.128111109137535095e-01 1.252318173646926880e-01
-3.586281836032867432e-02 -1.784966140985488892e-01 -2.681654691696166992e-02
4.365238919854164124e-02 -7.778496295213699341e-02 7.131661474704742432e-02
1.574379354715347290e-01 -9.398210793733596802e-02 -8.757810294628143311e-02
-3.996882587671279907e-04 -1.846807897090911865e-01 -1.906447708606719971e-01
3.058506175875663757e-02 -1.297493129968643188e-01 1.251247674226760864e-01
-5.562586337327957153e-02 -1.806320548057556152e-01 -1.278598010540008545e-01
1.214521005749702454e-03 -1.768778413534164429e-01 -2.530028522014617920e-01
4.816140234470367432e-02 -1.774135679006576538e-01 -2.302542477846145630e-01
-1.794016174972057343e-02 -1.814649701118469238e-01 -2.138135284185409546e-01
5.173163115978240967e-02 -8.450720459222793579e-02 9.155485033988952637e-02
-6.126967072486877441e-02 -9.624043107032775879e-02 2.857051789760589600e-02
3.535526990890502930e-02 -1.551298499107360840e-01 7.730893790721893311e-02
1.342279613018035889e-01 -9.509851783514022827e-02 -2.327421754598617554e-01
1.228382885456085205e-01 -1.586053520441055298e-01 -1.527999043464660645e-01
1.139638647437095642e-01 -1.178616359829902649e-01 -2.962024807929992676e-01
3.999798744916915894e-02 -6.377111375331878662e-02 -9.524090588092803955e-02
-4.049483686685562134e-02 -9.375381469726562500e-02 -2.091247886419296265e-01
-7.472544908523559570e-02 -1.667595803737640381e-01 -1.967130601406097412e-01
-8.104877173900604248e-02 -1.205523386597633362e-01 4.519031941890716553e-02
1.527476608753204346e-01 -1.028300747275352478e-01 -2.887732535600662231e-02
8.704817295074462891e-02 -1.472606062889099121e-01 -3.062445223331451416e-01
1.365189850330352783e-01 -9.598336368799209595e-02 1.463694870471954346e-02
-7.436300814151763916e-02 -1.216660812497138977e-01 6.161174178123474121e-02
1.246028393507003784e-01 -7.422038912773132324e-02 -4.688625410199165344e-02
2.407192625105381012e-02 -6.604906171560287476e-02 -2.273499965667724609e-02
1.224250644445419312e-01 -1.435014307498931885e-01 -4.079110920429229736e-03
1.326285451650619507e-01 -1.434203386306762695e-01 -2.323252707719802856e-01
-1.060551963746547699e-02 -9.329456090927124023e-02 9.841318428516387939e-02
-8.237411826848983765e-02 -1.633992195129394531e-01 -2.026427537202835083e-02
1.076040938496589661e-01 -1.623665988445281982e-01 -2.102882415056228638e-01
-2.164658345282077789e-02 -1.058903932571411133e-01 1.128213107585906982e-01
1.387526243925094604e-01 -1.239027902483940125e-01 -2.537804841995239258e-01
-1.685719005763530731e-02 -7.483921200037002563e-02 -1.296868622303009033e-01
6.813549250364303589e-02 -8.322763442993164062e-02 8.149425685405731201e-02
1.066199690103530884e-01 -1.609521806240081787e-01 -2.249997109174728394e-01
-5.937713384628295898e-02 -9.145636856555938721e-02 -1.389181911945343018e-01
1.442032605409622192e-01 -9.168730676174163818e-02 -1.795734465122222900e-02
1.134553775191307068e-01 -1.345592290163040161e-01 -2.921387255191802979e-01
8.031311631202697754e-02 -1.171503290534019470e-01 -3.234086632728576660e-01
1.524120569229125977e-01 -8.796359598636627197e-02 -1.201470494270324707e-01
3.548421338200569153e-02 -1.088547110557556152e-01 -3.199755847454071045e-01
-4.934705048799514771e-02 -1.722959876060485840e-01 -9.038001298904418945e-04
-3.216479718685150146e-02 -8.108703792095184326e-02 -1.476732045412063599e-01
7.951706647872924805e-02 -1.704269796609878540e-01 -4.838964715600013733e-02
-3.255926072597503662e-02 -1.552927494049072266e-01 7.675673067569732666e-02
-1.009045317769050598e-01 -1.560433208942413330e-01 -1.069159656763076782e-01
1.311933845281600952e-01 -1.392700076103210449e-01 -2.495294958353042603e-01
1.206991672515869141e-01 -1.579669862985610962e-01 -9.098594635725021362e-02
3.211035951972007751e-02 -7.364942133426666260e-02 5.097410082817077637e-02
8.662706613540649414e-02 -7.931535691022872925e-02 -2.330156415700912476e-01
-7.834544777870178223e-02 -1.548572331666946411e-01 -2.222490012645721436e-01
7.169449329376220703e-02 -1.683887839317321777e-01 -1.591146737337112427e-02
1.329182237386703491e-01 -1.026754379272460938e-01 -2.524423897266387939e-01
-1.821100898087024689e-02 -1.856683343648910522e-01 -9.830308705568313599e-02
-5.544742196798324585e-02 -1.100743487477302551e-01 -2.380721718072891235e-01
-2.415002323687076569e-02 -1.735729724168777466e-01 1.330775022506713867e-02
1.277777701616287231e-01 -7.648505270481109619e-02 -1.530201882123947144e-01
-2.052967809140682220e-02 -7.356667518615722656e-02 -8.364126831293106079e-02
-1.752490736544132233e-02 -8.106543868780136108e-02 4.580618441104888916e-02
1.062510907649993896e-01 -1.302859187126159668e-01 -3.047901391983032227e-01
1.898135058581829071e-02 -1.806664466857910156e-01 -3.761110454797744751e-02
-3.274443000555038452e-02 -9.336722642183303833e-02 -2.222608327865600586e-01
2.025777101516723633e-02 -6.849783658981323242e-02 4.912212491035461426e-03
-4.132951796054840088e-02 -9.031940996646881104e-02 4.972627758979797363e-02
5.253531038761138916e-03 -1.081177443265914917e-01 -3.061145842075347900e-01
7.309120148420333862e-02 -1.407708823680877686e-01 8.390238881111145020e-02
-4.599002003669738770e-02 -1.820147633552551270e-01 -8.672178536653518677e-02
3.350312262773513794e-02 -8.447283506393432617e-02 -2.557967901229858398e-01
1.625582873821258545e-01 -1.143314689397811890e-01 -8.911620825529098511e-02
9.286449104547500610e-02 -1.551481038331985474e-01 1.457745581865310669e-02
1.596635878086090088e-01 -9.818486869335174561e-02 -1.434971988201141357e-01
8.215558528900146484e-02 -1.715556383132934570e-01 -6.751085817813873291e-02
-3.728292137384414673e-02 -7.953487336635589600e-02 -2.467588335275650024e-02
2.363247238099575043e-02 -1.598189920186996460e-01 -3.124776184558868408e-01
7.595119625329971313e-02 -1.445838510990142822e-01 -3.196749091148376465e-01
-4.655413329601287842e-02 -1.787376850843429565e-01 -1.944106668233871460e-01
5.622800439596176147e-03 -1.859949231147766113e-01 -9.990769624710083008e-02
-4.364348948001861572e-02 -1.005215793848037720e-01 8.004033565521240234e-02
1.435339152812957764e-01 -8.344042301177978516e-02 -1.475588679313659668e-01
-4.823169112205505371e-02 -1.749456971883773804e-01 -2.172876894474029541e-01
1.057630032300949097e-01 -1.002338603138923645e-01 7.545018196105957031e-02
1.096752583980560303e-01 -6.912104785442352295e-02 -5.177024379372596741e-02
1.178844273090362549e-02 -6.693056225776672363e-02 -3.940201550722122192e-02
2.493925765156745911e-02 -1.782048642635345459e-01 -2.436127960681915283e-01
1.076056510210037231e-01 -7.119496166706085205e-02 -1.879154145717620850e-02
7.202988862991333008e-02 -1.711561679840087891e-01 -3.635713458061218262e-02
-6.434692442417144775e-02 -1.130430400371551514e-01 -2.275217473506927490e-01
6.154243648052215576e-02 -1.787490248680114746e-01 -9.304844588041305542e-02
-1.058538034558296204e-01 -1.449208110570907593e-01 -1.126761361956596375e-01
1.461723819375038147e-02 -1.763619333505630493e-01 -2.504162490367889404e-03
3.110107965767383575e-02 -9.132291376590728760e-02 -2.787225842475891113e-01
2.850125171244144440e-02 -1.848092079162597656e-01 -1.110870093107223511e-01
-3.885682672262191772e-02 -8.210270851850509644e-02 2.016745507717132568e-03
-1.027418151497840881e-01 -1.222230792045593262e-01 -7.590985298156738281e-02
5.746386200189590454e-02 -7.694876194000244141e-02 6.555256247520446777e-02
3.113710880279541016e-02 -1.752831935882568359e-01 -6.436586380004882812e-03
7.107674330472946167e-02 -1.741393655538558960e-01 -2.175307571887969971e-01
-8.632050454616546631e-02 -1.060768887400627136e-01 -1.143166571855545044e-01
-7.057322561740875244e-02 -9.357102960348129272e-02 -8.237858116626739502e-02
1.233072951436042786e-01 -9.736216068267822266e-02 4.520937800407409668e-02
-7.238326966762542725e-02 -1.548311710357666016e-01 -2.361149936914443970e-01
9.073769301176071167e-02 -9.218549728393554688e-02 -2.766290307044982910e-01
2.784299477934837341e-02 -7.053677737712860107e-02 2.955806255340576172e-02
1.180371940135955811e-01 -1.006157472729682922e-01 5.762599408626556396e-02
-8.445447683334350586e-02 -1.686614155769348145e-01 -7.339470088481903076e-02
5.840081721544265747e-04 -1.007145196199417114e-01 -2.866138815879821777e-01
1.159236729145050049e-01 -6.986619532108306885e-02 -9.813204407691955566e-02
-5.966464057564735413e-03 -1.224501878023147583e-01 -3.187598586082458496e-01
3.568461909890174866e-02 -8.738719671964645386e-02 1.009253859519958496e-01
9.484615921974182129e-02 -6.961171329021453857e-02 -1.639007329940795898e-01
7.884396612644195557e-02 -1.593041121959686279e-01 2.031590044498443604e-02
1.004192158579826355e-01 -1.081345900893211365e-01 -3.013440072536468506e-01
-1.787956617772579193e-02 -1.142834275960922241e-01 -2.986457943916320801e-01
1.635261774063110352e-01 -1.172297522425651550e-01 -1.220635548233985901e-01
1.493336111307144165e-01 -1.295446306467056274e-01 -2.128087878227233887e-01
8.076724410057067871e-02 -1.304826885461807251e-01 9.364640712738037109e-02
1.465415209531784058e-01 -8.749710023403167725e-02 -4.525045678019523621e-02
4.611225426197052002e-02 -8.675267547369003296e-02 -2.683456540107727051e-01
9.744397550821304321e-02 -6.758697330951690674e-02 -1.356481611728668213e-01
9.097605198621749878e-02 -1.119499504566192627e-01 -3.127065300941467285e-01
-5.955151468515396118e-02 -1.441287994384765625e-01 7.549600303173065186e-02
-9.626626968383789062e-02 -1.595059335231781006e-01 -6.347705423831939697e-02
-1.012582145631313324e-02 -1.539646089076995850e-01 -3.125706911087036133e-01
-8.880259096622467041e-02 -1.410236507654190063e-01 -2.056219279766082764e-01
1.156590357422828674e-01 -1.279605329036712646e-01 5.008880794048309326e-02
1.385650783777236938e-01 -8.331548422574996948e-02 -3.190234303474426270e-02
-7.675984874367713928e-03 -1.865807175636291504e-01 -1.425078809261322021e-01
1.192643567919731140e-01 -1.602575778961181641e-01 -1.209033131599426270e-01
-5.950167775154113770e-02 -9.675733745098114014e-02 -1.762523353099822998e-01
-3.527779877185821533e-02 -1.844595521688461304e-01 -1.363736689090728760e-01
-1.826832257211208344e-02 -1.716639548540115356e-01 2.532054483890533447e-02
6.781511753797531128e-02 -6.349268555641174316e-02 -1.044160053133964539e-01
-3.275453299283981323e-02 -1.086026430130004883e-01 -2.708503603935241699e-01
6.600837409496307373e-02 -1.545614153146743774e-01 -3.095386028289794922e-01
5.115661025047302246e-02 -6.348530948162078857e-02 -4.201299697160720825e-02
-2.490229718387126923e-02 -7.458384335041046143e-02 -6.793026626110076904e-02
-5.927654355764389038e-02 -1.370011866092681885e-01 -2.699041664600372314e-01
-7.169751077890396118e-02 -9.548550844192504883e-02 -2.502070367336273193e-02
-2.632387541234493256e-02 -1.776481717824935913e-01 -1.266615092754364014e-02
1.467072665691375732e-01 -1.292118430137634277e-01 -3.338301181793212891e-02
-3.156000748276710510e-03 -1.342835724353790283e-01 -3.270180225372314453e-01
5.517936497926712036e-02 -6.306238472461700439e-02 -9.145447611808776855e-02
1.191477477550506592e-01 -1.551666408777236938e-01 -5.552261322736740112e-02
2.102372422814369202e-02 -8.823998272418975830e-02 -2.632986903190612793e-01
1.571687161922454834e-01 -1.245362088084220886e-01 -7.263473421335220337e-02
9.289175271987915039e-02 -6.526744365692138672e-02 -6.814126670360565186e-02
1.603157967329025269e-01 -1.081557795405387878e-01 -1.731255501508712769e-01
2.325561828911304474e-02 -1.847036629915237427e-01 -9.461009502410888672e-02
-3.157568722963333130e-02 -8.871368318796157837e-02 6.039904057979583740e-02
1.427173018455505371e-01 -1.458863317966461182e-01 -1.433534920215606689e-01
-6.775559484958648682e-02 -9.270334243774414062e-02 -1.001539379358291626e-01
-9.637590497732162476e-02 -1.142528504133224487e-01 -9.641220420598983765e-02
-4.020754247903823853e-02 -1.069929525256156921e-01 -2.562521100044250488e-01
9.109375625848770142e-02 -1.630986928939819336e-01 -2.284857630729675293e-02
-9.593637287616729736e-02 -1.608582139015197754e-01 -1.222350671887397766e-01
1.336084008216857910e-01 -1.205497235059738159e-01 -2.661412656307220459e-01
5.827123671770095825e-02 -7.355380803346633911e-02 5.035695433616638184e-02
-7.285816967487335205e-02 -1.452684849500656128e-01 5.476270616054534912e-02
1.287530362606048584e-01 -1.430153548717498779e-01 -2.052670717239379883e-02
-5.849416553974151611e-02 -8.850283920764923096e-02 -1.093886941671371460e-01
2.205936238169670105e-03 -8.393502980470657349e-02 8.013941347599029541e-02
1.440944522619247437e-01 -1.143507584929466248e-01 -2.413773089647293091e-01
7.261830568313598633e-02 -1.561189293861389160e-01 4.176513850688934326e-02
-4.641809314489364624e-02 -8.195236325263977051e-02 -5.388297140598297119e-02
-8.919773250818252563e-02 -1.074538230895996094e-01 -3.939732164144515991e-02
1.035422906279563904e-01 -1.535919308662414551e-01 -2.719536423683166504e-04
1.101369112730026245e-01 -1.531529724597930908e-01 -1.413728296756744385e-02
1.275910586118698120e-01 -1.551757901906967163e-01 -1.064618006348609924e-01
1.353609710931777954e-01 -1.420193463563919067e-01 -3.928631544113159180e-02
-4.334869235754013062e-02 -1.705105304718017578e-01 1.528215408325195312e-02
5.701204389333724976e-02 -7.005088031291961670e-02 3.099167346954345703e-02
9.702941030263900757e-02 -1.490876674652099609e-01 -2.909395396709442139e-01
-6.553293764591217041e-02 -9.059499204158782959e-02 -6.903543323278427124e-02
-1.543031446635723114e-02 -7.206757366657257080e-02 -5.477028340101242065e-02
1.742269098758697510e-02 -6.619203090667724609e-02 -9.793992340564727783e-02
-7.956796139478683472e-02 -1.078708022832870483e-01 1.964616030454635620e-02
-7.018788903951644897e-02 -1.762255430221557617e-01 -1.075808852910995483e-01
1.115063428878784180e-01 -8.135683834552764893e-02 -2.194312065839767456e-01
-7.017266750335693359e-02 -1.701975911855697632e-01 -2.651614695787429810e-02
8.997382223606109619e-02 -1.420033425092697144e-01 6.163179874420166016e-02
1.583844721317291260e-01 -1.135971918702125549e-01 -1.890836656093597412e-01
8.851300925016403198e-02 -7.648578286170959473e-02 4.288919270038604736e-02
-5.004944652318954468e-02 -1.760145425796508789e-01 -2.636477351188659668e-02
2.779394201934337616e-02 -6.817966699600219727e-02 -1.513617932796478271e-01
1.178736612200737000e-01 -1.603315174579620361e-01 -1.757125556468963623e-01
1.545219868421554565e-01 -1.262263059616088867e-01 -1.955227255821228027e-01
-9.864791482686996460e-02 -1.180907189846038818e-01 -4.050406813621520996e-02
-1.072742715477943420e-01 -1.384032517671585083e-01 -9.552057087421417236e-02
4.351070895791053772e-02 -1.826946884393692017e-01 -1.718364655971527100e-01
1.458194851875305176e-01 -1.067322194576263428e-01 -2.300281226634979248e-01
4.552740603685379028e-02 -7.879036664962768555e-02 -2.356753349304199219e-01
4.525993764400482178e-02 -1.734249442815780640e-01 -2.592309713363647461e-01
7.218112051486968994e-02 -1.754702329635620117e-01 -1.995726227760314941e-01
-5.242563039064407349e-02 -8.439216017723083496e-02 -7.188421487808227539e-02
-3.540433198213577271e-02 -1.101489141583442688e-01 1.061379015445709229e-01
1.068282201886177063e-01 -6.766813993453979492e-02 -7.548642158508300781e-02
3.916764631867408752e-02 -6.349661946296691895e-02 -7.474889606237411499e-02
-9.529609978199005127e-02 -1.234604939818382263e-01 1.916185021400451660e-03
5.268594250082969666e-03 -1.866388022899627686e-01 -1.363723874092102051e-01
-4.541345685720443726e-02 -1.361361145973205566e-01 9.933932125568389893e-02
8.655374497175216675e-02 -1.724186986684799194e-01 -1.838388741016387939e-01
8.816163241863250732e-02 -8.684074878692626953e-02 7.539109885692596436e-02
1.132585108280181885e-03 -1.702577173709869385e-01 -2.810742855072021484e-01
1.498879585415124893e-02 -9.860311448574066162e-02 -2.911740243434906006e-01
2.550258673727512360e-02 -1.495759189128875732e-01 9.573855996131896973e-02
6.685621291399002075e-02 -1.236362457275390625e-01 -3.325560092926025391e-01
-4.832665622234344482e-02 -1.822714954614639282e-01 -1.101252436637878418e-01
7.909505814313888550e-02 -1.627001464366912842e-01 3.725953400135040283e-03
8.375257998704910278e-02 -6.918194890022277832e-02 -1.716111451387405396e-01
1.148010492324829102e-01 -1.449747532606124878e-01 9.333446621894836426e-03
-9.540321677923202515e-02 -1.530263423919677734e-01 -1.687454581260681152e-01
-8.168298751115798950e-02 -1.010515689849853516e-01 -9.305685013532638550e-02
3.219629079103469849e-02 -1.726151406764984131e-01 -2.708684504032135010e-01
1.419000923633575439e-01 -1.460080742835998535e-01 -1.605861485004425049e-01
2.616776712238788605e-02 -1.638236194849014282e-01 5.320999026298522949e-02
-6.076125055551528931e-02 -1.784508526325225830e-01 -8.205421268939971924e-02
-1.007287874817848206e-01 -1.258022338151931763e-01 -2.294962108135223389e-02
-5.021198838949203491e-02 -1.136669144034385681e-01 9.335938096046447754e-02
-6.012525409460067749e-02 -1.342877149581909180e-01 8.500942587852478027e-02
1.130716353654861450e-01 -7.613217830657958984e-02 -1.876966953277587891e-01
-6.696222722530364990e-02 -1.690327525138854980e-01 -2.075853049755096436e-01
-9.772659093141555786e-02 -1.183763369917869568e-01 -1.201620846986770630e-01
1.214272230863571167e-01 -1.503190398216247559e-01 -2.390287965536117554e-01
8.235382288694381714e-02 -1.737331449985504150e-01 -9.959109872579574585e-02
7.619609683752059937e-02 -1.617236137390136719e-01 -2.801357805728912354e-01
5.559971556067466736e-03 -1.796830445528030396e-01 -2.371924966573715210e-01
1.167760863900184631e-01 -1.376357674598693848e-01 2.774351835250854492e-02
4.842457920312881470e-02 -1.286212205886840820e-01 1.195250451564788818e-01
6.437449157238006592e-02 -1.044712364673614502e-01 -3.132417201995849609e-01
8.199906349182128906e-02 -7.812496274709701538e-02 5.562964081764221191e-02
1.696567237377166748e-02 -1.729786843061447144e-01 -2.726854085922241211e-01
-8.906158804893493652e-02 -1.459528803825378418e-01 1.881037652492523193e-02
-2.421925030648708344e-02 -9.697674214839935303e-02 9.523883461952209473e-02
-6.116873025894165039e-02 -9.530702978372573853e-02 -1.616946160793304443e-01
-9.507393091917037964e-02 -1.214146614074707031e-01 -1.525525301694869995e-01
6.399627774953842163e-02 -1.773205697536468506e-01 -7.893789559602737427e-02
-4.401291906833648682e-02 -8.117967844009399414e-02 -8.285573124885559082e-02
6.065203249454498291e-02 -1.671021580696105957e-01 8.886002004146575928e-03
-1.082806102931499481e-02 -8.869776129722595215e-02 -2.355337738990783691e-01
3.500134497880935669e-02 -6.504307687282562256e-02 -1.176242828369140625e-01
3.493982553482055664e-02 7.369756698608398438e-02 5.614774674177169800e-02
-1.831807494163513184e-01 6.587617099285125732e-02 7.401410490274429321e-02
-5.552796125411987305e-01 4.740294069051742554e-02 -8.085959404706954956e-02
-3.269385397434234619e-01 1.361770033836364746e-01 -1.162495370954275131e-02
-5.216823816299438477e-01 6.674414873123168945e-02 2.829065732657909393e-02
-3.285071849822998047e-01 4.584857448935508728e-02 -1.091540604829788208e-01
-9.125989675521850586e-02 -5.272837355732917786e-02 -4.969282448291778564e-02
1.206939816474914551e-01 1.898818090558052063e-02 -5.660177022218704224e-02
-4.431786537170410156e-01 6.675430387258529663e-02 -1.003084480762481689e-01
-4.284138977527618408e-01 1.018761694431304932e-01 -8.512249588966369629e-02
-1.625117212533950806e-01 4.536373168230056763e-02 -1.044153124094009399e-01
-3.804333508014678955e-02 1.899300329387187958e-02 -9.109702706336975098e-02
-2.738443613052368164e-01 -5.582534149289131165e-02 -8.743768557906150818e-03
2.336886525154113770e-02 6.576658040285110474e-02 6.311106681823730469e-02
-5.510275363922119141e-01 1.160945370793342590e-02 8.880160748958587646e-05
-3.929495215415954590e-01 5.347158759832382202e-02 -1.061925590038299561e-01
-3.474065363407135010e-01 6.672545522451400757e-02 -1.060918495059013367e-01
-1.547698676586151123e-02 -4.599678143858909607e-02 3.921179473400115967e-02
-1.749410480260848999e-01 8.173616230487823486e-02 -9.490902721881866455e-02
4.992589354515075684e-03 9.687225520610809326e-02 3.876513242721557617e-02
-1.008376255631446838e-01 -5.424267426133155823e-02 2.868592925369739532e-02
1.734801828861236572e-01 4.540877789258956909e-02 -2.439656667411327362e-02
5.013379454612731934e-02 3.784735873341560364e-02 -7.451779395341873169e-02
-5.069448947906494141e-01 3.243928775191307068e-02 3.148455172777175903e-02
1.488826572895050049e-01 -1.414620131254196167e-02 -3.464385867118835449e-02
-2.371324747800827026e-01 -1.308152452111244202e-02 -9.456306695938110352e-02
3.239065408706665039e-03 -4.420762136578559875e-02 -4.896811395883560181e-02
-4.954011738300323486e-01 8.372897654771804810e-02 2.982213534414768219e-02
-2.733401060104370117e-01 1.298869550228118896e-01 -5.292056500911712646e-02
-3.393197655677795410e-01 1.340695917606353760e-01 -2.215143293142318726e-03
-4.581932425498962402e-01 5.141646414995193481e-02 4.632949084043502808e-02
1.820016503334045410e-01 -1.231226325035095215e-02 2.225093729794025421e-02
-1.981213390827178955e-01 -6.121892854571342468e-02 -2.069131657481193542e-02
1.642076671123504639e-02 -2.894176170229911804e-02 5.493286997079849243e-02
-3.300337493419647217e-02 7.979187369346618652e-02 6.186038255691528320e-02
-1.314738988876342773e-01 8.894041925668716431e-02 -8.591483533382415771e-02
-9.759710729122161865e-02 1.243069171905517578e-01 -2.743963710963726044e-02
-1.079715192317962646e-01 -2.766574546694755554e-02 -8.014614135026931763e-02
-3.397904932498931885e-01 1.280535757541656494e-01 -5.800088495016098022e-02
-5.689491033554077148e-01 8.737763017416000366e-02 -6.509967148303985596e-02
-4.609298408031463623e-01 -2.426926419138908386e-02 -6.435864605009555817e-03
4.710558056831359863e-02 1.817767880856990814e-02 -7.606832683086395264e-02
-2.238011956214904785e-01 -5.949785187840461731e-02 -2.540875598788261414e-02
1.085022091865539551e-02 2.299902215600013733e-02 7.453840225934982300e-02
-3.983697891235351562e-01 3.086899034678936005e-02 5.648713558912277222e-02
-5.181332826614379883e-01 2.847597561776638031e-02 -8.608230203390121460e-02
-2.962199151515960693e-01 1.361281275749206543e-01 -6.874253973364830017e-03
-6.559938192367553711e-04 -5.644436553120613098e-02 1.404094696044921875e-02
-7.416261732578277588e-02 8.509640395641326904e-02 6.211866438388824463e-02
-3.216722309589385986e-01 9.903563186526298523e-03 -1.035576760768890381e-01
-3.450475931167602539e-01 9.037792682647705078e-02 -9.711522608995437622e-02
-3.072322905063629150e-01 9.576386958360671997e-02 5.398482084274291992e-02
-2.319154441356658936e-01 -8.039359003305435181e-03 6.545195728540420532e-02
-4.399315118789672852e-01 2.624111808836460114e-02 4.727375507354736328e-02
-3.588802814483642578e-01 1.306672543287277222e-01 5.494972690939903259e-03
-4.644502103328704834e-01 1.175393164157867432e-01 6.325058639049530029e-03
-7.056096196174621582e-02 -5.597552284598350525e-02 2.462860383093357086e-02
-3.611887097358703613e-01 -2.970426157116889954e-02 2.705688960850238800e-02
-5.605525970458984375e-01 7.412290573120117188e-02 1.217489317059516907e-02
-3.423738181591033936e-01 6.313044577836990356e-02 6.389697641134262085e-02
-8.172754943370819092e-02 1.023574322462081909e-01 -6.605301052331924438e-02
-3.361771702766418457e-01 -1.063134148716926575e-02 5.050606280565261841e-02
1.719874143600463867e-01 5.654913187026977539e-02 -9.598284959793090820e-03
-3.204613029956817627e-01 -5.811572074890136719e-03 5.602530390024185181e-02
-1.013254299759864807e-01 -3.556984290480613708e-02 5.372754484415054321e-02
1.017710864543914795e-01 -1.977677643299102783e-02 4.883942008018493652e-02
-2.679091393947601318e-01 1.312033087015151978e-01 1.268032938241958618e-02
5.828398466110229492e-02 8.591831475496292114e-02 -4.313805699348449707e-02
5.996987223625183105e-03 -5.814854055643081665e-03 6.918242573738098145e-02
-4.507389664649963379e-01 -2.428063005208969116e-02 -5.343770235776901245e-02
-6.759314239025115967e-02 1.015839576721191406e-01 4.660806804895401001e-02
-3.731254637241363525e-01 -1.356665417551994324e-02 -8.641608059406280518e-02
-1.381371617317199707e-01 -5.589103326201438904e-02 -4.617165029048919678e-02
-1.444345712661743164e-01 2.357144281268119812e-02 7.916996628046035767e-02
-5.352866649627685547e-01 8.538208901882171631e-02 1.650413312017917633e-02
-3.233248889446258545e-01 1.258853822946548462e-01 -6.243236362934112549e-02
-2.730280458927154541e-01 1.235261261463165283e-01 -6.500186771154403687e-02
-6.136201322078704834e-02 -8.153639733791351318e-03 7.140605896711349487e-02
-5.061654448509216309e-01 2.168763801455497742e-02 -8.604551106691360474e-02
-4.090678095817565918e-01 5.857883021235466003e-02 5.519600957632064819e-02
1.288075745105743408e-02 -5.182796344161033630e-02 -3.278529644012451172e-02
-4.827560782432556152e-01 -2.020622417330741882e-02 -4.265738278627395630e-02
5.700293183326721191e-02 6.615041941404342651e-02 -6.198829412460327148e-02
-5.625577569007873535e-01 1.881946250796318054e-02 4.964107647538185120e-04
4.998508095741271973e-02 -2.787147089838981628e-02 5.182411521673202515e-02
6.155124306678771973e-02 9.737157821655273438e-02 9.845750406384468079e-03
-3.447163105010986328e-02 9.335385262966156006e-02 5.081713199615478516e-02
-5.149888992309570312e-01 1.156109571456909180e-01 -1.440862938761711121e-02
-4.556508362293243408e-02 -8.100725710391998291e-03 7.100664824247360229e-02
-4.901497662067413330e-01 -8.830528706312179565e-03 -6.433294713497161865e-02
-5.845767259597778320e-01 4.051050543785095215e-02 1.474160701036453247e-03
-2.496084421873092651e-01 -2.556241303682327271e-02 -8.553752303123474121e-02
-5.751573443412780762e-01 1.274317502975463867e-02 -2.160358428955078125e-02
-3.403453826904296875e-01 2.021815627813339233e-03 5.699368566274642944e-02
-5.613884925842285156e-01 9.976327419281005859e-02 -1.076227612793445587e-02
-4.937687814235687256e-01 9.001354873180389404e-02 -8.456803113222122192e-02
-1.362437903881072998e-01 6.055381521582603455e-02 7.593306899070739746e-02
8.106660842895507812e-02 4.421833902597427368e-02 -6.506638228893280029e-02
1.571954786777496338e-01 5.344653502106666565e-02 -2.857830375432968140e-02
-3.268545866012573242e-02 1.065790057182312012e-01 3.309654444456100464e-02
-2.820195555686950684e-01 1.178895086050033569e-01 3.556811064481735229e-02
1.578572690486907959e-01 2.791853435337543488e-02 -4.155664891004562378e-02
-2.070399820804595947e-01 1.575315371155738831e-02 -1.052459925413131714e-01
-3.545479178428649902e-01 -3.790925815701484680e-02 1.585989072918891907e-02
1.765084266662597656e-02 9.111578762531280518e-02 -5.216618627309799194e-02
-1.864668428897857666e-01 8.179165422916412354e-03 7.485072314739227295e-02
1.615957021713256836e-01 -2.682239189743995667e-02 1.113304309546947479e-02
-2.869852781295776367e-01 3.604857251048088074e-02 -1.094105914235115051e-01
-3.510836660861968994e-01 3.941527754068374634e-02 -1.083899736404418945e-01
-5.880192518234252930e-01 9.115028381347656250e-02 -4.711272567510604858e-02
-2.936403751373291016e-01 1.355671584606170654e-01 -3.565911203622817993e-02
-1.211959347128868103e-01 7.360196113586425781e-02 -9.302482753992080688e-02
-2.591096460819244385e-01 1.312121450901031494e-01 -4.849102348089218140e-02
1.099750697612762451e-01 -3.075455501675605774e-02 3.587470948696136475e-02
1.887828111648559570e-02 -5.553906783461570740e-02 1.079304330050945282e-02
-3.675546944141387939e-01 7.243932783603668213e-02 5.838948488235473633e-02
-1.308971047401428223e-01 -2.628922834992408752e-02 6.072072684764862061e-02
-5.223680138587951660e-01 -1.021235808730125427e-02 -2.790019288659095764e-02
-5.818985104560852051e-01 4.874867945909500122e-02 -7.112435996532440186e-02
-3.805792331695556641e-01 2.217751741409301758e-02 -1.040628924965858459e-01
-2.050529420375823975e-02 5.524479597806930542e-02 -8.482570201158523560e-02
-3.004789948463439941e-01 1.199751049280166626e-01 -7.128556072711944580e-02
1.517747640609741211e-01 3.999163582921028137e-02 4.503778368234634399e-02
