8.294730633497238159e-02 9.019418619573116302e-03 -8.544582128524780273e-02
-1.337074041366577148e-01 3.926079720258712769e-02 -6.931406259536743164e-01
-1.562504470348358154e-02 -2.861282043159008026e-02 -4.098099470138549805e-02
1.872168853878974915e-02 2.533832378685474396e-02 -6.662549972534179688e-01
-9.091165661811828613e-02 3.850498422980308533e-02 1.760661900043487549e-01
-3.178690001368522644e-02 -5.132163316011428833e-02 -8.047419786453247070e-01
-2.508594468235969543e-02 -3.161904215812683105e-02 -1.174831748008728027e+00
1.093978136777877808e-01 -6.490034982562065125e-03 -2.726806998252868652e-01
-1.747652739286422729e-01 1.069378759711980820e-02 -3.691908419132232666e-01
9.170856326818466187e-02 -1.027461327612400055e-02 -7.508507370948791504e-01
-2.411770820617675781e-02 -4.642135277390480042e-02 -1.045736551284790039e+00
-1.667177677154541016e-01 3.137028962373733521e-02 -6.703699827194213867e-01
-1.149698272347450256e-01 2.870199456810951233e-02 -8.717204928398132324e-01
-1.193926632404327393e-01 -2.025393955409526825e-02 -3.541364073753356934e-01
-1.176519319415092468e-01 -1.061415951699018478e-02 -1.577043235301971436e-01
-2.358642034232616425e-02 -4.482012987136840820e-02 -3.624190688133239746e-01
1.067323237657546997e-02 3.238939121365547180e-02 -5.490053296089172363e-01
-2.347981184720993042e-02 4.705102369189262390e-02 -1.601253747940063477e-01
-7.711734622716903687e-02 -4.159978777170181274e-02 -7.702614068984985352e-01
6.106523424386978149e-02 -5.459009483456611633e-02 -5.293235182762145996e-01
-1.339493542909622192e-01 1.347013562917709351e-02 1.072004437446594238e-02
1.427841559052467346e-02 -1.797063834965229034e-02 1.008845269680023193e-01
2.917431667447090149e-02 3.285528719425201416e-02 -3.465978503227233887e-01
4.890396445989608765e-02 -5.719399079680442810e-02 -7.523628473281860352e-01
-6.535477936267852783e-03 4.345167055726051331e-02 -1.076121926307678223e-01
2.535396069288253784e-02 6.250642240047454834e-03 -9.280680418014526367e-01
-7.734091952443122864e-03 3.761017322540283203e-02 1.154093444347381592e-01
-2.046985179185867310e-02 4.112537205219268799e-02 -4.915878474712371826e-01
-6.222267448902130127e-02 -4.289558902382850647e-02 -5.429616570472717285e-01
-1.094036176800727844e-01 5.426033958792686462e-02 -1.988097429275512695e-01
7.036469131708145142e-02 1.875330880284309387e-02 -2.810264229774475098e-01
-1.228073090314865112e-01 4.829197749495506287e-02 -5.154926180839538574e-01
-7.567308843135833740e-02 -3.903602808713912964e-02 -9.538712501525878906e-01
-9.152974188327789307e-02 -3.682773187756538391e-02 -6.353486776351928711e-01
1.691679283976554871e-02 3.648235648870468140e-02 -3.359425663948059082e-01
-1.685111820697784424e-01 4.292640089988708496e-02 -3.288105726242065430e-01
1.823303475975990295e-02 -3.859454765915870667e-02 -1.131269931793212891e+00
-1.120685264468193054e-01 3.712138906121253967e-02 -7.594697475433349609e-01
-9.797200560569763184e-02 4.264564439654350281e-02 -6.633199453353881836e-01
-1.647572517395019531e-01 -1.764960936270654202e-03 -4.748321473598480225e-01
-8.011008799076080322e-02 -3.484505042433738708e-02 -4.107297658920288086e-01
-1.237968727946281433e-01 -2.586787566542625427e-02 -6.638549566268920898e-01
8.307281881570816040e-02 -5.262191593647003174e-02 -5.597234964370727539e-01
1.788285747170448303e-02 -5.533077940344810486e-02 -5.778254866600036621e-01
2.653026208281517029e-02 3.477742895483970642e-02 -2.603412568569183350e-01
-1.558374464511871338e-01 3.805176168680191040e-02 -6.359273195266723633e-02
-4.842640087008476257e-02 4.991486668586730957e-02 -3.009672164916992188e-01
-1.620169356465339661e-02 3.548522293567657471e-02 1.733100116252899170e-01
5.030377954244613647e-02 1.925576105713844299e-02 -5.804337859153747559e-01
-3.572341054677963257e-02 4.733992740511894226e-02 1.835882663726806641e-03
5.316166579723358154e-02 2.513845451176166534e-02 -1.002737879753112793e-01
2.379433810710906982e-02 3.045568987727165222e-02 7.454982399940490723e-02
-9.866332262754440308e-02 2.489153668284416199e-02 -9.274571537971496582e-01
-7.780966162681579590e-02 -7.595643401145935059e-03 5.402979254722595215e-02
-1.756008118391036987e-01 3.466718643903732300e-02 -5.273013114929199219e-01
-1.307970285415649414e-01 -1.861489377915859222e-02 -8.996804952621459961e-01
7.370629906654357910e-02 -5.429789423942565918e-02 -7.769287824630737305e-01
-5.090624094009399414e-03 -5.327375605702400208e-02 -9.242479801177978516e-01
-1.345367431640625000e-01 5.025921761989593506e-02 -9.573835134506225586e-02
2.314245328307151794e-02 3.581349551677703857e-02 -1.120743453502655029e-01
2.755385637283325195e-02 -3.251263871788978577e-02 -5.210971832275390625e-02
2.455155178904533386e-02 -3.686588257551193237e-02 -1.135020852088928223e-01
2.542242780327796936e-02 -5.516104027628898621e-02 -5.481967329978942871e-01
6.441032141447067261e-02 1.961485482752323151e-02 -8.013352751731872559e-02
-2.217018976807594299e-02 5.854907911270856857e-03 2.377354800701141357e-01
-7.470966875553131104e-02 5.013715103268623352e-02 -4.278868138790130615e-01
-9.705912321805953979e-02 5.125367268919944763e-02 -4.285265505313873291e-01
3.161504119634628296e-02 -5.743014439940452576e-02 -7.358624935150146484e-01
-1.449801772832870483e-02 3.185015916824340820e-02 -6.936026215553283691e-01
1.096265763044357300e-01 -4.374650865793228149e-02 -6.071036458015441895e-01
-1.326189339160919189e-01 4.997002333402633667e-02 -7.484748959541320801e-02
1.164282113313674927e-02 3.724562376737594604e-02 -3.687345385551452637e-01
4.408190399408340454e-02 -4.451420903205871582e-02 -2.401213943958282471e-01
-3.390149772167205811e-02 8.356390520930290222e-03 -1.053541064262390137e+00
-4.448807612061500549e-02 -4.013675078749656677e-02 -1.086833000183105469e+00
-1.793660521507263184e-01 2.437568269670009613e-02 -2.990668714046478271e-01
-3.983249887824058533e-02 3.233793005347251892e-02 -7.668958306312561035e-01
9.536743164062500000e-06 -5.226404219865798950e-02 -9.730026721954345703e-01
2.026914060115814209e-02 2.917301096022129059e-02 -5.676602721214294434e-01
-1.313181370496749878e-01 4.171267151832580566e-02 -6.537271738052368164e-01
-7.410056889057159424e-02 5.337750911712646484e-02 -2.141893804073333740e-01
1.356732100248336792e-03 -5.519662797451019287e-02 -8.497661352157592773e-01
-1.706717759370803833e-01 1.195286284200847149e-03 -5.804688930511474609e-01
-7.158852368593215942e-02 -3.882258757948875427e-02 -4.687343537807464600e-01
-5.029265582561492920e-02 2.924571745097637177e-03 1.981112062931060791e-01
6.205134838819503784e-02 -4.878017306327819824e-02 -9.639878273010253906e-01
-5.593908950686454773e-03 -5.793080665171146393e-03 1.863001286983489990e-01
4.047136753797531128e-02 -8.373872376978397369e-03 1.451087296009063721e-01
-2.317185141146183014e-02 4.537432640790939331e-02 -3.381553888320922852e-01
-1.259546577930450439e-01 1.282831933349370956e-02 -9.886602163314819336e-01
-8.540524542331695557e-02 -2.763876877725124359e-02 -1.083520889282226562e+00
-9.738279134035110474e-02 5.166529491543769836e-02 -4.120098948478698730e-01
-9.399463981389999390e-02 -3.641170263290405273e-02 -6.672832965850830078e-01
-1.082579493522644043e-01 5.330367013812065125e-02 -3.307565450668334961e-01
-1.165711060166358948e-01 4.575158283114433289e-02 -5.900328159332275391e-01
-4.379749298095703125e-03 -5.513691529631614685e-02 -7.770445346832275391e-01
-1.629240810871124268e-01 6.738263182342052460e-03 -2.643461823463439941e-01
1.144825965166091919e-01 -2.067230083048343658e-02 -6.143248081207275391e-01
3.040083125233650208e-02 1.515707373619079590e-02 -7.878015041351318359e-01
-3.902575373649597168e-02 4.662645235657691956e-02 -4.047672152519226074e-01
8.231090009212493896e-02 -2.191450446844100952e-02 -3.334280848503112793e-02
-1.472276896238327026e-01 1.859978213906288147e-02 -8.867022395133972168e-01
1.206347495317459106e-01 -2.721549756824970245e-02 -5.208070278167724609e-01
7.348404824733734131e-02 -5.488725751638412476e-02 -6.252831220626831055e-01
1.507639884948730469e-02 -1.861131750047206879e-04 -1.025316953659057617e+00
-2.964611165225505829e-02 -4.876015707850456238e-02 -9.726030826568603516e-01
1.016287058591842651e-01 -2.376740798354148865e-03 -4.978897869586944580e-01
-6.951798498630523682e-02 -2.832423150539398193e-02 -1.987317502498626709e-01
-9.781013429164886475e-02 5.210107564926147461e-02 -3.932659924030303955e-01
6.048530340194702148e-02 -3.979254513978958130e-02 -1.733789443969726562e-01
-4.939157515764236450e-03 1.418667845427989960e-02 2.507422268390655518e-01
3.157714009284973145e-02 9.870544075965881348e-03 -8.584517240524291992e-01
-4.974176734685897827e-02 4.954798519611358643e-02 -3.350807130336761475e-01
-6.326875090599060059e-02 5.119734257459640503e-02 -2.459156513214111328e-02
-9.353937208652496338e-02 -2.612555399537086487e-02 -2.869702875614166260e-01
-1.717329397797584534e-02 3.728314116597175598e-02 1.538726985454559326e-01
9.992730617523193359e-02 -4.415545240044593811e-02 -3.987494707107543945e-01
9.312716126441955566e-02 -1.976235024631023407e-02 -6.880620121955871582e-02
-1.096041277050971985e-01 -3.044229373335838318e-02 -5.937281250953674316e-01
1.435813307762145996e-02 2.793509699404239655e-02 -6.355109214782714844e-01
-3.826510906219482422e-02 4.950182512402534485e-02 -1.522452831268310547e-01
-5.853291600942611694e-02 -4.606003686785697937e-02 -8.079667091369628906e-01
4.060998558998107910e-02 -5.716234818100929260e-02 -6.598564386367797852e-01
-6.980998814105987549e-02 -5.608758889138698578e-03 9.585180878639221191e-02
8.016176521778106689e-02 -5.403160676360130310e-02 -6.710420846939086914e-01
-1.121064573526382446e-01 2.087407745420932770e-02 -9.555529356002807617e-01
-1.360303461551666260e-01 5.047658830881118774e-02 -1.141583621501922607e-01
-3.300193697214126587e-02 4.827276617288589478e-02 -2.487847954034805298e-01
9.642679244279861450e-03 3.351239487528800964e-02 -5.245128273963928223e-01
-1.333591938018798828e-01 -4.820756148546934128e-03 -1.746389269828796387e-01
-6.340892612934112549e-02 1.872995495796203613e-02 -9.867773056030273438e-01
-6.292952597141265869e-02 5.254661664366722107e-02 -1.643440723419189453e-01
2.672718837857246399e-02 3.331182152032852173e-02 -2.807223796844482422e-02
-4.022992774844169617e-02 4.937014728784561157e-02 -7.868140935897827148e-02
1.181771159172058105e-01 -2.212787419557571411e-02 -3.193675577640533447e-01
5.606949329376220703e-02 2.496217191219329834e-02 -2.103139460086822510e-01
8.838916569948196411e-02 -5.185031145811080933e-02 -7.129790782928466797e-01
6.145334243774414062e-02 2.000352367758750916e-02 -4.749485850334167480e-02
2.851073443889617920e-02 3.445742651820182800e-02 -2.187731564044952393e-01
5.839151144027709961e-02 -5.297362804412841797e-02 -4.593984782695770264e-01
6.681259721517562866e-03 4.053016752004623413e-02 -1.934945881366729736e-01
-5.875127762556076050e-02 3.597932681441307068e-02 -7.449442148208618164e-01
-2.170919999480247498e-02 -4.084863513708114624e-02 -2.615774869918823242e-01
-6.704495847225189209e-02 -2.979174628853797913e-02 -2.148768305778503418e-01
-2.511273697018623352e-02 -5.231627449393272400e-02 -7.123230695724487305e-01
3.732771426439285278e-02 2.813511341810226440e-02 -4.465029537677764893e-01
-1.741957291960716248e-02 4.523029923439025879e-02 -2.748264074325561523e-01
-1.105204299092292786e-01 -1.883891224861145020e-02 -1.043695449829101562e+00
-1.744100451469421387e-01 1.813494414091110229e-02 -7.105634212493896484e-01
-2.667937055230140686e-02 -3.389379940927028656e-03 1.885965168476104736e-01
-1.682616323232650757e-01 3.744335100054740906e-02 -1.721656322479248047e-01
-1.683447957038879395e-01 2.242760267108678818e-03 -4.309817850589752197e-01
1.203713193535804749e-02 -3.591830655932426453e-02 -1.079016625881195068e-01
-6.329505145549774170e-02 -2.930551767349243164e-02 -1.138322353363037109e+00
-7.585127651691436768e-02 -6.617113016545772552e-03 6.957677006721496582e-02
-6.129468232393264771e-02 5.218309164047241211e-02 -1.098626852035522461e-01
-5.835007503628730774e-02 -2.228643558919429779e-02 -5.936214327812194824e-02
8.821298927068710327e-02 -2.544062398374080658e-02 -8.220285177230834961e-02
-5.213730037212371826e-02 4.087291657924652100e-02 -6.304805874824523926e-01
-2.820000797510147095e-02 -3.143660724163055420e-02 -1.083727777004241943e-01
1.265648007392883301e-02 3.223797306418418884e-02 1.090715825557708740e-01
-6.487377732992172241e-02 5.225580930709838867e-02 -2.615213096141815186e-01
-1.127886772155761719e-01 4.751129075884819031e-02 -5.487769246101379395e-01
9.266603738069534302e-03 2.446850948035717010e-02 -7.317740321159362793e-01
1.702380180358886719e-02 -5.065931752324104309e-02 -4.019320607185363770e-01
7.847546041011810303e-02 1.126844901591539383e-02 -4.819394350051879883e-01
-1.519454419612884521e-01 2.372843958437442780e-02 -8.293474912643432617e-01
4.242115467786788940e-02 2.980031073093414307e-02 -2.556614875793457031e-01
-4.498004913330078125e-03 3.776678815484046936e-02 -4.955292642116546631e-01
7.598584890365600586e-02 1.320612803101539612e-02 -4.556428194046020508e-01
-7.013267278671264648e-02 -3.257687017321586609e-02 -1.093091368675231934e+00
4.607401043176651001e-02 2.050566300749778748e-02 8.134838938713073730e-02
-2.648483216762542725e-02 4.142047464847564697e-02 1.182703077793121338e-01
-7.045406103134155273e-02 -3.519879281520843506e-02 -3.522533476352691650e-01
-5.721500515937805176e-02 -4.621476307511329651e-02 -8.281167745590209961e-01
-9.547813981771469116e-02 -1.502345874905586243e-02 -1.031718850135803223e-01
3.957194834947586060e-02 -5.047205090522766113e-02 -1.003280520439147949e+00
4.928589612245559692e-02 -2.228894084692001343e-02 4.294469952583312988e-02
-1.133160442113876343e-01 1.848958618938922882e-02 1.241146028041839600e-01
-1.807743869721889496e-02 4.180911555886268616e-02 -4.530277848243713379e-01
-1.270934343338012695e-01 -2.459100447595119476e-02 -7.031866312026977539e-01
7.931467145681381226e-03 -5.072817578911781311e-02 -4.247661232948303223e-01
-2.085838839411735535e-02 -3.840081766247749329e-02 -2.096375524997711182e-01
-9.052851796150207520e-02 5.426893383264541626e-02 -1.790694296360015869e-01
8.735499531030654907e-02 9.290453977882862091e-03 -3.792461752891540527e-01
-1.045235469937324524e-01 1.046437118202447891e-02 1.135490238666534424e-01
3.906094282865524292e-02 -5.745204910635948181e-02 -7.123695611953735352e-01
-1.646058559417724609e-01 1.416937820613384247e-02 -1.935262382030487061e-01
-1.246640309691429138e-01 2.958719804883003235e-02 -8.476444482803344727e-01
-1.094581261277198792e-01 -3.152500092983245850e-02 -7.159082293510437012e-01
1.108832210302352905e-01 -2.860909886658191681e-02 -7.174826860427856445e-01
-4.775615781545639038e-02 -3.931128606200218201e-02 -3.291161060333251953e-01
-7.705008238554000854e-02 -2.957691438496112823e-02 -2.610644102096557617e-01
-8.281926810741424561e-02 5.081358551979064941e-02 2.506959438323974609e-02
7.980912923812866211e-04 1.863528974354267120e-02 -8.590326309204101562e-01
-1.143612265586853027e-01 -2.274358272552490234e-02 -3.699767589569091797e-01
4.142606258392333984e-02 2.419583871960639954e-02 -5.305414199829101562e-01
-1.610939577221870422e-02 1.134027540683746338e-02 -9.941031932830810547e-01
-1.782094836235046387e-01 2.892474271357059479e-02 -2.702541947364807129e-01
-3.310175985097885132e-02 -2.189879678189754486e-02 1.161107420921325684e-02
6.366920471191406250e-02 -5.207051709294319153e-02 -4.401736259460449219e-01
-1.791896671056747437e-01 3.454099595546722412e-02 -4.421454668045043945e-01
-1.627690792083740234e-01 1.630676351487636566e-02 -1.577849984169006348e-01
-3.947328403592109680e-02 -3.872054442763328552e-02 -2.786359190940856934e-01
3.550779074430465698e-03 3.389255143702030182e-04 -1.050940632820129395e+00
-4.904223978519439697e-02 -4.809073731303215027e-02 -7.150651216506958008e-01
-5.312300473451614380e-02 3.048805519938468933e-02 -8.256914019584655762e-01
-1.001061275601387024e-01 4.167256504297256470e-02 -6.831976175308227539e-01
8.451014757156372070e-02 -5.313693732023239136e-02 -6.439565420150756836e-01
-2.502297982573509216e-02 3.274798020720481873e-02 -7.151911258697509766e-01
3.345282375812530518e-02 3.172380477190017700e-02 -5.730971693992614746e-02
-8.477147668600082397e-02 -3.324636444449424744e-02 -1.017394423484802246e+00
2.229716628789901733e-03 4.014990851283073425e-02 -1.954072713851928711e-02
-1.192049831151962280e-01 -1.285079214721918106e-02 -2.033191621303558350e-01
1.064497828483581543e-01 -3.427320718765258789e-02 -2.728606760501861572e-01
-1.551353037357330322e-01 2.281428314745426178e-02 -5.965349078178405762e-02
-1.271562576293945312e-01 -1.870797388255596161e-02 -3.932105898857116699e-01
-7.947182655334472656e-02 -3.852932155132293701e-02 -5.372252464294433594e-01
-3.557531163096427917e-02 -4.845651239156723022e-02 -5.535202026367187500e-01
-9.808138012886047363e-02 3.502397611737251282e-02 -7.972565889358520508e-01
-3.015356697142124176e-02 4.795644804835319519e-02 -9.576344490051269531e-02
5.023778229951858521e-02 -4.111274704337120056e-02 -1.058523297309875488e+00
6.324692070484161377e-02 -4.624700173735618591e-02 -2.923163771629333496e-01
-1.149132102727890015e-01 -2.756169065833091736e-02 -8.715683817863464355e-01
-8.857762813568115234e-02 -2.989958040416240692e-02 -1.045215249061584473e+00
-7.273416966199874878e-03 2.765408344566822052e-02 -7.447369694709777832e-01
-8.040677011013031006e-02 6.502015516161918640e-03 -1.088537096977233887e+00
-9.027991443872451782e-03 4.384154081344604492e-02 -2.444913834333419800e-01
-7.519084215164184570e-02 5.144721642136573792e-02 -2.424776554107666016e-03
5.165175348520278931e-02 1.762834191322326660e-02 -6.073082685470581055e-01
-3.807393088936805725e-02 -3.925922140479087830e-02 -1.112080574035644531e+00
-3.738601133227348328e-02 2.984521538019180298e-02 -8.025279045104980469e-01
8.955523371696472168e-02 5.294926231727004051e-04 -6.069033145904541016e-01
1.891306042671203613e-02 -4.846698790788650513e-02 -3.398337662220001221e-01
-1.711091101169586182e-01 3.199800383299589157e-03 -6.794632077217102051e-01
-9.561651945114135742e-02 -3.395317494869232178e-02 -5.379095673561096191e-01
-3.398300334811210632e-02 -5.059031769633293152e-02 -8.513598442077636719e-01
1.180409640073776245e-02 -5.625550076365470886e-02 -8.236843347549438477e-01
4.567673057317733765e-02 2.848779037594795227e-02 -1.298008263111114502e-01
7.016937434673309326e-02 -7.246588822454214096e-03 7.392033934593200684e-02
9.799832105636596680e-02 -4.546513408422470093e-02 -7.816498279571533203e-01
-1.323125138878822327e-02 4.425078630447387695e-02 -2.871252894401550293e-01
6.684295833110809326e-03 3.949145227670669556e-02 -4.382357001304626465e-02
-5.919501557946205139e-02 -3.313391655683517456e-02 -2.447975128889083862e-01
-4.087520763278007507e-02 1.146882679313421249e-02 -1.034968495368957520e+00
5.385340005159378052e-02 -1.195046934299170971e-03 -8.884626626968383789e-01
-2.421223558485507965e-02 -5.183135718107223511e-02 -8.763933181762695312e-01
9.865944087505340576e-02 -3.145415708422660828e-02 -1.874765157699584961e-01
4.618670791387557983e-02 2.421791478991508484e-02 -4.815838038921356201e-01
-9.903009980916976929e-03 -2.151185832917690277e-02 5.271837115287780762e-02
-1.555105298757553101e-01 1.382793858647346497e-02 -8.722029924392700195e-01
-1.459509283304214478e-01 3.126762062311172485e-02 -7.749410867691040039e-01
-1.160498410463333130e-01 3.393321856856346130e-02 -8.035078048706054688e-01
-1.635512709617614746e-01 4.484009370207786560e-02 -2.621698379516601562e-01
-7.696196436882019043e-02 4.370624944567680359e-02 -6.206581592559814453e-01
-3.866320475935935974e-02 2.198155969381332397e-02 -9.177421331405639648e-01
-1.754849702119827271e-01 1.004274282604455948e-02 -3.968134522438049316e-01
4.507716745138168335e-03 -4.708435013890266418e-02 -3.327941596508026123e-01
-1.382792294025421143e-01 -1.812749914824962616e-02 -7.997939586639404297e-01
1.013486459851264954e-02 3.469196707010269165e-02 -4.843125939369201660e-01
1.001117527484893799e-01 -7.270969450473785400e-02 -7.424019277095794678e-02
7.120402902364730835e-02 -6.628735363483428955e-02 -6.480319052934646606e-02
1.186560988426208496e-01 -1.087275817990303040e-01 -1.025575920939445496e-01
6.589728593826293945e-02 -1.436236798763275146e-01 -5.901218205690383911e-02
1.822891458868980408e-02 -1.344852596521377563e-01 1.366875506937503815e-02
-3.959149122238159180e-02 -6.830381602048873901e-02 6.191313266754150391e-02
8.086740970611572266e-02 -1.393644213676452637e-01 -9.155625104904174805e-02
5.233625322580337524e-02 -4.128197580575942993e-02 1.143875997513532639e-02
1.684365719556808472e-01 -8.165673166513442993e-02 1.019462198019027710e-01
1.544427573680877686e-01 -7.445205748081207275e-02 1.311675012111663818e-01
1.425871849060058594e-01 -3.866820037364959717e-02 2.800028584897518158e-02
3.136303648352622986e-02 -6.818141788244247437e-02 -6.107238680124282837e-02
1.486262977123260498e-01 -9.068532288074493408e-02 -6.974180787801742554e-02
1.792663037776947021e-01 -9.528197348117828369e-02 3.006120026111602783e-02
1.840990483760833740e-01 -5.645568668842315674e-02 2.549160458147525787e-02
1.137679964303970337e-01 -1.201970353722572327e-01 4.206067323684692383e-02
3.111517801880836487e-02 -4.412702843546867371e-02 1.358739286661148071e-02
6.100466474890708923e-02 -7.080800086259841919e-02 -7.373250275850296021e-02
4.455464705824851990e-02 -3.117003664374351501e-02 7.228507101535797119e-02
1.766484677791595459e-01 -6.976115703582763672e-02 1.135577708482742310e-01
3.248453140258789062e-05 -4.677107930183410645e-02 4.227371513843536377e-02
1.133420765399932861e-01 -1.090059727430343628e-01 8.073417097330093384e-02
7.457771897315979004e-02 -2.453668788075447083e-02 9.596197307109832764e-02
1.829654276371002197e-01 -4.945017397403717041e-02 4.376142844557762146e-02
-3.360934555530548096e-03 -1.365123987197875977e-01 -1.124890074133872986e-01
-1.871135830879211426e-02 -1.062798425555229187e-01 7.449550181627273560e-02
2.588409557938575745e-02 -1.138926148414611816e-01 -1.277581900358200073e-01
2.267592772841453552e-02 -1.267807185649871826e-01 -1.301067173480987549e-01
6.990318000316619873e-02 -1.309656351804733276e-01 2.572971768677234650e-02
7.978462427854537964e-02 -1.166175454854965210e-01 -1.245606765151023865e-01
1.148272901773452759e-01 -3.231980279088020325e-02 3.969907015562057495e-02
5.702290683984756470e-02 -2.998217567801475525e-02 1.490310579538345337e-01
1.733631193637847900e-01 -5.986969918012619019e-02 1.311925202608108521e-01
-4.111107438802719116e-02 -1.310882568359375000e-01 -4.675450921058654785e-02
-2.290136367082595825e-02 -6.036678701639175415e-02 9.891290962696075439e-02
3.893215954303741455e-02 -6.450430303812026978e-02 1.616023033857345581e-01
8.769869804382324219e-02 -1.341330260038375854e-01 -1.044605746865272522e-01
1.614682525396347046e-01 -1.001872643828392029e-01 5.844767391681671143e-02
3.053396195173263550e-02 -1.282013952732086182e-01 4.004648327827453613e-02
8.628597855567932129e-02 -1.386981308460235596e-01 -3.266575187444686890e-02
1.236293390393257141e-01 -6.397030502557754517e-02 -4.963247478008270264e-02
-1.408979296684265137e-04 -1.434638202190399170e-01 -5.063062906265258789e-02
1.370905488729476929e-01 -5.044144019484519958e-02 1.685975790023803711e-01
7.794516533613204956e-02 -2.334360405802726746e-02 1.147093400359153748e-01
-4.040332138538360596e-02 -1.230590641498565674e-01 4.672607406973838806e-03
-4.357918351888656616e-02 -7.206537574529647827e-02 2.149077132344245911e-02
7.354729622602462769e-02 -1.333918273448944092e-01 1.323043368756771088e-02
4.109655320644378662e-02 -4.493895173072814941e-02 3.369834274053573608e-03
1.754579544067382812e-01 -9.481188654899597168e-02 4.818837344646453857e-02
2.833987772464752197e-02 -1.316596120595932007e-01 2.719938196241855621e-02
1.587547659873962402e-01 -1.085852459073066711e-01 2.579028159379959106e-02
1.460677534341812134e-01 -8.461083471775054932e-02 1.190054044127464294e-01
1.822928190231323242e-01 -7.870148122310638428e-02 -1.240802742540836334e-02
1.948880553245544434e-01 -6.103000789880752563e-02 7.177646458148956299e-02
-1.686026155948638916e-02 -7.465460896492004395e-02 -4.422277957201004028e-02
-7.326722145080566406e-03 -1.017221882939338684e-01 9.198203682899475098e-02
1.889300495386123657e-01 -8.527677506208419800e-02 2.864518016576766968e-02
-5.324834585189819336e-02 -8.254228532314300537e-02 3.033815696835517883e-02
1.349339187145233154e-01 -5.027145147323608398e-02 -1.248206757009029388e-02
1.088987588882446289e-01 -8.869948238134384155e-02 1.315732747316360474e-01
6.102446839213371277e-02 -1.065469086170196533e-01 -1.242229118943214417e-01
1.521928980946540833e-02 -3.772508725523948669e-02 8.262359350919723511e-02
1.538978517055511475e-01 -8.976625651121139526e-02 1.000727266073226929e-01
3.225512057542800903e-02 -8.025982230901718140e-02 1.443663537502288818e-01
1.947395876049995422e-02 -4.292275756597518921e-02 3.116591274738311768e-02
1.384880244731903076e-01 -3.433717787265777588e-02 4.214059188961982727e-02
6.189187616109848022e-02 -3.357541933655738831e-02 4.069258272647857666e-02
1.553606986999511719e-02 -5.416373908519744873e-02 -1.201521418988704681e-02
1.620879024267196655e-01 -5.307282507419586182e-02 1.161454245448112488e-03
1.095574349164962769e-01 -2.272068709135055542e-02 1.408028602600097656e-01
6.501883268356323242e-02 -1.405457854270935059e-01 -2.287513203918933868e-02
1.128153502941131592e-01 -8.137304335832595825e-02 -8.383850008249282837e-02
2.682111412286758423e-02 -1.421623826026916504e-01 -2.331932447850704193e-02
-2.883052825927734375e-02 -8.209384232759475708e-02 -4.918701201677322388e-02
1.041912287473678589e-02 -5.117058381438255310e-02 4.084184765815734863e-03
1.602641344070434570e-01 -3.332513198256492615e-02 7.086356729269027710e-02
1.651936620473861694e-01 -7.334448397159576416e-02 1.224549487233161926e-01
1.553093641996383667e-01 -1.067260131239891052e-01 4.320135712623596191e-02
1.690163612365722656e-01 -1.052730605006217957e-01 4.747712984681129456e-03
1.198209300637245178e-01 -1.007554158568382263e-01 9.958997368812561035e-02
-3.261386603116989136e-02 -6.299733370542526245e-02 7.318355888128280640e-02
1.431941986083984375e-01 -1.200790107250213623e-01 -9.014705196022987366e-03
1.667524874210357666e-02 -3.863976895809173584e-02 6.480650603771209717e-02
1.970405504107475281e-02 -1.461454927921295166e-01 -7.690113782882690430e-02
6.630182266235351562e-02 -4.968077316880226135e-02 -2.188312821090221405e-02
1.160163804888725281e-02 -4.767081886529922485e-02 1.389265507459640503e-01
8.177586644887924194e-02 -6.201740726828575134e-02 1.725414693355560303e-01
9.767168015241622925e-02 -1.172698959708213806e-01 6.383450329303741455e-02
-4.573600739240646362e-02 -1.270506381988525391e-01 -3.070327453315258026e-02
-1.735361665487289429e-02 -6.654990464448928833e-02 -1.920375786721706390e-02
1.331628262996673584e-01 -9.481825679540634155e-02 1.057548522949218750e-01
1.190583035349845886e-01 -9.258415549993515015e-02 1.193168833851814270e-01
-2.824722230434417725e-02 -7.309250533580780029e-02 -2.471769042313098907e-02
1.680915355682373047e-01 -9.160927683115005493e-02 7.614235579967498779e-02
1.580271720886230469e-01 -6.986336410045623779e-02 -3.696249425411224365e-02
1.787172257900238037e-01 -9.562209248542785645e-02 -1.061333902180194855e-02
8.017027378082275391e-02 -2.758315578103065491e-02 6.544243544340133667e-02
6.174987182021141052e-02 -1.357670724391937256e-01 -1.188889667391777039e-01
7.817768305540084839e-02 -1.009583547711372375e-01 1.137436777353286743e-01
-4.483319818973541260e-03 -5.317948758602142334e-02 1.509159803390502930e-02
1.242909878492355347e-01 -1.284230351448059082e-01 -6.046617776155471802e-02
1.028000339865684509e-01 -1.283675879240036011e-01 -1.020482406020164490e-01
2.158914133906364441e-02 -1.043315604329109192e-01 1.014033183455467224e-01
1.736475899815559387e-02 -3.732157871127128601e-02 1.114388555288314819e-01
9.273000061511993408e-02 -1.165516823530197144e-01 -1.189551576972007751e-01
1.638543754816055298e-01 -1.092416942119598389e-01 -8.404722437262535095e-03
4.323270171880722046e-02 -7.800892740488052368e-02 -8.531292527914047241e-02
1.777051985263824463e-01 -3.990525379776954651e-02 7.352408766746520996e-02
8.132663369178771973e-02 -5.401691794395446777e-02 -3.557496517896652222e-02
9.122376143932342529e-02 -1.255418956279754639e-01 3.748901933431625366e-02
3.451569005846977234e-02 -1.398373842239379883e-01 -8.877037093043327332e-03
-1.543306559324264526e-02 -9.284553676843643188e-02 -8.472245931625366211e-02
1.426714807748794556e-01 -7.410699129104614258e-02 -5.652560293674468994e-02
1.003566384315490723e-01 -2.187108621001243591e-02 1.182170584797859192e-01
1.667225062847137451e-01 -8.664680272340774536e-02 -4.517762362957000732e-02
8.772327750921249390e-02 -7.522444427013397217e-02 1.581137031316757202e-01
1.118929684162139893e-01 -1.170614957809448242e-01 5.552653223276138306e-02
-5.689263343811035156e-02 -1.118714809417724609e-01 -3.447029739618301392e-03
1.215570867061614990e-01 -4.251988232135772705e-02 1.762829720973968506e-01
1.389206349849700928e-01 -1.114856079220771790e-01 -8.091541379690170288e-02
7.969029247760772705e-03 -1.230885908007621765e-01 -1.262420713901519775e-01
3.765557706356048584e-02 -1.180243119597434998e-01 7.233298569917678833e-02
1.285758316516876221e-01 -2.306811138987541199e-02 1.272951513528823853e-01
1.781819760799407959e-01 -8.551378548145294189e-02 -2.398112602531909943e-02
-4.294007271528244019e-02 -8.346271514892578125e-02 -2.966897748410701752e-02
2.675445005297660828e-02 -9.346018731594085693e-02 1.233834624290466309e-01
1.006712615489959717e-01 -6.005957722663879395e-02 1.731927245855331421e-01
1.729355156421661377e-01 -6.855370849370956421e-02 -1.741305179893970490e-02
1.589626371860504150e-01 -4.710338637232780457e-02 1.428887527436017990e-02
8.904431015253067017e-02 -6.086213886737823486e-02 -5.210251361131668091e-02
6.483562290668487549e-02 -2.505746111273765564e-02 1.123144775629043579e-01
4.998360946774482727e-02 -1.436370909214019775e-01 -3.815486282110214233e-02
-5.323603749275207520e-02 -1.113506779074668884e-01 1.243424788117408752e-02
4.224149137735366821e-02 -1.312742829322814941e-01 2.973057702183723450e-02
-4.939296841621398926e-02 -7.937690615653991699e-02 6.092661991715431213e-03
4.914944618940353394e-02 -1.420326381921768188e-01 -2.474760450422763824e-02
1.505470275878906250e-01 -1.012095212936401367e-01 7.138229906558990479e-02
-4.716441035270690918e-04 -8.150894194841384888e-02 -7.420274615287780762e-02
-1.030804216861724854e-02 -1.425425112247467041e-01 -6.672959774732589722e-02
-5.349934101104736328e-02 -9.157656133174896240e-02 -2.501506172120571136e-02
-2.645820379257202148e-02 -1.350421011447906494e-01 -2.664718218147754669e-02
1.328185200691223145e-01 -2.468308433890342712e-02 9.532390534877777100e-02
1.954644545912742615e-02 -1.410427391529083252e-01 -1.130856946110725403e-01
1.044942811131477356e-02 -1.209984868764877319e-01 5.693508684635162354e-02
4.152015596628189087e-02 -1.458629667758941650e-01 -6.196354329586029053e-02
3.196706995368003845e-02 -1.447857171297073364e-01 -4.361806809902191162e-02
-6.869584321975708008e-04 -9.002044051885604858e-02 -9.011355787515640259e-02
1.343393027782440186e-01 -1.249763965606689453e-01 -4.455214738845825195e-02
2.952359244227409363e-02 -3.346300497651100159e-02 1.179839372634887695e-01
4.315696656703948975e-03 -1.291741430759429932e-01 2.836811728775501251e-02
1.023280769586563110e-01 -4.565145820379257202e-02 -1.056296937167644501e-02
-2.846623212099075317e-02 -1.364855468273162842e-01 -4.395192116498947144e-02
4.880595207214355469e-02 -1.277254670858383179e-01 4.256154596805572510e-02
1.549339890480041504e-01 -1.137198954820632935e-01 -3.884258121252059937e-02
-2.550702542066574097e-02 -1.135286390781402588e-01 -1.014984920620918274e-01
6.730914115905761719e-02 -7.859405130147933960e-02 1.538086831569671631e-01
4.722094535827636719e-02 -8.360805362462997437e-02 1.441377252340316772e-01
1.484835743904113770e-01 -3.403069823980331421e-02 5.177360773086547852e-02
8.286806195974349976e-02 -3.257344663143157959e-02 1.707006543874740601e-01
1.662008464336395264e-03 -6.515110284090042114e-02 -3.545393049716949463e-02
5.838876962661743164e-02 -2.642924338579177856e-02 1.252405196428298950e-01
1.434253752231597900e-01 -2.978853136301040649e-02 6.859290599822998047e-02
2.567265182733535767e-02 -8.491175621747970581e-02 -9.320967644453048706e-02
8.842568844556808472e-02 -4.755235463380813599e-02 1.798587888479232788e-01
3.390319272875785828e-02 -1.243943721055984497e-01 5.306412279605865479e-02
9.871128201484680176e-02 -1.012414991855621338e-01 -1.108322069048881531e-01
8.240829408168792725e-02 -8.109893649816513062e-02 -9.176795929670333862e-02
-5.316874384880065918e-02 -1.134738773107528687e-01 -5.745451897382736206e-02
-1.076921075582504272e-02 -4.946425929665565491e-02 5.516994372010231018e-02
-2.320605516433715820e-02 -1.390643417835235596e-01 -6.936489045619964600e-02
-4.960966110229492188e-02 -8.001904189586639404e-02 4.897755756974220276e-02
-3.584396094083786011e-02 -9.138736873865127563e-02 -6.065192073583602905e-02
6.500833481550216675e-02 -1.376808583736419678e-01 -4.553714767098426819e-03
7.913138717412948608e-03 -4.378034174442291260e-02 1.235304698348045349e-01
9.366201609373092651e-02 -2.298328280448913574e-02 9.852101653814315796e-02
1.600534468889236450e-02 -8.339068293571472168e-02 1.335430294275283813e-01
5.428636819124221802e-02 -5.262562260031700134e-02 1.721784025430679321e-01
1.029875874519348145e-01 -1.358864456415176392e-01 -6.443388015031814575e-02
5.829790979623794556e-02 -1.232646554708480835e-01 -1.303102970123291016e-01
3.466846793889999390e-02 -5.755239725112915039e-02 -3.475210815668106079e-02
-3.236577659845352173e-02 -6.155799329280853271e-02 5.131652951240539551e-02
-5.926205217838287354e-02 -1.101157888770103455e-01 -2.124223299324512482e-02
4.143526405096054077e-02 -3.159566223621368408e-02 1.345602869987487793e-01
1.107625663280487061e-01 -6.789742410182952881e-02 1.634020209312438965e-01
1.883271038532257080e-01 -6.771478056907653809e-02 1.331708952784538269e-02
1.668639183044433594e-01 -3.269808739423751831e-02 9.395700693130493164e-02
1.941039711236953735e-01 -7.384314388036727905e-02 5.133423954248428345e-02
1.505448967218399048e-01 -2.915130183100700378e-02 1.414421200752258301e-01
1.286961138248443604e-03 -1.427767574787139893e-01 -9.619335830211639404e-02
8.388651907444000244e-02 -7.050397992134094238e-02 -7.298702001571655273e-02
-2.757202088832855225e-02 -7.758457958698272705e-02 1.007578372955322266e-01
1.322938874363899231e-02 -6.985683739185333252e-02 1.446736156940460205e-01
1.844878494739532471e-01 -4.499317333102226257e-02 1.083954796195030212e-01
3.637661784887313843e-02 -1.462727040052413940e-01 -7.455171644687652588e-02
1.017462313175201416e-01 -3.059682250022888184e-02 4.545631259679794312e-02
1.375555396080017090e-01 -1.216945648193359375e-01 -6.030259281396865845e-02
4.588193446397781372e-02 -1.308767795562744141e-01 -1.290488839149475098e-01
1.236740797758102417e-01 -5.519776046276092529e-02 -3.026110865175724030e-02
9.958449751138687134e-02 -5.365537852048873901e-02 -3.325950354337692261e-02
4.596862196922302246e-02 -3.880434110760688782e-02 1.608826071023941040e-01
-2.488129585981369019e-02 -1.273155659437179565e-01 1.201473828405141830e-02
9.500588476657867432e-02 -1.030511409044265747e-01 1.050086095929145813e-01
3.409138694405555725e-02 -1.457561999559402466e-01 -8.894179016351699829e-02
1.493782550096511841e-02 -1.379249840974807739e-01 -2.891320735216140747e-03
3.772815316915512085e-02 -8.845233172178268433e-02 -1.021293625235557556e-01
1.659029424190521240e-01 -4.072511196136474609e-02 4.418802261352539062e-02
7.546471059322357178e-02 -3.317678719758987427e-02 3.674969077110290527e-02
1.152749359607696533e-02 -9.573241323232650757e-02 1.133794486522674561e-01
1.040002256631851196e-01 -8.050797879695892334e-02 1.475598216056823730e-01
-5.972674489021301270e-02 -9.701928496360778809e-02 -2.947099506855010986e-03
1.110579743981361389e-01 -2.229813486337661743e-02 1.065545976161956787e-01
6.444194912910461426e-02 -9.782898426055908203e-02 1.214097738265991211e-01
8.255098760128021240e-02 -1.301249712705612183e-01 -1.163707897067070007e-01
1.588159799575805664e-01 -4.037373885512351990e-02 1.530238091945648193e-01
1.937220394611358643e-01 -7.012449949979782104e-02 3.167480975389480591e-02
5.895146355032920837e-02 -1.036954820156097412e-01 1.090344563126564026e-01
4.746856540441513062e-02 -6.736635416746139526e-02 -6.414490193128585815e-02
1.375669240951538086e-01 -3.615098074078559875e-02 1.669304668903350830e-01
6.650869548320770264e-02 -5.844141915440559387e-02 -4.607984423637390137e-02
1.153919920325279236e-01 -1.322908252477645874e-01 -5.046991258859634399e-02
-3.799086809158325195e-02 -6.992765516042709351e-02 9.479655884206295013e-03
5.770207569003105164e-02 -1.443788111209869385e-01 -8.386737108230590820e-02
4.589103907346725464e-02 -1.216173470020294189e-01 6.254345923662185669e-02
3.415131941437721252e-02 -1.120084300637245178e-01 8.742860704660415649e-02
1.509734243154525757e-02 -4.665904864668846130e-02 1.827033050358295441e-02
1.627884507179260254e-01 -5.875105410814285278e-02 1.443619430065155029e-01
-1.889456063508987427e-02 -6.739793717861175537e-02 1.136656850576400757e-01
2.411824092268943787e-02 -1.168337762355804443e-01 7.291976362466812134e-02
9.008737653493881226e-02 -2.306915447115898132e-02 1.386395394802093506e-01
6.567093729972839355e-02 -6.558801978826522827e-02 1.681234836578369141e-01
1.240800917148590088e-01 -1.221884042024612427e-01 2.143439278006553650e-02
4.101174324750900269e-02 -4.939674586057662964e-02 -1.247015036642551422e-02
2.313838899135589600e-02 -1.449611037969589233e-01 -9.628426283597946167e-02
1.230121031403541565e-01 -8.129037916660308838e-02 1.395464241504669189e-01
-4.543961584568023682e-02 -9.422476589679718018e-02 6.004993617534637451e-02
1.660603284835815430e-01 -4.453789442777633667e-02 3.048997372388839722e-02
7.669512927532196045e-02 -1.376921385526657104e-01 -1.260319165885448456e-02
-1.057966798543930054e-02 -1.219000592827796936e-01 4.267847537994384766e-02
1.212423145771026611e-01 -4.873571544885635376e-02 -1.454897411167621613e-02
8.122840523719787598e-02 -1.410858035087585449e-01 -5.520066618919372559e-02
1.874153614044189453e-01 -4.779626801609992981e-02 6.626465171575546265e-02
3.947909176349639893e-02 -1.055449619889259338e-01 1.033108755946159363e-01
-1.301355659961700439e-03 -1.372161954641342163e-01 -8.164925500750541687e-03
-1.197279989719390869e-02 -1.394862532615661621e-01 -3.221085667610168457e-02
1.001391708850860596e-01 -1.312133967876434326e-01 3.307856619358062744e-03
-4.181835800409317017e-02 -8.904042094945907593e-02 -4.633361846208572388e-02
1.822402775287628174e-01 -7.670551538467407227e-02 9.002310782670974731e-02
-3.677978366613388062e-02 -7.482708990573883057e-02 8.432593196630477905e-02
-6.548754870891571045e-03 -1.089983657002449036e-01 -1.118846461176872253e-01
8.869802951812744141e-02 -8.595691621303558350e-02 1.416082829236984253e-01
1.815805733203887939e-01 -5.115355923771858215e-02 1.228211596608161926e-01
-3.042409569025039673e-02 -1.300196945667266846e-01 -9.391584992408752441e-02
1.400081515312194824e-01 -7.717674970626831055e-02 1.373737007379531860e-01
1.292019337415695190e-02 -9.745055437088012695e-02 -1.080002114176750183e-01
1.282536983489990234e-01 -3.992825746536254883e-02 1.527247019112110138e-02
7.296960800886154175e-02 -3.710167109966278076e-02 2.033981494605541229e-02
1.071528345346450806e-01 -2.425527945160865784e-02 8.406050503253936768e-02
-5.275452882051467896e-02 -9.571855515241622925e-02 4.143293574452400208e-02
-3.164651244878768921e-02 -1.302793473005294800e-01 -9.894920513033866882e-03
6.072007864713668823e-02 -4.632757604122161865e-02 -9.977003559470176697e-03
-4.264886677265167236e-02 -1.162824034690856934e-01 2.264144271612167358e-02
3.374319151043891907e-02 -8.854268491268157959e-02 1.334649026393890381e-01
1.309758722782135010e-01 -6.736800074577331543e-02 1.567513495683670044e-01
-3.600306063890457153e-02 -1.087051481008529663e-01 5.115886032581329346e-02
6.183944642543792725e-02 -1.107105165719985962e-01 9.234985709190368652e-02
3.253164514899253845e-02 -3.475013747811317444e-02 6.315815448760986328e-02
3.364236280322074890e-02 -1.033016592264175415e-01 -1.204992756247520447e-01
-3.204271197319030762e-04 -1.403787434101104736e-01 -2.515715919435024261e-02
-2.141478657722473145e-02 -5.437604337930679321e-02 6.203838437795639038e-02
3.999275341629981995e-02 -3.005895391106605530e-02 1.098855733871459961e-01
1.928807049989700317e-02 -6.254892796277999878e-02 -4.075124859809875488e-02
3.369354456663131714e-02 -1.388354301452636719e-01 -1.197490319609642029e-01
-1.148749142885208130e-02 -6.011866033077239990e-02 -4.007305949926376343e-03
1.505852639675140381e-01 -5.275912582874298096e-02 -8.540255948901176453e-03
1.176608204841613770e-01 -1.295118033885955811e-01 -1.419967226684093475e-02
9.403979778289794922e-02 -3.318124264478683472e-02 3.356629610061645508e-02
-3.023785352706909180e-02 -9.258585423231124878e-02 8.515087515115737915e-02
8.975780755281448364e-02 -1.117323413491249084e-01 8.406924456357955933e-02
-5.846768617630004883e-03 -9.795410931110382080e-02 -9.938211739063262939e-02
-4.564763605594635010e-02 -1.228054016828536987e-01 -7.317885011434555054e-02
9.417588263750076294e-02 -1.371612399816513062e-01 -8.131533861160278320e-02
1.868691146373748779e-01 -7.477372139692306519e-02 1.700781285762786865e-03
1.883012354373931885e-01 -6.250120699405670166e-02 1.010536476969718933e-01
7.607881724834442139e-02 -1.143533736467361450e-01 8.059196174144744873e-02
-1.280634850263595581e-02 -1.135248690843582153e-01 6.327989697456359863e-02
1.351630389690399170e-01 -1.089416295289993286e-01 6.319451332092285156e-02
8.030533790588378906e-03 -7.470544427633285522e-02 -6.474986672401428223e-02
9.076456725597381592e-02 -3.887076303362846375e-02 1.105174049735069275e-02
7.079674303531646729e-02 -4.590435698628425598e-02 1.772632896900177002e-01
-5.628327280282974243e-02 -1.168670356273651123e-01 -3.236006200313568115e-02
1.544781327247619629e-01 -1.030377894639968872e-01 -6.393457949161529541e-02
-8.661076426506042480e-03 -6.123030185699462891e-02 1.255288422107696533e-01
-5.974324792623519897e-02 -4.993529245257377625e-02 2.614637017250061035e-01
-8.687011897563934326e-02 -4.142187070101499557e-03 6.785693764686584473e-01
-9.075482189655303955e-02 6.129655055701732635e-03 7.124903202056884766e-01
1.641725003719329834e-02 7.265376858413219452e-03 2.570410668849945068e-01
9.086774289608001709e-02 -6.617003679275512695e-02 1.820842176675796509e-01
-1.856561005115509033e-02 -7.998484186828136444e-03 2.156497836112976074e-01
-7.618367671966552734e-02 3.000390902161598206e-02 7.393149137496948242e-01
1.647469028830528259e-02 -6.435803323984146118e-02 1.422333121299743652e-01
4.132336005568504333e-02 8.608325384557247162e-03 5.477497577667236328e-01
-2.887219935655593872e-02 -6.045577675104141235e-02 2.866888046264648438e-01
1.126963347196578979e-01 -5.157465860247612000e-02 6.724351644515991211e-02
1.332070305943489075e-02 -6.372014433145523071e-02 2.919717431068420410e-01
-7.032343745231628418e-02 4.894278943538665771e-02 6.574665307998657227e-01
-5.158539861440658569e-02 -3.910236060619354248e-02 2.112949192523956299e-01
6.632290780544281006e-02 -5.685221403837203979e-02 6.534713506698608398e-02
-8.701486885547637939e-02 3.541778028011322021e-02 4.801826775074005127e-01
-7.366032898426055908e-02 1.589033380150794983e-02 7.234938144683837891e-01
1.011245995759963989e-01 -1.077953074127435684e-02 1.973415464162826538e-01
-7.912397384643554688e-02 4.802182689309120178e-02 5.922083258628845215e-01
3.468719497323036194e-02 -6.775817275047302246e-02 2.338813841342926025e-01
-1.109821051359176636e-01 -3.619747608900070190e-02 4.119023084640502930e-01
3.564935177564620972e-02 -5.944166332483291626e-02 3.230178356170654297e-01
9.306088089942932129e-02 -6.684857606887817383e-02 1.652790904045104980e-01
9.981787204742431641e-02 1.326343044638633728e-04 3.252266347408294678e-01
-1.427739560604095459e-01 -2.116656303405761719e-02 5.110743045806884766e-01
-9.317734837532043457e-02 3.627680614590644836e-02 4.925778210163116455e-01
-3.622929006814956665e-02 4.460191354155540466e-02 5.756458640098571777e-01
-1.299940645694732666e-01 4.599711298942565918e-02 6.244913935661315918e-01
8.431686460971832275e-02 -2.244077064096927643e-02 1.247660219669342041e-01
-6.941689550876617432e-02 4.601122811436653137e-02 6.953496932983398438e-01
3.601511195302009583e-02 -5.399039015173912048e-02 3.620402514934539795e-01
5.378196015954017639e-02 -5.259621888399124146e-02 3.506945371627807617e-01
7.040069997310638428e-02 -4.005993157625198364e-02 3.887243270874023438e-01
-1.250508725643157959e-01 2.905507013201713562e-02 4.964915812015533447e-01
7.275673747062683105e-02 -9.016470983624458313e-03 4.662367999553680420e-01
6.726334989070892334e-02 -9.677950292825698853e-04 2.201016992330551147e-01
-8.219176530838012695e-02 -3.284156695008277893e-02 5.364176034927368164e-01
7.921789586544036865e-02 2.382308244705200195e-03 2.557246387004852295e-01
-1.479023694992065430e-01 -1.519337669014930725e-02 5.773330926895141602e-01
-1.435519158840179443e-01 6.792034022510051727e-03 4.547289013862609863e-01
-1.143566370010375977e-01 -2.814471721649169922e-02 3.621250987052917480e-01
2.098545059561729431e-02 1.180705334991216660e-02 2.814897000789642334e-01
-1.276666224002838135e-01 -2.899827063083648682e-02 4.581981897354125977e-01
-1.653703749179840088e-01 1.886592805385589600e-02 7.352665662765502930e-01
-3.110600821673870087e-02 2.361623197793960571e-02 3.643754720687866211e-01
-4.139021039009094238e-04 -4.062585905194282532e-02 4.716206490993499756e-01
9.684897959232330322e-03 2.454498782753944397e-02 6.052281856536865234e-01
-9.881997108459472656e-02 -3.898229449987411499e-02 4.555541276931762695e-01
1.453672349452972412e-02 -8.254433050751686096e-03 1.901675611734390259e-01
-1.578373312950134277e-01 -1.019990164786577225e-02 5.105791091918945312e-01
-7.013370096683502197e-02 -1.500256173312664032e-02 6.308738589286804199e-01
-1.359815448522567749e-01 -2.466421201825141907e-02 4.997808337211608887e-01
-1.298600882291793823e-01 4.946819692850112915e-02 6.809417009353637695e-01
-1.467691659927368164e-01 4.705283045768737793e-02 6.930223107337951660e-01
-5.398500338196754456e-02 -4.111653193831443787e-02 4.872576296329498291e-01
1.373951882123947144e-02 3.312313556671142578e-02 4.727703928947448730e-01
-1.686987578868865967e-01 3.976148739457130432e-02 6.920212507247924805e-01
-1.973971724510192871e-02 -2.096258662641048431e-02 5.758000612258911133e-01
8.741620928049087524e-03 -6.115743145346641541e-02 3.212125003337860107e-01
1.830071583390235901e-02 -5.096217989921569824e-02 3.972103595733642578e-01
-3.729090094566345215e-02 -3.728283569216728210e-02 5.100999474525451660e-01
-1.539295315742492676e-01 -7.466271053999662399e-03 6.275399923324584961e-01
-3.299355134367942810e-02 -5.724990740418434143e-02 2.216864526271820068e-01
-1.057785451412200928e-01 4.929500818252563477e-02 6.290350556373596191e-01
1.060533076524734497e-01 -2.115829288959503174e-02 3.610641360282897949e-01
-1.368397176265716553e-01 -5.384101998060941696e-03 4.174571931362152100e-01
6.831419467926025391e-02 -5.420557036995887756e-02 3.207710385322570801e-01
6.345060467720031738e-02 -3.555436618626117706e-03 4.931001067161560059e-01
2.166127040982246399e-02 -4.109087400138378143e-03 2.029109895229339600e-01
-1.070670485496520996e-01 3.106749802827835083e-02 7.639150619506835938e-01
5.596768110990524292e-03 -3.602378070354461670e-02 4.896101355552673340e-01
-5.492974072694778442e-02 4.458289220929145813e-02 5.441790223121643066e-01
1.884719729423522949e-02 -1.388702541589736938e-03 5.827293395996093750e-01
