6.340473890304565430e-02 4.898111149668693542e-02 -2.481269463896751404e-02
1.031575202941894531e-01 -5.734461173415184021e-02 -5.718831717967987061e-02
-8.855260908603668213e-03 -5.109470337629318237e-02 2.655912749469280243e-02
3.866305947303771973e-02 5.418989062309265137e-02 1.725935935974121094e-02
2.946524620056152344e-01 1.572932675480842590e-02 -2.026843279600143433e-02
1.638187915086746216e-01 -6.188294291496276855e-02 4.016027599573135376e-02
3.029238879680633545e-01 -1.586644910275936127e-02 -5.544759705662727356e-02
2.875351160764694214e-02 2.371832355856895447e-02 8.376419544219970703e-02
-5.842978507280349731e-02 3.185792267322540283e-02 1.775274798274040222e-02
7.791116833686828613e-02 2.137946709990501404e-02 -6.811200082302093506e-02
2.161329984664916992e-02 5.093125253915786743e-02 3.609089180827140808e-02
-1.256706565618515015e-02 8.739189244806766510e-03 8.292144536972045898e-02
2.454642057418823242e-01 -1.233313046395778656e-02 5.837968736886978149e-02
-1.609366387128829956e-02 -3.651381283998489380e-02 5.875722691416740417e-02
-8.139935880899429321e-02 -1.357808336615562439e-02 2.090568654239177704e-02
2.702237963676452637e-01 1.585957594215869904e-03 4.284258186817169189e-02
1.812325716018676758e-01 4.153179749846458435e-02 -4.020841792225837708e-02
6.615367531776428223e-02 -6.055418774485588074e-02 4.120717570185661316e-02
2.574801743030548096e-01 3.189142793416976929e-02 4.433268913999199867e-04
7.646910846233367920e-02 3.216725774109363556e-03 9.276774525642395020e-02
-1.118554919958114624e-02 -4.472234472632408142e-02 4.608858004212379456e-02
9.298516064882278442e-02 -4.757237434387207031e-02 -6.747486442327499390e-02
1.665402203798294067e-01 1.297352556139230728e-02 -7.964073121547698975e-02
-4.192852228879928589e-02 2.844389528036117554e-02 -1.525071077048778534e-02
5.239361524581909180e-02 5.463569611310958862e-02 4.388834349811077118e-03
1.377574354410171509e-02 -5.391747877001762390e-02 -2.330390736460685730e-02
-6.038885563611984253e-02 -2.945962920784950256e-02 1.995376544073224068e-03
3.183982372283935547e-01 -6.316984072327613831e-03 -5.232213065028190613e-03
1.186709702014923096e-01 -4.442190378904342651e-02 -7.498065382242202759e-02
1.819460690021514893e-01 -6.020248681306838989e-02 3.975658118724822998e-02
8.380700647830963135e-02 5.296003073453903198e-02 -1.526395790278911591e-02
5.520906299352645874e-02 -6.305833905935287476e-02 -2.489512786269187927e-02
2.877029776573181152e-01 -5.168650671839714050e-02 -2.862085774540901184e-02
-9.023927152156829834e-03 3.166059404611587524e-02 -3.154619783163070679e-02
1.298953741788864136e-01 -7.137531787157058716e-02 1.174450945109128952e-02
2.625929415225982666e-01 2.076764404773712158e-02 2.994175814092159271e-02
1.231691315770149231e-01 -1.596773788332939148e-02 8.831379562616348267e-02
2.421426177024841309e-01 3.196396306157112122e-02 -3.573555126786231995e-02
1.656714528799057007e-01 4.961236193776130676e-02 -1.779512129724025726e-02
2.153427898883819580e-01 3.779572434723377228e-03 6.822373718023300171e-02
3.115902543067932129e-01 3.264449536800384521e-03 -2.442322298884391785e-02
2.889158427715301514e-01 1.379787642508745193e-02 -3.839819878339767456e-02
1.781933009624481201e-01 3.457650914788246155e-02 5.710621923208236694e-02
1.329933106899261475e-01 3.524791821837425232e-02 6.884089857339859009e-02
3.601331263780593872e-02 4.035780578851699829e-02 6.738382577896118164e-02
1.139098033308982849e-01 -5.813598260283470154e-02 5.179528146982192993e-02
1.797475367784500122e-01 4.671490564942359924e-02 -2.413532510399818420e-02
-4.941203445196151733e-02 3.464536368846893311e-02 3.749820962548255920e-02
7.439920306205749512e-02 -5.955214798450469971e-02 -4.455861821770668030e-02
1.340148895978927612e-01 1.303601171821355820e-02 8.542662113904953003e-02
-5.360918492078781128e-02 1.739608123898506165e-02 6.302571296691894531e-02
1.294584423303604126e-01 2.379865199327468872e-02 -7.110010832548141479e-02
1.534319370985031128e-01 -9.982306510210037231e-03 8.535326272249221802e-02
5.853538587689399719e-02 5.368267744779586792e-02 3.543724864721298218e-02
2.058217525482177734e-01 3.740463405847549438e-02 3.920863568782806396e-02
5.884135141968727112e-02 -5.766812711954116821e-02 -4.210227727890014648e-02
2.470385432243347168e-01 2.571038156747817993e-02 -4.761092364788055420e-02
8.611775934696197510e-03 -4.972155764698982239e-02 4.611550271511077881e-02
-1.769260317087173462e-02 -4.968473315238952637e-02 1.697138696908950806e-02
-1.756768673658370972e-02 3.844185546040534973e-02 -1.446210592985153198e-02
5.405944585800170898e-02 -5.700419098138809204e-02 4.688778892159461975e-02
2.039942145347595215e-01 -4.814898967742919922e-02 -7.400441914796829224e-02
-5.465850979089736938e-02 -1.711604744195938110e-02 5.928015336394309998e-02
1.392908841371536255e-01 3.181960433721542358e-02 -6.238099932670593262e-02
8.610326051712036133e-02 -9.331566281616687775e-03 9.213482588529586792e-02
-3.642316907644271851e-02 2.284367382526397705e-02 -2.667548879981040955e-02
1.144235134124755859e-01 5.461318790912628174e-02 2.584965713322162628e-02
1.709489524364471436e-02 5.185684189200401306e-02 1.694688387215137482e-02
1.960943341255187988e-01 4.688421636819839478e-02 9.118620306253433228e-03
1.113251596689224243e-02 -3.687357157468795776e-02 6.862495839595794678e-02
1.074411869049072266e-01 3.910491615533828735e-02 -5.118030309677124023e-02
2.477124035358428955e-01 -4.010470584034919739e-02 4.433190077543258667e-02
2.400296330451965332e-01 -6.043531931936740875e-03 -7.983514666557312012e-02
2.110443115234375000e-01 -8.145057596266269684e-03 -8.551193773746490479e-02
-3.839544206857681274e-02 -4.140728339552879333e-02 1.602103002369403839e-03
-4.394573718309402466e-02 -3.945594280958175659e-02 2.278173528611660004e-02
1.182561069726943970e-01 1.796223595738410950e-02 8.542131632566452026e-02
1.874622106552124023e-01 -6.402841955423355103e-02 -5.177722498774528503e-02
-9.292088449001312256e-03 4.460076615214347839e-02 4.380183294415473938e-02
9.446093440055847168e-02 4.891900718212127686e-02 5.163025483489036560e-02
2.827952206134796143e-01 -3.678125143051147461e-02 -6.158465892076492310e-02
-5.308295041322708130e-02 1.403067354112863541e-02 -2.274464629590511322e-02
2.198841720819473267e-01 3.175354748964309692e-02 -4.869081452488899231e-02
-2.837511152029037476e-02 -4.338873550295829773e-02 -9.269955568015575409e-03
9.335017949342727661e-02 -3.221653029322624207e-02 -7.873097807168960571e-02
5.686268210411071777e-03 4.990958049893379211e-02 2.761857584118843079e-02
1.963747143745422363e-01 -1.437819190323352814e-02 7.526541501283645630e-02
2.673600912094116211e-01 3.968345001339912415e-03 -6.573544442653656006e-02
3.156214654445648193e-01 -1.385991089046001434e-02 5.934992805123329163e-03
2.493284642696380615e-03 -2.853352576494216919e-02 7.476744055747985840e-02
5.766601115465164185e-02 4.955252259969711304e-02 5.073879286646842957e-02
2.506662905216217041e-02 -5.613618716597557068e-02 3.743172064423561096e-02
6.295922398567199707e-02 5.313139408826828003e-02 -9.960178285837173462e-03
2.262535244226455688e-01 -4.371599107980728149e-02 -7.482091337442398071e-02
-3.162191063165664673e-02 -1.516902633011341095e-02 7.301668077707290649e-02
8.574068546295166016e-03 3.140803799033164978e-02 -3.979377448558807373e-02
1.811846643686294556e-01 -6.871948391199111938e-02 -3.868560492992401123e-02
3.686531633138656616e-02 3.216672688722610474e-02 7.764977961778640747e-02
8.819597959518432617e-02 5.203308537602424622e-03 -7.913053780794143677e-02
1.154392138123512268e-01 2.245306223630905151e-02 -7.158980518579483032e-02
-3.827799111604690552e-02 -2.145991660654544830e-03 -3.887501358985900879e-02
2.309774458408355713e-01 -3.351740073412656784e-03 6.399199366569519043e-02
2.632641494274139404e-01 -3.141099959611892700e-02 4.351249337196350098e-02
2.733631134033203125e-01 2.545257657766342163e-02 -2.134975045919418335e-02
1.394765079021453857e-01 -4.197848215699195862e-02 7.147359848022460938e-02
2.147555053234100342e-01 -6.906709074974060059e-02 -2.066480182111263275e-02
1.677336543798446655e-01 1.856806688010692596e-03 8.224710822105407715e-02
1.577700078487396240e-01 4.427432641386985779e-02 4.710482060909271240e-02
1.417351514101028442e-01 5.386434495449066162e-02 1.352646667510271072e-02
1.640750467777252197e-02 3.895016014575958252e-02 -3.161488100886344910e-02
-2.351848036050796509e-02 4.367804527282714844e-02 1.125315576791763306e-02
2.310441732406616211e-01 -5.960746109485626221e-02 -5.225085839629173279e-02
1.012013703584671021e-01 -5.529857426881790161e-02 5.660887807607650757e-02
2.774759829044342041e-01 -1.917735114693641663e-02 4.076658934354782104e-02
1.816654205322265625e-01 2.022147923707962036e-02 7.086122035980224609e-02
1.633699983358383179e-02 -2.277395129203796387e-02 8.220227062702178955e-02
1.827740371227264404e-01 -1.425570156425237656e-02 7.874469459056854248e-02
2.755034714937210083e-02 -5.987573787569999695e-02 2.364619262516498566e-02
5.153119564056396484e-03 -1.751044206321239471e-02 -5.878666043281555176e-02
-1.173572987318038940e-02 -2.095699124038219452e-02 -4.986870661377906799e-02
2.297215908765792847e-02 -1.027804519981145859e-02 8.874396234750747681e-02
1.190165877342224121e-01 5.382425710558891296e-02 -1.114206947386264801e-02
1.583101153373718262e-01 -4.622743278741836548e-02 6.467374414205551147e-02
-2.367027848958969116e-02 2.956339716911315918e-02 -2.639816328883171082e-02
2.918618917465209961e-01 -4.056147113442420959e-02 1.467951480299234390e-02
1.435987204313278198e-01 4.891536384820938110e-02 -2.796849235892295837e-02
5.240198224782943726e-02 2.148155495524406433e-02 -6.303985416889190674e-02
1.008938848972320557e-01 2.724977582693099976e-02 -6.584596633911132812e-02
2.287076860666275024e-01 -2.660471946001052856e-02 -8.300567418336868286e-02
8.402118086814880371e-02 4.457403719425201416e-02 -3.900700435042381287e-02
-1.645105332136154175e-02 2.071912959218025208e-02 -3.999977931380271912e-02
1.867678463459014893e-01 -2.619808539748191833e-02 7.400675117969512939e-02
2.528195381164550781e-01 -3.994919359683990479e-03 -7.568684965372085571e-02
3.961611539125442505e-02 -5.811055377125740051e-02 -3.066847845911979675e-02
3.073827922344207764e-01 -1.422187592834234238e-02 1.701111532747745514e-02
7.520712167024612427e-02 5.593989789485931396e-02 1.970271952450275421e-02
-2.362350374460220337e-02 -1.149172894656658173e-03 8.036927878856658936e-02
2.635496258735656738e-01 -5.812830105423927307e-02 1.084519317373633385e-03
1.176062375307083130e-01 4.530465975403785706e-02 -3.979600220918655396e-02
1.228478252887725830e-01 4.968533664941787720e-02 -2.806197106838226318e-02
2.862505614757537842e-01 2.498663961887359619e-04 -5.886814370751380920e-02
1.013822555541992188e-01 5.474073439836502075e-02 2.894871681928634644e-02
2.937562167644500732e-01 -1.012924220412969589e-02 2.964641898870468140e-02
1.766595244407653809e-01 2.316552773118019104e-02 -7.029199600219726562e-02
9.276597201824188232e-02 -6.958287954330444336e-02 1.323025580495595932e-02
1.714885383844375610e-01 -3.242385387420654297e-02 -8.575870096683502197e-02
2.059798687696456909e-02 3.394051641225814819e-02 7.375019788742065430e-02
1.729262918233871460e-01 -7.245824486017227173e-02 -7.029864005744457245e-03
3.090226948261260986e-01 -3.989660367369651794e-02 -1.114569231867790222e-02
1.745923161506652832e-01 5.050796270370483398e-02 3.199573140591382980e-03
1.919565498828887939e-01 3.002570569515228271e-02 5.797489359974861145e-02
1.440548151731491089e-02 1.544591505080461502e-02 8.625852316617965698e-02
2.279916107654571533e-01 1.353983674198389053e-02 5.843118205666542053e-02
-2.366064041852951050e-01 2.729420736432075500e-02 7.697389125823974609e-01
-1.187694668769836426e-01 2.128178253769874573e-02 6.439026594161987305e-01
-2.351173907518386841e-01 -1.921598426997661591e-02 5.144776701927185059e-01
-3.063250780105590820e-01 7.404985837638378143e-03 6.559605002403259277e-01
-1.462543308734893799e-01 1.371605228632688522e-02 5.342531204223632812e-01
-1.144352704286575317e-01 -3.222712874412536621e-02 4.831815063953399658e-01
3.531649708747863770e-03 6.790135987102985382e-03 4.365186989307403564e-01
4.697015136480331421e-02 -1.158223766833543777e-02 4.715403020381927490e-01
3.275059163570404053e-02 -2.610343694686889648e-02 1.978281736373901367e-01
-1.776502132415771484e-01 -1.959214359521865845e-02 6.063188314437866211e-01
1.135115325450897217e-01 -2.879099547863006592e-02 1.473546624183654785e-01
-2.117650210857391357e-01 2.492434903979301453e-02 7.707068920135498047e-01
-2.108399122953414917e-01 -2.406810969114303589e-02 4.839214682579040527e-01
1.819937974214553833e-01 -4.489138722419738770e-02 1.452954113483428955e-01
-2.554498612880706787e-01 -1.020169723778963089e-02 6.863428950309753418e-01
-2.886266708374023438e-01 1.750837638974189758e-02 6.840713024139404297e-01
-1.249873936176300049e-01 -3.526460379362106323e-02 3.620508611202239990e-01
1.377988457679748535e-01 -3.682472184300422668e-02 1.082993447780609131e-01
4.288194328546524048e-02 4.885066300630569458e-05 4.768164753913879395e-01
-2.677854299545288086e-01 1.489333342760801315e-02 6.432150602340698242e-01
-1.802553534507751465e-01 -7.154236081987619400e-03 4.466358721256256104e-01
8.749686181545257568e-03 7.338621653616428375e-03 4.531407654285430908e-01
7.901607453823089600e-02 -1.330831460654735565e-02 2.457648813724517822e-01
-6.373384594917297363e-02 -2.408023178577423096e-02 5.235363841056823730e-01
-2.759379744529724121e-01 -7.108989171683788300e-03 7.079387903213500977e-01
-1.690114736557006836e-01 9.492754004895687103e-03 5.187053680419921875e-01
8.472010493278503418e-03 7.479132153093814850e-03 5.040249228477478027e-01
-2.376906573772430420e-02 -2.442549355328083038e-02 4.930550754070281982e-01
-2.516617998480796814e-02 9.647597558796405792e-03 4.637326002120971680e-01
1.118572950363159180e-01 -1.023959740996360779e-02 3.601547479629516602e-01
-8.719187974929809570e-02 1.844600588083267212e-02 5.892828106880187988e-01
1.219582110643386841e-01 -4.852248728275299072e-02 1.979745328426361084e-01
-1.060499995946884155e-02 -5.655581597238779068e-03 3.247947096824645996e-01
-2.202489227056503296e-01 2.280426397919654846e-02 6.643345355987548828e-01
-2.460345253348350525e-02 2.253386192023754120e-03 3.874524831771850586e-01
-2.999497056007385254e-01 2.675289660692214966e-02 8.047521114349365234e-01
-2.459593862295150757e-02 -2.490684762597084045e-02 2.434259504079818726e-01
-1.436103880405426025e-01 -1.955798268318176270e-02 5.954194068908691406e-01
1.173463463783264160e-01 -5.163272842764854431e-02 1.445916295051574707e-01
-4.823172092437744141e-02 1.273291278630495071e-02 5.002552866935729980e-01
5.383329093456268311e-02 -1.607857644557952881e-02 2.342817336320877075e-01
-2.538900375366210938e-01 2.264858037233352661e-02 8.148804903030395508e-01
-2.014828622341156006e-01 7.137376815080642700e-04 7.334600687026977539e-01
5.599109828472137451e-02 -7.882490754127502441e-04 3.628038763999938965e-01
-2.950597405433654785e-01 8.518467657268047333e-03 6.436200141906738281e-01
-1.571964621543884277e-01 -9.526712819933891296e-04 6.989742517471313477e-01
-2.585654258728027344e-01 2.724204584956169128e-02 7.562578916549682617e-01
-1.286665201187133789e-01 -3.297598659992218018e-02 4.741086661815643311e-01
7.474152743816375732e-02 -3.913019597530364990e-02 3.220394849777221680e-01
-2.525873184204101562e-01 -1.639717631042003632e-02 6.224498748779296875e-01
-5.226466804742813110e-02 -3.638438507914543152e-02 2.525433301925659180e-01
1.062508076429367065e-01 -5.143865570425987244e-02 1.348000168800354004e-01
-2.295955270528793335e-01 -1.747936755418777466e-02 6.248509883880615234e-01
-2.260750085115432739e-01 -3.811664879322052002e-03 5.095849037170410156e-01
-1.055498421192169189e-01 -3.522142767906188965e-02 4.493674039840698242e-01
2.679958939552307129e-03 -4.807291552424430847e-02 2.446694374084472656e-01
-7.575856149196624756e-02 -1.889114454388618469e-02 5.609546303749084473e-01
-7.000509649515151978e-02 1.662840694189071655e-02 5.615360140800476074e-01
-2.660596966743469238e-01 2.637077867984771729e-02 7.452310323715209961e-01
8.023142814636230469e-03 -2.905423752963542938e-03 3.373571634292602539e-01
-6.812691688537597656e-02 -2.739099971950054169e-02 5.051214098930358887e-01
-8.511687815189361572e-02 -1.211782731115818024e-02 3.389475941658020020e-01
-2.114805281162261963e-01 2.205990254878997803e-02 6.505256891250610352e-01
-1.605123281478881836e-01 2.221043221652507782e-03 7.125139832496643066e-01
-1.599490493535995483e-01 2.420297265052795410e-02 6.856855750083923340e-01
-4.830910265445709229e-02 8.732127957046031952e-03 4.515018463134765625e-01
-4.490449279546737671e-02 -4.396805539727210999e-02 2.747485041618347168e-01
1.571705192327499390e-01 -4.784225672483444214e-02 9.021025896072387695e-02
-1.756308227777481079e-02 -4.086592793464660645e-02 3.702403903007507324e-01
8.405247330665588379e-02 -5.098767951130867004e-02 1.475672721862792969e-01
-2.572627067565917969e-01 -5.497554317116737366e-03 7.212021350860595703e-01
-1.767172515392303467e-01 -1.593185961246490479e-02 6.325183510780334473e-01
1.651196181774139404e-01 -2.166675962507724762e-02 2.131650447845458984e-01
-1.325765550136566162e-01 2.068201452493667603e-02 6.051015257835388184e-01
1.341357082128524780e-02 -1.924931071698665619e-02 2.380115538835525513e-01
1.565193235874176025e-01 -4.978128522634506226e-02 1.316874921321868896e-01
-2.332961857318878174e-01 -2.018613182008266449e-02 5.879115462303161621e-01
-1.583652198314666748e-01 2.145206928253173828e-02 6.187286376953125000e-01
-7.657068967819213867e-02 -2.413040958344936371e-03 3.808838725090026855e-01
3.548637032508850098e-04 -2.355007454752922058e-04 3.605669736862182617e-01
7.589854300022125244e-02 -6.890677381306886673e-03 3.000592589378356934e-01
-3.332437872886657715e-01 1.947246491909027100e-02 7.636206746101379395e-01
-7.301691174507141113e-02 -3.837968409061431885e-02 2.840437889099121094e-01
-2.949375212192535400e-01 2.345285192131996155e-02 7.402411699295043945e-01
1.130851507186889648e-01 -5.096078291535377502e-02 1.224147975444793701e-01
-1.134809553623199463e-01 -1.738671958446502686e-02 3.457155823707580566e-01
4.997804760932922363e-02 -4.934951290488243103e-02 1.693201065063476562e-01
7.929340004920959473e-03 -4.235067218542098999e-02 1.897128820419311523e-01
-2.481788098812103271e-01 2.603464201092720032e-02 7.249591350555419922e-01
-1.853737235069274902e-01 -2.142867818474769592e-02 5.921537280082702637e-01
-1.405570656061172485e-02 -4.216404631733894348e-02 3.552376627922058105e-01
-3.925722092390060425e-02 -4.189807549118995667e-02 3.644164502620697021e-01
-1.496720016002655029e-01 -2.779052034020423889e-02 5.306038856506347656e-01
4.822885990142822266e-02 -2.413580566644668579e-02 1.965069174766540527e-01
1.147826611995697021e-01 -9.868078865110874176e-03 2.964237332344055176e-01
5.393162369728088379e-02 -5.057471618056297302e-02 2.051931321620941162e-01
-3.323665261268615723e-01 1.423540618270635605e-02 7.289339303970336914e-01
1.019676774740219116e-02 -4.706230759620666504e-02 2.051017880439758301e-01
-4.501033946871757507e-02 1.011097151786088943e-02 4.661188423633575439e-01
-5.447096377611160278e-02 -1.876239478588104248e-02 5.461245179176330566e-01
-2.834190130233764648e-01 -1.201768126338720322e-02 6.271200776100158691e-01
-1.417768001556396484e-01 -2.570886537432670593e-02 5.486029386520385742e-01
-5.514916777610778809e-02 -2.490255795419216156e-02 5.129545927047729492e-01
-1.431096196174621582e-01 2.241405844688415527e-02 6.360553503036499023e-01
-2.115887552499771118e-01 1.374719757586717606e-02 7.796148061752319336e-01
-1.722626686096191406e-01 -2.661824598908424377e-02 4.114780724048614502e-01
1.169925928115844727e-01 -3.888350725173950195e-02 2.810955345630645752e-01
7.229910790920257568e-02 -7.287708576768636703e-03 4.375922977924346924e-01
-3.412060737609863281e-01 1.522863935679197311e-02 8.256456851959228516e-01
4.923088848590850830e-02 1.507675275206565857e-03 4.501706957817077637e-01
-7.400865107774734497e-02 1.461501885205507278e-02 5.207751393318176270e-01
-1.262127608060836792e-02 -1.415494643151760101e-02 2.778499722480773926e-01
-3.975141048431396484e-02 -1.185949053615331650e-02 5.638718008995056152e-01
3.002591431140899658e-03 -5.338671617209911346e-03 3.212959170341491699e-01
-1.927619576454162598e-01 2.431488037109375000e-02 6.699000597000122070e-01
-1.420339345932006836e-01 -1.371797081083059311e-02 6.302836537361145020e-01
-1.683017313480377197e-01 2.411092445254325867e-02 6.655395627021789551e-01
4.911735653877258301e-02 -1.920211687684059143e-02 2.192098647356033325e-01
-1.988888084888458252e-01 2.582452073693275452e-02 7.431050539016723633e-01
9.609465301036834717e-02 -5.529393441975116730e-03 3.502237200736999512e-01
1.492907851934432983e-01 -2.462709695100784302e-02 1.682745516300201416e-01
-2.376870438456535339e-02 -2.701992169022560120e-02 4.783873260021209717e-01
1.788223534822463989e-01 -2.742318809032440186e-02 2.235052138566970825e-01
-8.210739493370056152e-02 -2.603010646998882294e-02 5.221003293991088867e-01
-3.250791504979133606e-02 -1.398617215454578400e-02 5.491722822189331055e-01
-7.169475406408309937e-02 -3.962035849690437317e-02 3.949936628341674805e-01
-1.088715493679046631e-01 -3.835451975464820862e-02 3.634582161903381348e-01
7.342678308486938477e-02 -5.104954168200492859e-02 1.929001212120056152e-01
-2.236419916152954102e-01 5.977173335850238800e-03 7.662123441696166992e-01
1.000342667102813721e-01 -6.641180720180273056e-03 3.663907051086425781e-01
1.878515928983688354e-01 -2.926836535334587097e-02 1.852836012840270996e-01
9.759607911109924316e-02 -5.167394503951072693e-02 1.525636911392211914e-01
-2.579825520515441895e-01 2.707592770457267761e-02 7.968038320541381836e-01
-1.562632322311401367e-01 -3.144653141498565674e-02 4.827373027801513672e-01
1.317659020423889160e-01 -3.366342186927795410e-02 2.914979159832000732e-01
-5.854196101427078247e-02 -3.654674068093299866e-02 4.278199374675750732e-01
-1.300842314958572388e-01 2.206092327833175659e-02 6.628717184066772461e-01
-1.362287551164627075e-01 -9.417514316737651825e-03 6.489402055740356445e-01
1.907033771276473999e-01 -3.246469795703887939e-02 1.443661749362945557e-01
1.739484518766403198e-01 -4.466632381081581116e-02 1.641643047332763672e-01
-1.268691420555114746e-01 -3.527814894914627075e-02 4.399887919425964355e-01
-2.123541235923767090e-01 -2.355040982365608215e-02 5.585588216781616211e-01
-3.089112639427185059e-01 1.860930398106575012e-02 7.178064584732055664e-01
-1.090403124690055847e-01 5.279949866235256195e-03 4.494414925575256348e-01
-6.009167060256004333e-02 1.122878212481737137e-02 4.793097972869873047e-01
-5.639137327671051025e-02 -2.547756955027580261e-02 2.694416046142578125e-01
-4.830567538738250732e-02 -4.365769773721694946e-02 3.327823877334594727e-01
-9.682095050811767578e-02 -2.772170677781105042e-02 5.172699689865112305e-01
-1.149271130561828613e-01 4.122522659599781036e-03 6.803522109985351562e-01
1.963340491056442261e-01 -3.650964796543121338e-02 1.576666235923767090e-01
1.860263198614120483e-02 -3.143806010484695435e-02 4.193389415740966797e-01
-1.480450630187988281e-01 -2.071905881166458130e-03 4.367278516292572021e-01
4.031199961900711060e-02 2.228028140962123871e-03 3.951164186000823975e-01
-2.404721677303314209e-01 -2.032366767525672913e-02 5.529136061668395996e-01
-1.285787224769592285e-01 -2.883413434028625488e-02 5.182703137397766113e-01
1.495373100042343140e-01 -5.057696625590324402e-02 1.207131743431091309e-01
8.570422232151031494e-02 -1.817470975220203400e-02 4.063015282154083252e-01
-3.063778877258300781e-01 2.588934823870658875e-02 7.897273302078247070e-01
2.513662725687026978e-02 3.620211966335773468e-03 4.034363925457000732e-01
-4.410266131162643433e-02 -2.584265917539596558e-02 4.998447299003601074e-01
-2.851494774222373962e-02 5.668613128364086151e-03 4.184339344501495361e-01
-1.807854771614074707e-01 -1.225086580961942673e-02 4.318075776100158691e-01
-2.132001519203186035e-01 9.646928869187831879e-03 5.568566322326660156e-01
-1.643528044223785400e-01 -2.022827044129371643e-03 4.515519738197326660e-01
-1.259057223796844482e-01 2.625348046422004700e-03 4.440827071666717529e-01
-1.725865453481674194e-01 1.624460145831108093e-02 5.712256431579589844e-01
-3.162423968315124512e-01 2.439372986555099487e-02 8.345597982406616211e-01
1.423072367906570435e-01 -3.212133049964904785e-02 2.838284969329833984e-01
6.927251815795898438e-03 -4.293338209390640259e-02 3.384027481079101562e-01
-1.657596379518508911e-01 1.804425567388534546e-02 5.834200978279113770e-01
1.307983994483947754e-01 -5.131428688764572144e-02 1.240568161010742188e-01
-4.150737449526786804e-02 -4.355132207274436951e-02 2.620598077774047852e-01
-1.434455066919326782e-02 -2.294220961630344391e-03 3.492022752761840820e-01
-3.151183947920799255e-02 1.059921924024820328e-02 5.750645399093627930e-01
-1.497213691473007202e-01 -1.640653237700462341e-02 6.184478998184204102e-01
-3.399699553847312927e-02 1.303355302661657333e-02 5.497707128524780273e-01
-1.702538132667541504e-01 2.177483960986137390e-02 6.264156699180603027e-01
-1.033687517046928406e-01 1.652191206812858582e-02 6.687005758285522461e-01
-1.098958551883697510e-01 1.797471940517425537e-02 5.650044083595275879e-01
1.698843240737915039e-01 -3.311429545283317566e-02 2.356763780117034912e-01
-2.595934271812438965e-01 2.800173126161098480e-03 5.738353729248046875e-01
-2.208211719989776611e-01 1.794975250959396362e-02 6.200017333030700684e-01
-3.202181681990623474e-02 -3.812360763549804688e-02 4.027777314186096191e-01
-1.171251758933067322e-01 -4.245237912982702255e-03 6.572424173355102539e-01
1.630916297435760498e-01 -4.764108359813690186e-02 1.534160971641540527e-01
1.161201894283294678e-01 -1.299611851572990417e-02 2.549515962600708008e-01
-5.560374259948730469e-02 9.524391032755374908e-03 6.181234717369079590e-01
1.117970049381256104e-02 -6.779751274734735489e-03 3.084420859813690186e-01
-1.392678022384643555e-01 -1.462303288280963898e-02 3.798194527626037598e-01
1.893701404333114624e-02 -4.463348537683486938e-02 3.145770430564880371e-01
-1.972777247428894043e-01 -2.662862464785575867e-02 5.217457413673400879e-01
1.865878701210021973e-03 2.609101124107837677e-03 3.859469592571258545e-01
-1.188613399863243103e-01 1.980502903461456299e-02 6.742380857467651367e-01
-2.459201961755752563e-01 -8.864510804414749146e-03 6.969084739685058594e-01
-2.879217565059661865e-01 2.015400677919387817e-02 7.025017142295837402e-01
-1.208512708544731140e-01 -3.713821619749069214e-02 3.847571313381195068e-01
-7.122105360031127930e-02 -4.193845391273498535e-02 3.507275879383087158e-01
-2.770342826843261719e-01 7.096442393958568573e-03 7.937764525413513184e-01
-3.728234022855758667e-02 -2.710758894681930542e-02 4.874886572360992432e-01
-2.749230340123176575e-02 -4.589557647705078125e-02 2.892178297042846680e-01
-3.592931851744651794e-02 -3.083654865622520447e-02 2.390701770782470703e-01
-2.652801871299743652e-01 1.961730420589447021e-03 7.663856744766235352e-01
1.333707422018051147e-01 -1.367004308849573135e-02 2.686606049537658691e-01
3.828350454568862915e-02 -4.401434585452079773e-02 3.105335831642150879e-01
-8.070537447929382324e-02 -3.838786855340003967e-02 2.963602244853973389e-01
-1.908500120043754578e-02 7.410381920635700226e-03 4.364420473575592041e-01
-1.449489146471023560e-01 2.303348854184150696e-02 6.530231833457946777e-01
-3.017425537109375000e-01 2.042681723833084106e-02 8.387166857719421387e-01
6.098762154579162598e-02 -3.224890679121017456e-05 4.284534454345703125e-01
1.773847639560699463e-02 -6.676162593066692352e-03 5.172967314720153809e-01
8.470980823040008545e-02 -1.025755889713764191e-02 4.177324771881103516e-01
-4.588744044303894043e-02 4.590432159602642059e-03 4.133588075637817383e-01
1.585562974214553833e-01 -2.244861982762813568e-02 2.752339243888854980e-01
-9.611576795578002930e-03 8.385130204260349274e-03 4.527444839477539062e-01
7.786385715007781982e-02 -4.483911395072937012e-02 2.746070325374603271e-01
1.715579628944396973e-02 -4.886270686984062195e-02 2.224366664886474609e-01
4.072925448417663574e-02 -3.043892234563827515e-02 1.778931915760040283e-01
-2.989230751991271973e-01 -3.749554976820945740e-03 7.272917032241821289e-01
1.471044421195983887e-01 -4.334735125303268433e-02 2.151625007390975952e-01
7.041268050670623779e-03 -4.620229080319404602e-02 2.985758483409881592e-01
-4.628165066242218018e-02 1.379474531859159470e-02 5.790774822235107422e-01
-1.788318604230880737e-01 2.343229204416275024e-02 6.523398160934448242e-01
3.876583278179168701e-02 -1.366495154798030853e-02 2.542409300804138184e-01
-8.770460635423660278e-02 1.096953172236680984e-02 4.830522239208221436e-01
-3.872998803853988647e-02 -3.282128274440765381e-02 4.498706758022308350e-01
-7.063463330268859863e-03 9.802269749343395233e-03 4.881403744220733643e-01
1.398482322692871094e-01 -1.643393374979496002e-02 3.103234171867370605e-01
-2.024822682142257690e-01 1.772995293140411377e-02 6.040316820144653320e-01
-6.995011866092681885e-02 -1.407239492982625961e-02 5.802756547927856445e-01
9.886033833026885986e-02 -6.320169195532798767e-03 3.330994844436645508e-01
-2.448581606149673462e-01 -1.953781396150588989e-02 5.692420005798339844e-01
-2.155044376850128174e-01 2.685400843620300293e-02 7.351175546646118164e-01
-1.500061601400375366e-01 -1.177249848842620850e-02 6.452756524085998535e-01
-2.510626912117004395e-01 -1.387604232877492905e-02 5.323272347450256348e-01
-5.541369318962097168e-02 -4.279245063662528992e-02 2.826421260833740234e-01
-5.816838890314102173e-02 1.377866882830858231e-02 5.125257372856140137e-01
1.331502199172973633e-02 7.356810383498668671e-03 4.789028465747833252e-01
-9.292446076869964600e-03 1.009054575115442276e-02 5.189943909645080566e-01
-2.623760700225830078e-01 8.231124840676784515e-03 6.004940271377563477e-01
-3.138251602649688721e-01 2.569800987839698792e-02 8.208979368209838867e-01
-1.939723268151283264e-02 1.111177634447813034e-02 5.379668474197387695e-01
-1.309989392757415771e-01 -2.311571501195430756e-02 5.654610395431518555e-01
9.405246376991271973e-02 -5.156908184289932251e-02 1.682270169258117676e-01
-2.710878252983093262e-01 -1.328330114483833313e-02 6.437951922416687012e-01
-1.014920696616172791e-01 -3.228449262678623199e-03 3.935610949993133545e-01
5.456405878067016602e-02 -4.710580408573150635e-02 2.678533792495727539e-01
-1.087806820869445801e-01 -1.468523032963275909e-02 6.051453351974487305e-01
5.176243185997009277e-02 -1.944407820701599121e-03 3.453219532966613770e-01
-2.792718708515167236e-01 -1.053644530475139618e-02 6.715490818023681641e-01
-1.359680891036987305e-01 1.567666418850421906e-03 6.916581392288208008e-01
1.043616533279418945e-01 -3.244604915380477905e-02 1.356176733970642090e-01
6.540206074714660645e-02 -4.437511041760444641e-02 2.885509133338928223e-01
7.457281649112701416e-02 -4.920575022697448730e-02 2.289482951164245605e-01
1.031626462936401367e-01 -2.192483469843864441e-02 1.857129633426666260e-01
2.302987873554229736e-02 4.604442976415157318e-03 4.173544943332672119e-01
3.190199285745620728e-02 -1.784123107790946960e-02 4.715592563152313232e-01
1.642885059118270874e-01 -2.333845198154449463e-02 2.609983682632446289e-01
-1.470494568347930908e-01 -2.923232316970825195e-02 5.156022906303405762e-01
3.301719576120376587e-02 1.197740435600280762e-03 4.923521578311920166e-01
1.166032850742340088e-01 -1.469950098544359207e-02 2.381940037012100220e-01
-2.576642036437988281e-01 1.155443768948316574e-02 6.124159693717956543e-01
-2.349176630377769470e-02 -3.519722446799278259e-02 4.230766594409942627e-01
-2.387453466653823853e-01 6.156046874821186066e-03 7.747744917869567871e-01
-1.572666019201278687e-01 4.781746305525302887e-03 4.805522561073303223e-01
-2.273107618093490601e-01 2.230335958302021027e-03 7.533337473869323730e-01
-2.045507282018661499e-01 -9.183875285089015961e-03 6.851940155029296875e-01
9.911730885505676270e-04 8.487182669341564178e-03 4.672863185405731201e-01
-3.044871091842651367e-01 2.491749823093414307e-02 7.702670097351074219e-01
-1.962317824363708496e-01 1.081344950944185257e-02 5.490245819091796875e-01
1.730885654687881470e-01 -2.413123100996017456e-02 1.976262629032135010e-01
1.375712305307388306e-01 -5.042785406112670898e-02 1.527306139469146729e-01
-2.793331444263458252e-02 -3.417146392166614532e-03 3.473671674728393555e-01
-4.903437197208404541e-02 -2.937478199601173401e-02 4.804554581642150879e-01
-7.384254038333892822e-02 6.033899262547492981e-04 3.976544141769409180e-01
-1.643144935369491577e-01 2.329142019152641296e-02 6.486114263534545898e-01
-1.488032341003417969e-01 1.853867992758750916e-02 5.805017948150634766e-01
-2.505924403667449951e-01 1.747819036245346069e-02 6.429009437561035156e-01
-3.321466445922851562e-01 1.345270313322544098e-03 7.336496114730834961e-01
-1.628796458244323730e-01 -1.648815721273422241e-02 4.010951519012451172e-01
-2.036924809217453003e-01 2.932081930339336395e-03 5.121784210205078125e-01
-2.806761264801025391e-01 2.682682126760482788e-02 7.691524028778076172e-01
-1.031579077243804932e-02 -2.057723701000213623e-02 2.478512227535247803e-01
2.901730686426162720e-02 -3.994506970047950745e-02 3.524567782878875732e-01
-1.705031991004943848e-01 -3.099625185132026672e-02 4.488339722156524658e-01
3.219687193632125854e-02 -1.644358225166797638e-02 2.415440678596496582e-01
-2.835885584354400635e-01 1.885727979242801666e-03 7.693181037902832031e-01
-2.805933952331542969e-01 1.437756512314081192e-02 6.546932458877563477e-01
-1.787224560976028442e-01 -1.346289645880460739e-02 6.492613554000854492e-01
-1.153957843780517578e-02 -4.713182151317596436e-02 2.594734430313110352e-01
4.404485970735549927e-02 -2.355084940791130066e-02 4.365695714950561523e-01
-2.935571074485778809e-01 2.672616019845008850e-02 7.855995893478393555e-01
5.954918265342712402e-02 6.702551618218421936e-04 4.140178561210632324e-01
-2.693152427673339844e-01 -4.962543956935405731e-03 5.661159753799438477e-01
-1.301767230033874512e-01 -2.077988162636756897e-02 5.813478231430053711e-01
-4.117976501584053040e-02 -1.780682988464832306e-02 5.402203202247619629e-01
-9.896356612443923950e-02 1.302265282720327377e-02 5.062408447265625000e-01
1.424254029989242554e-01 -5.022669583559036255e-02 1.046043932437896729e-01
1.699266284704208374e-01 -4.874242842197418213e-02 1.167718172073364258e-01
-2.816815376281738281e-01 -8.712796494364738464e-03 5.885123014450073242e-01
-2.697064280509948730e-01 2.430377528071403503e-02 7.212723493576049805e-01
1.100051254034042358e-01 -2.633657306432723999e-02 3.498181998729705811e-01
4.760008305311203003e-02 -4.826702922582626343e-02 2.562928497791290283e-01
-3.365404903888702393e-02 8.591574616730213165e-03 4.489780366420745850e-01
-3.177931532263755798e-02 1.110073644667863846e-02 4.825958311557769775e-01
-2.800147980451583862e-02 -1.711398363113403320e-02 5.322222113609313965e-01
5.532182753086090088e-02 -3.287473693490028381e-02 1.610291302204132080e-01
-2.437162846326828003e-01 -4.936314653605222702e-03 7.225146293640136719e-01
1.799320131540298462e-01 -2.736205235123634338e-02 1.717143654823303223e-01
-2.101001739501953125e-01 -2.087531238794326782e-02 5.950345993041992188e-01
1.095818132162094116e-01 -1.976018771529197693e-02 3.688919544219970703e-01
8.582375943660736084e-02 -2.912937104701995850e-02 1.566763520240783691e-01
-1.962751001119613647e-01 1.980169862508773804e-02 6.181117296218872070e-01
-7.530285418033599854e-02 -8.515571244060993195e-03 3.475767076015472412e-01
1.544361412525177002e-01 -1.922830566763877869e-02 2.240524888038635254e-01
-2.981338798999786377e-01 -8.053300902247428894e-03 6.755779385566711426e-01
-5.648550391197204590e-02 -3.371857479214668274e-02 4.520226716995239258e-01
-1.022147387266159058e-01 -3.751937672495841980e-02 4.176988303661346436e-01
-2.689790129661560059e-01 -1.502205524593591690e-02 6.013915538787841797e-01
-3.288288116455078125e-01 2.197023481130599976e-02 7.776035666465759277e-01
1.015786379575729370e-01 -5.082724988460540771e-02 1.841557025909423828e-01
4.437495768070220947e-02 -4.681056737899780273e-02 2.769803106784820557e-01
5.721919238567352295e-02 -2.889434993267059326e-02 3.985962271690368652e-01
-1.064859330654144287e-03 5.622754804790019989e-03 4.183876514434814453e-01
1.864802092313766479e-01 -3.325996920466423035e-02 1.311000287532806396e-01
1.408463716506958008e-01 -3.999321907758712769e-02 2.457834929227828979e-01
-2.686008810997009277e-02 -6.742561701685190201e-03 3.261222839355468750e-01
-1.759685277938842773e-01 1.994269341230392456e-02 6.077412366867065430e-01
2.389480918645858765e-02 -1.138391159474849701e-02 2.739742994308471680e-01
-1.766934990882873535e-01 -8.971633389592170715e-03 6.742997765541076660e-01
7.216408848762512207e-02 -3.734877333045005798e-03 3.348197638988494873e-01
-2.932605147361755371e-01 -9.810377843677997589e-03 6.452981233596801758e-01
-1.980184614658355713e-01 -2.711419202387332916e-02 4.872662723064422607e-01
-8.357809484004974365e-02 -1.791513152420520782e-02 5.715030431747436523e-01
-1.692753136157989502e-01 2.345839142799377441e-02 7.260000705718994141e-01
3.792154043912887573e-02 -4.993752017617225647e-02 2.022034823894500732e-01
-1.275983154773712158e-01 -1.513995323330163956e-02 3.664173185825347900e-01
-6.334684789180755615e-02 1.571444422006607056e-02 5.461428165435791016e-01
-1.145046204328536987e-01 2.063978835940361023e-02 6.145309805870056152e-01
-2.948001027107238770e-01 2.522288262844085693e-02 7.606970071792602539e-01
-1.359814405441284180e-01 -3.117562085390090942e-02 4.947654306888580322e-01
-3.504343032836914062e-01 1.595363020896911621e-02 7.841475009918212891e-01
-3.035942316055297852e-01 6.274181418120861053e-03 7.942276000976562500e-01
-1.747303456068038940e-02 -8.498093113303184509e-03 3.108202815055847168e-01
1.065449416637420654e-02 -1.590692065656185150e-02 2.555235028266906738e-01
-1.893133521080017090e-01 -1.903865486383438110e-03 7.154146432876586914e-01
-1.919871866703033447e-01 2.550019696354866028e-02 6.940738558769226074e-01
-3.185298293828964233e-02 -2.249507978558540344e-02 5.096359252929687500e-01
9.401266276836395264e-02 -3.823935613036155701e-02 1.235429346561431885e-01
1.646821945905685425e-02 -1.358176395297050476e-02 5.022360086441040039e-01
1.725810766220092773e-01 -3.617833927273750305e-02 1.080702245235443115e-01
-9.664379060268402100e-02 -3.620045259594917297e-02 3.133000433444976807e-01
4.821342229843139648e-02 -3.719940781593322754e-02 3.581936657428741455e-01
1.757266968488693237e-01 -4.113327711820602417e-02 9.241101145744323730e-02
1.133791208267211914e-01 -9.005560539662837982e-03 3.133648037910461426e-01
-1.762724816799163818e-01 -2.762711234390735626e-02 5.271779894828796387e-01
-2.239174544811248779e-01 -2.313814684748649597e-02 5.318818092346191406e-01
-1.921700239181518555e-01 -7.999332621693611145e-03 4.568704068660736084e-01
-1.531474143266677856e-01 -4.105724394321441650e-03 6.837038993835449219e-01
1.352879256010055542e-01 -4.393115267157554626e-02 2.254753857851028442e-01
-3.112607002258300781e-01 -1.692529767751693726e-03 7.371823787689208984e-01
-1.365672796964645386e-01 1.382465753704309464e-02 7.135338187217712402e-01
-2.137833833694458008e-01 4.153863526880741119e-03 7.539988756179809570e-01
-1.736659705638885498e-01 8.383691310882568359e-04 7.168544530868530273e-01
-1.977241337299346924e-01 -2.398753166198730469e-02 5.637579560279846191e-01
-2.797823846340179443e-01 1.052613463252782822e-02 8.081408739089965820e-01
1.400033235549926758e-01 -2.228459343314170837e-02 1.827253103256225586e-01
-1.285969316959381104e-01 1.796755939722061157e-02 5.674661397933959961e-01
-1.777429580688476562e-01 2.522869408130645752e-02 7.029620409011840820e-01
-1.112658083438873291e-01 -3.655376657843589783e-02 4.288412034511566162e-01
-2.768653035163879395e-01 -8.891273289918899536e-03 6.914409995079040527e-01
1.540758609771728516e-01 -3.576008975505828857e-02 2.507113218307495117e-01
-1.966494321823120117e-01 -1.421898603439331055e-02 6.503694653511047363e-01
2.656390517950057983e-02 -3.828357532620429993e-02 3.671286106109619141e-01
1.158571392297744751e-01 -2.224650233983993530e-02 1.817835271358489990e-01
-1.343988478183746338e-01 9.314670227468013763e-03 4.933189749717712402e-01
6.578119099140167236e-02 -3.288946673274040222e-02 3.691245913505554199e-01
1.075411885976791382e-01 -7.700860500335693359e-03 3.435242772102355957e-01
-1.599988937377929688e-01 1.298282761126756668e-02 5.369359254837036133e-01
2.690146118402481079e-02 -4.548624530434608459e-02 3.012034296989440918e-01
-1.505386829376220703e-01 -3.344174101948738098e-02 4.152314960956573486e-01
1.434244364500045776e-01 -1.577492803335189819e-02 2.916702628135681152e-01
-3.270101547241210938e-01 1.414920203387737274e-03 7.493568658828735352e-01
8.978757262229919434e-02 -6.747234147042036057e-03 4.005712270736694336e-01
4.651121795177459717e-02 -4.008271172642707825e-02 3.386546969413757324e-01
-1.122771352529525757e-01 1.142382901161909103e-02 4.972680509090423584e-01
1.689472794532775879e-01 -3.017446398735046387e-02 1.381041109561920166e-01
-1.229403465986251831e-01 -1.452574972063302994e-02 6.148652434349060059e-01
-3.100472688674926758e-01 8.532493375241756439e-03 8.054487705230712891e-01
-1.042097657918930054e-01 -3.695169836282730103e-02 3.307465016841888428e-01
1.236405819654464722e-01 -5.059662833809852600e-02 1.673794686794281006e-01
1.527715474367141724e-02 -3.649831563234329224e-02 3.883867561817169189e-01
-3.084230422973632812e-01 1.432228926569223404e-02 8.281046152114868164e-01
1.346416473388671875e-01 -2.031945623457431793e-02 1.962631046772003174e-01
-9.590814262628555298e-02 -3.964502736926078796e-02 3.759013712406158447e-01
-3.589666262269020081e-02 1.298299152404069901e-02 5.174539089202880859e-01
4.637415707111358643e-02 -3.377002105116844177e-02 3.818325996398925781e-01
-7.501282542943954468e-02 -2.292452007532119751e-02 5.376830101013183594e-01
-2.919625043869018555e-01 -1.580089330673217773e-03 7.471280097961425781e-01
6.712202727794647217e-02 -1.726952940225601196e-02 2.226792424917221069e-01
-1.971862316131591797e-01 -1.894849166274070740e-02 4.432920813560485840e-01
-3.009883165359497070e-01 -5.685818381607532501e-03 6.296336054801940918e-01
-1.662773489952087402e-01 -6.114766467362642288e-03 6.829791069030761719e-01
7.445588707923889160e-03 -1.240706816315650940e-02 2.756858468055725098e-01
-6.168481707572937012e-02 -2.224352210760116577e-03 3.728653192520141602e-01
-6.691172719001770020e-02 -4.068917408585548401e-02 3.800058364868164062e-01
-6.140514835715293884e-02 -3.447916358709335327e-03 6.112800240516662598e-01
-2.149979025125503540e-01 6.227663718163967133e-03 5.397133827209472656e-01
1.118193268775939941e-01 -3.609879314899444580e-02 1.201108396053314209e-01
-1.410138607025146484e-01 -3.468038514256477356e-02 4.291393160820007324e-01
-2.418675422668457031e-01 1.225092541426420212e-02 5.998819470405578613e-01
-3.280077576637268066e-01 8.122869767248630524e-03 6.964719891548156738e-01
-1.877434104681015015e-01 -2.653818577527999878e-02 5.353067517280578613e-01
-2.001921385526657104e-01 1.452779863029718399e-02 5.774939060211181641e-01
1.468323320150375366e-01 -2.648897469043731689e-02 1.554341316223144531e-01
7.255175709724426270e-02 -1.784038729965686798e-03 4.087417125701904297e-01
-2.070360630750656128e-01 2.465507760643959045e-02 6.802799105644226074e-01
-2.433097809553146362e-01 2.216641977429389954e-02 6.753015518188476562e-01
-2.114823013544082642e-01 -2.279905602335929871e-03 4.980717301368713379e-01
9.107154607772827148e-02 -5.076759681105613708e-02 1.928330063819885254e-01
3.724987804889678955e-02 -3.216721490025520325e-02 3.993590772151947021e-01
-2.366430163383483887e-01 1.820035278797149658e-02 6.354096531867980957e-01
-2.244420200586318970e-01 -2.402783371508121490e-03 7.303149700164794922e-01
-1.086814180016517639e-01 1.960306614637374878e-02 6.559548377990722656e-01
-2.077571898698806763e-01 -1.266932208091020584e-02 4.643561542034149170e-01
-2.432677149772644043e-01 1.525309216231107712e-02 6.202858686447143555e-01
-2.566331624984741211e-01 -1.689118519425392151e-02 5.632469058036804199e-01
-2.804335355758666992e-01 2.745417505502700806e-02 7.918388843536376953e-01
-6.574445962905883789e-02 -4.267215356230735779e-02 3.120951056480407715e-01
7.251395285129547119e-02 -3.468026220798492432e-02 3.523802459239959717e-01
-1.552296578884124756e-01 -7.483548484742641449e-03 6.699398756027221680e-01
-2.175550609827041626e-01 2.014414593577384949e-02 6.360685229301452637e-01
-1.588579267263412476e-01 -2.155631035566329956e-02 5.864670276641845703e-01
-8.802327513694763184e-02 -4.065661132335662842e-02 3.484750092029571533e-01
1.944023817777633667e-01 -4.301660507917404175e-02 1.145970523357391357e-01
1.059816777706146240e-02 4.143015481531620026e-03 4.035027623176574707e-01
1.178950965404510498e-01 -3.159852698445320129e-02 1.337653696537017822e-01
-2.352549433708190918e-01 -1.119206659495830536e-03 7.410706281661987305e-01
-3.090470433235168457e-01 -5.370495375245809555e-03 6.568152308464050293e-01
3.567945212125778198e-02 -3.787244670093059540e-03 3.252865672111511230e-01
-1.046571731567382812e-01 3.067437559366226196e-03 6.685228347778320312e-01
-9.847685694694519043e-02 -1.984767988324165344e-02 5.703293085098266602e-01
1.151461005210876465e-01 -4.669664055109024048e-02 1.032751202583312988e-01
-1.875665485858917236e-01 -2.846739068627357483e-02 4.955462217330932617e-01
-2.589365243911743164e-01 2.764865010976791382e-02 7.733102440834045410e-01
-2.838944494724273682e-01 2.188202925026416779e-03 6.047587990760803223e-01
-2.600535750389099121e-01 -2.090150490403175354e-03 7.429530024528503418e-01
-1.934733390808105469e-01 5.769672803580760956e-03 7.470266222953796387e-01
-2.464566081762313843e-01 -1.561698876321315765e-02 6.375235319137573242e-01
-1.516475677490234375e-01 2.048544585704803467e-02 6.042398810386657715e-01
-1.434956640005111694e-01 5.351002328097820282e-03 4.733496308326721191e-01
1.137618720531463623e-02 4.140519537031650543e-03 5.232888460159301758e-01
-2.852220833301544189e-01 -1.084718387573957443e-02 6.570639610290527344e-01
-4.040887206792831421e-02 -1.087761111557483673e-02 3.117288351058959961e-01
-1.232350468635559082e-01 1.877366378903388977e-02 6.881972551345825195e-01
-1.872797012329101562e-01 -2.499994076788425446e-02 4.344635009765625000e-01
8.387863636016845703e-02 -8.962855674326419830e-03 2.818225622177124023e-01
-1.661615073680877686e-01 -8.470141328871250153e-03 4.273248612880706787e-01
-1.341008543968200684e-01 -3.211233764886856079e-03 4.193556308746337891e-01
-9.936084598302841187e-02 8.534756489098072052e-03 4.675465822219848633e-01
-1.193053498864173889e-01 1.700668036937713623e-02 5.540166497230529785e-01
1.057649254798889160e-01 -1.037450227886438370e-02 2.771435379981994629e-01
5.006128549575805664e-02 -4.072012007236480713e-02 1.501030027866363525e-01
1.823659986257553101e-01 -4.116749763488769531e-02 1.740215420722961426e-01
3.732929378747940063e-02 -1.132629439234733582e-02 4.841715097427368164e-01
2.548526227474212646e-02 -3.537624329328536987e-02 1.769752800464630127e-01
1.248271465301513672e-01 -2.430753037333488464e-02 3.355449438095092773e-01
-3.117878735065460205e-02 3.685522824525833130e-04 3.750878870487213135e-01
-5.062479525804519653e-02 1.460106577724218369e-02 5.362954139709472656e-01
-1.039245426654815674e-01 -1.837424002587795258e-02 5.821125507354736328e-01
1.228238344192504883e-01 -2.439284138381481171e-02 1.681736409664154053e-01
-8.496953547000885010e-02 -4.057373851537704468e-02 3.265478014945983887e-01
-1.382308453321456909e-01 -2.865915745496749878e-02 3.601608276367187500e-01
1.329446285963058472e-01 -2.865066751837730408e-02 1.436111629009246826e-01
1.759725809097290039e-02 -2.373592741787433624e-02 4.614319205284118652e-01
-1.863195747137069702e-01 -2.834695950150489807e-02 4.567330479621887207e-01
-1.836884021759033203e-01 2.091816067695617676e-02 6.221106052398681641e-01
