3.277966380119323730e-01 -4.606380313634872437e-02 5.485023185610771179e-02
6.393712013959884644e-02 -1.001137718558311462e-01 -2.116217277944087982e-02
-2.020131051540374756e-01 -8.307257294654846191e-02 6.460130214691162109e-02
-2.773702144622802734e-01 -9.219696745276451111e-03 -1.012409627437591553e-01
-4.379268884658813477e-01 -8.124578744173049927e-02 5.208524689078330994e-02
-3.916369378566741943e-01 -3.766382485628128052e-02 -9.161731600761413574e-02
8.803476393222808838e-02 2.477673068642616272e-02 -1.810044050216674805e-03
2.504888772964477539e-01 -8.969476073980331421e-02 -4.396077245473861694e-02
-4.315891563892364502e-01 9.210586547851562500e-03 -5.399401113390922546e-02
-2.867996394634246826e-01 -9.576869010925292969e-02 3.884143382310867310e-02
2.500311434268951416e-01 -7.560022175312042236e-02 -7.755172997713088989e-02
-4.249312914907932281e-03 -7.429597899317741394e-03 5.595594272017478943e-02
5.929361581802368164e-01 -6.033442914485931396e-02 -2.958752773702144623e-02
-5.775296092033386230e-01 -1.001310534775257111e-02 1.445570588111877441e-02
5.693352967500686646e-02 -1.015637069940567017e-03 -1.155401170253753662e-01
4.664058685302734375e-01 -3.468198329210281372e-02 3.554205223917961121e-02
-1.132208928465843201e-01 2.835714817047119141e-02 -2.351906523108482361e-02
3.113349676132202148e-01 -3.125576674938201904e-02 5.406085029244422913e-02
-1.180184260010719299e-01 7.064845412969589233e-03 -1.030902564525604248e-01
4.520854353904724121e-01 1.086426898837089539e-02 -9.539853781461715698e-03
1.200694367289543152e-01 1.575725153088569641e-02 1.945861056447029114e-02
9.900763630867004395e-03 -3.608869016170501709e-02 -1.167452931404113770e-01
1.756111085414886475e-01 -2.874431386590003967e-02 6.377220153808593750e-02
-6.509285569190979004e-01 -2.174788340926170349e-02 1.040097326040267944e-02
-6.199301034212112427e-02 3.040443360805511475e-02 -3.860030695796012878e-02
5.307281017303466797e-01 -8.358122780919075012e-03 6.921539083123207092e-03
-4.457755088806152344e-01 -9.199593961238861084e-02 -7.598639465868473053e-03
6.584888100624084473e-01 -4.160492122173309326e-02 -3.852913528680801392e-02
1.187636926770210266e-01 -9.154777228832244873e-02 4.050073027610778809e-02
5.139718651771545410e-01 -5.424785614013671875e-02 2.323418110609054565e-02
-5.291975140571594238e-01 -1.156158372759819031e-02 -6.425279378890991211e-02
-1.702091246843338013e-01 -8.215630054473876953e-02 -7.014646381139755249e-02
-5.218849778175354004e-01 -8.433565497398376465e-02 2.861270308494567871e-02
2.338697910308837891e-01 1.828343048691749573e-02 6.090139970183372498e-03
1.285591125488281250e-01 2.862956374883651733e-02 -1.941272802650928497e-02
-1.318103522062301636e-01 -2.221713773906230927e-02 6.890136003494262695e-02
-7.014403492212295532e-02 2.206540107727050781e-02 7.044760510325431824e-03
-4.749926328659057617e-01 -8.470825850963592529e-02 4.023375362157821655e-02
-5.624233484268188477e-01 -8.268103003501892090e-02 2.348925918340682983e-03
-2.999830543994903564e-01 -3.315402194857597351e-02 -1.018077880144119263e-01
4.300725758075714111e-01 -6.718581914901733398e-02 -7.193198800086975098e-02
-8.713798969984054565e-02 -8.380582928657531738e-02 -7.061347365379333496e-02
4.759335219860076904e-01 -5.947440117597579956e-02 2.803109586238861084e-02
-1.901300400495529175e-01 -2.023096196353435516e-02 6.681983172893524170e-02
4.242804050445556641e-01 -7.966633141040802002e-02 -4.053625836968421936e-02
4.927009940147399902e-01 -2.767067402601242065e-03 -9.446577727794647217e-02
-1.335064321756362915e-01 -9.736977517604827881e-02 -3.669112175703048706e-02
1.187222376465797424e-01 -9.912496805191040039e-02 -1.918429322540760040e-02
3.634321689605712891e-02 -4.564747214317321777e-02 -1.128552407026290894e-01
1.436367034912109375e-01 2.457290142774581909e-02 -8.475559949874877930e-02
-1.462737619876861572e-01 2.435388788580894470e-02 -5.192749202251434326e-03
-8.694361150264739990e-02 1.288003474473953247e-02 -9.872084856033325195e-02
-3.714297413825988770e-01 -7.423426955938339233e-02 -6.560886651277542114e-02
1.504851877689361572e-01 -9.729294478893280029e-02 -2.585576474666595459e-02
4.715381562709808350e-01 -5.470838770270347595e-02 -8.369635045528411865e-02
4.358769655227661133e-01 -2.675663307309150696e-02 3.756466880440711975e-02
-3.341168165206909180e-01 -8.323127031326293945e-02 5.921631678938865662e-02
3.156017959117889404e-01 2.527929842472076416e-02 -6.567765772342681885e-02
-2.447241097688674927e-01 -1.016529351472854614e-01 6.464356556534767151e-03
-5.944635868072509766e-01 -7.826907560229301453e-03 -3.326186537742614746e-02
1.617192775011062622e-01 -8.441765606403350830e-02 4.868128523230552673e-02
1.137916930019855499e-02 3.063615411520004272e-02 -2.945773489773273468e-02
-6.252120435237884521e-02 -1.015562042593955994e-01 2.316752821207046509e-02
4.204621016979217529e-01 -5.565556138753890991e-02 -8.928875625133514404e-02
-2.286928743124008179e-01 4.308231174945831299e-03 3.830925375223159790e-02
1.759975999593734741e-01 -5.169622600078582764e-04 -1.153489649295806885e-01
2.890608906745910645e-01 -4.136136174201965332e-02 5.856211856007575989e-02
1.695039570331573486e-01 -9.298819303512573242e-02 3.032787889242172241e-02
-4.173881709575653076e-01 5.611438304185867310e-03 1.620113849639892578e-02
1.339221894741058350e-01 3.088521212339401245e-02 -5.486078932881355286e-02
5.476348400115966797e-01 -6.397792696952819824e-02 -4.921861737966537476e-02
-1.665336489677429199e-01 2.356389909982681274e-02 -6.995704770088195801e-02
2.658053934574127197e-01 5.209110677242279053e-04 -1.123202294111251831e-01
3.922353982925415039e-01 -1.435264945030212402e-03 2.243144437670707703e-02
-3.851580917835235596e-01 -2.983592450618743896e-03 -8.415296673774719238e-02
2.289379015564918518e-03 -9.275364875793457031e-02 4.735464975237846375e-02
4.414825737476348877e-01 -8.219443261623382568e-04 1.428294926881790161e-02
2.406632304191589355e-01 4.788737744092941284e-03 3.016101941466331482e-02
-1.499893814325332642e-01 2.811539173126220703e-02 -4.635217040777206421e-02
2.268563807010650635e-01 -8.325126022100448608e-02 -6.458972394466400146e-02
-2.474713474512100220e-01 -6.333681195974349976e-02 -8.916553854942321777e-02
2.101858556270599365e-01 -5.102444440126419067e-03 4.446728155016899109e-02
5.120340585708618164e-01 6.711959838867187500e-03 -1.503952872008085251e-02
3.389096260070800781e-01 2.455707639455795288e-02 -3.426734730601310730e-02
-9.653250873088836670e-02 -3.775242716073989868e-03 5.268982425332069397e-02
6.156290769577026367e-01 -2.173263579607009888e-03 -4.446660354733467102e-02
6.017267704010009766e-01 -1.867234334349632263e-02 -1.110782846808433533e-03
-5.338199138641357422e-01 -6.401999294757843018e-02 5.453993007540702820e-02
1.601731628179550171e-01 -1.954556629061698914e-02 -1.202091574668884277e-01
1.721379011869430542e-01 -6.325892359018325806e-02 6.546421349048614502e-02
-6.260102391242980957e-01 -1.252058334648609161e-02 -3.670779988169670105e-03
2.733711898326873779e-01 2.796638756990432739e-02 -4.218798130750656128e-02
3.733826875686645508e-01 1.838687807321548462e-03 2.053306996822357178e-02
6.354869008064270020e-01 -2.093506231904029846e-02 -1.173728145658969879e-02
-1.490435302257537842e-01 -1.004954576492309570e-01 -2.278998680412769318e-02
3.688918054103851318e-01 1.240397244691848755e-02 2.751033753156661987e-03
-3.392818570137023926e-01 9.954236447811126709e-03 -7.479639351367950439e-02
8.417275547981262207e-02 1.817971467971801758e-03 4.315331205725669861e-02
4.088525176048278809e-01 1.499770209193229675e-02 -8.363243937492370605e-02
1.121768131852149963e-01 3.062675893306732178e-02 -3.172617405652999878e-02
8.898709714412689209e-02 -9.815794974565505981e-02 2.425030246376991272e-02
-4.869004786014556885e-01 6.547760218381881714e-03 -8.670153096318244934e-03
1.392590701580047607e-01 1.402758434414863586e-02 -1.035271584987640381e-01
1.851043105125427246e-01 5.946516990661621094e-03 3.252285718917846680e-02
-4.958901703357696533e-01 1.231841742992401123e-04 1.312847808003425598e-02
-5.025038123130798340e-01 -8.752591162919998169e-02 2.264075353741645813e-02
-2.910344004631042480e-01 -8.161433041095733643e-02 -6.252232939004898071e-02
-1.024663746356964111e-01 -4.732722043991088867e-02 -1.086184978485107422e-01
-2.511506676673889160e-01 8.673038333654403687e-03 2.924539148807525635e-02
3.983698487281799316e-01 -4.964946955442428589e-02 -9.739695489406585693e-02
6.219601035118103027e-01 -1.174667291343212128e-02 -6.993421912193298340e-02
-2.185730338096618652e-01 2.587317302823066711e-02 -3.784788027405738831e-02
5.593745708465576172e-01 -1.114517077803611755e-02 3.319529816508293152e-03
-2.092265933752059937e-01 2.225415781140327454e-02 -3.758424893021583557e-03
1.501743942499160767e-01 7.732842117547988892e-03 3.194316476583480835e-02
8.328501880168914795e-02 3.126271069049835205e-02 -3.711466491222381592e-02
-6.061719655990600586e-01 -7.655969262123107910e-02 -2.373520284891128540e-03
-1.609605550765991211e-01 -2.218551933765411377e-03 -1.072071939706802368e-01
6.245670914649963379e-01 -7.367698475718498230e-03 -2.753001078963279724e-02
-8.929593116044998169e-02 -2.900551259517669678e-02 7.278816401958465576e-02
-3.706882521510124207e-02 -1.709819398820400238e-02 6.487806141376495361e-02
-6.055242568254470825e-02 -1.032489240169525146e-01 3.522720187902450562e-03
2.888802289962768555e-01 2.172344923019409180e-02 -8.362570405006408691e-02
4.265630245208740234e-01 -7.495449483394622803e-02 1.951251924037933350e-02
-2.989118993282318115e-01 1.257875189185142517e-02 -7.683685421943664551e-02
3.561339974403381348e-01 2.457104623317718506e-02 -4.560602456331253052e-02
2.317941784858703613e-01 2.913450449705123901e-02 -5.575050041079521179e-02
-3.674251139163970947e-01 -1.271363720297813416e-02 -9.288522601127624512e-02
2.048650681972503662e-01 1.066268980503082275e-02 -1.062173694372177124e-01
2.765737175941467285e-01 -8.070069551467895508e-02 -6.549546867609024048e-02
-4.955612123012542725e-01 -7.092958688735961914e-02 -5.230932682752609253e-02
-6.440781354904174805e-01 -3.700087964534759521e-02 3.217629343271255493e-02
-3.273411393165588379e-01 -1.361627876758575439e-02 -9.788927435874938965e-02
-8.629968762397766113e-02 -5.197528004646301270e-02 7.842069864273071289e-02
-5.423434376716613770e-01 -2.389028668403625488e-03 5.557673051953315735e-03
1.717171818017959595e-01 -9.641335159540176392e-02 -2.708498574793338776e-02
-7.183148711919784546e-02 -9.399560093879699707e-02 4.794048145413398743e-02
3.144473135471343994e-01 2.532527595758438110e-02 -3.140916675329208374e-02
4.228061437606811523e-01 -3.546358644962310791e-02 -1.043079942464828491e-01
-1.435665041208267212e-01 7.682979106903076172e-03 -1.007240414619445801e-01
1.063231751322746277e-01 -7.142285257577896118e-02 6.584390997886657715e-02
2.448361217975616455e-01 -3.280735760927200317e-02 -1.161542087793350220e-01
-1.967368870973587036e-01 -2.373320609331130981e-02 -1.105720996856689453e-01
1.827118843793869019e-01 1.885750144720077515e-02 -9.583151340484619141e-02
6.631771475076675415e-02 1.395024731755256653e-02 2.503828331828117371e-02
-4.062788486480712891e-01 -8.825464546680450439e-02 -3.360036760568618774e-02
2.842563390731811523e-01 2.492470294237136841e-02 -2.176421135663986206e-02
4.081259369850158691e-01 -1.847611740231513977e-02 3.668002784252166748e-02
-3.609323501586914062e-01 -5.977080762386322021e-02 -8.265806734561920166e-02
-3.877759575843811035e-01 -1.346014626324176788e-02 5.111699178814888000e-02
8.965440094470977783e-02 -9.741987287998199463e-02 -3.331435471773147583e-02
4.496674835681915283e-01 1.770322024822235107e-02 -3.535892069339752197e-02
1.571690142154693604e-01 -5.801445618271827698e-02 -1.033186763525009155e-01
3.825734555721282959e-01 1.422921568155288696e-02 -8.915546536445617676e-02
4.204585552215576172e-01 -5.644076317548751831e-02 4.023069515824317932e-02
2.797191403806209564e-02 -8.736495673656463623e-02 -6.488116830587387085e-02
4.974117279052734375e-01 -6.197623908519744873e-02 2.060174569487571716e-02
-4.061856865882873535e-01 -5.230194330215454102e-02 7.020670175552368164e-02
3.102262914180755615e-01 -9.043341875076293945e-02 -2.439065277576446533e-02
-5.265907049179077148e-01 -5.743014067411422729e-02 -6.208482757210731506e-02
-1.745759248733520508e-01 -3.162232041358947754e-02 7.381761074066162109e-02
3.095300793647766113e-01 1.133338734507560730e-02 1.286024227738380432e-02
-3.408533632755279541e-01 -2.587586641311645508e-02 6.514602899551391602e-02
2.770604789257049561e-01 -8.613497018814086914e-02 2.954453974962234497e-02
4.792903363704681396e-01 -1.406254246830940247e-02 -1.014697402715682983e-01
-4.115116000175476074e-01 -3.045616112649440765e-02 6.325642764568328857e-02
-5.530716776847839355e-01 -8.003191649913787842e-02 -1.903208158910274506e-02
3.933208882808685303e-01 -1.206942647695541382e-02 -1.097255498170852661e-01
2.055991142988204956e-01 -8.105117082595825195e-02 4.858367517590522766e-02
-2.260843217372894287e-01 -4.116427898406982422e-02 7.645612955093383789e-02
2.652833759784698486e-01 -9.250566363334655762e-02 -2.724255621433258057e-02
-3.687692284584045410e-01 -9.066857397556304932e-02 -3.323411568999290466e-02
-3.447479307651519775e-01 -9.844537079334259033e-02 8.495898917317390442e-03
3.816231489181518555e-01 -4.260960593819618225e-02 4.851929470896720886e-02
-1.853609830141067505e-01 -1.858245581388473511e-03 -1.052354723215103149e-01
3.617978096008300781e-02 2.834066003561019897e-02 -1.431401446461677551e-02
-2.268900722265243530e-01 -2.572251483798027039e-02 -1.084634214639663696e-01
5.713369697332382202e-02 2.356434985995292664e-02 2.919316291809082031e-03
4.130053222179412842e-01 -9.027238935232162476e-03 -1.072048544883728027e-01
-3.214114606380462646e-01 -9.842943400144577026e-02 -8.385670371353626251e-03
-6.880317926406860352e-01 -4.787730053067207336e-02 1.849351450800895691e-02
-2.523084580898284912e-01 -2.355578541755676270e-02 6.754159927368164062e-02
1.450681388378143311e-01 2.989687025547027588e-02 -2.889028936624526978e-02
1.076301634311676025e-01 -1.001948490738868713e-01 5.299374461174011230e-03
6.067135185003280640e-02 -1.583840698003768921e-02 6.158213689923286438e-02
5.153277516365051270e-01 9.609807282686233521e-03 -7.052925229072570801e-02
-9.894389659166336060e-02 -1.032239571213722229e-01 8.680120110511779785e-03
-4.731501340866088867e-01 -6.181079894304275513e-02 -6.684657931327819824e-02
-5.558935403823852539e-01 -5.099344998598098755e-02 -6.141881272196769714e-02
-4.946143031120300293e-01 -3.794208168983459473e-03 -6.369122117757797241e-02
8.339055627584457397e-02 -8.722828701138496399e-03 -1.188887655735015869e-01
3.102810122072696686e-02 2.356414869427680969e-02 -8.639715611934661865e-02
4.543830752372741699e-01 -4.770825430750846863e-02 -9.305873513221740723e-02
2.402026206254959106e-03 1.212231442332267761e-02 2.971614524722099304e-02
-1.099439412355422974e-01 2.927844971418380737e-02 -4.646641388535499573e-02
1.205254718661308289e-01 -3.747800365090370178e-02 6.995208561420440674e-02
5.401732325553894043e-01 -2.704188972711563110e-02 1.965359970927238464e-02
5.082630515098571777e-01 -3.183725848793983459e-02 -9.601229429244995117e-02
-6.739229708909988403e-02 -1.685272343456745148e-02 6.500941514968872070e-02
1.107144579291343689e-01 2.675883471965789795e-02 -7.883982360363006592e-02
-2.708251774311065674e-01 -1.782089658081531525e-02 6.251993775367736816e-02
5.874801874160766602e-01 -3.891350701451301575e-02 -7.750385999679565430e-02
-2.525524795055389404e-01 2.258887141942977905e-02 -5.597117543220520020e-02
-3.089569211006164551e-01 -2.706683427095413208e-02 6.756341457366943359e-02
3.769548833370208740e-01 -5.544621497392654419e-02 -9.397996962070465088e-02
-1.707027107477188110e-02 -7.437511533498764038e-02 -8.631782233715057373e-02
5.363440513610839844e-01 -5.824342370033264160e-04 -8.415843546390533447e-02
-1.645770668983459473e-01 2.386211231350898743e-02 -5.015896633267402649e-03
3.019227385520935059e-01 2.705261111259460449e-02 -4.621475189924240112e-02
-4.404990375041961670e-02 -9.041468799114227295e-02 5.365312471985816956e-02
-1.317122727632522583e-01 2.854226529598236084e-02 -4.859751090407371521e-02
-1.899669915437698364e-01 -1.026676669716835022e-01 4.199676215648651123e-03
9.610635787248611450e-02 2.902361005544662476e-02 -1.946763321757316589e-02
-2.365441471338272095e-01 2.497562766075134277e-02 -4.183149710297584534e-02
-4.836254119873046875e-01 -8.625687658786773682e-02 -2.152361348271369934e-02
1.406839638948440552e-01 -9.898928552865982056e-02 6.549863144755363464e-03
-2.029365599155426025e-01 -3.905670344829559326e-02 7.628081738948822021e-02
2.183127701282501221e-01 2.913814038038253784e-02 -3.547398746013641357e-02
-2.548887580633163452e-02 2.140338346362113953e-02 -8.866710960865020752e-02
-2.113950550556182861e-01 -1.023063957691192627e-01 7.926799356937408447e-03
2.590398490428924561e-01 -4.467387497425079346e-02 -1.101039499044418335e-01
-2.018798142671585083e-01 -9.204718470573425293e-02 -4.827425628900527954e-02
-1.298645287752151489e-01 -3.478584438562393188e-02 -1.126773655414581299e-01
-1.052913442254066467e-02 -3.296304121613502502e-02 7.337462902069091797e-02
-5.742462277412414551e-01 -2.658569812774658203e-02 -6.252311915159225464e-02
1.941527724266052246e-01 -1.928410679101943970e-02 5.743153765797615051e-02
4.711866378784179688e-01 -3.549502789974212646e-02 -9.919774532318115234e-02
-3.553596138954162598e-02 2.887549251317977905e-02 -1.869424991309642792e-02
-6.567299365997314453e-01 -4.154115170240402222e-02 -3.937799483537673950e-02
-1.510924547910690308e-01 4.466939717531204224e-03 4.105667397379875183e-02
6.361971050500869751e-02 -3.951722756028175354e-02 7.306559383869171143e-02
-6.437472105026245117e-01 -1.572695747017860413e-02 -6.184855476021766663e-03
2.529246509075164795e-01 -7.616497576236724854e-02 4.882126674056053162e-02
1.974417120218276978e-01 -3.501474857330322266e-02 -1.167304068803787231e-01
3.922434151172637939e-02 1.233565434813499451e-02 -1.046735048294067383e-01
5.773022174835205078e-01 1.044608652591705322e-04 -2.183357439935207367e-02
3.439103662967681885e-01 1.056113466620445251e-02 1.007335074245929718e-02
-1.972186267375946045e-01 -5.958682298660278320e-02 -9.567265212535858154e-02
-4.061257541179656982e-01 -2.596006728708744049e-02 -9.118719398975372314e-02
9.542459994554519653e-02 1.578355580568313599e-02 2.047238498926162720e-02
4.341050386428833008e-01 1.538550108671188354e-02 -7.760099321603775024e-02
-4.958634078502655029e-01 -4.761128872632980347e-02 6.183606013655662537e-02
-7.100613117218017578e-01 4.235065579414367676e-01 -6.497409939765930176e-02
-9.591251015663146973e-01 3.522159457206726074e-01 -1.652830392122268677e-01
-7.555952072143554688e-01 -6.336116790771484375e-02 1.884059607982635498e-01
-8.526905775070190430e-01 4.106379151344299316e-01 -1.405483782291412354e-01
-4.577872455120086670e-01 1.708439290523529053e-01 3.712084144353866577e-02
-5.786315202713012695e-01 -1.277684718370437622e-01 3.343880176544189453e-02
-7.830034494400024414e-01 1.247589066624641418e-01 2.037604451179504395e-01
-9.250065088272094727e-01 3.855021595954895020e-01 -1.399537473917007446e-01
-6.992253065109252930e-01 -6.561011075973510742e-03 1.919471174478530884e-01
-5.351552963256835938e-01 -8.392588794231414795e-02 -9.335681796073913574e-02
-9.256677031517028809e-01 3.213634192943572998e-01 -2.168549597263336182e-01
-4.216511547565460205e-01 1.509559154510498047e-01 -9.789818525314331055e-02
-4.488377571105957031e-01 1.994119882583618164e-01 8.530758321285247803e-03
-6.682131290435791016e-01 -1.003840565681457520e-02 -2.351604253053665161e-01
-9.223005771636962891e-01 3.622246384620666504e-01 4.050656408071517944e-02
-5.201338529586791992e-01 2.771325409412384033e-02 1.076207160949707031e-01
-1.013136267662048340e+00 3.121802806854248047e-01 4.677304625511169434e-02
-6.605373620986938477e-01 -1.287370473146438599e-01 -1.323318034410476685e-01
-9.425957202911376953e-01 3.621042370796203613e-01 -1.659611165523529053e-01
-1.059823274612426758e+00 -7.828873395919799805e-02 -8.688472211360931396e-02
-8.352083563804626465e-01 3.240401744842529297e-01 1.076988130807876587e-01
-8.740326166152954102e-01 -5.431336164474487305e-02 1.956702321767807007e-01
-7.852461934089660645e-01 2.261976599693298340e-01 -2.857537269592285156e-01
-1.147202968597412109e+00 1.143518835306167603e-01 4.095794260501861572e-02
-9.295012950897216797e-01 -4.407340288162231445e-02 -1.995430886745452881e-01
-9.484903812408447266e-01 1.567909419536590576e-01 -2.527257800102233887e-01
-7.591679096221923828e-01 3.749772906303405762e-01 -2.194434404373168945e-01
-1.028299570083618164e+00 2.798260450363159180e-01 7.225865125656127930e-02
-5.939323902130126953e-01 2.824389934539794922e-01 -2.463853508234024048e-01
-4.543615281581878662e-01 1.300818473100662231e-02 6.815332919359207153e-03
-5.591824054718017578e-01 1.686753630638122559e-01 -2.515003085136413574e-01
-9.525172114372253418e-01 5.666444078087806702e-02 -2.360143065452575684e-01
-9.605024456977844238e-01 2.009757757186889648e-01 -2.451433390378952026e-01
-1.101246595382690430e+00 -7.220393419265747070e-02 -7.297631353139877319e-03
-7.036554813385009766e-01 3.481256663799285889e-01 7.591059803962707520e-02
-1.092707514762878418e+00 -7.545246183872222900e-02 -3.269302845001220703e-02
-5.904065370559692383e-01 -7.385571300983428955e-02 1.171078830957412720e-01
-7.769500613212585449e-01 3.036656677722930908e-01 1.252631396055221558e-01
-7.800015807151794434e-01 4.240656495094299316e-01 -1.310094594955444336e-01
-4.982143044471740723e-01 3.245260715484619141e-01 -7.616670429706573486e-02
-8.800564408302307129e-01 3.749339580535888672e-01 3.993677347898483276e-02
-8.484318852424621582e-01 -1.737799495458602905e-01 -8.940171450376510620e-02
-7.902379035949707031e-01 3.138991892337799072e-01 1.178403049707412720e-01
-6.740322113037109375e-01 -1.545763462781906128e-01 9.165544807910919189e-02
-1.089991807937622070e+00 9.074410051107406616e-02 -1.582588851451873779e-01
-5.698142647743225098e-01 1.934640556573867798e-01 1.251368075609207153e-01
-9.303255081176757812e-01 2.058401405811309814e-01 1.673711538314819336e-01
-5.518475174903869629e-01 3.678198158740997314e-02 -2.163748890161514282e-01
-8.880802989006042480e-01 1.222355812788009644e-01 2.015885412693023682e-01
-5.324120521545410156e-01 1.700069457292556763e-01 -2.377559095621109009e-01
-8.095602393150329590e-01 -1.410726457834243774e-01 -1.426611542701721191e-01
-1.076391935348510742e+00 1.644964516162872314e-02 -1.461137086153030396e-01
-9.058566093444824219e-01 -1.312426328659057617e-01 1.491104960441589355e-01
-5.990073680877685547e-01 1.782653033733367920e-01 1.450667232275009155e-01
-6.835373044013977051e-01 2.867101430892944336e-01 1.223033815622329712e-01
-4.873009324073791504e-01 1.446438133716583252e-01 7.928858697414398193e-02
-6.809691786766052246e-01 -3.500975668430328369e-02 1.797628402709960938e-01
-1.032813191413879395e+00 -1.173907369375228882e-01 -6.185409799218177795e-02
-7.152351140975952148e-01 1.705024391412734985e-02 1.992105245590209961e-01
-8.209670186042785645e-01 6.364601850509643555e-02 2.123834043741226196e-01
-1.023694992065429688e+00 2.660962939262390137e-01 8.911867439746856689e-02
-9.593596458435058594e-01 2.886446565389633179e-02 -2.240882068872451782e-01
-4.406121671199798584e-01 2.650373429059982300e-02 -3.364144265651702881e-02
-4.721493721008300781e-01 2.337024509906768799e-01 2.132457122206687927e-02
-1.149117708206176758e+00 1.523086130619049072e-01 -5.088954418897628784e-02
-1.023715496063232422e+00 2.702170610427856445e-01 -1.838334798812866211e-01
-7.166019678115844727e-01 3.860250711441040039e-01 -2.057889699935913086e-01
-1.067525625228881836e+00 2.251732647418975830e-01 -1.654472202062606812e-01
-5.033563971519470215e-01 -5.474755167961120605e-02 -9.268586337566375732e-02
-7.820774912834167480e-01 -1.692584306001663208e-01 -1.028477624058723450e-01
-8.884043097496032715e-01 1.898313164710998535e-01 -2.717445790767669678e-01
-4.414093494415283203e-01 2.314838469028472900e-01 -1.169115379452705383e-01
-8.309440016746520996e-01 4.170644283294677734e-01 -3.483541309833526611e-02
-4.789193272590637207e-01 2.501861155033111572e-01 1.705832406878471375e-02
-8.947849273681640625e-01 -1.819200366735458374e-01 -5.418682843446731567e-02
-9.623586535453796387e-01 2.488477230072021484e-01 -2.337237000465393066e-01
-5.470018386840820312e-01 3.026750087738037109e-01 -2.100930660963058472e-01
-8.962088227272033691e-01 1.705675721168518066e-01 -2.702613770961761475e-01
-1.066140413284301758e+00 1.806838065385818481e-01 -1.804407387971878052e-01
-6.134977340698242188e-01 4.008996486663818359e-01 -1.010986417531967163e-01
-5.752328038215637207e-01 2.132310271263122559e-01 -2.563890516757965088e-01
-6.819359064102172852e-01 -6.558081507682800293e-02 1.688588857650756836e-01
-4.878762364387512207e-01 2.983247935771942139e-01 -2.893065661191940308e-02
-1.108257532119750977e+00 1.683415472507476807e-01 8.137848228216171265e-02
-4.411984384059906006e-01 6.036479398608207703e-02 1.124613359570503235e-02
-5.064347982406616211e-01 -7.508371770381927490e-02 -2.840602956712245941e-02
-9.928952455520629883e-01 1.776336133480072021e-02 -2.043723165988922119e-01
-7.568263411521911621e-01 3.982200026512145996e-01 1.885756477713584900e-02
-5.816692113876342773e-01 3.601594567298889160e-01 -2.517156302928924561e-03
-1.079836726188659668e+00 -1.845456659793853760e-02 1.225680112838745117e-01
-8.209196329116821289e-01 1.423030346632003784e-01 -2.842275500297546387e-01
-1.011969923973083496e+00 1.268955171108245850e-01 1.670688688755035400e-01
-9.637918472290039062e-01 1.646717935800552368e-01 1.741854548454284668e-01
-6.846470236778259277e-01 9.647029638290405273e-02 1.918582171201705933e-01
-8.827568292617797852e-01 -1.751405149698257446e-01 -7.591576874256134033e-02
-6.651300787925720215e-01 9.087549895048141479e-02 -2.728028595447540283e-01
-6.009378433227539062e-01 3.104313910007476807e-01 7.142911106348037720e-02
-9.204078912734985352e-01 3.957765698432922363e-01 -3.761634603142738342e-02
-7.545146942138671875e-01 3.292753398418426514e-01 -2.537830173969268799e-01
-5.838416814804077148e-01 9.777948260307312012e-02 -2.522011399269104004e-01
-6.321080923080444336e-01 -1.321495622396469116e-01 -1.111256182193756104e-01
-7.624847888946533203e-01 1.360880583524703979e-01 -2.878676056861877441e-01
-5.215196609497070312e-01 -2.260290086269378662e-02 -1.564811170101165771e-01
-6.660670638084411621e-01 -1.654422730207443237e-01 -6.759276986122131348e-02
-9.596565365791320801e-01 2.913928031921386719e-01 1.037982851266860962e-01
-7.795304656028747559e-01 -1.322411298751831055e-01 -1.536126136779785156e-01
-6.723071336746215820e-01 3.738577365875244141e-01 -2.107607275247573853e-01
-7.316920757293701172e-01 -1.945749372243881226e-01 2.607388049364089966e-02
-7.716710567474365234e-01 -4.262308776378631592e-02 -2.272974997758865356e-01
-5.198807716369628906e-01 2.942405641078948975e-01 2.415328472852706909e-02
-4.284573197364807129e-01 6.686583161354064941e-02 -3.051443397998809814e-02
-6.643338799476623535e-01 -1.728927642107009888e-01 3.804630786180496216e-02
-4.323000013828277588e-01 1.275930851697921753e-01 3.130037337541580200e-03
-7.188275456428527832e-01 3.627597391605377197e-01 -2.295330911874771118e-01
-9.286838769912719727e-01 -1.406504064798355103e-01 -1.120983511209487915e-01
-4.964934587478637695e-01 1.427983939647674561e-01 -2.120560407638549805e-01
-6.494644880294799805e-01 9.266795963048934937e-02 1.817538291215896606e-01
-8.496621847152709961e-01 3.884294629096984863e-01 -1.857495903968811035e-01
-6.985209584236145020e-01 -7.317250967025756836e-02 -2.000633031129837036e-01
-8.126313090324401855e-01 4.224517345428466797e-01 -1.245680227875709534e-01
-1.066008567810058594e+00 1.134094074368476868e-01 1.400090903043746948e-01
-6.591653823852539062e-01 -5.325597524642944336e-02 -2.059947550296783447e-01
-8.344328403472900391e-01 2.321745157241821289e-01 1.688451617956161499e-01
-4.760856032371520996e-01 9.967593103647232056e-02 -1.853429228067398071e-01
-7.108519077301025391e-01 4.139191508293151855e-01 -1.576561331748962402e-01
-8.458164930343627930e-01 4.052349925041198730e-01 -1.583730876445770264e-01
-7.695813775062561035e-01 -1.732237786054611206e-01 1.064446419477462769e-01
-7.467042207717895508e-01 4.286445379257202148e-01 -8.699481189250946045e-02
-4.858707785606384277e-01 2.325153350830078125e-01 3.982434421777725220e-02
-9.054094552993774414e-01 2.364897727966308594e-01 1.579280644655227661e-01
-8.054409623146057129e-01 8.634516596794128418e-02 2.104454487562179565e-01
-6.499963402748107910e-01 3.496736884117126465e-01 5.621624737977981567e-02
-6.736333370208740234e-01 2.616384625434875488e-01 1.352860927581787109e-01
-7.524031400680541992e-01 -1.826009899377822876e-01 -7.138662040233612061e-02
-7.569939494132995605e-01 -1.186270862817764282e-01 -1.671618372201919556e-01
-7.490814328193664551e-01 -9.362417459487915039e-02 1.736307293176651001e-01
-9.401273727416992188e-01 3.865854144096374512e-01 -1.154206842184066772e-01
-6.816050410270690918e-01 1.529054045677185059e-01 1.811961531639099121e-01
-6.964368820190429688e-01 1.796695739030838013e-01 -2.876327037811279297e-01
-9.109621047973632812e-01 -6.994235515594482422e-02 1.847532391548156738e-01
-7.239848375320434570e-01 2.619488537311553955e-02 -2.596728801727294922e-01
-6.176778674125671387e-01 -6.681826710700988770e-02 -1.805289387702941895e-01
-6.102944612503051758e-01 2.137246429920196533e-01 -2.689458727836608887e-01
-6.464584469795227051e-01 4.066304564476013184e-01 -1.395052075386047363e-01
-5.560956001281738281e-01 7.431817054748535156e-02 -2.334780395030975342e-01
-6.027873158454895020e-01 3.571262061595916748e-01 -1.991764307022094727e-01
-4.275063276290893555e-01 8.277543634176254272e-02 -1.945704407989978790e-02
-9.099196791648864746e-01 -1.694991141557693481e-01 -7.432207465171813965e-02
-9.504425525665283203e-01 2.251193821430206299e-01 1.523426622152328491e-01
-1.045794963836669922e+00 -2.964939177036285400e-02 1.456425637006759644e-01
-4.819444119930267334e-01 2.978212535381317139e-01 -1.322787255048751831e-01
-9.769364595413208008e-01 3.804621100425720215e-02 1.898899078369140625e-01
-1.103156328201293945e+00 1.124872565269470215e-01 1.091041415929794312e-01
-1.048207163810729980e+00 3.131994605064392090e-01 -4.997137933969497681e-03
-5.902670621871948242e-01 1.149778440594673157e-01 -2.582589685916900635e-01
-6.282830238342285156e-01 3.715301156044006348e-01 1.591214537620544434e-02
-9.955168962478637695e-01 -1.122800558805465698e-01 -1.072341948747634888e-01
-6.298319697380065918e-01 -3.969128429889678955e-02 -2.064748853445053101e-01
-7.436971664428710938e-01 2.318561673164367676e-01 -2.863528728485107422e-01
-4.974429905414581299e-01 2.299096286296844482e-01 5.412814766168594360e-02
-6.846139430999755859e-01 1.762378364801406860e-01 1.754578948020935059e-01
-1.074685096740722656e+00 2.609820067882537842e-01 4.342002421617507935e-02
-6.217649579048156738e-01 5.084103718400001526e-02 1.722625195980072021e-01
-9.681850671768188477e-01 -1.724370867013931274e-01 3.464687615633010864e-02
-9.707588553428649902e-01 -6.684081256389617920e-02 -1.664171516895294189e-01
-6.840800046920776367e-01 3.313090205192565918e-01 -2.477025687694549561e-01
-6.030352115631103516e-01 -1.406551748514175415e-01 -6.298585236072540283e-02
-5.626817345619201660e-01 9.803158789873123169e-02 1.423919945955276489e-01
-7.082801461219787598e-01 3.227131366729736328e-01 -2.557069361209869385e-01
-5.507428646087646484e-01 2.885615825653076172e-01 -2.212281227111816406e-01
-7.144587039947509766e-01 3.005091547966003418e-01 -2.666633129119873047e-01
-1.105265378952026367e+00 1.613587290048599243e-01 -1.421200037002563477e-01
-6.548838615417480469e-01 2.300357818603515625e-02 -2.482332587242126465e-01
-8.040318489074707031e-01 2.682699561119079590e-01 1.498366743326187134e-01
-5.996437668800354004e-01 7.445195317268371582e-02 -2.515984177589416504e-01
-7.104821205139160156e-01 3.929827809333801270e-01 1.889996603131294250e-02
-9.127198457717895508e-01 2.314514219760894775e-01 -2.589972913265228271e-01
-5.758237838745117188e-01 1.391174793243408203e-01 1.439485549926757812e-01
-4.557225108146667480e-01 -4.974059760570526123e-03 -2.733295597136020660e-02
-4.307452142238616943e-01 1.812765151262283325e-01 -2.120950445532798767e-02
-1.048989057540893555e+00 -6.416334211826324463e-02 1.260746866464614868e-01
-4.420556724071502686e-01 4.239333420991897583e-02 -9.921949356794357300e-02
-8.167659044265747070e-01 1.740068644285202026e-01 1.925396174192428589e-01
-9.852641224861145020e-01 9.552773088216781616e-02 -2.310274988412857056e-01
-7.736122608184814453e-01 3.550156056880950928e-01 -2.359468340873718262e-01
-5.232107043266296387e-01 9.547102451324462891e-02 1.163826435804367065e-01
-7.375497817993164062e-01 1.528088003396987915e-01 -2.892611622810363770e-01
-8.849796652793884277e-01 1.050867810845375061e-01 -2.679238021373748779e-01
-4.341817498207092285e-01 2.044174075126647949e-01 -1.202182620763778687e-01
-1.044001579284667969e+00 2.611761093139648438e-01 7.732999324798583984e-02
-6.757773756980895996e-01 -7.878820598125457764e-02 -1.904842406511306763e-01
-1.029689550399780273e+00 -1.398051232099533081e-01 2.845759689807891846e-02
-8.550559878349304199e-01 1.308205276727676392e-01 2.028893828392028809e-01
-4.870329201221466064e-01 -3.778989613056182861e-02 2.281070128083229065e-02
-7.976844906806945801e-01 4.154838919639587402e-01 -1.540675163269042969e-01
-8.709614276885986328e-01 -1.693965345621109009e-01 1.144970357418060303e-01
-6.157835721969604492e-01 -1.121466755867004395e-01 -1.303028762340545654e-01
-9.984794855117797852e-01 1.547770202159881592e-01 -2.295652627944946289e-01
-9.116891026496887207e-01 1.579117923974990845e-01 1.891220510005950928e-01
-7.293941974639892578e-01 -1.407591849565505981e-01 1.346749216318130493e-01
-7.747413516044616699e-01 3.572080135345458984e-01 7.664597779512405396e-02
-6.160757541656494141e-01 3.312193155288696289e-01 -2.287801057100296021e-01
-8.862886428833007812e-01 -5.768685042858123779e-02 -2.038193196058273315e-01
-7.642879486083984375e-01 2.886417508125305176e-01 1.350678652524948120e-01
-8.020523190498352051e-01 -1.988798230886459351e-01 -2.804264612495899200e-02
-4.552039504051208496e-01 2.321346402168273926e-01 -5.660168826580047607e-03
-8.999674320220947266e-01 3.217856884002685547e-01 9.777665138244628906e-02
-5.905038714408874512e-01 1.929650753736495972e-01 -2.639862895011901855e-01
-4.434814453125000000e-01 1.626912653446197510e-01 -1.540330052375793457e-01
-6.501150131225585938e-01 -1.571076065301895142e-01 6.670282781124114990e-02
-4.889709353446960449e-01 2.170246541500091553e-01 -2.013806700706481934e-01
-7.942994236946105957e-01 2.736340165138244629e-01 -2.747023105621337891e-01
-6.173017024993896484e-01 3.967753648757934570e-01 -1.385812163352966309e-01
-8.396298289299011230e-01 7.115808129310607910e-02 2.118523269891738892e-01
-7.281741499900817871e-01 1.092291250824928284e-01 1.996782869100570679e-01
-4.197048246860504150e-01 1.240693479776382446e-01 -8.329722285270690918e-02
-7.560470104217529297e-01 -1.704116314649581909e-01 -9.789717197418212891e-02
-7.041308879852294922e-01 -1.641913801431655884e-01 9.497295320034027100e-02
-8.404864668846130371e-01 4.182659387588500977e-01 -1.225462257862091064e-01
-1.024678826332092285e+00 6.347940117120742798e-02 1.704287976026535034e-01
-8.866074085235595703e-01 -7.675512135028839111e-02 -1.903077363967895508e-01
-7.422797083854675293e-01 1.596647053956985474e-01 1.914729624986648560e-01
-5.543407797813415527e-01 -5.524250864982604980e-02 1.004022359848022461e-01
-4.632138311862945557e-01 2.917058020830154419e-02 -1.313479840755462646e-01
-8.107896447181701660e-01 1.165592819452285767e-01 -2.824200987815856934e-01
-5.892571806907653809e-01 -1.411866992712020874e-01 -1.995777897536754608e-02
-7.422051429748535156e-01 -1.556284576654434204e-01 1.226944178342819214e-01
-5.769203901290893555e-01 3.181355297565460205e-01 -2.188264280557632446e-01
-1.068642854690551758e+00 6.699293851852416992e-02 -1.721913665533065796e-01
-9.994223713874816895e-01 3.340972959995269775e-01 2.635922282934188843e-02
-9.477086067199707031e-01 1.516411006450653076e-01 1.829355806112289429e-01
-7.760509848594665527e-01 4.188531041145324707e-01 -1.496943682432174683e-01
-8.227558135986328125e-01 -2.024943679571151733e-01 3.010237962007522583e-02
-5.694445967674255371e-01 7.402570545673370361e-02 1.471433788537979126e-01
-5.305690169334411621e-01 1.217487230896949768e-01 -2.319785356521606445e-01
-6.552991271018981934e-01 3.235899806022644043e-01 8.463996648788452148e-02
-7.479767799377441406e-01 1.913336813449859619e-01 -2.900604605674743652e-01
-6.561669111251831055e-01 -7.158112525939941406e-02 -1.909324675798416138e-01
-6.186085939407348633e-01 -4.605081677436828613e-02 1.498485356569290161e-01
-6.769495010375976562e-01 -1.604063957929611206e-01 -8.780540525913238525e-02
-7.149096727371215820e-01 7.201161980628967285e-02 2.006907910108566284e-01
-7.066406011581420898e-01 -1.627380996942520142e-01 -9.809279441833496094e-02
-7.868500947952270508e-01 -1.559845656156539917e-01 1.322046816349029541e-01
-7.038862109184265137e-01 -3.584270179271697998e-02 -2.267237901687622070e-01
-9.447700381278991699e-01 -1.014180481433868408e-02 1.943519711494445801e-01
-1.081833600997924805e+00 1.509734243154525757e-01 1.165150254964828491e-01
-8.996323347091674805e-01 3.664855957031250000e-01 4.503987729549407959e-02
-8.586304783821105957e-01 4.164224863052368164e-02 -2.577280402183532715e-01
-9.272662401199340820e-01 2.949486374855041504e-01 1.132658869028091431e-01
-7.900685667991638184e-01 4.027407169342041016e-01 1.132307946681976318e-02
-5.661952495574951172e-01 -9.543481469154357910e-02 7.488740235567092896e-02
-9.678049683570861816e-01 -1.461102217435836792e-01 1.068845838308334351e-01
-4.692224860191345215e-01 1.816350519657135010e-01 4.791711270809173584e-02
-6.855934262275695801e-01 3.080031871795654297e-01 -2.602732181549072266e-01
-9.116914272308349609e-01 -1.508884578943252563e-01 -1.055280715227127075e-01
-6.116812229156494141e-01 7.258004695177078247e-02 1.682483702898025513e-01
-7.871880531311035156e-01 7.904870808124542236e-02 2.101171314716339111e-01
-7.051635384559631348e-01 8.884713053703308105e-02 1.975025236606597900e-01
-6.226739883422851562e-01 1.983853131532669067e-01 1.481024324893951416e-01
-6.825245022773742676e-01 1.209392622113227844e-01 -2.813864350318908691e-01
-8.886177539825439453e-01 3.642053008079528809e-01 -1.981658786535263062e-01
-6.468189358711242676e-01 8.446812629699707031e-03 -2.396254539489746094e-01
-8.699392080307006836e-01 2.626882195472717285e-01 1.489524692296981812e-01
-4.521683454513549805e-01 6.620015203952789307e-02 3.619349747896194458e-02
-8.196381926536560059e-01 -9.732954204082489014e-03 2.081717848777770996e-01
-7.465524077415466309e-01 -1.990263164043426514e-02 -2.396762818098068237e-01
-5.510928630828857422e-01 4.232992231845855713e-02 1.338879317045211792e-01
-9.956614375114440918e-01 2.076143771409988403e-01 -2.261980623006820679e-01
-5.694316625595092773e-01 -1.122446358203887939e-01 -8.636254817247390747e-02
-8.872299790382385254e-01 -9.366056323051452637e-02 -1.766982972621917725e-01
-1.070530414581298828e+00 -1.032398194074630737e-01 4.615503549575805664e-02
-5.682480335235595703e-01 9.430930018424987793e-03 1.390388607978820801e-01
-5.599489212036132812e-01 -1.164717227220535278e-01 2.433726191520690918e-02
-8.827283382415771484e-01 3.924159407615661621e-01 6.735704839229583740e-03
-1.060729384422302246e+00 2.101857364177703857e-01 -1.780183166265487671e-01
-8.636915087699890137e-01 -1.910418421030044556e-01 -4.370880126953125000e-02
-1.022127866744995117e+00 1.686114072799682617e-01 1.490863263607025146e-01
-9.015449881553649902e-01 1.045904383063316345e-01 2.028715312480926514e-01
-9.547868967056274414e-01 -8.162383735179901123e-02 -1.623057425022125244e-01
-4.618196487426757812e-01 2.428312450647354126e-01 -1.564436852931976318e-01
-1.013935327529907227e+00 1.035353690385818481e-01 -2.173361033201217651e-01
-1.035742163658142090e+00 2.697221189737319946e-02 -1.830407232046127319e-01
-7.246629595756530762e-01 3.392797112464904785e-01 -2.472729235887527466e-01
-1.062086582183837891e+00 4.533226788043975830e-02 1.491217464208602905e-01
-1.135887980461120605e+00 1.870938986539840698e-01 -7.058212161064147949e-02
-9.035902023315429688e-01 -4.543624818325042725e-02 -2.069896310567855835e-01
-6.719250082969665527e-01 -1.071131974458694458e-01 -1.626506000757217407e-01
-8.990979194641113281e-01 2.765763998031616211e-01 -2.508823275566101074e-01
-1.111739277839660645e+00 -1.620613038539886475e-02 8.497384935617446899e-02
-5.802593827247619629e-01 2.715294659137725830e-01 9.030796587467193604e-02
-6.437191963195800781e-01 2.962776720523834229e-01 -2.570778429508209229e-01
-8.392394185066223145e-01 -3.316844999790191650e-02 -2.278656065464019775e-01
-6.216893792152404785e-01 -1.548539847135543823e-01 3.147398680448532104e-02
-5.261267423629760742e-01 7.438717037439346313e-02 1.187064647674560547e-01
-5.666245222091674805e-01 1.029051393270492554e-01 -2.463384568691253662e-01
-6.558504104614257812e-01 2.525749802589416504e-01 -2.738688886165618896e-01
-4.411799609661102295e-01 2.282953113317489624e-01 -3.768670558929443359e-02
-9.197309017181396484e-01 -1.896148473024368286e-01 1.515266671776771545e-02
-6.840873956680297852e-01 -1.818686276674270630e-01 2.794609218835830688e-02
-9.756599664688110352e-01 1.644969582557678223e-01 -2.409450113773345947e-01
-1.107703566551208496e+00 -5.496481060981750488e-02 5.156242847442626953e-02
-1.097905397415161133e+00 2.503835856914520264e-01 1.747066155076026917e-02
-9.130415916442871094e-01 1.980083137750625610e-01 1.746130287647247314e-01
-8.900700807571411133e-01 -1.943775862455368042e-01 4.338318109512329102e-02
-1.055375695228576660e+00 1.410449445247650146e-01 -1.927814781665802002e-01
-6.567026972770690918e-01 2.666901350021362305e-01 1.271374374628067017e-01
-7.311496734619140625e-01 1.428951919078826904e-01 1.939605921506881714e-01
-4.428013563156127930e-01 2.025248855352401733e-02 -5.064465850591659546e-02
-7.070948481559753418e-01 2.166758626699447632e-01 1.657593697309494019e-01
-9.457641839981079102e-01 2.921830415725708008e-01 -2.241984754800796509e-01
-9.730932712554931641e-01 5.739618837833404541e-02 1.910924762487411499e-01
-1.090072870254516602e+00 1.436861753463745117e-01 -1.616627871990203857e-01
-7.986875772476196289e-01 -4.811686277389526367e-02 -2.231325209140777588e-01
-4.326820969581604004e-01 2.147406637668609619e-01 -1.015206128358840942e-01
-7.151498794555664062e-01 -1.899670511484146118e-01 -2.282187342643737793e-02
-8.480471372604370117e-01 2.425839751958847046e-02 -2.533563971519470215e-01
-9.199783205986022949e-01 -1.838643997907638550e-01 6.184489279985427856e-02
-7.702521681785583496e-01 4.035845398902893066e-02 -2.661706209182739258e-01
-1.152806639671325684e+00 8.056971430778503418e-02 -5.264399573206901550e-02
-1.016035795211791992e+00 -1.063576340675354004e-01 1.187750995159149170e-01
-8.312379717826843262e-01 -7.041430473327636719e-02 -2.054169178009033203e-01
-6.946874260902404785e-01 -1.742938309907913208e-01 6.866163015365600586e-02
-5.297721028327941895e-01 -9.540031850337982178e-02 -4.691193252801895142e-02
-5.393190979957580566e-01 -1.006071269512176514e-01 1.856868341565132141e-02
-9.770582318305969238e-01 3.729620575904846191e-01 -5.781583487987518311e-02
-9.026607275009155273e-01 8.052329719066619873e-02 2.057041078805923462e-01
-7.785848379135131836e-01 2.999283671379089355e-01 -2.667912244796752930e-01
-7.737751007080078125e-01 -1.949382573366165161e-01 5.919438600540161133e-02
-5.785681009292602539e-01 3.847432732582092285e-01 -1.012827232480049133e-01
-6.561211347579956055e-01 3.126657605171203613e-01 -2.524656653404235840e-01
-1.053336024284362793e+00 -1.221944540739059448e-01 3.719884902238845825e-03
-7.345333695411682129e-01 4.111353158950805664e-01 -1.118237897753715515e-02
-6.914930343627929688e-01 7.014882564544677734e-02 1.954260617494583130e-01
-5.568296909332275391e-01 -1.187825798988342285e-01 9.285137057304382324e-04
-6.523242592811584473e-01 3.963540792465209961e-01 -1.469322852790355682e-02
-9.423723220825195312e-01 3.168573975563049316e-01 8.747030794620513916e-02
-4.833980500698089600e-01 1.973265111446380615e-01 -2.000544369220733643e-01
-8.610281944274902344e-01 3.306214213371276855e-01 9.818165004253387451e-02
-5.441789031028747559e-01 3.611692190170288086e-01 -1.222441345453262329e-01
-7.263253927230834961e-01 3.390113115310668945e-01 8.978781104087829590e-02
-7.908118963241577148e-01 -1.415447741746902466e-01 -1.427868902683258057e-01
-7.836157679557800293e-01 -1.994137912988662720e-01 -2.183046191930770874e-02
-4.989719986915588379e-01 1.770903766155242920e-01 8.097378164529800415e-02
-1.147047042846679688e+00 5.240278691053390503e-02 4.536746442317962646e-02
-9.715350866317749023e-01 -8.305832743644714355e-02 -1.527403891086578369e-01
-8.661332130432128906e-01 8.636530488729476929e-02 -2.685234546661376953e-01
-9.001160264015197754e-01 -1.720541864633560181e-01 1.020587086677551270e-01
-8.740339279174804688e-01 3.271107077598571777e-01 -2.344972342252731323e-01
-6.607028245925903320e-01 -3.600759804248809814e-02 1.723690330982208252e-01
-4.312496483325958252e-01 5.646518617868423462e-02 -7.523327320814132690e-02
-9.020659923553466797e-01 3.421638160943984985e-02 -2.453362196683883667e-01
-1.018616080284118652e+00 1.707166433334350586e-01 -2.172696888446807861e-01
-7.172372937202453613e-01 -1.593046933412551880e-01 1.087698638439178467e-01
-8.707945346832275391e-01 1.041027158498764038e-01 2.065887600183486938e-01
-6.712971329689025879e-01 -1.635305136442184448e-01 7.324817776679992676e-02
-8.945981264114379883e-01 -6.184332072734832764e-02 1.906261295080184937e-01
-1.059923410415649414e+00 3.058000802993774414e-01 -9.076143801212310791e-02
-6.635226607322692871e-01 1.820033192634582520e-01 1.678683459758758545e-01
-5.104888677597045898e-01 -8.337132632732391357e-03 -1.583764702081680298e-01
-1.091637015342712402e+00 1.805364489555358887e-01 9.323619306087493896e-02
-9.576097726821899414e-01 9.233478456735610962e-02 1.928149163722991943e-01
-6.988024115562438965e-01 -1.389751881361007690e-01 1.249871850013732910e-01
-9.445411562919616699e-01 -1.507205814123153687e-01 -8.797813951969146729e-02
-8.792253732681274414e-01 4.122738838195800781e-01 -6.069302558898925781e-02
-9.126679301261901855e-01 1.783970445394515991e-01 1.822360903024673462e-01
-6.946054100990295410e-01 4.229584932327270508e-01 -8.105634152889251709e-02
-8.204318284988403320e-01 -1.548809558153152466e-01 -1.239153742790222168e-01
-5.989897251129150391e-01 -1.255628019571304321e-01 -9.471322596073150635e-02
-7.932871580123901367e-01 3.887367248535156250e-01 -2.009878158569335938e-01
-5.331592559814453125e-01 2.867915332317352295e-01 -2.098319679498672485e-01
-1.153976798057556152e+00 1.398116350173950195e-01 -1.251543313264846802e-02
-5.159277915954589844e-01 2.228154689073562622e-01 7.533220201730728149e-02
-1.142739057540893555e+00 1.827492564916610718e-01 -3.620003908872604370e-02
-1.017868280410766602e+00 -5.855138599872589111e-02 1.509018987417221069e-01
-1.036327958106994629e+00 2.938371300697326660e-01 4.810550063848495483e-02
-1.111008524894714355e+00 -6.019562482833862305e-02 1.507773995399475098e-02
-1.130491733551025391e+00 1.469117105007171631e-01 -1.063839942216873169e-01
-9.292663335800170898e-01 2.387043833732604980e-01 -2.513022422790527344e-01
-4.308008551597595215e-01 1.198122724890708923e-01 -1.244246214628219604e-01
-1.060175061225891113e+00 2.428125292062759399e-01 -1.644118130207061768e-01
-6.966606378555297852e-01 3.908172249794006348e-01 -1.962246149778366089e-01
-1.099544525146484375e+00 -7.450591027736663818e-02 2.789258956909179688e-02
