-6.378620862960815430e-02 -8.840592950582504272e-02 -6.291447579860687256e-02
2.458986043930053711e-01 -1.286720931529998779e-01 -2.793506681919097900e-01
1.503957509994506836e-01 -1.686578989028930664e-02 -2.882799208164215088e-01
3.435079008340835571e-02 -1.033656150102615356e-01 -6.554484367370605469e-02
3.309615254402160645e-01 -8.488323539495468140e-02 -4.553327560424804688e-01
1.868102252483367920e-01 -5.141595378518104553e-02 -5.274836421012878418e-01
-1.513614058494567871e-01 -8.237273246049880981e-02 -3.434083461761474609e-01
-2.831355482339859009e-02 -5.471269786357879639e-02 -5.972095131874084473e-01
-9.022017568349838257e-02 -9.120828658342361450e-02 -4.156591892242431641e-01
1.150087714195251465e-01 -1.190757304430007935e-01 -4.048784375190734863e-01
3.209672272205352783e-01 -5.346888676285743713e-02 -1.676362454891204834e-01
4.244343191385269165e-02 -1.114273965358734131e-01 -1.494801342487335205e-01
-1.416376233100891113e-02 -4.597902297973632812e-03 -4.040395617485046387e-01
-2.301954627037048340e-01 -5.776205658912658691e-02 -1.639767289161682129e-01
2.885650992393493652e-01 -4.359640926122665405e-02 -2.433836609125137329e-01
2.470562756061553955e-01 -1.269069910049438477e-01 -3.555549085140228271e-01
1.949834078550338745e-02 -9.038636833429336548e-02 -5.525550246238708496e-01
-3.386189043521881104e-02 -9.912718832492828369e-02 -1.212040930986404419e-01
1.465116739273071289e-01 -5.453770235180854797e-02 9.355042874813079834e-02
2.077856957912445068e-01 -1.068302392959594727e-01 -5.243144631385803223e-01
-8.193031698465347290e-02 -8.729907870292663574e-02 -4.709666371345520020e-01
-1.189199164509773254e-01 3.584552556276321411e-03 -3.678930401802062988e-01
-2.279268950223922729e-02 4.730697721242904663e-03 -2.010782659053802490e-01
2.970629036426544189e-01 -1.128933876752853394e-01 -6.540794670581817627e-02
-7.914974540472030640e-02 -9.409163892269134521e-02 -4.046014845371246338e-01
-1.080787107348442078e-01 -6.249461695551872253e-02 -5.524839758872985840e-01
2.072159349918365479e-01 -2.569101750850677490e-02 -1.759849488735198975e-01
-2.439253628253936768e-01 -2.671854943037033081e-02 -4.435324072837829590e-01
3.314680755138397217e-01 -6.200714036822319031e-02 -1.018260866403579712e-01
1.945146322250366211e-01 -4.476253315806388855e-02 3.890983760356903076e-02
2.807494699954986572e-01 -4.792290180921554565e-02 -7.805092632770538330e-02
8.191913366317749023e-05 -1.007304489612579346e-01 -8.304327726364135742e-02
3.090552687644958496e-01 -5.739604681730270386e-02 -3.759054541587829590e-01
1.643474251031875610e-01 -1.216767281293869019e-01 -1.451018750667572021e-01
1.472679376602172852e-01 -2.473527565598487854e-02 -2.148145437240600586e-02
2.574919164180755615e-01 -9.316182136535644531e-02 2.895693480968475342e-02
3.643217086791992188e-01 -1.131398156285285950e-01 -1.433066725730895996e-01
1.481423377990722656e-01 -1.248570084571838379e-01 -3.153475821018218994e-01
-2.117186784744262695e-01 7.681254297494888306e-03 -2.367154806852340698e-01
-4.786302149295806885e-02 -2.391146495938301086e-02 7.383392751216888428e-02
-6.012114882469177246e-02 -9.986679255962371826e-02 -2.089512944221496582e-01
-2.141146659851074219e-01 -5.526803433895111084e-04 -8.586528897285461426e-02
-2.037713229656219482e-01 -6.861498951911926270e-02 -3.457145094871520996e-01
-1.087112724781036377e-02 -6.674224883317947388e-02 8.207957446575164795e-02
2.443938553333282471e-01 -1.282919347286224365e-01 -2.391330301761627197e-01
2.215350270271301270e-01 -4.804823547601699829e-02 -4.750949144363403320e-01
7.343345135450363159e-02 -1.058070361614227295e-01 -5.027462244033813477e-01
-3.389482945203781128e-02 -1.052539125084877014e-01 -3.048699498176574707e-01
2.984552830457687378e-02 -1.204951480031013489e-02 -4.377328157424926758e-01
-1.532405018806457520e-01 8.183453232049942017e-03 -1.438914388418197632e-01
1.322823911905288696e-01 -9.859710931777954102e-02 2.518235146999359131e-02
3.543914258480072021e-01 -7.667713612318038940e-02 -8.255283534526824951e-02
-2.704120874404907227e-01 -4.648194834589958191e-02 -2.762878537178039551e-01
-9.036868810653686523e-03 7.809735834598541260e-04 -1.019725054502487183e-01
3.754208385944366455e-01 -8.307684212923049927e-02 -3.534367382526397705e-01
2.837387919425964355e-01 -4.705799743533134460e-02 -9.560807049274444580e-02
2.150876522064208984e-01 -1.190839409828186035e-01 -9.197475016117095947e-02
-2.481391429901123047e-01 2.764962613582611084e-03 -2.792721986770629883e-01
6.911171227693557739e-02 -1.139816492795944214e-01 -4.197650849819183350e-01
1.064105927944183350e-01 -1.212450414896011353e-01 -2.270529270172119141e-01
1.847769916057586670e-01 -1.256838291883468628e-01 -3.563461303710937500e-01
1.276633143424987793e-01 -3.257242217659950256e-02 -4.935641884803771973e-01
-3.233886510133743286e-02 5.197037011384963989e-03 -2.454544752836227417e-01
3.303081691265106201e-01 -1.154886409640312195e-01 -4.124858379364013672e-01
3.890270292758941650e-01 -1.110024154186248779e-01 -3.045266866683959961e-01
-1.994906365871429443e-01 -4.747122526168823242e-03 -4.179233312606811523e-01
4.376674816012382507e-02 -1.139713227748870850e-01 -3.704495429992675781e-01
-1.588621139526367188e-01 -6.166685000061988831e-02 -5.028587579727172852e-01
3.413660228252410889e-01 -6.464157998561859131e-02 -1.131685972213745117e-01
-2.316951453685760498e-01 -2.773226052522659302e-02 -3.907281160354614258e-02
2.327600419521331787e-01 -1.272095292806625366e-01 -2.054449170827865601e-01
1.520713269710540771e-01 -2.811886370182037354e-02 -2.026051282882690430e-03
1.053977757692337036e-01 -9.442479163408279419e-02 3.652040660381317139e-02
1.345088779926300049e-01 -1.240516602993011475e-01 -3.065813183784484863e-01
3.856629505753517151e-02 -2.453658729791641235e-03 -2.963808178901672363e-01
6.490405648946762085e-03 -2.100020647048950195e-03 -3.506184816360473633e-01
2.559154033660888672e-01 -1.163642108440399170e-01 -7.094220817089080811e-02
1.673224270343780518e-01 -3.228201717138290405e-02 6.745114922523498535e-03
2.972130477428436279e-01 -1.234488785266876221e-01 -1.560459136962890625e-01
1.052801311016082764e-01 -4.997882992029190063e-02 -5.759969949722290039e-01
3.291231393814086914e-02 -9.193901717662811279e-02 1.297335326671600342e-02
-1.216333359479904175e-03 -7.295644283294677734e-02 -5.917102098464965820e-01
-9.248598664999008179e-02 -8.936385065317153931e-02 -1.255016028881072998e-01
-1.982687711715698242e-01 7.284414023160934448e-03 -2.873473763465881348e-01
5.235355347394943237e-03 -9.711355715990066528e-02 -4.468825459480285645e-02
-1.113535463809967041e-02 -1.000372022390365601e-01 -4.660530090332031250e-01
2.347080707550048828e-01 -3.548816591501235962e-02 -3.459326922893524170e-01
1.869162917137145996e-01 -2.214401587843894958e-02 -2.585262358188629150e-01
2.122410833835601807e-01 -4.923587292432785034e-02 -4.925408363342285156e-01
2.479925453662872314e-01 -5.880266427993774414e-02 -4.917991757392883301e-01
-8.929369598627090454e-02 8.634258061647415161e-03 -2.107437252998352051e-01
2.122825086116790771e-01 -9.405361115932464600e-02 4.290939867496490479e-02
5.911799520254135132e-02 -1.115180999040603638e-01 -4.383462667465209961e-01
1.355784237384796143e-01 -1.228421479463577271e-01 -3.596815168857574463e-01
-5.713634938001632690e-02 6.903421133756637573e-03 -2.385200113058090210e-01
-4.852217435836791992e-02 -5.910897627472877502e-02 -5.905552506446838379e-01
-1.519139707088470459e-01 -7.945673912763595581e-02 -3.943459391593933105e-01
3.074396848678588867e-01 -1.074822545051574707e-01 -4.538181424140930176e-02
2.306329905986785889e-01 -1.265241205692291260e-01 -1.897002011537551880e-01
1.901506483554840088e-01 -1.065002828836441040e-01 -5.130931735038757324e-03
6.067670881748199463e-02 -4.693452268838882446e-03 -2.909986972808837891e-01
7.441155612468719482e-02 -3.134190291166305542e-02 7.343254983425140381e-02
1.500392109155654907e-01 -1.144707947969436646e-01 -4.789400398731231689e-01
2.287923991680145264e-01 -6.654627621173858643e-02 6.092916429042816162e-02
4.013487398624420166e-01 -1.038534566760063171e-01 -2.696626484394073486e-01
-5.810739099979400635e-02 -6.160654127597808838e-03 3.054291009902954102e-04
-4.547557979822158813e-02 -9.860417246818542480e-02 -4.232825338840484619e-01
3.943683803081512451e-01 -9.471945464611053467e-02 -1.620700657367706299e-01
7.003811746835708618e-02 -4.741527140140533447e-03 -2.529301643371582031e-01
2.162224054336547852e-01 -2.958761341869831085e-02 -1.165701746940612793e-01
1.434030234813690186e-01 -9.565041214227676392e-02 -5.670883059501647949e-01
-2.980862557888031006e-01 -1.660560816526412964e-02 -2.750481665134429932e-01
-9.422395378351211548e-02 -1.957758516073226929e-02 -5.224786996841430664e-01
7.742504775524139404e-02 -1.030327603220939636e-01 -2.507251501083374023e-02
1.324614882469177246e-01 -3.554383292794227600e-02 -5.054444670677185059e-01
1.007230356335639954e-01 -1.026311516761779785e-02 -1.168872416019439697e-01
1.244821697473526001e-01 -9.938696026802062988e-02 -5.542064905166625977e-01
1.706141680479049683e-01 -3.621304035186767578e-02 -4.697120785713195801e-01
2.940482199192047119e-01 -1.118312478065490723e-01 -4.656060934066772461e-01
2.065297067165374756e-01 -1.225364655256271362e-01 -4.191485047340393066e-01
2.049755752086639404e-01 -3.326164558529853821e-02 -3.926478028297424316e-01
9.640026837587356567e-02 -7.682025432586669922e-03 -2.238813340663909912e-01
3.007209599018096924e-01 -1.146236583590507507e-01 -4.473105370998382568e-01
1.770418584346771240e-01 -2.015231549739837646e-02 -2.452813684940338135e-01
4.730152338743209839e-02 -2.281107008457183838e-03 -1.609142571687698364e-01
1.505487561225891113e-01 -2.619121223688125610e-02 -4.205415248870849609e-01
3.367240130901336670e-01 -7.636111974716186523e-02 -4.230854213237762451e-01
1.580272912979125977e-01 -9.851694107055664062e-02 3.018407523632049561e-02
1.206477656960487366e-01 -1.451390609145164490e-02 -3.345655202865600586e-01
2.661407180130481720e-02 -1.101028770208358765e-01 -1.591483950614929199e-01
2.194627225399017334e-01 -1.192453578114509583e-01 -4.522903561592102051e-01
-1.727561652660369873e-01 -6.472554802894592285e-02 -7.015347480773925781e-02
1.483974307775497437e-01 -1.250645965337753296e-01 -2.655136883258819580e-01
1.132298558950424194e-01 -1.108015775680541992e-01 -4.905545115470886230e-01
-1.732314378023147583e-02 -2.499986812472343445e-02 -5.379440784454345703e-01
-1.386083662509918213e-01 -4.839549586176872253e-02 -5.490543246269226074e-01
2.396387457847595215e-01 -3.854835033416748047e-02 -6.554080545902252197e-02
-2.879165410995483398e-01 -1.056876778602600098e-02 -3.045960068702697754e-01
2.623409330844879150e-01 -1.279215216636657715e-01 -3.245320916175842285e-01
6.823952496051788330e-02 -2.992704510688781738e-02 -5.246891379356384277e-01
-9.770145267248153687e-02 -7.688278704881668091e-02 -5.141697525978088379e-01
9.668299555778503418e-02 -9.651581943035125732e-02 2.365098893642425537e-02
1.138443350791931152e-01 -9.498940408229827881e-02 -5.675828456878662109e-01
1.472166776657104492e-01 -1.214263588190078735e-01 -4.026157259941101074e-01
2.226603031158447266e-01 -3.700643777847290039e-02 -3.935490846633911133e-01
-7.522251456975936890e-02 6.746817380189895630e-03 -1.423694789409637451e-01
1.442682370543479919e-02 -8.083115518093109131e-02 5.226917564868927002e-02
2.209849357604980469e-01 -7.792694121599197388e-02 6.734760105609893799e-02
-1.366676390171051025e-01 7.683996111154556274e-03 -1.309217512607574463e-01
2.896596789360046387e-01 -6.706862151622772217e-02 2.820178866386413574e-03
2.378105223178863525e-01 -1.285286992788314819e-01 -2.956467270851135254e-01
3.160338401794433594e-01 -1.088006421923637390e-01 -4.574885070323944092e-01
-7.740490138530731201e-03 -7.962492853403091431e-02 4.359336197376251221e-02
-1.045873239636421204e-01 -9.321881830692291260e-02 -2.701664268970489502e-01
-1.382634937763214111e-01 -3.479027375578880310e-02 -5.462785363197326660e-01
-7.987315207719802856e-02 7.251512259244918823e-03 -2.780646085739135742e-01
7.439057528972625732e-02 -6.020419299602508545e-03 -1.388092935085296631e-01
1.420920491218566895e-01 -1.072117239236831665e-01 -5.228499174118041992e-01
2.255137860774993896e-01 -3.289478644728660583e-02 -9.469653666019439697e-02
-8.545289188623428345e-02 -7.530358433723449707e-02 -5.339219570159912109e-01
2.765190601348876953e-01 -1.148388013243675232e-01 -4.631058573722839355e-01
-2.115961164236068726e-02 3.058124333620071411e-03 -1.303358674049377441e-01
-1.732466518878936768e-01 -1.054318994283676147e-02 -4.641227126121520996e-01
-7.433829456567764282e-02 -8.394078910350799561e-02 -4.355941712856292725e-02
-2.762415260076522827e-02 -2.902159094810485840e-02 -5.543858408927917480e-01
-4.901398718357086182e-02 -1.007950007915496826e-01 -3.786655664443969727e-01
8.424995839595794678e-02 -1.097823008894920349e-01 -7.503712177276611328e-02
3.113114535808563232e-01 -4.971247911453247070e-02 -2.009877860546112061e-01
-2.735806703567504883e-01 -2.361109852790832520e-02 -3.862869143486022949e-01
-1.016137376427650452e-01 -8.252885937690734863e-02 -4.758592247962951660e-01
1.526129543781280518e-01 -1.053227111697196960e-01 -5.334475040435791016e-01
2.587259411811828613e-01 -5.418399348855018616e-02 -4.554579257965087891e-01
7.589108496904373169e-02 -1.125806570053100586e-01 -1.145431250333786011e-01
6.822866946458816528e-02 -1.305067166686058044e-02 -4.070065021514892578e-01
1.094911545515060425e-01 -2.258108928799629211e-02 -4.444714188575744629e-01
-1.225074604153633118e-01 -1.840601488947868347e-02 -5.137573480606079102e-01
-2.217324972152709961e-01 -5.462233722209930420e-02 -4.243253469467163086e-01
1.476699858903884888e-02 -1.955009996891021729e-03 -8.989137411117553711e-02
-1.307694017887115479e-01 -7.038157433271408081e-02 -5.040578246116638184e-01
3.516188859939575195e-01 -6.313540786504745483e-02 -2.545441985130310059e-01
1.622885912656784058e-01 -1.202559471130371094e-01 -1.266869455575942993e-01
2.421159744262695312e-01 -1.279207468032836914e-01 -2.242037802934646606e-01
3.252239525318145752e-01 -7.694195210933685303e-02 -4.459866285324096680e-01
-7.047553360462188721e-02 -8.448096364736557007e-02 -5.056546926498413086e-01
-7.099468261003494263e-02 -8.128131926059722900e-02 -2.159231901168823242e-02
1.784181594848632812e-01 -2.960416860878467560e-02 -2.784268558025360107e-02
2.809926569461822510e-01 -1.248453408479690552e-01 -1.658306270837783813e-01
2.600625753402709961e-01 -1.282667368650436401e-01 -2.384828031063079834e-01
-9.821438044309616089e-02 -4.002310335636138916e-03 -4.371762871742248535e-01
3.071996867656707764e-01 -4.994100704789161682e-02 -1.524901241064071655e-01
-2.237176895141601562e-01 -4.196874052286148071e-02 -4.647076129913330078e-01
-1.769948005676269531e-02 -1.805882900953292847e-03 -5.594462156295776367e-02
-4.975157231092453003e-02 -1.669302210211753845e-02 -5.073502659797668457e-01
-2.101919353008270264e-01 7.774870842695236206e-03 -2.117521166801452637e-01
4.046678915619850159e-02 -2.049580216407775879e-03 -2.788613438606262207e-01
-1.557030975818634033e-01 -8.248154819011688232e-02 -2.929443418979644775e-01
-2.026624679565429688e-01 -5.732695013284683228e-02 -4.513565301895141602e-01
-2.615022063255310059e-01 1.353569328784942627e-03 -2.390401363372802734e-01
-1.406759619712829590e-01 -3.570254519581794739e-02 5.033086240291595459e-02
-1.276456713676452637e-01 -8.336708694696426392e-02 -1.395471394062042236e-01
-1.308025121688842773e-01 -7.902447134256362915e-02 -9.932181239128112793e-02
1.611855030059814453e-01 -1.257375925779342651e-01 -3.090957403182983398e-01
3.550353646278381348e-01 -1.197789683938026428e-01 -1.905188113451004028e-01
-1.422211825847625732e-01 9.481277316808700562e-03 -1.824268400669097900e-01
6.264449656009674072e-02 -1.149697601795196533e-01 -1.725665479898452759e-01
-1.191106364130973816e-01 -7.931917905807495117e-02 -7.883518934249877930e-02
9.640809893608093262e-02 -1.127541661262512207e-01 -9.395495057106018066e-02
4.431831091642379761e-02 -9.493137896060943604e-02 3.986224532127380371e-03
1.271969974040985107e-01 -4.773356392979621887e-02 -5.586426854133605957e-01
3.357521295547485352e-01 -7.142411917448043823e-02 -5.963529646396636963e-02
1.287290453910827637e-01 -1.214816421270370483e-02 -2.095489054918289185e-01
1.133794486522674561e-01 -4.961025714874267578e-02 9.967751801013946533e-02
2.134165763854980469e-01 -3.254351764917373657e-02 -3.655966818332672119e-01
-2.243643105030059814e-01 -3.097951412200927734e-05 -1.021264195442199707e-01
1.532792448997497559e-01 -6.532836705446243286e-02 9.710629284381866455e-02
4.103977605700492859e-02 -1.361748203635215759e-02 4.721388220787048340e-03
-1.809361577033996582e-01 -5.782676115632057190e-02 -4.520910978317260742e-02
2.239340841770172119e-01 -1.013466268777847290e-01 1.614226400852203369e-02
2.720060944557189941e-02 -8.254334330558776855e-03 -2.783000469207763672e-02
1.436811685562133789e-01 -1.787411794066429138e-02 -3.326031565666198730e-01
1.996747553348541260e-01 -8.042152225971221924e-02 7.358463108539581299e-02
2.752254605293273926e-01 -5.333963036537170410e-02 -2.771210670471191406e-02
-9.449254721403121948e-02 -3.869547694921493530e-02 -5.690533518791198730e-01
1.207565367221832275e-01 -1.124712377786636353e-01 -7.107047736644744873e-02
1.718469858169555664e-01 -1.230903416872024536e-01 -3.966377973556518555e-01
-3.264852613210678101e-02 -4.107765853404998779e-04 -6.053757667541503906e-02
-2.187725603580474854e-01 -6.582576781511306763e-02 -2.606244981288909912e-01
2.596886754035949707e-01 -1.162046045064926147e-01 -4.638826251029968262e-01
5.878910422325134277e-03 -1.935615763068199158e-02 -5.033393502235412598e-01
-1.608057916164398193e-01 9.239476174116134644e-03 -1.775509119033813477e-01
1.351608932018280029e-01 -1.210168749094009399e-01 -1.646502017974853516e-01
2.566916048526763916e-01 -4.641338065266609192e-02 -4.072898030281066895e-01
1.004161313176155090e-01 -8.170466870069503784e-03 -2.112202346324920654e-01
-1.397791504859924316e-01 -8.592567592859268188e-02 -3.048925399780273438e-01
-2.929247915744781494e-02 -3.916880115866661072e-02 9.906406700611114502e-02
-1.623724400997161865e-02 -8.730940520763397217e-03 -4.436482191085815430e-01
2.679875791072845459e-01 -1.191594973206520081e-01 -9.665693342685699463e-02
-1.871840357780456543e-01 5.988616496324539185e-03 -3.229922056198120117e-01
-1.034027859568595886e-01 -7.734400779008865356e-02 -3.895509243011474609e-02
1.747522205114364624e-01 -1.190750449895858765e-01 -1.048858761787414551e-01
3.179675713181495667e-02 -1.791679114103317261e-02 -4.803048372268676758e-01
-8.722335845232009888e-02 -9.194406867027282715e-02 -1.468416452407836914e-01
1.696286723017692566e-02 -1.418016105890274048e-02 2.311511337757110596e-02
-7.338065654039382935e-02 -6.260349601507186890e-02 -5.756000876426696777e-01
-1.514102518558502197e-01 -6.784941256046295166e-02 -4.872778058052062988e-01
-4.202868789434432983e-02 -9.147740900516510010e-03 1.524902880191802979e-02
-2.718243300914764404e-01 -3.268719837069511414e-02 -1.294545829296112061e-01
2.078769505023956299e-01 -1.220647692680358887e-01 -1.260545253753662109e-01
2.515103220939636230e-01 -1.209600493311882019e-01 -4.322405755519866943e-01
-1.985056102275848389e-01 7.898356765508651733e-03 -1.788503229618072510e-01
-2.743463516235351562e-01 -4.066578298807144165e-02 -1.851265132427215576e-01
-1.248043850064277649e-01 5.205515772104263306e-03 -3.475244343280792236e-01
1.853303015232086182e-01 -1.100293472409248352e-01 -2.632786333560943604e-02
7.924614101648330688e-02 -9.418707340955734253e-03 -3.427610397338867188e-01
2.913754582405090332e-01 -7.071054726839065552e-02 -4.781116843223571777e-01
-1.670730412006378174e-01 -6.990487128496170044e-02 -9.686975181102752686e-02
2.822591960430145264e-01 -5.280587449669837952e-02 -4.037646055221557617e-01
3.328874111175537109e-01 -1.200714409351348877e-01 -3.748927414417266846e-01
1.425908505916595459e-01 -6.548371165990829468e-02 -5.875067710876464844e-01
-2.561523914337158203e-01 -5.216081067919731140e-02 -3.058024048805236816e-01
-2.025448977947235107e-01 -5.440109595656394958e-02 -4.643279314041137695e-01
2.264581918716430664e-01 -3.254854679107666016e-02 -3.277729153633117676e-01
2.834454178810119629e-01 -4.527284204959869385e-02 -1.173786967992782593e-01
3.530000448226928711e-01 -1.126159727573394775e-01 -1.198380589485168457e-01
2.531324326992034912e-01 -4.052394628524780273e-02 -3.576345145702362061e-01
-3.500603139400482178e-02 -1.023595780134201050e-02 -4.645398855209350586e-01
-1.793653517961502075e-02 -1.019370183348655701e-02 1.423679292201995850e-02
1.439788490533828735e-01 -1.773940399289131165e-02 -9.543268382549285889e-02
-1.281759440898895264e-01 6.033878773450851440e-03 -1.032222211360931396e-01
-9.940601885318756104e-04 -1.070897728204727173e-01 -1.697776913642883301e-01
2.927204072475433350e-01 -1.264897286891937256e-01 -2.052018493413925171e-01
-5.893173068761825562e-02 -9.273041039705276489e-02 -9.497936069965362549e-02
2.167768180370330811e-01 -1.145509332418441772e-01 -4.855092465877532959e-01
2.442863583564758301e-01 -3.332627192139625549e-02 -1.749139726161956787e-01
2.387712895870208740e-01 -5.212651193141937256e-02 1.935900747776031494e-02
7.492992281913757324e-02 -2.766593173146247864e-02 5.972747504711151123e-02
1.183336377143859863e-01 -1.177141070365905762e-02 -2.805222868919372559e-01
1.830102801322937012e-01 -6.425829231739044189e-02 -5.650182366371154785e-01
1.678151935338973999e-01 -5.025650560855865479e-02 7.570253312587738037e-02
-1.018969044089317322e-01 8.860502392053604126e-03 -2.457554191350936890e-01
-1.491571664810180664e-01 6.852213293313980103e-03 -3.233295083045959473e-01
-1.710918545722961426e-02 -1.076729372143745422e-01 -3.108478784561157227e-01
-2.486108988523483276e-02 -1.778832077980041504e-02 -5.066691637039184570e-01
-1.289839744567871094e-01 -7.613265514373779297e-02 -4.755347967147827148e-01
-1.167859211564064026e-01 -9.026395529508590698e-02 -2.331122308969497681e-01
1.379438191652297974e-01 -1.426506787538528442e-02 -2.668493688106536865e-01
-1.040400788187980652e-01 -1.842375844717025757e-03 -2.468687295913696289e-02
5.197463929653167725e-02 -5.962528288364410400e-03 -3.388585746288299561e-01
1.583358943462371826e-01 -2.467662841081619263e-02 -3.906655311584472656e-02
4.073015972971916199e-02 -1.954891905188560486e-02 4.056482017040252686e-02
3.203871548175811768e-01 -1.257390230894088745e-01 -2.322706580162048340e-01
-2.372739017009735107e-01 -7.994800806045532227e-03 -7.408891618251800537e-02
1.639080047607421875e-02 -6.126013398170471191e-02 -6.045125126838684082e-01
-2.633047997951507568e-01 -4.399706423282623291e-02 -3.642897605895996094e-01
1.506798267364501953e-01 -1.550634205341339111e-02 -2.117868363857269287e-01
4.275017231702804565e-02 -1.115839630365371704e-01 -4.130772948265075684e-01
2.964277267456054688e-01 -1.162884086370468140e-01 -8.700416982173919678e-02
1.010065600275993347e-01 -1.181912422180175781e-02 -3.355278670787811279e-01
-8.913371711969375610e-02 6.475482136011123657e-03 -3.086783885955810547e-01
-1.692181229591369629e-01 -6.444662809371948242e-02 -4.761450588703155518e-01
9.392498433589935303e-02 -5.473001673817634583e-02 -5.900670886039733887e-01
1.209240779280662537e-01 -1.110900938510894775e-02 -1.894787400960922241e-01
1.187908276915550232e-02 -1.317088678479194641e-02 -4.603459835052490234e-01
-1.925850510597229004e-01 -7.322379201650619507e-02 -2.538204789161682129e-01
-2.694226205348968506e-01 -6.054043769836425781e-04 -2.523756325244903564e-01
-2.553963661193847656e-01 2.195343375205993652e-03 -2.048580944538116455e-01
6.229015439748764038e-02 -5.975738167762756348e-03 -3.170173466205596924e-01
1.184645891189575195e-01 -9.931598603725433350e-02 1.764790713787078857e-02
1.161747351288795471e-01 -2.054557576775550842e-02 -1.505438983440399170e-02
-8.377990871667861938e-02 1.595348119735717773e-03 -5.690580606460571289e-02
1.660391688346862793e-01 -1.245577633380889893e-01 -1.982699185609817505e-01
-1.157257631421089172e-01 -1.338507607579231262e-02 -4.939610958099365234e-01
2.045373022556304932e-01 -1.133617460727691650e-01 -4.628483951091766357e-02
9.631026536226272583e-03 1.961495727300643921e-03 -1.915375590324401855e-01
2.788558006286621094e-01 -4.171993583440780640e-02 -1.653085350990295410e-01
-1.884042620658874512e-01 1.991271972656250000e-03 -8.231942355632781982e-02
-8.570241183042526245e-02 -8.831301331520080566e-02 -9.925925731658935547e-02
-2.101192772388458252e-01 -6.625685095787048340e-02 -1.935137957334518433e-01
-8.231777697801589966e-02 -4.929973557591438293e-02 -5.802003741264343262e-01
1.590301990509033203e-01 -1.227376759052276611e-01 -3.920347094535827637e-01
2.270240336656570435e-03 -1.043911278247833252e-01 -1.211008280515670776e-01
-1.019962802529335022e-01 8.822586387395858765e-03 -1.825031638145446777e-01
2.641906142234802246e-01 -7.373046875000000000e-02 3.939683735370635986e-02
-7.242755591869354248e-02 -2.394048124551773071e-02 7.060955464839935303e-02
-8.616068214178085327e-02 -8.414444327354431152e-02 -6.239460408687591553e-02
-3.737568855285644531e-02 -9.347896277904510498e-02 -6.778299808502197266e-02
2.908138036727905273e-01 -1.044007167220115662e-01 -2.176865935325622559e-02
-2.602325379848480225e-01 -1.757230609655380249e-02 -8.751696348190307617e-02
-1.933594942092895508e-01 -7.314836233854293823e-02 -2.866448760032653809e-01
-1.750358641147613525e-01 -9.605512022972106934e-03 -8.362278342247009277e-03
-2.335594594478607178e-01 5.393810570240020752e-04 -1.204260736703872681e-01
-2.843994200229644775e-01 -3.261947631835937500e-02 -3.392124176025390625e-01
1.061124056577682495e-01 -1.055349484086036682e-01 -2.472947537899017334e-02
2.336147725582122803e-01 -1.254405826330184937e-01 -1.680504083633422852e-01
3.335863351821899414e-01 -5.654746666550636292e-02 -2.389689683914184570e-01
-2.121570706367492676e-02 1.458294689655303955e-03 -3.294689953327178955e-01
-1.644847989082336426e-01 -7.915304601192474365e-02 -2.105749100446701050e-01
3.286948427557945251e-02 -9.727802872657775879e-02 -5.280596613883972168e-01
2.967067658901214600e-01 -6.129077821969985962e-02 -4.299780726432800293e-01
-2.994889318943023682e-01 -2.054090797901153564e-02 -2.335761487483978271e-01
3.215833604335784912e-01 -9.696325659751892090e-02 -2.542172372341156006e-02
-5.173683166503906250e-03 -9.441890567541122437e-02 6.143005192279815674e-02
1.862330734729766846e-02 -9.815449267625808716e-02 5.153999477624893188e-02
1.853937804698944092e-01 -8.143524080514907837e-02 8.761939406394958496e-02
1.584862470626831055e-01 -7.364257425069808960e-02 1.135717034339904785e-01
2.275744080543518066e-01 -8.675810694694519043e-02 7.707999646663665771e-02
2.465835213661193848e-01 -7.387083023786544800e-02 1.094539538025856018e-01
7.006044685840606689e-02 -9.433922171592712402e-02 5.452969297766685486e-02
1.563878059387207031e-01 -9.532428532838821411e-02 5.621987581253051758e-02
1.608400940895080566e-01 -7.823639363050460815e-02 9.648048132658004761e-02
7.190099358558654785e-02 -1.009973064064979553e-01 4.262501373887062073e-02
5.850381404161453247e-02 -8.716085553169250488e-02 8.060345798730850220e-02
2.550893723964691162e-01 -7.738124579191207886e-02 1.001033931970596313e-01
6.980766355991363525e-02 -7.905690371990203857e-02 9.667979180812835693e-02
2.066476643085479736e-02 -1.050422787666320801e-01 2.953808382153511047e-02
1.815649569034576416e-01 -8.805109560489654541e-02 7.620254904031753540e-02
1.112250685691833496e-01 -8.968336880207061768e-02 7.358592003583908081e-02
1.055178269743919373e-01 -7.774853706359863281e-02 1.039476022124290466e-01
8.371156454086303711e-02 -8.320817351341247559e-02 8.404732495546340942e-02
1.705867648124694824e-01 -9.416854381561279297e-02 5.566774308681488037e-02
5.178720876574516296e-02 -9.986772388219833374e-02 4.089747741818428040e-02
2.277215421199798584e-01 -7.357487082481384277e-02 1.125079691410064697e-01
8.313277363777160645e-02 -8.980292081832885742e-02 6.616016477346420288e-02
4.031375050544738770e-02 -9.134279936552047729e-02 6.291839480400085449e-02
1.989628374576568604e-01 -7.182385772466659546e-02 1.171929910778999329e-01
1.564991474151611328e-02 -9.015555679798126221e-02 6.690384447574615479e-02
1.234861165285110474e-01 -9.422801434993743896e-02 6.079746410250663757e-02
5.581722781062126160e-02 -8.949453383684158325e-02 6.750205159187316895e-02
2.517357468605041504e-03 -9.695453941822052002e-02 4.913634806871414185e-02
8.410030603408813477e-02 -1.027352437376976013e-01 3.633514791727066040e-02
1.165000200271606445e-01 -8.115380257368087769e-02 8.903238177299499512e-02
1.302631944417953491e-01 -9.958697855472564697e-02 4.363321512937545776e-02
8.305862545967102051e-03 -8.533024787902832031e-02 8.400384336709976196e-02
9.929683804512023926e-02 -8.502238243818283081e-02 7.870668917894363403e-02
1.011551320552825928e-01 -1.005876436829566956e-01 3.954819962382316589e-02
1.710951924324035645e-01 -8.463135361671447754e-02 8.586095273494720459e-02
-1.587563008069992065e-02 -9.782155603170394897e-02 4.750938713550567627e-02
2.001696527004241943e-01 -9.167550504207611084e-02 6.410933285951614380e-02
2.410548031330108643e-01 -8.104468882083892822e-02 9.264487028121948242e-02
-2.511463314294815063e-02 -1.043672040104866028e-01 3.203983604907989502e-02
2.032661139965057373e-01 -8.261592686176300049e-02 9.026724100112915039e-02
-4.139356315135955811e-03 -8.695916831493377686e-02 7.728976011276245117e-02
2.121521681547164917e-01 -7.724318653345108032e-02 1.040252596139907837e-01
3.201149404048919678e-02 -1.016223952174186707e-01 3.686978295445442200e-02
1.330291330814361572e-01 -7.869645953178405762e-02 9.561520814895629883e-02
-3.888908773660659790e-02 -9.321913123130798340e-02 6.295178830623626709e-02
-4.865350574254989624e-02 -1.009333655238151550e-01 4.248738661408424377e-02
2.252132147550582886e-01 -8.083976060152053833e-02 8.961054682731628418e-02
3.234861791133880615e-02 -8.213222771883010864e-02 9.214568138122558594e-02
1.406349837779998779e-01 -9.220722317695617676e-02 5.968099460005760193e-02
1.286257803440093994e-01 -7.313919812440872192e-02 1.135616898536682129e-01
2.563380897045135498e-01 -2.840741723775863647e-02 9.760085493326187134e-02
1.277782917022705078e-01 -1.565875858068466187e-02 1.076148301362991333e-01
1.434639245271682739e-01 -1.048630177974700928e-01 9.767845273017883301e-02
1.983879357576370239e-01 -8.145508170127868652e-02 1.312159150838851929e-01
1.851008385419845581e-01 -9.261713922023773193e-02 6.677287817001342773e-02
1.316415369510650635e-01 -9.972231090068817139e-02 1.140973344445228577e-01
1.462673097848892212e-01 -3.704900294542312622e-02 5.807751789689064026e-02
7.665780186653137207e-02 -6.677774339914321899e-02 6.112645193934440613e-02
2.300850152969360352e-01 -9.903779625892639160e-02 9.174794703722000122e-02
2.237979173660278320e-01 -7.477258145809173584e-02 6.027176231145858765e-02
1.376252323389053345e-01 -4.923117905855178833e-02 1.375043094158172607e-01
2.674529850482940674e-01 -5.068983137607574463e-02 1.199498698115348816e-01
7.549194246530532837e-02 -6.189657002687454224e-02 1.310161948204040527e-01
1.310846954584121704e-01 -3.488438576459884644e-02 1.317534744739532471e-01
4.074384272098541260e-02 -3.658451139926910400e-02 8.162645250558853149e-02
2.119968831539154053e-01 -1.019958406686782837e-01 9.239064157009124756e-02
2.322016507387161255e-01 -5.034891888499259949e-02 6.049614027142524719e-02
2.212665975093841553e-01 -9.169845283031463623e-02 1.194086298346519470e-01
2.683827877044677734e-01 -4.318640381097793579e-02 7.546467334032058716e-02
5.671215802431106567e-02 -2.904578670859336853e-02 8.230005949735641479e-02
2.700785994529724121e-01 -6.780443340539932251e-02 1.195836439728736877e-01
8.123539388179779053e-02 -8.296258002519607544e-02 6.743808090686798096e-02
2.394234240055084229e-01 -7.165794074535369873e-02 6.240971758961677551e-02
1.067785918712615967e-01 -7.513692975044250488e-02 5.838057026267051697e-02
1.260205805301666260e-01 -1.035184562206268311e-01 1.005414575338363647e-01
2.047323584556579590e-01 -6.318544596433639526e-02 1.358622610569000244e-01
2.556633353233337402e-01 -9.088549017906188965e-02 8.485844731330871582e-02
1.893011629581451416e-01 -4.931961745023727417e-02 5.486777052283287048e-02
1.564834117889404297e-01 -3.882658854126930237e-02 1.343746483325958252e-01
1.854426860809326172e-01 -1.034973114728927612e-01 1.046451628208160400e-01
1.114278435707092285e-01 -4.546408727765083313e-02 1.347839236259460449e-01
2.035275101661682129e-02 -4.826560616493225098e-02 1.028364226222038269e-01
2.448280453681945801e-01 -4.660981148481369019e-02 1.263188272714614868e-01
1.790995746850967407e-01 -7.745431363582611084e-02 5.644224956631660461e-02
9.270299226045608521e-02 -2.843673527240753174e-02 6.974139064550399780e-02
9.138832986354827881e-02 -6.154828146100044250e-02 5.761606991291046143e-02
2.061519473791122437e-01 -2.005766704678535461e-02 8.063585311174392700e-02
2.972275018692016602e-02 -6.145471334457397461e-02 1.144778802990913391e-01
1.247045174241065979e-01 -1.558504253625869751e-02 8.510154485702514648e-02
1.032524034380912781e-01 -1.607378572225570679e-02 9.778538346290588379e-02
1.977818459272384644e-01 -1.036656945943832397e-01 9.449622780084609985e-02
1.228584498167037964e-01 -1.012170463800430298e-01 8.217731863260269165e-02
2.472541630268096924e-01 -3.212641179561614990e-02 7.628118991851806641e-02
2.856947183609008789e-01 -5.232637748122215271e-02 1.098291948437690735e-01
2.278271317481994629e-01 -3.158887475728988647e-02 1.212169826030731201e-01
1.213605552911758423e-01 -9.187032282352447510e-02 1.236842125654220581e-01
4.377355426549911499e-02 -4.160346835851669312e-02 1.169102042913436890e-01
8.729725331068038940e-02 -3.271398693323135376e-02 1.247806623578071594e-01
1.666465848684310913e-01 -1.585489884018898010e-02 8.237946778535842896e-02
1.578005850315093994e-01 -5.883315578103065491e-02 5.253311619162559509e-02
2.733546197414398193e-01 -8.460073173046112061e-02 1.028433218598365784e-01
1.706684231758117676e-01 -4.046047106385231018e-02 5.668561160564422607e-02
2.357336729764938354e-01 -2.309080958366394043e-02 1.023871377110481262e-01
1.404930651187896729e-01 -9.434420615434646606e-02 6.827620416879653931e-02
2.296514511108398438e-01 -4.567682743072509766e-02 1.296571493148803711e-01
1.874181181192398071e-01 -2.532316744327545166e-02 6.871436536312103271e-02
3.255085647106170654e-02 -6.620404124259948730e-02 7.695465534925460815e-02
1.698193550109863281e-01 -1.049464419484138489e-01 9.994883835315704346e-02
2.853375077247619629e-01 -4.309514164924621582e-02 9.341897815465927124e-02
1.349561810493469238e-01 -6.217776983976364136e-02 5.315634980797767639e-02
2.436645328998565674e-01 -3.192022442817687988e-02 1.161696463823318481e-01
1.755668222904205322e-01 -8.856225013732910156e-02 1.283842474222183228e-01
4.325967282056808472e-02 -8.501408994197845459e-02 9.198871999979019165e-02
9.330477565526962280e-02 -5.060738325119018555e-02 1.337181925773620605e-01
2.002428025007247925e-01 -3.471054509282112122e-02 1.291445344686508179e-01
2.336399555206298828e-01 -9.279800206422805786e-02 7.645030319690704346e-02
1.073154583573341370e-01 -9.785243868827819824e-02 7.867204397916793823e-02
8.704572916030883789e-02 -8.262887597084045410e-02 1.256776303052902222e-01
2.173646241426467896e-01 -6.031752005219459534e-02 5.672375857830047607e-02
1.118384450674057007e-01 -2.599064260721206665e-02 6.884216517210006714e-02
8.079502731561660767e-02 -5.134563148021697998e-02 6.004800274968147278e-02
1.748916208744049072e-01 -3.162320330739021301e-02 1.295351684093475342e-01
2.122289985418319702e-01 -1.786690577864646912e-02 9.399174898862838745e-02
9.243007004261016846e-02 -2.279399335384368896e-02 1.148423552513122559e-01
1.738463342189788818e-02 -6.459045410156250000e-02 9.397025406360626221e-02
6.493332237005233765e-02 -7.710458338260650635e-02 6.818673014640808105e-02
1.178684830665588379e-01 -3.621805831789970398e-02 6.015660241246223450e-02
8.438728749752044678e-02 -9.466807544231414795e-02 1.105071082711219788e-01
2.040624022483825684e-01 -9.554346650838851929e-02 1.182379573583602905e-01
1.115156710147857666e-01 -8.071801066398620605e-02 1.310139745473861694e-01
1.556084603071212769e-01 -2.188498154282569885e-02 7.071285694837570190e-02
2.148460894823074341e-01 -8.642864227294921875e-02 6.511147320270538330e-02
2.617855668067932129e-01 -5.200719833374023438e-02 6.825086474418640137e-02
2.698916494846343994e-01 -8.556653559207916260e-02 8.583011478185653687e-02
3.129378706216812134e-02 -4.758908972144126892e-02 1.133615598082542419e-01
2.318623363971710205e-01 -2.865824475884437561e-02 7.459105551242828369e-02
1.315486729145050049e-01 -4.805209487676620483e-02 5.454817041754722595e-02
2.854491174221038818e-01 -6.323351711034774780e-02 7.881271094083786011e-02
2.780903875827789307e-02 -5.079414695501327515e-02 7.965332269668579102e-02
3.959674388170242310e-02 -7.498797774314880371e-02 1.138636693358421326e-01
1.276203244924545288e-01 -7.840947061777114868e-02 5.756112933158874512e-02
6.057640165090560913e-02 -4.091237485408782959e-02 6.875264644622802734e-02
2.176056653261184692e-01 -9.791900962591171265e-02 7.992897927761077881e-02
1.301870644092559814e-01 -8.410248905420303345e-02 1.308555305004119873e-01
5.087162554264068604e-02 -2.760195732116699219e-02 9.411878883838653564e-02
2.158820331096649170e-01 -4.605077952146530151e-02 1.323282718658447266e-01
1.791201531887054443e-01 -2.121664583683013916e-02 1.184900104999542236e-01
4.982811957597732544e-02 -6.282731890678405762e-02 1.237522661685943604e-01
1.393190473318099976e-01 -1.608324050903320312e-02 8.147308230400085449e-02
2.609585225582122803e-01 -7.905109226703643799e-02 7.255697995424270630e-02
1.423829644918441772e-01 -9.015790373086929321e-02 1.271069496870040894e-01
2.716751098632812500e-01 -6.253602355718612671e-02 7.100652903318405151e-02
1.578868329524993896e-01 -1.457850262522697449e-02 1.058447435498237610e-01
1.127133220434188843e-01 -1.022423505783081055e-01 9.998934715986251831e-02
7.348293811082839966e-02 -8.555377274751663208e-02 1.194801554083824158e-01
4.252126067876815796e-02 -5.622207373380661011e-02 7.059118151664733887e-02
1.421744823455810547e-01 -1.499530673027038574e-02 1.072692945599555969e-01
2.033196389675140381e-01 -9.947657585144042969e-02 7.904618978500366211e-02
1.856484264135360718e-01 -6.629849970340728760e-02 5.387100577354431152e-02
8.316028118133544922e-02 -9.765550494194030762e-02 9.379539638757705688e-02
2.053646445274353027e-01 -2.743969857692718506e-02 6.913525611162185669e-02
6.796093285083770752e-02 -8.727652579545974731e-02 7.611226290464401245e-02
1.534362286329269409e-01 -7.234811782836914062e-02 5.427708104252815247e-02
4.051905125379562378e-02 -7.646448910236358643e-02 7.859865576028823853e-02
1.561281383037567139e-01 -6.999960541725158691e-02 1.375618278980255127e-01
2.222565114498138428e-01 -2.207843586802482605e-02 1.089011207222938538e-01
2.431445717811584473e-01 -9.637282788753509521e-02 9.558036923408508301e-02
2.268780767917633057e-01 -6.028091907501220703e-02 1.327229738235473633e-01
1.373575180768966675e-01 -6.896113604307174683e-02 1.373944282531738281e-01
5.265174061059951782e-02 -8.247077465057373047e-02 7.773183286190032959e-02
2.026269435882568359e-01 -6.110713258385658264e-02 5.488043278455734253e-02
2.553822696208953857e-01 -4.123861342668533325e-02 1.200454309582710266e-01
1.638064682483673096e-01 -2.479662746191024780e-02 1.241187304258346558e-01
1.883628666400909424e-01 -1.555281877517700195e-02 1.027583330869674683e-01
1.638287156820297241e-01 -8.055402338504791260e-02 1.337632834911346436e-01
-5.004281401634216309e-01 6.990188360214233398e-02 -2.126754447817802429e-02
-3.765445053577423096e-01 -4.103403165936470032e-02 -5.369319021701812744e-02
-5.952492952346801758e-01 5.649906396865844727e-02 -1.980879157781600952e-02
-2.493517398834228516e-01 8.833917975425720215e-02 -2.216865122318267822e-02
-4.490567445755004883e-01 -5.875290557742118835e-02 6.315407156944274902e-02
-5.682783126831054688e-01 4.417577385902404785e-02 6.023373082280158997e-02
-7.424551248550415039e-01 -4.715712368488311768e-02 3.932163864374160767e-02
-5.316970944404602051e-01 5.448677018284797668e-02 -3.933190181851387024e-02
-1.197400689125061035e-02 7.453563809394836426e-02 -2.468879893422126770e-02
-4.628046154975891113e-01 -7.399775087833404541e-02 3.770846128463745117e-02
-3.455546796321868896e-01 -7.116647064685821533e-02 3.246555477380752563e-02
6.021046638488769531e-02 3.259234875440597534e-02 -2.435429766774177551e-02
-5.334234237670898438e-01 6.942652165889739990e-02 -1.025593653321266174e-02
-4.463141858577728271e-01 -4.946846887469291687e-02 7.231425493955612183e-02
9.796899557113647461e-02 3.526389598846435547e-03 4.738259688019752502e-02
-3.424754738807678223e-01 -3.026067465543746948e-02 -5.813229084014892578e-02
-4.187861382961273193e-01 2.852777950465679169e-03 9.334137290716171265e-02
-3.568455874919891357e-01 8.842808008193969727e-02 -9.485820308327674866e-03
-4.739864468574523926e-01 -6.934756040573120117e-02 -2.874115109443664551e-02
-3.760290443897247314e-01 7.824763655662536621e-02 -2.877786755561828613e-02
-4.693983197212219238e-01 2.363638952374458313e-03 -6.873005628585815430e-02
-1.527041196823120117e-03 8.493022620677947998e-02 -1.260260492563247681e-02
-5.554098486900329590e-01 -7.991875708103179932e-02 5.328339524567127228e-03
-9.391345083713531494e-02 7.750257849693298340e-02 -3.137098625302314758e-02
-5.810495018959045410e-01 -5.673879757523536682e-02 5.853829905390739441e-02
-3.653538227081298828e-02 4.885239899158477783e-02 8.953193575143814087e-02
-3.798488080501556396e-01 -7.443821430206298828e-02 -8.580926805734634399e-04
-5.897745490074157715e-01 2.856175787746906281e-02 6.751917302608489990e-02
-5.401018261909484863e-02 -1.387528330087661743e-02 -2.933134138584136963e-02
5.052924156188964844e-03 5.670973658561706543e-02 -3.218052163720130920e-02
-3.793522417545318604e-01 7.427111268043518066e-02 6.257826089859008789e-02
-2.085161209106445312e-02 1.049381215125322342e-02 -3.644197061657905579e-02
-6.105263233184814453e-01 5.893622711300849915e-02 7.436294108629226685e-04
-6.686335206031799316e-01 -6.682981550693511963e-02 -2.710860967636108398e-02
-6.065645217895507812e-01 -7.761330902576446533e-02 1.786405593156814575e-02
-7.974200248718261719e-01 6.069871596992015839e-03 -2.140976488590240479e-03
-3.531527221202850342e-01 2.351001277565956116e-02 -6.692019850015640259e-02
-4.443000555038452148e-01 -6.840625405311584473e-02 -2.829302102327346802e-02
-6.227686405181884766e-01 -1.461319997906684875e-02 -6.118838489055633545e-02
-7.747215032577514648e-02 1.011707782745361328e-01 3.211976960301399231e-02
-4.045855104923248291e-01 5.140107870101928711e-02 8.085680007934570312e-02
-2.371676862239837646e-01 2.407805621623992920e-02 9.889759868383407593e-02
-7.146781682968139648e-01 2.140108123421669006e-02 3.930252045392990112e-02
-1.915106326341629028e-01 -1.264040172100067139e-02 -5.303572863340377808e-02
-6.031980514526367188e-01 5.825847387313842773e-02 2.465246990323066711e-02
5.954408645629882812e-02 5.125693976879119873e-02 7.832098007202148438e-02
-7.125012874603271484e-01 7.767462637275457382e-03 5.016501992940902710e-02
1.167349517345428467e-01 3.786741942167282104e-02 6.632548570632934570e-02
1.872637867927551270e-02 -2.323335409164428711e-02 2.717526815831661224e-02
-6.392300724983215332e-01 4.632669687271118164e-02 3.552206233143806458e-02
-9.834614396095275879e-02 4.974785726517438889e-03 -4.764278978109359741e-02
-2.352367490530014038e-01 9.599554538726806641e-02 4.325770586729049683e-02
-3.954667150974273682e-01 8.149702847003936768e-02 4.717072844505310059e-02
1.529237627983093262e-02 7.575352489948272705e-02 7.198351621627807617e-02
1.021783053874969482e-01 1.443841215223073959e-02 -2.995496615767478943e-03
7.895463705062866211e-02 5.481975525617599487e-02 -1.801909878849983215e-02
-6.942508220672607422e-01 -7.263100147247314453e-02 -2.948235720396041870e-03
-2.471918314695358276e-01 4.656128119677305222e-03 9.795654565095901489e-02
-5.541216731071472168e-01 5.323231965303421021e-02 -3.677008673548698425e-02
-3.074211776256561279e-01 6.712684035301208496e-02 7.863370329141616821e-02
-2.548792362213134766e-01 -6.414726376533508301e-02 1.145247370004653931e-05
-8.181995153427124023e-01 -3.889567777514457703e-02 -1.237718760967254639e-02
-1.390222162008285522e-01 2.178954333066940308e-02 -5.541543662548065186e-02
1.900753378868103027e-02 3.938814625144004822e-02 8.540418744087219238e-02
-4.177187383174896240e-01 -1.379136927425861359e-02 9.118015319108963013e-02
-7.779681682586669922e-02 9.314683079719543457e-02 -1.010109856724739075e-02
-5.156061053276062012e-01 3.340346366167068481e-02 -5.832240730524063110e-02
1.147628128528594971e-01 6.085886806249618530e-02 -5.300156772136688232e-03
-6.304320096969604492e-01 -7.330287992954254150e-02 2.835272625088691711e-02
6.945955753326416016e-02 -9.087864309549331665e-03 1.720517501235008240e-02
-6.573113799095153809e-02 7.175081968307495117e-02 8.091067522764205933e-02
9.809166193008422852e-03 8.520266413688659668e-02 6.272967159748077393e-02
-4.356185793876647949e-01 5.690168961882591248e-02 7.282321900129318237e-02
3.690996766090393066e-02 -1.279601827263832092e-02 5.133530497550964355e-02
-2.742242515087127686e-01 3.230553120374679565e-02 -6.341348588466644287e-02
-7.689584493637084961e-01 -5.685848370194435120e-02 1.881731301546096802e-02
-1.773036718368530273e-01 9.248737990856170654e-02 -1.614470221102237701e-02
-3.503140211105346680e-01 4.309124127030372620e-02 -6.082605570554733276e-02
-5.971139669418334961e-01 5.309890583157539368e-02 4.052169620990753174e-02
-2.454110532999038696e-01 4.606455937027931213e-02 9.418303519487380981e-02
4.667997360229492188e-03 -9.019872173666954041e-03 6.784962862730026245e-02
-2.868590950965881348e-01 -4.241465032100677490e-02 7.585558295249938965e-02
-6.115515232086181641e-01 -2.863772213459014893e-02 -5.980089306831359863e-02
-1.457455754280090332e-02 8.848759531974792480e-02 6.083792448043823242e-02
-5.570747256278991699e-01 6.749676167964935303e-02 -2.924323081970214844e-03
-4.307735860347747803e-01 -7.728064060211181641e-02 2.437038347125053406e-04
-5.101668238639831543e-01 -1.563275046646595001e-02 8.494179695844650269e-02
4.157263040542602539e-02 -1.635657809674739838e-02 3.808203339576721191e-02
-9.338678419589996338e-02 4.671536013484001160e-02 -4.798527061939239502e-02
-1.939789056777954102e-01 -4.287135228514671326e-02 6.658728420734405518e-02
-3.563732504844665527e-01 1.484952867031097412e-03 9.613648056983947754e-02
-2.350091934204101562e-03 3.278154134750366211e-02 -3.732439503073692322e-02
-2.857050597667694092e-01 -5.857650190591812134e-03 -6.371239572763442993e-02
-6.577912569046020508e-01 -5.690183117985725403e-02 -4.074247553944587708e-02
7.557615637779235840e-02 8.999659121036529541e-02 2.512747608125209808e-02
-1.679085344076156616e-01 7.790774106979370117e-02 7.677659392356872559e-02
-4.341580569744110107e-01 7.397864758968353271e-02 5.254363641142845154e-02
-6.543250083923339844e-01 -9.240474551916122437e-03 -5.802730470895767212e-02
7.878214120864868164e-02 7.357910275459289551e-02 -7.458386942744255066e-03
9.640440344810485840e-02 6.241293996572494507e-02 -1.030287705361843109e-02
-1.666666269302368164e-01 -5.531773343682289124e-02 1.111090090125799179e-02
4.510235786437988281e-02 5.951268970966339111e-02 7.799017429351806641e-02
-3.953662514686584473e-02 -2.507441863417625427e-02 5.947447568178176880e-02
-7.271577119827270508e-01 -6.882204115390777588e-02 4.765522666275501251e-03
1.135492026805877686e-01 9.567142464220523834e-03 9.669498540461063385e-03
-2.154340445995330811e-01 -5.613179132342338562e-02 4.691693559288978577e-02
-5.310779809951782227e-01 3.259920701384544373e-02 -5.741276592016220093e-02
-6.209688186645507812e-01 5.719581618905067444e-02 8.560230955481529236e-03
-9.558975696563720703e-03 5.024826154112815857e-02 -3.648705780506134033e-02
