6.502520442008972168e-01 6.775607168674468994e-02 9.255348145961761475e-02
4.621503353118896484e-01 4.084512218832969666e-02 1.341720819473266602e-01
7.533316612243652344e-01 1.368899643421173096e-02 9.427788853645324707e-02
7.645386457443237305e-02 -9.958004206418991089e-02 2.520225048065185547e-01
1.409893333911895752e-01 -8.439043909311294556e-02 3.059703111648559570e-01
4.010414332151412964e-02 -1.231100931763648987e-01 2.010544538497924805e-01
1.847622990608215332e-01 -6.741841882467269897e-02 2.836264073848724365e-01
1.258525252342224121e-01 -9.072495251893997192e-02 2.946262359619140625e-01
1.518878340721130371e-01 -7.687888294458389282e-02 3.168934285640716553e-01
1.950140893459320068e-01 -6.421542167663574219e-02 3.057485222816467285e-01
1.669529229402542114e-01 -7.854891568422317505e-02 2.748853266239166260e-01
4.939878731966018677e-02 -1.075060144066810608e-01 2.065353393554687500e-01
1.576472073793411255e-01 -5.530492961406707764e-02 2.996077835559844971e-01
1.380809992551803589e-01 -6.634782254695892334e-02 2.973635792732238770e-01
9.606891125440597534e-02 -1.022831052541732788e-01 2.698216438293457031e-01
9.386293590068817139e-02 -8.565118163824081421e-02 2.068282365798950195e-01
5.408479273319244385e-02 -1.123406141996383667e-01 1.768199801445007324e-01
1.177841350436210632e-01 -9.899498522281646729e-02 2.772603332996368408e-01
8.089134842157363892e-02 -1.147758066654205322e-01 2.085768878459930420e-01
1.559206396341323853e-01 -8.032748848199844360e-02 2.530207037925720215e-01
1.470056772232055664e-01 -8.830108493566513062e-02 2.914529144763946533e-01
1.236819252371788025e-01 -9.809966385364532471e-02 2.379540503025054932e-01
1.840505003929138184e-01 -4.841921478509902954e-02 3.268141448497772217e-01
1.161356493830680847e-01 -1.028898805379867554e-01 2.555553913116455078e-01
7.311463356018066406e-02 -1.172852367162704468e-01 2.304752320051193237e-01
6.148395687341690063e-02 -1.214765608310699463e-01 2.026154696941375732e-01
1.670137643814086914e-01 -7.993923872709274292e-02 2.919348180294036865e-01
1.636948585510253906e-01 -5.242509022355079651e-02 2.773894667625427246e-01
3.680472820997238159e-02 -1.177304014563560486e-01 1.851203590631484985e-01
1.417015790939331055e-01 -7.992594689130783081e-02 2.313882410526275635e-01
1.096762567758560181e-01 -9.898945689201354980e-02 2.128806561231613159e-01
1.250121295452117920e-01 -6.945827603340148926e-02 2.364440709352493286e-01
1.241643279790878296e-01 -7.329358160495758057e-02 2.889534235000610352e-01
9.794497489929199219e-02 -7.960047572851181030e-02 2.331186085939407349e-01
2.174670249223709106e-01 -4.852830991148948669e-02 3.323200941085815430e-01
8.172589540481567383e-02 -9.379069507122039795e-02 1.941308528184890747e-01
1.591480672359466553e-01 -5.978657305240631104e-02 3.165774047374725342e-01
1.231363341212272644e-01 -6.835902482271194458e-02 2.657780945301055908e-01
1.745983958244323730e-01 -4.837266728281974792e-02 3.047887980937957764e-01
1.887347996234893799e-01 -4.445847496390342712e-02 2.974255681037902832e-01
1.456767171621322632e-01 -8.998984098434448242e-02 2.672586739063262939e-01
1.859257519245147705e-01 -5.073260143399238586e-02 2.780490815639495850e-01
1.716134846210479736e-01 -6.589324027299880981e-02 3.307442069053649902e-01
9.600475430488586426e-02 -8.626574277877807617e-02 2.654426991939544678e-01
8.165787160396575928e-02 -8.791889250278472900e-02 2.184614390134811401e-01
2.099354714155197144e-01 -1.500975191593170166e-01 3.215169906616210938e-01
3.054421842098236084e-01 -1.219496801495552063e-01 3.441359698772430420e-01
1.399339735507965088e-01 -1.471011936664581299e-01 1.676482558250427246e-01
1.593228131532669067e-01 -1.605294048786163330e-01 2.666710913181304932e-01
3.019460737705230713e-01 -1.071655005216598511e-01 2.103402018547058105e-01
8.280771970748901367e-02 -1.143972799181938171e-01 2.579536139965057373e-01
3.075015842914581299e-01 -6.291276216506958008e-02 2.073457390069961548e-01
2.579295039176940918e-01 -1.072919145226478577e-01 3.914016187191009521e-01
2.863393425941467285e-01 -7.173389941453933716e-02 1.834448873996734619e-01
2.293018251657485962e-01 -7.579609751701354980e-02 1.557613313198089600e-01
8.621750771999359131e-02 -1.200569942593574524e-01 2.738745212554931641e-01
1.309752613306045532e-01 -1.553695499897003174e-01 2.911132574081420898e-01
2.975315451622009277e-01 -1.270241141319274902e-01 2.621194720268249512e-01
1.322367489337921143e-01 -7.623601704835891724e-02 2.178640365600585938e-01
2.755007743835449219e-01 -5.203469470143318176e-02 3.385901153087615967e-01
2.439698874950408936e-01 -4.702515155076980591e-02 2.406572103500366211e-01
3.578803539276123047e-01 -7.801266759634017944e-02 2.718239426612854004e-01
2.175664156675338745e-01 -6.360696256160736084e-02 3.359417617321014404e-01
3.477032184600830078e-01 -8.456263691186904907e-02 3.634112477302551270e-01
3.188730478286743164e-01 -1.175542399287223816e-01 3.353818058967590332e-01
1.085911095142364502e-01 -8.957011997699737549e-02 1.930032670497894287e-01
3.639830052852630615e-01 -6.745557487010955811e-02 2.964112162590026855e-01
1.137614473700523376e-01 -1.236345022916793823e-01 1.416527330875396729e-01
2.876811027526855469e-01 -1.243361830711364746e-01 3.589197695255279541e-01
1.471165269613265991e-01 -7.252388447523117065e-02 2.653347551822662354e-01
1.627095639705657959e-01 -9.459008276462554932e-02 1.369521468877792358e-01
3.507224321365356445e-01 -9.759987145662307739e-02 3.303444981575012207e-01
2.392157465219497681e-01 -1.404303908348083496e-01 2.137972116470336914e-01
1.555595099925994873e-01 -1.560238599777221680e-01 3.006903827190399170e-01
3.343724608421325684e-01 -8.963771909475326538e-02 3.747680485248565674e-01
3.572799563407897949e-01 -5.772218480706214905e-02 3.135775923728942871e-01
7.938954234123229980e-02 -1.097411289811134338e-01 2.285522073507308960e-01
2.102069556713104248e-01 -1.099270284175872803e-01 3.818702697753906250e-01
1.267387419939041138e-01 -1.605797857046127319e-01 2.492597401142120361e-01
2.459392547607421875e-01 -6.882941722869873047e-02 1.678988039493560791e-01
9.897896647453308105e-02 -1.375098973512649536e-01 2.944626212120056152e-01
2.723712921142578125e-01 -1.370482742786407471e-01 3.242512345314025879e-01
2.048006206750869751e-01 -5.336039513349533081e-02 2.368214726448059082e-01
2.745905816555023193e-01 -1.174196004867553711e-01 3.802134990692138672e-01
2.894602417945861816e-01 -4.498164728283882141e-02 2.477463483810424805e-01
1.977143585681915283e-01 -9.841614216566085815e-02 3.736591339111328125e-01
2.775162756443023682e-01 -1.337168216705322266e-01 2.489964365959167480e-01
8.775411546230316162e-02 -1.189283803105354309e-01 1.607562750577926636e-01
1.539449989795684814e-01 -1.255736052989959717e-01 3.507357239723205566e-01
7.437901198863983154e-02 -1.263943016529083252e-01 2.501914799213409424e-01
3.542917966842651367e-01 -7.232597470283508301e-02 3.547141253948211670e-01
2.861497998237609863e-01 -8.966015279293060303e-02 1.793520450592041016e-01
3.112144172191619873e-01 -1.235777661204338074e-01 3.118793964385986328e-01
1.525183320045471191e-01 -1.514862328767776489e-01 3.156343102455139160e-01
1.683363765478134155e-01 -6.429348140954971313e-02 2.650986015796661377e-01
1.956340819597244263e-01 -5.697169899940490723e-02 2.150279730558395386e-01
7.980589568614959717e-02 -1.086953058838844299e-01 2.032717466354370117e-01
3.477527797222137451e-01 -9.065500646829605103e-02 2.614443004131317139e-01
2.243336439132690430e-01 -4.992382600903511047e-02 2.353230565786361694e-01
3.659892082214355469e-01 -7.432595640420913696e-02 3.173472583293914795e-01
7.347258925437927246e-02 -1.436281502246856689e-01 2.286886423826217651e-01
2.657425105571746826e-01 -4.540808498859405518e-02 2.970786094665527344e-01
2.322405874729156494e-01 -5.095806717872619629e-02 2.991107404232025146e-01
2.097409814596176147e-01 -1.473020315170288086e-01 2.061785608530044556e-01
2.426339834928512573e-01 -4.738567024469375610e-02 2.848564684391021729e-01
1.699981987476348877e-01 -1.518878340721130371e-01 3.196011185646057129e-01
1.697080880403518677e-01 -1.572060436010360718e-01 2.173399627208709717e-01
3.457069396972656250e-01 -5.328682437539100647e-02 2.768456637859344482e-01
2.917055189609527588e-01 -4.629319533705711365e-02 3.186216056346893311e-01
2.415296435356140137e-01 -8.525992929935455322e-02 3.844788074493408203e-01
1.755785644054412842e-01 -1.311956495046615601e-01 3.586988151073455811e-01
1.260732710361480713e-01 -9.730359166860580444e-02 3.083846271038055420e-01
1.745415925979614258e-01 -7.747894525527954102e-02 1.556663811206817627e-01
1.161303892731666565e-01 -9.388626366853713989e-02 1.628394275903701782e-01
2.368526756763458252e-01 -1.281207948923110962e-01 1.787033081054687500e-01
1.730547249317169189e-01 -9.852077811956405640e-02 3.578974306583404541e-01
1.311966478824615479e-01 -9.216712415218353271e-02 1.521625369787216187e-01
2.715415954589843750e-01 -4.730503633618354797e-02 2.288132309913635254e-01
1.865158379077911377e-01 -5.891922116279602051e-02 2.700233161449432373e-01
1.911010295152664185e-01 -1.463690102100372314e-01 1.869888305664062500e-01
8.816169202327728271e-02 -1.045278087258338928e-01 2.464469969272613525e-01
2.515287995338439941e-01 -4.816585034132003784e-02 3.040364682674407959e-01
2.490059584379196167e-01 -8.961306512355804443e-02 1.554174870252609253e-01
2.164734601974487305e-01 -1.398292183876037598e-01 1.880460679531097412e-01
1.492961943149566650e-01 -1.590094864368438721e-01 2.824246287345886230e-01
1.798248887062072754e-01 -8.627147227525711060e-02 3.497692346572875977e-01
1.847387701272964478e-01 -1.576223522424697876e-01 2.381429970264434814e-01
1.724339127540588379e-01 -7.525011897087097168e-02 3.207800388336181641e-01
2.361094802618026733e-01 -4.980887100100517273e-02 2.224720120429992676e-01
3.059739172458648682e-01 -4.357952252030372620e-02 2.793827950954437256e-01
1.314808726310729980e-01 -1.210869476199150085e-01 3.340415954589843750e-01
9.660708159208297729e-02 -1.117959693074226379e-01 2.842394411563873291e-01
2.170087993144989014e-01 -1.414896547794342041e-01 3.491020798683166504e-01
3.142531514167785645e-01 -1.208502799272537231e-01 2.784564495086669922e-01
2.188700139522552490e-01 -1.488811373710632324e-01 2.245372831821441650e-01
1.870828270912170410e-01 -8.993338048458099365e-02 1.387993097305297852e-01
2.290875017642974854e-01 -1.292394995689392090e-01 3.717653155326843262e-01
1.753767132759094238e-01 -1.567321717739105225e-01 2.983201146125793457e-01
2.623060643672943115e-01 -1.424060463905334473e-01 2.903152108192443848e-01
8.333411812782287598e-02 -1.453316658735275269e-01 2.579362392425537109e-01
2.017258107662200928e-01 -1.379329264163970947e-01 3.570008575916290283e-01
2.021554112434387207e-01 -1.460578739643096924e-01 3.385854363441467285e-01
1.114343032240867615e-01 -1.113868206739425659e-01 3.070498704910278320e-01
2.492986172437667847e-01 -1.429120898246765137e-01 3.251391351222991943e-01
9.735523909330368042e-02 -1.388510912656784058e-01 1.608512252569198608e-01
1.844158321619033813e-01 -6.273768842220306396e-02 2.921346724033355713e-01
1.745752245187759399e-01 -1.380369514226913452e-01 1.586605608463287354e-01
3.031617403030395508e-01 -1.053729057312011719e-01 3.826209902763366699e-01
2.730312943458557129e-01 -8.204409480094909668e-02 3.896712064743041992e-01
2.265474349260330200e-01 -1.417248249053955078e-01 2.034627199172973633e-01
2.824094891548156738e-01 -1.354399472475051880e-01 2.822696566581726074e-01
9.500194340944290161e-02 -9.868591278791427612e-02 1.877822279930114746e-01
2.528884410858154297e-01 -7.411730289459228516e-02 3.770602047443389893e-01
2.840466201305389404e-01 -1.350498050451278687e-01 3.011487722396850586e-01
2.759937942028045654e-01 -1.310959607362747192e-01 2.333894968032836914e-01
1.437711417675018311e-01 -8.016653358936309814e-02 2.938532531261444092e-01
1.180352270603179932e-01 -1.214922592043876648e-01 3.207230269908905029e-01
3.076715171337127686e-01 -5.255320668220520020e-02 3.464660644531250000e-01
1.952993571758270264e-01 -6.783644109964370728e-02 1.695281267166137695e-01
2.616069018840789795e-01 -1.386364400386810303e-01 2.417433410882949829e-01
1.107282042503356934e-01 -1.589818000793457031e-01 2.360292673110961914e-01
3.197586238384246826e-01 -4.579984769225120544e-02 3.093113899230957031e-01
1.716489046812057495e-01 -6.555817276239395142e-02 1.944505423307418823e-01
1.499695479869842529e-01 -1.072760820388793945e-01 3.455781638622283936e-01
1.294388473033905029e-01 -1.588276028633117676e-01 2.117335051298141479e-01
1.068047285079956055e-01 -1.545366495847702026e-01 1.957090795040130615e-01
2.580595612525939941e-01 -6.092010438442230225e-02 1.838555485010147095e-01
1.569993048906326294e-01 -1.600579321384429932e-01 2.309795916080474854e-01
1.460473239421844482e-01 -1.428884565830230713e-01 3.304520845413208008e-01
1.185496747493743896e-01 -1.468449085950851440e-01 3.038017749786376953e-01
2.484502494335174561e-01 -5.210160464048385620e-02 3.223304748535156250e-01
1.036842316389083862e-01 -1.567050367593765259e-01 2.128245234489440918e-01
3.623699843883514404e-01 -7.496389746665954590e-02 3.385328650474548340e-01
2.686972022056579590e-01 -1.195762604475021362e-01 1.927821040153503418e-01
7.124431431293487549e-02 -1.413729637861251831e-01 2.093110382556915283e-01
1.282996535301208496e-01 -7.960516959428787231e-02 1.971390992403030396e-01
2.980684638023376465e-01 -4.920416325330734253e-02 3.341274857521057129e-01
3.142942190170288086e-01 -1.045812368392944336e-01 2.232462614774703979e-01
3.148021101951599121e-01 -8.870057016611099243e-02 2.065917998552322388e-01
3.427315354347229004e-01 -1.044240519404411316e-01 2.931284606456756592e-01
1.567420065402984619e-01 -7.919039577245712280e-02 1.607476770877838135e-01
1.780334562063217163e-01 -1.594171226024627686e-01 2.635507583618164062e-01
2.080228626728057861e-01 -7.861474901437759399e-02 1.498303711414337158e-01
2.246260792016983032e-01 -1.251433789730072021e-01 1.645723283290863037e-01
1.766861975193023682e-01 -6.147708743810653687e-02 2.144947201013565063e-01
2.397171854972839355e-01 -5.461911112070083618e-02 1.981976926326751709e-01
3.029710054397583008e-01 -8.751808851957321167e-02 1.936088502407073975e-01
2.761337459087371826e-01 -4.376174136996269226e-02 2.587127685546875000e-01
2.086474448442459106e-01 -1.294654607772827148e-01 1.611220240592956543e-01
9.461765736341476440e-02 -1.553202569484710693e-01 2.349881529808044434e-01
1.020356342196464539e-01 -1.478565484285354614e-01 1.753037720918655396e-01
2.154512107372283936e-01 -5.293269827961921692e-02 2.861002087593078613e-01
3.341076374053955078e-01 -1.016585752367973328e-01 3.602109253406524658e-01
3.268817663192749023e-01 -4.882740229368209839e-02 3.254070878028869629e-01
2.635048031806945801e-01 -7.854300737380981445e-02 1.660331189632415771e-01
2.398436218500137329e-01 -6.065635010600090027e-02 3.450053334236145020e-01
3.444240689277648926e-01 -6.325349211692810059e-02 2.494094520807266235e-01
2.273812294006347656e-01 -4.870203137397766113e-02 2.550866901874542236e-01
8.675479888916015625e-02 -1.517945826053619385e-01 2.091692090034484863e-01
2.067526876926422119e-01 -1.190072298049926758e-01 1.473738998174667358e-01
2.679203450679779053e-01 -1.104423254728317261e-01 1.786014735698699951e-01
1.182845756411552429e-01 -8.399173617362976074e-02 2.471268326044082642e-01
1.519995182752609253e-01 -6.939035654067993164e-02 2.086580544710159302e-01
2.461096048355102539e-01 -1.386405974626541138e-01 3.467071950435638428e-01
2.868264913558959961e-01 -9.359566867351531982e-02 3.934253752231597900e-01
2.302219569683074951e-01 -5.601056665182113647e-02 3.222377300262451172e-01
1.338315159082412720e-01 -1.287198364734649658e-01 1.401472538709640503e-01
1.989104002714157104e-01 -1.524877250194549561e-01 2.185639888048171997e-01
3.402414321899414062e-01 -4.926941916346549988e-02 3.021372258663177490e-01
2.306807786226272583e-01 -1.487581729888916016e-01 3.111432492733001709e-01
2.564727962017059326e-01 -8.986179530620574951e-02 3.912509977817535400e-01
7.844652235507965088e-02 -1.137899756431579590e-01 1.856943368911743164e-01
1.839299350976943970e-01 -5.844498798251152039e-02 2.517859935760498047e-01
1.912629455327987671e-01 -1.329040527343750000e-01 1.572903394699096680e-01
3.373357653617858887e-01 -8.164861798286437988e-02 2.327741831541061401e-01
1.253443360328674316e-01 -1.407074928283691406e-01 3.188758790493011475e-01
2.411166280508041382e-01 -1.145277321338653564e-01 1.623658239841461182e-01
3.320814669132232666e-01 -1.043996140360832214e-01 2.557753622531890869e-01
1.916500478982925415e-01 -6.689248979091644287e-02 3.193584680557250977e-01
1.835553348064422607e-01 -1.214296594262123108e-01 3.684330880641937256e-01
2.114411890506744385e-01 -8.203614503145217896e-02 3.669469952583312988e-01
2.906554341316223145e-01 -1.195845678448677063e-01 2.200860530138015747e-01
3.210090696811676025e-01 -6.723739206790924072e-02 2.153591215610504150e-01
2.195637524127960205e-01 -6.099519506096839905e-02 1.813021600246429443e-01
1.402023136615753174e-01 -1.558497399091720581e-01 1.958683729171752930e-01
7.923443615436553955e-02 -1.411657929420471191e-01 1.827677190303802490e-01
3.446401059627532959e-01 -5.252008140087127686e-02 3.229824602603912354e-01
1.850103288888931274e-01 -1.582290083169937134e-01 2.782486677169799805e-01
2.305885255336761475e-01 -1.450399160385131836e-01 3.323118090629577637e-01
1.462366580963134766e-01 -9.311490505933761597e-02 3.269988298416137695e-01
2.751446962356567383e-01 -4.748389124870300293e-02 3.186674416065216064e-01
2.276739776134490967e-01 -1.092500239610671997e-01 1.499918401241302490e-01
1.973708122968673706e-01 -8.328037708997726440e-02 3.592591285705566406e-01
1.086646988987922668e-01 -9.788400679826736450e-02 2.804030776023864746e-01
1.266290396451950073e-01 -8.383431285619735718e-02 2.727569043636322021e-01
2.447590380907058716e-01 -1.455133557319641113e-01 2.506209313869476318e-01
3.079795837402343750e-01 -6.588631123304367065e-02 3.747484087944030762e-01
2.411590516567230225e-01 -1.478494554758071899e-01 2.660939693450927734e-01
2.799053192138671875e-01 -4.348003864288330078e-02 2.862077057361602783e-01
6.987071633338928223e-01 -1.223452240228652954e-01 -4.038300737738609314e-02
-3.658583760261535645e-02 -9.844870865345001221e-02 -6.238503754138946533e-02
6.101933717727661133e-01 -1.439612209796905518e-01 4.252225905656814575e-02
3.508588373661041260e-01 -2.112934365868568420e-02 -8.163518272340297699e-03
4.937114417552947998e-01 -1.334932297468185425e-01 -3.729522973299026489e-02
1.922801136970520020e-02 -1.543031632900238037e-02 -7.786448299884796143e-02
-1.064328849315643311e-01 -9.370709955692291260e-02 4.689799249172210693e-02
7.697368264198303223e-01 -5.918141454458236694e-02 -6.552857160568237305e-02
5.173441171646118164e-01 -1.310817748308181763e-01 7.346989959478378296e-02
-2.031431496143341064e-01 -3.626021742820739746e-02 -3.635995090007781982e-02
4.265631139278411865e-01 -1.555605232715606689e-02 -4.438326507806777954e-02
5.973641872406005859e-01 -3.095256909728050232e-02 -7.606109231710433960e-02
-8.426645398139953613e-02 -6.073181331157684326e-02 3.770170360803604126e-02
1.653457283973693848e-01 -1.079571694135665894e-01 -7.194715738296508789e-02
8.268536627292633057e-02 -7.753750681877136230e-02 -9.713385999202728271e-02
5.187668800354003906e-01 -5.369349569082260132e-02 3.952846676111221313e-02
1.629112064838409424e-01 -2.647654712200164795e-02 -1.066656187176704407e-01
5.639513731002807617e-01 -1.293614506721496582e-01 7.148921489715576172e-02
2.983255088329315186e-01 -6.150994822382926941e-02 5.894634127616882324e-02
4.509758949279785156e-02 -1.621969044208526611e-02 -2.471988648176193237e-02
7.004545927047729492e-01 -1.391286849975585938e-01 8.536947891116142273e-03
4.933157265186309814e-01 -1.388741433620452881e-01 6.688907742500305176e-02
7.095638513565063477e-01 -5.443514138460159302e-02 1.168285124003887177e-02
1.182429194450378418e-01 -1.331166774034500122e-01 -1.569883897900581360e-02
-2.584609389305114746e-02 -3.257515653967857361e-02 8.404795080423355103e-03
6.914941668510437012e-01 -5.687072873115539551e-02 2.012446336448192596e-02
-1.035428941249847412e-01 -7.279120385646820068e-02 -7.881981879472732544e-02
-1.843325793743133545e-01 -6.386986374855041504e-02 2.118897624313831329e-02
-1.550245285034179688e-01 -3.506018966436386108e-02 -1.151384133845567703e-02
4.636009037494659424e-01 -5.966699123382568359e-02 -1.094317808747291565e-01
3.165914714336395264e-01 -2.914077788591384888e-02 -1.085432842373847961e-01
3.479273319244384766e-01 -1.162754744291305542e-02 -6.228525191545486450e-02
2.191270887851715088e-01 -8.670095354318618774e-02 7.626327127218246460e-02
7.992964982986450195e-01 -1.156158596277236938e-01 -3.082903474569320679e-02
1.589997708797454834e-01 -1.237533986568450928e-02 -8.418102562427520752e-02
-1.354860663414001465e-01 -4.672530293464660645e-02 -8.258327096700668335e-02
5.783890485763549805e-01 -3.966921195387840271e-02 8.529201149940490723e-03
3.572854995727539062e-01 -5.922057107090950012e-02 5.547936260700225830e-02
-1.496905088424682617e-01 -8.597413450479507446e-02 -5.610665678977966309e-02
5.440109968185424805e-01 -1.450363695621490479e-01 -7.221652194857597351e-04
-1.336044669151306152e-01 -2.677408978343009949e-02 -6.400823593139648438e-02
1.088660359382629395e-01 -9.236380457878112793e-02 -8.624089509248733521e-02
-1.013737022876739502e-01 -1.035808846354484558e-01 -4.019432514905929565e-02
3.618810176849365234e-01 -4.002368822693824768e-02 3.032100014388561249e-02
3.318862318992614746e-01 -4.714625701308250427e-02 -1.146964728832244873e-01
-1.818742156028747559e-01 -8.590714633464813232e-02 -4.663968831300735474e-02
8.579134941101074219e-01 -7.709386199712753296e-02 -2.296810038387775421e-03
4.755183458328247070e-01 -1.772984489798545837e-02 -6.216137856245040894e-02
7.119692564010620117e-01 -1.282915174961090088e-01 -2.633196301758289337e-02
8.070406913757324219e-01 -7.435046136379241943e-02 -6.045746803283691406e-02
6.659479439258575439e-02 -1.339167207479476929e-01 3.649879246950149536e-02
-2.213918864727020264e-01 -4.296801239252090454e-02 -2.249331586062908173e-02
5.287401676177978516e-01 -1.409836411476135254e-01 -1.675872318446636200e-02
1.569541245698928833e-01 -6.561820209026336670e-02 6.097805500030517578e-02
2.956532239913940430e-01 -1.391054093837738037e-01 6.538229435682296753e-02
2.357864975929260254e-01 -5.809627473354339600e-02 5.564070492982864380e-02
1.971902251243591309e-01 -1.424430310726165771e-01 4.231641441583633423e-02
9.934350848197937012e-02 -1.157447695732116699e-02 -7.596024125814437866e-02
7.747155427932739258e-01 -5.773532390594482422e-02 -1.927070319652557373e-03
1.439488381147384644e-01 -1.398454755544662476e-01 9.265540167689323425e-03
6.714020967483520508e-01 -6.924874335527420044e-02 -8.892708271741867065e-02
-6.162732839584350586e-03 -6.275589764118194580e-02 4.845464229583740234e-02
-2.317754924297332764e-01 -8.410267531871795654e-02 -2.399743534624576569e-02
7.101683020591735840e-01 -1.355456113815307617e-01 -5.924114957451820374e-03
4.981709122657775879e-01 -1.043230965733528137e-01 7.917218655347824097e-02
8.245490789413452148e-01 -1.162357181310653687e-01 -2.068215981125831604e-02
1.267496347427368164e-01 -1.221384555101394653e-01 -4.507336765527725220e-02
3.806268274784088135e-01 -4.333417490124702454e-02 -1.127794161438941956e-01
2.187156677246093750e-02 -1.311728358268737793e-01 2.143927477300167084e-02
1.023668050765991211e-02 -1.007474437355995178e-01 -6.615784764289855957e-02
3.371731340885162354e-01 -1.253944635391235352e-02 -7.571818679571151733e-02
2.282646894454956055e-01 -9.155035018920898438e-03 -6.191364675760269165e-02
4.791457056999206543e-01 -4.036299511790275574e-02 -1.057500168681144714e-01
6.099181771278381348e-01 -7.982423901557922363e-02 -9.261777251958847046e-02
8.762886524200439453e-01 -1.002602800726890564e-01 -1.943322084844112396e-02
4.594284296035766602e-02 -1.329098194837570190e-01 3.001465089619159698e-02
4.829949140548706055e-02 -7.926923036575317383e-02 -9.299493581056594849e-02
-1.304057240486145020e-01 -4.973949491977691650e-02 1.896301470696926117e-02
3.046405017375946045e-01 -7.392533123493194580e-02 6.950764358043670654e-02
6.579811573028564453e-01 -8.333525061607360840e-02 5.568167567253112793e-02
3.647596836090087891e-01 -1.162742078304290771e-01 -6.829632818698883057e-02
5.043041706085205078e-01 -8.218389749526977539e-02 6.882455199956893921e-02
7.054455280303955078e-01 -4.546048864722251892e-02 -8.296465501189231873e-03
7.063544988632202148e-01 -6.253065168857574463e-02 2.595029212534427643e-02
6.637215614318847656e-01 -1.193230003118515015e-01 -5.000985413789749146e-02
2.851962745189666748e-01 -1.322102397680282593e-01 -3.768073394894599915e-02
4.071781337261199951e-01 -1.588981598615646362e-02 -3.572068363428115845e-02
6.893028020858764648e-01 -1.389368772506713867e-01 3.826444596052169800e-02
3.271776139736175537e-01 -4.612045362591743469e-02 4.056360572576522827e-02
1.633518636226654053e-01 -9.109944105148315430e-03 -5.855166167020797729e-02
8.437764644622802734e-01 -1.150536164641380310e-01 -1.331972703337669373e-02
8.598135709762573242e-01 -9.052696824073791504e-02 1.477595046162605286e-02
-7.442560791969299316e-02 -1.078204140067100525e-01 4.734934866428375244e-02
7.094064354896545410e-01 -1.036843210458755493e-01 -6.396396458148956299e-02
6.461763381958007812e-01 -3.198366612195968628e-02 -4.445534572005271912e-02
-1.857748031616210938e-01 -1.000666469335556030e-01 7.922194898128509521e-03
1.245540827512741089e-01 -2.510307356715202332e-02 -1.039918288588523865e-01
3.426388204097747803e-01 -7.491753250360488892e-02 -1.074275225400924683e-01
-1.644420325756072998e-01 -6.452532112598419189e-02 -7.203400135040283203e-02
2.375271618366241455e-01 -1.427100598812103271e-01 5.051457881927490234e-02
2.480266392230987549e-01 -1.119162216782569885e-01 -7.128457725048065186e-02
2.438809573650360107e-01 -7.001420110464096069e-02 6.641208380460739136e-02
3.416505157947540283e-01 -1.818931847810745239e-02 -9.352356940507888794e-02
5.059133768081665039e-01 -1.387910395860671997e-01 -2.423452958464622498e-02
1.985253095626831055e-01 -1.245096847414970398e-01 -4.758848249912261963e-02
-2.788731455802917480e-02 -1.087549552321434021e-01 -4.722318798303604126e-02
1.988117098808288574e-01 -6.607723236083984375e-02 -1.098788827657699585e-01
2.090940773487091064e-01 -1.334659904241561890e-01 -2.843602746725082397e-02
4.661133885383605957e-01 -1.084610521793365479e-01 -7.739457488059997559e-02
8.009620904922485352e-01 -8.873213082551956177e-02 3.406981378793716431e-02
-4.077237844467163086e-02 -1.655416935682296753e-02 -4.518645629286766052e-02
2.224203944206237793e-02 -2.588484436273574829e-02 4.450790584087371826e-05
6.566623449325561523e-01 -5.825647339224815369e-02 -9.084563702344894409e-02
4.156110286712646484e-01 -1.189675033092498779e-01 8.221971243619918823e-02
1.373270601034164429e-01 -1.131903678178787231e-01 7.539499551057815552e-02
6.772615909576416016e-01 -5.107745528221130371e-02 1.274471916258335114e-02
2.765407860279083252e-01 -1.003850251436233521e-01 -8.638595044612884521e-02
1.940339803695678711e-03 -1.241231411695480347e-01 -1.638263650238513947e-02
1.676546484231948853e-01 -1.335143297910690308e-01 -2.307918667793273926e-02
4.170513749122619629e-01 -1.436598896980285645e-01 6.067726016044616699e-02
-3.520575165748596191e-02 -1.721006259322166443e-02 -6.982547789812088013e-02
2.718423604965209961e-01 -9.926550090312957764e-03 -5.235373228788375854e-02
3.305612206459045410e-01 -1.482682526111602783e-01 3.636956959962844849e-02
1.787935942411422729e-01 -1.346629858016967773e-01 6.156144291162490845e-02
-2.399870753288269043e-02 -9.091112762689590454e-02 6.047974526882171631e-02
3.226376771926879883e-01 -2.663704752922058105e-02 7.313212379813194275e-03
2.388503253459930420e-01 -1.068519651889801025e-01 8.175360411405563354e-02
7.985892295837402344e-01 -9.410939365625381470e-02 -5.609863996505737305e-02
3.672507405281066895e-01 -1.334291696548461914e-02 -4.249167442321777344e-02
4.932659566402435303e-01 -8.170876652002334595e-02 -9.968207031488418579e-02
4.843252897262573242e-01 -1.451195925474166870e-01 -4.905893467366695404e-03
5.493064522743225098e-01 -2.323532104492187500e-02 -6.296584755182266235e-02
6.350075602531433105e-01 -1.326943486928939819e-01 6.136231124401092529e-02
2.400710284709930420e-01 -1.454708129167556763e-01 3.451368957757949829e-02
1.944476515054702759e-01 -1.035141944885253906e-02 -4.183086752891540527e-02
4.216831922531127930e-01 -1.188632398843765259e-01 -6.454168260097503662e-02
2.026661932468414307e-01 -9.659610688686370850e-02 7.916069775819778442e-02
8.525332212448120117e-01 -1.158416271209716797e-01 1.069074682891368866e-02
2.282832264900207520e-01 -1.418160498142242432e-01 -3.144604153931140900e-03
3.533950448036193848e-02 -9.018106758594512939e-02 -8.183763176202774048e-02
3.327214717864990234e-01 -1.107909977436065674e-01 8.355859667062759399e-02
2.227424085140228271e-01 -2.985090389847755432e-02 1.634458638727664948e-02
6.767346858978271484e-01 -1.255492419004440308e-01 -3.778265789151191711e-02
5.992794632911682129e-01 -5.681274831295013428e-02 -9.837922453880310059e-02
6.522974967956542969e-01 -1.434434652328491211e-01 2.122880704700946808e-02
1.652515083551406860e-01 -9.563796222209930420e-02 -8.667235821485519409e-02
-1.211303472518920898e-01 -5.894565582275390625e-02 3.041403554379940033e-02
-5.280339717864990234e-02 -1.711397245526313782e-02 -5.845507234334945679e-02
7.096222043037414551e-02 -1.406050473451614380e-02 -8.200884610414505005e-02
2.518455982208251953e-01 -3.914588689804077148e-02 -1.141486987471580505e-01
1.884852349758148193e-01 -5.247422680258750916e-02 -1.136014387011528015e-01
5.528960824012756348e-01 -4.053280130028724670e-02 1.428074203431606293e-02
5.233945846557617188e-01 -9.934477508068084717e-02 7.640838623046875000e-02
1.429119557142257690e-01 -9.205046296119689941e-02 7.527676969766616821e-02
6.421712636947631836e-01 -1.126862540841102600e-01 -6.161957234144210815e-02
1.766088753938674927e-01 -1.160273030400276184e-01 -6.084658950567245483e-02
1.851612180471420288e-01 -4.651084914803504944e-02 4.181017726659774780e-02
-1.733020246028900146e-01 -1.005808115005493164e-01 -1.808660477399826050e-02
-7.294768095016479492e-02 -1.915471255779266357e-02 -4.210788011550903320e-02
-5.831450223922729492e-03 -1.431909948587417603e-02 -6.356449425220489502e-02
2.179443538188934326e-01 -7.587673515081405640e-02 -1.053080931305885315e-01
6.877813339233398438e-01 -1.352909058332443237e-01 -1.272375136613845825e-02
6.216381788253784180e-01 -1.393761783838272095e-01 -1.195548474788665771e-02
4.589130878448486328e-01 -9.815216064453125000e-02 7.922292500734329224e-02
1.149688661098480225e-01 -7.151946425437927246e-02 -1.032461747527122498e-01
2.395630627870559692e-01 -6.798471510410308838e-02 -1.100988909602165222e-01
3.905472159385681152e-01 -6.810302287340164185e-02 -1.098929494619369507e-01
4.855835735797882080e-01 -1.268135458230972290e-01 -5.051117390394210815e-02
1.483131200075149536e-01 -1.108129471540451050e-01 -6.661439687013626099e-02
4.801202416419982910e-01 -8.643870800733566284e-02 7.286696135997772217e-02
1.765862107276916504e-02 -4.839932173490524292e-02 3.607132285833358765e-02
3.815349340438842773e-01 -1.175048053264617920e-01 8.290939778089523315e-02
6.041377782821655273e-03 -1.242628395557403564e-01 4.602275788784027100e-02
6.888301670551300049e-02 -1.484858989715576172e-02 -2.720163203775882721e-02
7.061301469802856445e-01 -3.940967470407485962e-02 -4.110979288816452026e-02
3.213408291339874268e-01 -1.238287985324859619e-02 -3.945492208003997803e-02
7.158315181732177734e-01 -6.729316711425781250e-02 -8.188740909099578857e-02
2.469778209924697876e-01 -1.229547783732414246e-01 7.854262739419937134e-02
7.824765145778656006e-02 -2.168362960219383240e-02 -5.182238295674324036e-03
-6.738305091857910156e-04 -1.634822785854339600e-02 -3.202681243419647217e-02
6.428301334381103516e-01 -7.039581239223480225e-02 -9.244716167449951172e-02
-7.836908102035522461e-03 -3.494732826948165894e-02 -9.948322176933288574e-02
-1.534377336502075195e-01 -9.836618602275848389e-02 3.171070665121078491e-02
4.164236187934875488e-01 -1.469469666481018066e-01 2.154309302568435669e-03
5.234765410423278809e-01 -1.327951699495315552e-01 -3.750613331794738770e-02
7.962366342544555664e-01 -1.230171397328376770e-01 -1.596096903085708618e-02
-2.733147144317626953e-02 -7.419890165328979492e-02 -8.884945511817932129e-02
4.177833497524261475e-01 -4.943368956446647644e-02 4.122004657983779907e-02
5.630633234977722168e-02 -1.297502815723419189e-01 -1.250624936074018478e-02
6.168063879013061523e-01 -1.289642155170440674e-01 -3.835967928171157837e-02
1.539104431867599487e-01 -1.248678565025329590e-02 -3.087519295513629913e-02
2.625392973423004150e-01 -1.244981884956359863e-01 -5.199922621250152588e-02
1.252144873142242432e-01 -2.963976934552192688e-02 1.430897600948810577e-02
-7.256194949150085449e-02 -1.945435628294944763e-02 -6.449405848979949951e-02
1.204154044389724731e-01 -1.391957104206085205e-01 1.989021338522434235e-02
1.346570402383804321e-01 -1.303450018167495728e-02 -2.931196801364421844e-02
4.077619016170501709e-01 -7.870459556579589844e-02 -1.044078022241592407e-01
5.101829767227172852e-01 -2.352474257349967957e-02 -8.032512664794921875e-02
-4.613581299781799316e-02 -1.204994618892669678e-01 -1.183028332889080048e-02
5.089547634124755859e-01 -5.497110635042190552e-02 -1.068558990955352783e-01
-2.473097741603851318e-01 -6.996449828147888184e-02 -3.696783632040023804e-02
3.364674150943756104e-01 -1.428151726722717285e-01 -1.148979831486940384e-02
5.710529685020446777e-01 -1.401135772466659546e-01 5.902837961912155151e-02
2.319304049015045166e-01 -1.107875332236289978e-01 -7.208213210105895996e-02
8.068828582763671875e-01 -1.263536810874938965e-01 1.926284469664096832e-02
1.020596027374267578e-01 -3.660006076097488403e-02 2.525547333061695099e-02
1.809124648571014404e-01 -9.172990918159484863e-03 -5.399569123983383179e-02
-1.449275314807891846e-01 -1.089826822280883789e-01 9.712036699056625366e-03
2.227488309144973755e-01 -4.213270172476768494e-02 3.634643554687500000e-02
2.621307969093322754e-01 -3.588011860847473145e-02 2.662365697324275970e-02
4.355266392230987549e-01 -6.316185742616653442e-02 -1.100390926003456116e-01
-1.199766099452972412e-01 -9.180574864149093628e-02 -5.548298358917236328e-02
4.448806047439575195e-01 -1.582262665033340454e-02 -5.966328084468841553e-02
3.087124228477478027e-01 -1.154708862304687500e-02 -7.482114434242248535e-02
-1.294795870780944824e-01 -1.116547137498855591e-01 1.694608479738235474e-03
2.939737141132354736e-01 -1.846577972173690796e-02 -1.202006358653306961e-02
4.055085182189941406e-01 -1.092681661248207092e-01 -7.751332968473434448e-02
5.048286318778991699e-01 -1.459715664386749268e-01 -3.768317401409149170e-05
4.796636700630187988e-01 -1.492936313152313232e-01 3.348516672849655151e-02
7.361918687820434570e-03 -1.288244426250457764e-01 3.725623711943626404e-03
4.223409593105316162e-01 -4.385438188910484314e-02 -1.109610795974731445e-01
5.149316191673278809e-01 -1.231340169906616211e-01 -5.561225861310958862e-02
1.425084024667739868e-01 -1.242641955614089966e-01 -4.253541305661201477e-02
-2.683937549591064453e-02 -1.164106428623199463e-01 -3.095475956797599792e-02
3.355996608734130859e-01 -5.774778872728347778e-02 5.446814000606536865e-02
4.292517304420471191e-01 -1.407655924558639526e-01 -2.064047195017337799e-02
-1.498206853866577148e-01 -5.534918978810310364e-02 -7.890977710485458374e-02
3.633906543254852295e-01 -1.373510807752609253e-01 -2.890238910913467407e-02
3.242965340614318848e-01 -1.324227899312973022e-01 -3.912495076656341553e-02
-5.764317512512207031e-02 -1.199478656053543091e-01 3.256101906299591064e-02
1.414717882871627808e-01 -9.307563304901123047e-03 -5.989824235439300537e-02
7.542401552200317383e-01 -1.345234811305999756e-01 1.774988882243633270e-02
1.481943428516387939e-01 -2.885578572750091553e-02 1.356832683086395264e-02
5.021634101867675781e-01 -5.075845494866371155e-02 3.697049617767333984e-02
-1.727767288684844971e-01 -3.544322028756141663e-02 -1.703717932105064392e-02
3.299735486507415771e-01 -2.120937407016754150e-02 -6.374119780957698822e-03
3.941776752471923828e-01 -2.675854414701461792e-02 -1.022773012518882751e-01
8.737658262252807617e-01 -8.141405880451202393e-02 -8.412217721343040466e-03
6.904617547988891602e-01 -3.755861520767211914e-02 -3.736901655793190002e-02
1.040503382682800293e-02 -6.454589217901229858e-02 -9.875422716140747070e-02
-2.023725211620330811e-01 -5.870542675256729126e-02 -6.420975178480148315e-02
2.829049229621887207e-01 -1.448820233345031738e-01 2.755407243967056274e-03
1.156155318021774292e-01 -1.194689422845840454e-02 -7.960632443428039551e-02
1.057251840829849243e-01 -8.563520014286041260e-02 7.092139869928359985e-02
1.145967543125152588e-01 -1.108178049325942993e-01 -6.359531730413436890e-02
3.838888108730316162e-01 -1.494111716747283936e-01 3.088076971471309662e-02
-1.927370727062225342e-01 -9.631223976612091064e-02 -1.890010572969913483e-02
8.163762092590332031e-02 -2.393993362784385681e-02 -1.002770587801933289e-01
2.070973515510559082e-01 -1.706137508153915405e-02 -9.632478654384613037e-02
5.144712924957275391e-01 -1.440817713737487793e-01 5.601931363344192505e-02
3.616329729557037354e-01 -2.873850613832473755e-02 -1.063108220696449280e-01
2.574307620525360107e-01 -9.802567213773727417e-02 -8.832019567489624023e-02
8.530974388122558594e-03 -1.176795214414596558e-01 -3.600817918777465820e-02
5.590648651123046875e-01 -2.740829065442085266e-02 -2.228362113237380981e-02
1.612164229154586792e-01 -7.445764541625976562e-02 -1.039787605404853821e-01
5.962306857109069824e-01 -1.315749883651733398e-01 -3.500067442655563354e-02
4.235919415950775146e-01 -3.958823531866073608e-02 2.599282748997211456e-02
7.203496098518371582e-01 -9.154424071311950684e-02 5.235291272401809692e-02
1.309119313955307007e-01 -5.463153868913650513e-02 -1.109456196427345276e-01
8.421076536178588867e-01 -6.666101515293121338e-02 -2.288658544421195984e-02
-4.003185033798217773e-02 -2.728165313601493835e-02 -8.987065404653549194e-02
5.403949022293090820e-01 -1.475107669830322266e-01 3.940752148628234863e-02
7.420195937156677246e-01 -4.810581356287002563e-02 -1.575342379510402679e-02
7.586395740509033203e-01 -6.937240064144134521e-02 -7.312182337045669556e-02
3.150690793991088867e-01 -4.730086401104927063e-02 -1.149701029062271118e-01
1.188030838966369629e-02 -2.052187919616699219e-02 -1.475636847317218781e-02
3.840284049510955811e-01 -1.006944850087165833e-01 8.203642815351486206e-02
4.267856478691101074e-01 -1.600556075572967529e-02 -7.286501675844192505e-02
6.773214340209960938e-01 -5.260294303297996521e-02 -8.515802025794982910e-02
4.314363598823547363e-01 -2.313177287578582764e-02 -9.355490654706954956e-02
6.252636313438415527e-01 -1.052893474698066711e-01 6.998170167207717896e-02
-1.198693811893463135e-01 -2.441642060875892639e-02 -3.459297865629196167e-02
8.592420816421508789e-01 -1.112022548913955688e-01 -1.208898238837718964e-02
6.500145196914672852e-01 -3.904968127608299255e-02 -9.044710546731948853e-03
7.397823333740234375e-01 -1.094850674271583557e-01 5.507127940654754639e-02
1.291644275188446045e-01 -1.366698890924453735e-01 -4.295160993933677673e-03
1.026366651058197021e-01 -1.379792988300323486e-01 2.072540484368801117e-02
7.109956741333007812e-01 -8.752769231796264648e-02 -7.665441185235977173e-02
3.374874293804168701e-01 -9.379208087921142578e-02 8.036547154188156128e-02
2.750150263309478760e-01 -1.469753682613372803e-01 3.124318830668926239e-02
1.926892995834350586e-01 -1.317022740840911865e-02 -8.752044290304183960e-02
1.982943713665008545e-01 -9.531401097774505615e-03 -7.057616114616394043e-02
6.159237623214721680e-01 -4.098737612366676331e-02 4.454622045159339905e-03
1.507458090782165527e-02 -1.301103830337524414e-02 -5.238696187734603882e-02
1.203759908676147461e-01 -1.256345808506011963e-01 6.610319763422012329e-02
4.502254724502563477e-02 -1.047921329736709595e-01 -6.492178142070770264e-02
-1.992717385292053223e-02 -2.346844598650932312e-02 -8.844160288572311401e-02
-8.344581723213195801e-02 -2.415595576167106628e-02 -7.620483636856079102e-02
3.247565031051635742e-02 -7.696919888257980347e-02 -9.327999502420425415e-02
2.894565463066101074e-01 -4.041608795523643494e-02 3.330672532320022583e-02
1.643103063106536865e-01 -1.209528967738151550e-01 -5.131562799215316772e-02
5.287504196166992188e-01 -2.125607803463935852e-02 -4.936571419239044189e-02
2.399646341800689697e-01 -1.211918443441390991e-01 -5.658081918954849243e-02
6.204392910003662109e-01 -1.072265729308128357e-01 -7.015642523765563965e-02
2.010552585124969482e-01 -5.890803411602973938e-02 5.602829158306121826e-02
4.255161881446838379e-01 -2.376679331064224243e-02 -8.329198695719242096e-03
5.575529932975769043e-01 -7.036334276199340820e-02 5.518937110900878906e-02
3.782161474227905273e-01 -4.570771753787994385e-02 3.809680044651031494e-02
7.918467521667480469e-01 -1.106414049863815308e-01 4.382443428039550781e-02
1.761423498392105103e-01 -1.110122352838516235e-02 -3.726814314723014832e-02
2.456053495407104492e-01 -1.544653624296188354e-02 -9.281244874000549316e-02
1.205100715160369873e-01 -9.611621499061584473e-03 -5.971432477235794067e-02
6.744900345802307129e-02 -1.345539540052413940e-01 8.478399366140365601e-03
3.862829804420471191e-01 -1.416447013616561890e-01 6.452184915542602539e-02
1.438889801502227783e-01 -2.322183549404144287e-02 -1.030819341540336609e-01
6.529708206653594971e-02 -2.127939835190773010e-02 -9.588722884654998779e-02
5.327199101448059082e-01 -6.517343968152999878e-02 5.208253115415573120e-02
4.338538646697998047e-02 -1.177422776818275452e-01 -4.231992363929748535e-02
5.755491256713867188e-01 -7.178926467895507812e-02 -9.891904145479202271e-02
6.796813011169433594e-02 -4.556100815534591675e-02 3.612402081489562988e-02
4.618898034095764160e-02 -4.469984397292137146e-02 3.360705077648162842e-02
7.188514471054077148e-01 -1.206599548459053040e-01 5.681121349334716797e-02
8.082130551338195801e-02 -1.090508475899696350e-01 -6.277412921190261841e-02
5.554759502410888672e-02 -9.415309876203536987e-02 -7.963263243436813354e-02
5.355495214462280273e-01 -4.969707131385803223e-02 3.217501193284988403e-02
5.904890298843383789e-01 -1.386395245790481567e-01 5.929408967494964600e-02
2.848405838012695312e-01 -1.409763395786285400e-01 -1.380361244082450867e-02
3.141191303730010986e-01 -1.865291595458984375e-02 -1.269752252846956253e-02
1.661113649606704712e-01 -1.420245766639709473e-01 2.039006166160106659e-02
6.635557413101196289e-01 -1.312445551156997681e-01 -2.784582599997520447e-02
2.886262238025665283e-01 -9.370480477809906006e-02 8.025021851062774658e-02
-5.602982640266418457e-02 -6.756147742271423340e-02 4.671070724725723267e-02
5.043196678161621094e-02 -8.890126645565032959e-02 6.795623153448104858e-02
5.585970878601074219e-01 -1.191586703062057495e-01 -5.943973362445831299e-02
8.294924497604370117e-01 -9.095030277967453003e-02 2.733724378049373627e-02
4.547754526138305664e-01 -3.880905359983444214e-02 2.216354943811893463e-02
-1.014573574066162109e-01 -2.969979494810104370e-02 -1.009682938456535339e-02
3.847980499267578125e-01 -2.517177909612655640e-02 -2.951063215732574463e-04
4.101278483867645264e-01 -1.486514508724212646e-01 4.275772720575332642e-02
9.758041799068450928e-02 -8.333352208137512207e-02 -9.374389052391052246e-02
5.167728066444396973e-01 -1.488603651523590088e-01 2.694587968289852142e-02
1.120856404304504395e-02 -6.290863454341888428e-02 5.015747994184494019e-02
-1.298547983169555664e-01 -3.186854720115661621e-02 -1.186833065003156662e-02
6.643145084381103516e-01 -1.397260129451751709e-01 4.369137436151504517e-02
7.917904257774353027e-01 -5.825465917587280273e-02 -8.811658248305320740e-03
3.165717720985412598e-01 -1.067946925759315491e-01 -8.001764118671417236e-02
2.307498902082443237e-01 -1.588053256273269653e-02 -1.767851784825325012e-02
1.692205071449279785e-01 -4.105229675769805908e-02 -1.130918189883232117e-01
8.331896364688873291e-02 -1.349728107452392578e-01 2.753021195530891418e-03
3.910670578479766846e-01 -1.383103430271148682e-01 -2.707193233072757721e-02
8.353495597839355469e-01 -1.037703752517700195e-01 -3.666244819760322571e-02
1.026451438665390015e-01 -1.044502258300781250e-01 7.412032037973403931e-02
2.562458515167236328e-01 -1.051907241344451904e-02 -7.504060864448547363e-02
9.834054112434387207e-02 -1.192678213119506836e-01 6.876319646835327148e-02
2.211674898862838745e-01 -1.448760032653808594e-01 2.301646582782268524e-02
3.620835542678833008e-01 -1.702285557985305786e-02 -8.888318389654159546e-02
7.754428684711456299e-02 -9.535091370344161987e-02 -8.040989935398101807e-02
3.844981193542480469e-01 -1.630213111639022827e-02 -2.897555008530616760e-02
4.446085393428802490e-01 -1.378775537014007568e-01 -2.831259369850158691e-02
8.317005634307861328e-01 -8.770920336246490479e-02 -5.047842115163803101e-02
-1.412950456142425537e-01 -3.923476487398147583e-02 9.809024631977081299e-04
5.312331318855285645e-01 -1.393420249223709106e-01 6.389881670475006104e-02
7.211530208587646484e-01 -4.265493527054786682e-02 -2.793534845113754272e-02
6.254795789718627930e-01 -5.018857493996620178e-02 -9.306357055902481079e-02
5.528086423873901367e-02 -4.556930810213088989e-02 -1.073325648903846741e-01
-1.169473826885223389e-01 -1.137924492359161377e-01 1.301814429461956024e-02
-2.164682745933532715e-02 -1.492558419704437256e-02 -5.274151265621185303e-02
3.649393320083618164e-01 -1.481463909149169922e-01 4.322737455368041992e-02
2.161026746034622192e-01 -2.081827446818351746e-02 -3.244313411414623260e-03
-1.640676856040954590e-01 -8.269844949245452881e-02 3.401743620634078979e-02
-1.986867487430572510e-01 -7.428832352161407471e-02 2.257238514721393585e-02
-7.273039221763610840e-02 -6.114363670349121094e-02 -9.042286127805709839e-02
7.595019340515136719e-01 -5.020850896835327148e-02 -1.790811121463775635e-02
4.955759644508361816e-01 -2.356851473450660706e-02 -2.075456827878952026e-02
6.639920473098754883e-01 -9.258250892162322998e-02 -7.934550195932388306e-02
6.371743083000183105e-01 -3.796258568763732910e-02 -7.926469296216964722e-02
2.552190423011779785e-02 -2.872225642204284668e-02 -9.950260818004608154e-02
3.453916311264038086e-01 -3.813073411583900452e-02 2.799535728991031647e-02
7.355136871337890625e-01 -5.599888041615486145e-02 7.805179804563522339e-03
7.166243791580200195e-01 -1.366331875324249268e-01 3.589128702878952026e-02
3.853431642055511475e-01 -1.113646179437637329e-01 -7.499429583549499512e-02
3.978240787982940674e-01 -1.346373111009597778e-01 7.398296147584915161e-02
1.762841343879699707e-01 -3.430454432964324951e-02 2.389423735439777374e-02
5.640063881874084473e-01 -5.765220522880554199e-02 -1.022006869316101074e-01
5.811420083045959473e-01 -1.231344714760780334e-01 7.315786927938461304e-02
6.625186204910278320e-01 -3.590428829193115234e-02 -2.593417651951313019e-02
-1.523369550704956055e-02 -4.123339056968688965e-02 2.368609048426151276e-02
7.360026240348815918e-01 -1.359405368566513062e-01 2.793035469949245453e-02
6.353991031646728516e-01 -4.457502439618110657e-02 8.410118520259857178e-03
4.503527879714965820e-01 -1.227990984916687012e-01 -5.810678005218505859e-02
5.632394552230834961e-02 -2.953246608376502991e-02 1.041227579116821289e-02
3.569435775279998779e-01 -6.318879127502441406e-02 -1.122210249304771423e-01
7.727880477905273438e-01 -1.033751592040061951e-01 4.775849729776382446e-02
3.766482472419738770e-01 -1.486527919769287109e-01 1.537210308015346527e-02
5.695811510086059570e-01 -4.706276953220367432e-02 2.392810024321079254e-02
7.690839171409606934e-01 -4.939568042755126953e-02 -3.682577610015869141e-02
2.993521094322204590e-01 -1.449047625064849854e-01 5.322843790054321289e-04
-5.570781230926513672e-02 -1.077053695917129517e-01 -4.340346530079841614e-02
