2.840833738446235657e-02 1.063223257660865784e-01 -2.526191808283329010e-02
-2.521640658378601074e-01 -2.892948687076568604e-04 9.736626595258712769e-02
4.877097904682159424e-01 1.675748452544212341e-02 9.269663691520690918e-02
-1.464537680149078369e-01 -2.573587931692600250e-02 7.901939749717712402e-02
-2.168444991111755371e-01 -3.622398525476455688e-02 2.574099972844123840e-02
-6.440166234970092773e-01 2.289524301886558533e-02 5.924093723297119141e-02
-4.322381615638732910e-01 -1.057069934904575348e-02 6.134055554866790771e-02
6.868356466293334961e-01 5.942474678158760071e-02 9.832402691245079041e-03
8.222876787185668945e-01 7.882572710514068604e-03 4.051540046930313110e-02
8.869980275630950928e-02 -5.112806707620620728e-02 3.199908137321472168e-02
-2.946037650108337402e-01 8.953120559453964233e-02 -5.010266602039337158e-02
-1.143195033073425293e-01 1.062259525060653687e-01 -3.150594234466552734e-02
-3.314629495143890381e-01 3.187009319663047791e-02 -6.118711829185485840e-02
2.181311249732971191e-01 2.205674350261688232e-02 -7.871843874454498291e-02
5.524636507034301758e-01 -5.094678699970245361e-02 2.317593060433864594e-02
5.374838709831237793e-01 2.063278667628765106e-02 -6.626866757869720459e-02
-1.403932273387908936e-01 -3.761705011129379272e-02 -2.228671684861183167e-03
-4.314439594745635986e-01 -1.694963313639163971e-02 3.733708709478378296e-02
-6.210384368896484375e-01 7.276614755392074585e-02 -2.682130597531795502e-02
1.459468752145767212e-01 1.021624132990837097e-01 -2.519279532134532928e-02
-4.983814060688018799e-01 2.608110941946506500e-02 8.931988477706909180e-02
-1.160490512847900391e-01 1.547515392303466797e-03 1.053885594010353088e-01
1.120672523975372314e-01 -5.178842693567276001e-02 1.394167728722095490e-02
-4.308281242847442627e-01 8.521757274866104126e-02 -4.409651458263397217e-02
1.542193293571472168e-01 6.309711933135986328e-02 9.683872759342193604e-02
6.604539752006530762e-01 -4.514084756374359131e-02 1.728842034935951233e-02
3.520078659057617188e-01 9.434212744235992432e-02 -7.175205275416374207e-03
2.124226242303848267e-01 3.658974915742874146e-02 -7.909237593412399292e-02
1.253182440996170044e-01 -4.944647848606109619e-02 4.869901388883590698e-02
1.321774274110794067e-01 -1.995172537863254547e-02 9.655459225177764893e-02
-1.740602999925613403e-01 -3.875186294317245483e-02 3.442144766449928284e-02
7.548515796661376953e-01 -1.312325708568096161e-02 5.465172976255416870e-02
3.080102801322937012e-01 -4.983454942703247070e-02 5.367422103881835938e-02
-6.145675778388977051e-01 9.482242166996002197e-02 -5.672406405210494995e-03
5.258321166038513184e-01 7.427582889795303345e-02 -2.585251815617084503e-02
8.049201965332031250e-01 -1.374025829136371613e-02 -2.222513593733310699e-02
-5.894882678985595703e-01 9.692233055830001831e-02 4.739863425493240356e-02
-3.900892734527587891e-01 2.239696122705936432e-02 -5.165500938892364502e-02
3.877006471157073975e-01 -1.223050057888031006e-04 -6.996411085128784180e-02
4.707449302077293396e-02 5.767683684825897217e-02 1.042571738362312317e-01
1.804136633872985840e-01 8.036810159683227539e-02 7.939715683460235596e-02
-5.828757882118225098e-01 1.031817421317100525e-01 1.407820265740156174e-02
2.306862771511077881e-01 -1.019861735403537750e-02 -6.638108193874359131e-02
4.427573978900909424e-01 -2.706572599709033966e-02 -5.015914887189865112e-02
5.977777242660522461e-01 2.312146499752998352e-02 7.962887734174728394e-02
-2.054022550582885742e-01 9.032743051648139954e-03 1.052246615290641785e-01
2.316694408655166626e-01 9.632084518671035767e-02 4.583831876516342163e-02
-7.435434460639953613e-01 5.459704250097274780e-02 4.608106613159179688e-02
2.653251588344573975e-01 9.868050366640090942e-02 3.008317388594150543e-02
6.347890496253967285e-01 3.063363209366798401e-02 -5.472785234451293945e-02
-1.762944608926773071e-01 7.170977443456649780e-02 -6.676895916461944580e-02
7.228828668594360352e-01 2.674992382526397705e-02 5.740815401077270508e-02
8.074060827493667603e-02 -4.924138635396957397e-02 2.259880304336547852e-03
-1.377929151058197021e-01 2.241927199065685272e-02 -7.130745798349380493e-02
8.639081120491027832e-01 7.492022588849067688e-03 -6.161503493785858154e-03
-3.089796304702758789e-01 2.822682820260524750e-02 -6.191302835941314697e-02
4.684758782386779785e-01 -4.054803401231765747e-02 -3.144370019435882568e-02
1.507417410612106323e-01 8.511354774236679077e-02 -5.525568872690200806e-02
5.648727416992187500e-01 5.125879496335983276e-02 -5.171611905097961426e-02
-6.455487012863159180e-01 8.448886871337890625e-02 -1.332037523388862610e-02
-4.128616750240325928e-01 -1.886581443250179291e-02 3.781790658831596375e-02
6.933625340461730957e-01 -4.251428693532943726e-02 1.187065988779067993e-02
3.971455693244934082e-01 -1.397241838276386261e-02 9.353464096784591675e-02
-5.231364965438842773e-01 9.172607213258743286e-02 -2.784924022853374481e-02
7.122460007667541504e-01 -1.688621006906032562e-02 6.062451750040054321e-02
3.425153791904449463e-01 -5.318029224872589111e-02 4.088722169399261475e-02
4.715087413787841797e-01 -2.625129930675029755e-02 8.118399232625961304e-02
-1.940383613109588623e-01 9.112299233675003052e-02 -5.251850932836532593e-02
-3.797674775123596191e-01 7.332239300012588501e-02 9.289688616991043091e-02
1.326214820146560669e-01 9.411858767271041870e-02 -4.389711469411849976e-02
4.305800497531890869e-01 -5.425944179296493530e-02 1.141276583075523376e-02
-1.653444021940231323e-01 8.116728067398071289e-02 9.176398068666458130e-02
3.794380128383636475e-01 5.169395357370376587e-02 -6.882494688034057617e-02
1.436824351549148560e-01 6.439525634050369263e-02 -7.209303975105285645e-02
-4.559939205646514893e-01 -1.086542196571826935e-02 5.322757363319396973e-02
2.402945458889007568e-01 8.641310036182403564e-02 6.537235528230667114e-02
-1.655545979738235474e-01 -6.466573104262351990e-03 9.833087027072906494e-02
-5.531697273254394531e-01 -1.715091988444328308e-03 1.867601275444030762e-02
-6.485182046890258789e-01 3.471165895462036133e-02 6.856778264045715332e-02
-7.808614522218704224e-03 -3.729672729969024658e-02 7.073299586772918701e-02
6.429393887519836426e-01 -2.517036534845829010e-02 -3.899206221103668213e-02
-4.480436742305755615e-01 7.624740153551101685e-02 8.714479953050613403e-02
-1.205826699733734131e-01 -4.218363761901855469e-02 2.024340815842151642e-02
7.405533790588378906e-01 6.182644516229629517e-03 6.116227060556411743e-02
2.951070666313171387e-01 8.814658969640731812e-02 -3.918851912021636963e-02
4.175072908401489258e-01 -1.550251059234142303e-02 9.162602573633193970e-02
-1.092323362827301025e-01 -4.264293611049652100e-02 3.351633623242378235e-02
-5.591060519218444824e-01 2.820273861289024353e-02 8.200437575578689575e-02
-5.629909038543701172e-01 5.831017345190048218e-02 8.500577509403228760e-02
-2.495893836021423340e-01 2.947790361940860748e-02 1.085588559508323669e-01
6.535059213638305664e-01 2.255093306303024292e-03 7.517547905445098877e-02
-1.375527381896972656e-01 1.156367212533950806e-01 1.097084023058414459e-02
5.320025086402893066e-01 6.400617957115173340e-02 5.656710267066955566e-02
2.667835056781768799e-01 8.800909668207168579e-02 5.932162702083587646e-02
-1.484458744525909424e-01 9.842230379581451416e-02 -4.482885450124740601e-02
-3.139057755470275879e-01 5.146608874201774597e-02 1.046364828944206238e-01
-3.001850843429565430e-01 7.109660655260086060e-02 9.726769477128982544e-02
-1.371486634016036987e-01 1.125161647796630859e-01 3.780550509691238403e-02
4.648457169532775879e-01 -5.044211447238922119e-02 4.352413862943649292e-02
1.855511963367462158e-01 -4.058888554573059082e-02 -3.122376836836338043e-02
-1.435901969671249390e-01 8.801303058862686157e-02 -5.659239739179611206e-02
3.264335393905639648e-01 5.668621510267257690e-02 8.989561349153518677e-02
-2.543710172176361084e-03 1.035165041685104370e-01 -3.406434506177902222e-02
8.033315837383270264e-02 8.046523481607437134e-02 8.576124161481857300e-02
5.282546281814575195e-01 3.895733505487442017e-02 8.110059797763824463e-02
-7.679787278175354004e-02 1.053595617413520813e-01 -3.271133452653884888e-02
8.590952754020690918e-01 -9.150655940175056458e-03 -3.290256485342979431e-03
-8.587707579135894775e-02 1.143093705177307129e-01 2.232811413705348969e-02
8.012880682945251465e-01 -7.950719445943832397e-04 -3.017607890069484711e-02
5.350287556648254395e-01 2.452639862895011902e-02 8.654081821441650391e-02
1.789647713303565979e-02 -2.985430881381034851e-03 1.062234416604042053e-01
-5.338006615638732910e-01 3.446445614099502563e-02 8.791320770978927612e-02
2.425136230885982513e-02 1.001533865928649902e-01 6.085549294948577881e-02
-5.479156374931335449e-01 8.183164894580841064e-02 -3.332146257162094116e-02
2.253680527210235596e-01 5.010416358709335327e-02 1.007361710071563721e-01
-4.658878222107887268e-02 5.321519449353218079e-03 1.087674126029014587e-01
6.488920450210571289e-01 5.932754278182983398e-02 -2.387809567153453827e-02
-7.626265883445739746e-01 5.599475651979446411e-02 2.740083262324333191e-02
9.463846683502197266e-02 5.431340634822845459e-02 -7.688353955745697021e-02
9.592783451080322266e-02 7.344324141740798950e-02 -6.759487837553024292e-02
-5.986016392707824707e-01 4.513635858893394470e-02 8.116195350885391235e-02
5.404151678085327148e-01 4.621234536170959473e-02 7.462558150291442871e-02
4.079846441745758057e-01 -5.461800098419189453e-02 1.233745645731687546e-02
-5.344718098640441895e-01 8.764050900936126709e-02 6.997748464345932007e-02
6.711736321449279785e-01 -3.755388408899307251e-02 -1.704346574842929840e-02
-3.217111825942993164e-01 1.260732673108577728e-02 -5.307653546333312988e-02
-6.760101020336151123e-02 2.045230939984321594e-03 -6.548146158456802368e-02
6.030167341232299805e-01 -4.591389000415802002e-02 -6.279129534959793091e-03
-3.782230317592620850e-01 1.134187802672386169e-01 2.663939818739891052e-02
-2.942726612091064453e-01 9.865809231996536255e-03 1.005388125777244568e-01
-3.817566856741905212e-02 -4.639760404825210571e-02 3.062065690755844116e-02
1.055561304092407227e-01 2.478714287281036377e-02 -7.903817296028137207e-02
1.567617058753967285e-01 -4.969082027673721313e-02 -5.917299538850784302e-03
6.817474961280822754e-02 8.128222078084945679e-02 -6.202485412359237671e-02
3.688827753067016602e-01 9.351956844329833984e-02 1.616422273218631744e-02
3.874342739582061768e-01 9.167069941759109497e-02 1.966776885092258453e-02
-4.810736477375030518e-01 9.996058419346809387e-03 -2.939999289810657501e-02
5.705220103263854980e-01 6.735471636056900024e-02 4.150770604610443115e-02
2.891084551811218262e-01 1.500115450471639633e-02 1.057536825537681580e-01
-5.794147253036499023e-01 4.513890668749809265e-02 -3.553207963705062866e-02
5.876201763749122620e-02 -4.552011191844940186e-02 -9.761709719896316528e-03
-3.423537909984588623e-01 2.682814374566078186e-02 1.034151315689086914e-01
9.372048079967498779e-03 8.475919067859649658e-02 8.445614576339721680e-02
1.316695213317871094e-01 1.902927830815315247e-02 -7.820869982242584229e-02
8.109475374221801758e-01 3.189751505851745605e-02 -1.010919362306594849e-02
-9.406720101833343506e-02 3.217178210616111755e-02 1.123593077063560486e-01
-4.330326914787292480e-01 1.120494529604911804e-01 2.332494407892227173e-02
-6.462872028350830078e-01 5.735532194375991821e-02 7.323498278856277466e-02
-5.049579739570617676e-01 9.780035912990570068e-02 -2.235542796552181244e-02
-3.550220429897308350e-01 1.131351515650749207e-01 3.212770819664001465e-02
6.885893344879150391e-01 4.897535592317581177e-02 4.233051836490631104e-02
-1.229159981012344360e-01 6.229931861162185669e-02 -7.206368446350097656e-02
3.962624073028564453e-01 5.984947830438613892e-02 8.075287193059921265e-02
1.485180556774139404e-01 -9.097421541810035706e-03 1.034383177757263184e-01
-1.125264167785644531e-01 -3.074380941689014435e-02 7.393967360258102417e-02
-3.463427722454071045e-01 5.439996346831321716e-02 1.025249585509300232e-01
7.291642427444458008e-01 -3.744933009147644043e-02 2.720667235553264618e-02
6.723213195800781250e-01 6.066382676362991333e-02 -7.880583405494689941e-03
5.769461020827293396e-02 9.215120971202850342e-02 -5.054745078086853027e-02
2.572226524353027344e-01 -5.494178086519241333e-02 2.127691917121410370e-02
7.149747014045715332e-01 4.338220134377479553e-02 4.296825826168060303e-02
-2.635743618011474609e-01 7.882075756788253784e-02 9.290648996829986572e-02
-7.032278180122375488e-01 3.217250481247901917e-02 4.783324897289276123e-02
-5.234762430191040039e-01 7.104573771357536316e-03 -1.689502038061618805e-02
-6.523751616477966309e-01 1.686774939298629761e-02 1.196714024990797043e-02
4.203000664710998535e-01 -5.449905991554260254e-02 2.493335306644439697e-02
4.346982836723327637e-01 4.381899163126945496e-02 8.845599740743637085e-02
3.626246750354766846e-01 -2.990131266415119171e-02 -4.892366379499435425e-02
-5.529390648007392883e-02 -3.488676995038986206e-02 -2.374266274273395538e-02
-7.193407416343688965e-01 3.163769096136093140e-02 3.115948475897312164e-02
3.806993737816810608e-02 3.916095197200775146e-02 -7.914371043443679810e-02
-2.290953397750854492e-01 1.079197004437446594e-01 -2.691982500255107880e-02
4.397303164005279541e-01 2.789698913693428040e-02 -7.213865965604782104e-02
-1.462933719158172607e-01 3.644533082842826843e-02 1.114624515175819397e-01
8.128326535224914551e-01 -1.532444544136524200e-02 3.797551989555358887e-02
-1.623909771442413330e-01 1.120002567768096924e-01 -1.643429882824420929e-02
4.748421311378479004e-01 -1.670907624065876007e-02 -5.783512443304061890e-02
1.320543140172958374e-01 7.040470838546752930e-03 1.094645634293556213e-01
2.565233707427978516e-01 -4.314436018466949463e-02 6.911101192235946655e-02
4.682974815368652344e-01 4.170988872647285461e-02 -6.706500798463821411e-02
6.377301812171936035e-01 -2.742256782948970795e-02 6.387418508529663086e-02
-6.600424647331237793e-01 2.608292177319526672e-02 5.786228179931640625e-02
-4.664247930049896240e-01 9.702210128307342529e-02 6.435596942901611328e-02
-5.881419777870178223e-01 2.511227689683437347e-02 7.516656070947647095e-02
7.428340911865234375e-01 4.631451144814491272e-02 2.629307657480239868e-02
2.795219123363494873e-01 9.688528627157211304e-02 -1.917471177875995636e-02
5.608834028244018555e-01 6.257685273885726929e-02 5.287235975265502930e-02
-2.216052412986755371e-01 2.135793305933475494e-02 -6.595866382122039795e-02
3.982252180576324463e-01 8.683107048273086548e-02 3.760696947574615479e-02
3.201869428157806396e-01 8.632031828165054321e-02 -3.939801454544067383e-02
-4.898469150066375732e-01 8.130405098199844360e-02 8.026839792728424072e-02
-2.637666165828704834e-01 1.139736548066139221e-01 3.372287750244140625e-02
-3.916740715503692627e-01 -1.007942482829093933e-03 -3.187865018844604492e-02
4.951314032077789307e-01 8.304177224636077881e-02 3.696340136229991913e-03
6.647084653377532959e-02 3.501292318105697632e-02 -7.949370890855789185e-02
-2.359625697135925293e-01 -1.808669976890087128e-02 8.113137632608413696e-02
-4.836402833461761475e-01 8.571562916040420532e-02 -3.841947019100189209e-02
4.295568466186523438e-01 -4.926028847694396973e-02 -1.370997354388237000e-02
6.566786766052246094e-01 6.406199187040328979e-02 5.219208076596260071e-03
3.748304843902587891e-01 -1.058977656066417694e-02 -6.503035873174667358e-02
6.283754855394363403e-02 5.727548152208328247e-02 1.040056124329566956e-01
6.335386633872985840e-02 2.002082951366901398e-02 1.121455952525138855e-01
-5.143361911177635193e-02 7.397111505270004272e-03 -6.928426772356033325e-02
6.111731529235839844e-01 -4.170071333646774292e-02 4.734692722558975220e-02
4.118734598159790039e-01 3.054067678749561310e-02 9.613181650638580322e-02
-4.541356861591339111e-01 7.234783470630645752e-02 -4.921782761812210083e-02
-2.591781020164489746e-01 -2.003038115799427032e-02 7.545405626296997070e-02
2.941547334194183350e-01 7.744369655847549438e-02 7.255285978317260742e-02
3.646599948406219482e-01 6.020192801952362061e-02 -6.484602391719818115e-02
-2.642725110054016113e-01 1.002350971102714539e-01 -3.933832794427871704e-02
-3.611682653427124023e-01 1.049671918153762817e-01 -2.591340802609920502e-02
5.024852156639099121e-01 5.576939508318901062e-02 -5.575432628393173218e-02
5.985673516988754272e-03 4.814799129962921143e-02 -7.792456448078155518e-02
3.363643214106559753e-02 -4.893607646226882935e-02 3.586080297827720642e-02
6.756052374839782715e-02 8.692846447229385376e-02 7.899706810712814331e-02
-6.886963546276092529e-02 2.411872521042823792e-02 -7.484304159879684448e-02
-4.025926589965820312e-01 2.390487119555473328e-02 9.819803386926651001e-02
1.412549465894699097e-01 -4.087954759597778320e-02 -2.844400145113468170e-02
-3.629988431930541992e-01 1.118761487305164337e-02 -4.758264869451522827e-02
-1.809718310832977295e-01 9.324615448713302612e-02 7.907295972108840942e-02
7.824314236640930176e-01 -4.506507888436317444e-03 5.169138312339782715e-02
3.425193130970001221e-01 -2.309832908213138580e-02 -5.609875917434692383e-02
1.594026088714599609e-01 -3.142029792070388794e-02 8.572707325220108032e-02
1.541857719421386719e-01 2.943334169685840607e-02 -7.968629896640777588e-02
-1.376693546772003174e-01 -2.170884981751441956e-03 -5.825744569301605225e-02
9.569262713193893433e-02 -2.050128765404224396e-02 -5.494178086519241333e-02
-3.518786728382110596e-01 1.090983226895332336e-01 4.782164841890335083e-02
4.819136559963226318e-01 8.026800304651260376e-02 3.357561305165290833e-02
4.051714837551116943e-01 -4.005121439695358276e-02 7.001466304063796997e-02
-1.256086081266403198e-01 9.792359918355941772e-02 7.172463834285736084e-02
2.201251089572906494e-01 7.977884262800216675e-02 7.682605832815170288e-02
5.193701982498168945e-01 -1.462580822408199310e-02 8.491922169923782349e-02
1.543117314577102661e-01 1.059180796146392822e-01 -7.759107276797294617e-03
-1.207381933927536011e-01 -2.922597341239452362e-02 -2.716139517724514008e-02
-2.643142640590667725e-01 9.962239861488342285e-02 6.987307965755462646e-02
5.914004445075988770e-01 7.253693044185638428e-02 8.294155821204185486e-03
-2.282213047146797180e-02 4.493245482444763184e-02 1.104305759072303772e-01
7.309280037879943848e-01 -3.679665923118591309e-02 -3.169983625411987305e-03
8.270747065544128418e-01 2.537823654711246490e-02 -1.216650381684303284e-02
6.114419698715209961e-01 -1.034857705235481262e-03 -5.730082839727401733e-02
4.496703296899795532e-02 -4.991962015628814697e-02 1.980083994567394257e-02
-5.081227421760559082e-01 4.965116083621978760e-02 9.213203936815261841e-02
7.933865785598754883e-01 3.690429776906967163e-02 -9.861946105957031250e-03
-2.283391058444976807e-01 9.305717796087265015e-02 -4.949276149272918701e-02
6.387361288070678711e-01 -1.055550016462802887e-02 7.434356212615966797e-02
2.711853682994842529e-01 6.731712818145751953e-02 8.579532802104949951e-02
-3.061680793762207031e-01 -2.671440131962299347e-02 4.981914162635803223e-02
2.525679469108581543e-01 7.534917443990707397e-02 7.920145988464355469e-02
-7.211860418319702148e-01 3.514799475669860840e-02 1.264579966664314270e-02
1.011976897716522217e-01 1.091281846165657043e-01 1.672235317528247833e-02
2.966837286949157715e-01 9.889762848615646362e-02 6.023049354553222656e-04
1.134831309318542480e-01 -1.196162775158882141e-03 -7.022531330585479736e-02
7.307741045951843262e-01 5.111396312713623047e-02 1.717744022607803345e-02
-1.597911715507507324e-01 1.153552904725074768e-01 2.236627973616123199e-02
6.137284636497497559e-01 -3.170399367809295654e-02 6.257721036672592163e-02
-4.292008280754089355e-01 5.918842554092407227e-02 9.658531844615936279e-02
1.432838290929794312e-01 9.476773440837860107e-03 1.952649652957916260e-02
9.508968889713287354e-02 1.773498952388763428e-02 2.509758770465850830e-01
1.209152638912200928e-01 -7.457966357469558716e-02 -5.960877984762191772e-02
2.792492508888244629e-01 -2.528065629303455353e-02 2.502153217792510986e-01
1.191584244370460510e-01 -8.156152069568634033e-02 -2.836162596940994263e-02
2.181421816349029541e-01 -6.708665192127227783e-02 1.825205981731414795e-01
2.661913633346557617e-02 -6.482292711734771729e-02 2.517781853675842285e-01
2.008390128612518311e-01 -5.005067959427833557e-02 2.688808441162109375e-01
-5.664245784282684326e-02 -2.027083747088909149e-02 2.434439808130264282e-01
-4.520413279533386230e-02 -7.285678386688232422e-02 1.626001596450805664e-01
-2.976332604885101318e-02 -4.041377082467079163e-02 -3.970702737569808960e-02
5.247328802943229675e-02 -5.255921930074691772e-02 2.925662398338317871e-01
1.108163595199584961e-01 -8.017031848430633545e-02 1.803225874900817871e-01
1.905937194824218750e-01 -7.875794172286987305e-02 1.809693872928619385e-02
-2.671074867248535156e-02 -7.573510706424713135e-02 -3.744721412658691406e-03
-3.379793465137481689e-02 -5.329573899507522583e-02 2.511131167411804199e-01
1.328901648521423340e-01 -3.411351516842842102e-02 -9.186934679746627808e-02
1.150211691856384277e-01 -3.218721225857734680e-02 -9.020722657442092896e-02
1.298054754734039307e-01 -6.757774949073791504e-02 2.419193685054779053e-01
-3.273133933544158936e-02 -6.753948330879211426e-02 -2.502564340829849243e-02
-5.754390358924865723e-02 -7.387259602546691895e-02 1.270548999309539795e-01
2.598634958267211914e-01 3.131479024887084961e-05 2.486930042505264282e-02
5.850821360945701599e-02 1.846811175346374512e-02 1.610010713338851929e-01
3.320783376693725586e-03 9.884286671876907349e-03 1.653349250555038452e-01
6.646136939525604248e-02 -8.512858301401138306e-03 -3.331304341554641724e-02
5.379054695367813110e-02 1.794624328613281250e-02 1.817324310541152954e-01
1.430774331092834473e-01 2.308928593993186951e-02 1.350245773792266846e-01
5.829116702079772949e-02 -3.900988027453422546e-02 -8.725435286760330200e-02
2.442385703325271606e-01 1.070052385330200195e-04 1.193189620971679688e-02
8.172079175710678101e-02 1.912237703800201416e-02 1.198832094669342041e-01
9.292840957641601562e-02 -3.108391538262367249e-03 -2.448888868093490601e-02
9.678035974502563477e-03 -6.322025507688522339e-02 2.506448030471801758e-01
-1.990522444248199463e-02 -7.399196922779083252e-02 -1.894054561853408813e-02
6.356267631053924561e-02 -8.472320437431335449e-02 1.512698978185653687e-01
3.580172359943389893e-02 -8.815768361091613770e-02 9.288349747657775879e-02
1.107425317168235779e-01 -8.630530536174774170e-02 7.605299353599548340e-03
3.247945606708526611e-01 -3.067353740334510803e-02 1.184920296072959900e-01
2.467623502016067505e-01 1.027436554431915283e-02 2.472237050533294678e-01
-9.081250429153442383e-02 -6.176966801285743713e-02 9.197935461997985840e-02
2.724323421716690063e-02 1.222653314471244812e-02 1.152320876717567444e-01
6.963948905467987061e-02 1.965291425585746765e-02 1.885085105895996094e-01
-4.300743341445922852e-02 -3.540111705660820007e-02 -2.045501023530960083e-02
1.835341453552246094e-01 9.441059082746505737e-03 2.926279902458190918e-01
1.505541056394577026e-01 -1.884164102375507355e-02 -7.025777548551559448e-02
1.908818483352661133e-01 -7.512124255299568176e-03 3.183911144733428955e-01
2.532461583614349365e-01 1.666278392076492310e-02 1.661843806505203247e-01
8.555114269256591797e-02 -1.625235006213188171e-02 3.335060179233551025e-01
2.025590091943740845e-02 -7.988694310188293457e-02 1.770318150520324707e-01
2.288856506347656250e-01 -6.848100572824478149e-02 -2.447344362735748291e-03
1.203162446618080139e-01 -6.046660989522933960e-02 -9.002386778593063354e-02
1.168314144015312195e-01 -2.837257459759712219e-03 3.261448442935943604e-01
1.955420076847076416e-01 1.532246172428131104e-02 2.646746635437011719e-01
4.437340795993804932e-02 1.676772907376289368e-02 1.694653034210205078e-01
1.081776618957519531e-01 -2.590928226709365845e-02 3.335424363613128662e-01
2.385997176170349121e-01 -6.283518671989440918e-02 1.807873547077178955e-01
5.984312295913696289e-02 -8.197491616010665894e-02 1.739099770784378052e-01
2.655025720596313477e-01 -3.920223563909530640e-02 -3.221840411424636841e-02
2.345320284366607666e-01 1.375672221183776855e-02 7.646802067756652832e-02
6.192409992218017578e-02 1.810563355684280396e-02 1.366695165634155273e-01
2.855434417724609375e-01 -5.348593741655349731e-02 1.439370959997177124e-01
2.528784871101379395e-01 -3.933561220765113831e-02 2.548413574695587158e-01
-6.301787495613098145e-02 -1.263935863971710205e-02 2.032361924648284912e-01
-9.647861123085021973e-03 -3.217702731490135193e-03 4.551986604928970337e-02
3.161933422088623047e-01 -1.018487103283405304e-02 8.123014867305755615e-02
5.420310795307159424e-02 -8.001495897769927979e-02 -3.941785544157028198e-02
8.167404681444168091e-02 1.361403614282608032e-03 -3.660991787910461426e-03
1.755275726318359375e-01 2.369889989495277405e-02 1.586224734783172607e-01
2.185371518135070801e-02 9.360838681459426880e-03 9.198845177888870239e-02
1.988876760005950928e-01 1.599110662937164307e-03 -6.304763257503509521e-03
-4.193761944770812988e-02 -2.288021892309188843e-02 5.653746426105499268e-03
2.658431529998779297e-01 -6.351336091756820679e-02 9.878019243478775024e-02
-1.712317764759063721e-02 4.295039921998977661e-03 1.986786574125289917e-01
-9.314051270484924316e-02 -3.284908458590507507e-02 7.744093984365463257e-02
-9.563054144382476807e-02 -5.799007043242454529e-02 1.131489202380180359e-01
-2.526614069938659668e-02 2.885423600673675537e-03 1.831094622611999512e-01
-1.069372147321701050e-02 -6.845088303089141846e-02 2.201732397079467773e-01
-1.225851476192474365e-02 3.081504255533218384e-03 2.262018322944641113e-01
2.394093871116638184e-01 1.874725520610809326e-02 1.550650298595428467e-01
1.902116388082504272e-01 -4.236871749162673950e-02 2.933293282985687256e-01
9.965680539608001709e-02 2.018525078892707825e-02 2.303335964679718018e-01
1.789249777793884277e-01 -7.865674793720245361e-02 -2.451285719871520996e-03
2.040990591049194336e-01 -7.823363691568374634e-02 5.764155834913253784e-02
1.512609422206878662e-01 -8.509220182895660400e-02 4.166286438703536987e-02
6.665235012769699097e-02 -3.592764958739280701e-03 -1.679302006959915161e-02
-3.294534981250762939e-03 -8.552137017250061035e-02 6.124851852655410767e-02
-5.884866416454315186e-02 -7.476383447647094727e-02 6.135638430714607239e-02
7.096678018569946289e-05 -8.511982113122940063e-02 3.776412457227706909e-02
1.476119160652160645e-01 1.995987445116043091e-02 9.160001575946807861e-02
2.173697501420974731e-01 4.387427121400833130e-03 1.242102682590484619e-02
-4.138107597827911377e-02 -1.681134104728698730e-03 1.764205545186996460e-01
2.918771207332611084e-01 -1.350760646164417267e-02 1.990464329719543457e-02
-7.040068507194519043e-02 -6.635922193527221680e-02 1.572459340095520020e-01
9.493084996938705444e-02 -4.155365005135536194e-02 -9.585785120725631714e-02
2.306378334760665894e-01 -6.436575949192047119e-02 -2.120243757963180542e-02
6.479004025459289551e-02 -6.399871408939361572e-02 -8.347577601671218872e-02
2.089893221855163574e-01 2.027314901351928711e-02 1.178323552012443542e-01
3.004888296127319336e-01 -3.424546867609024048e-02 1.518408209085464478e-02
-4.659064114093780518e-03 -7.451210916042327881e-02 -3.080522269010543823e-02
1.264053285121917725e-01 -6.151683628559112549e-03 -4.017562419176101685e-02
4.046498239040374756e-02 1.159500330686569214e-02 8.605717122554779053e-02
6.432987749576568604e-02 -8.754674345254898071e-02 1.184379681944847107e-01
2.303658425807952881e-01 1.329311355948448181e-02 2.498341500759124756e-01
1.052023470401763916e-01 -7.657104730606079102e-02 -5.552474409341812134e-02
1.059242710471153259e-01 -8.827794343233108521e-02 8.633548021316528320e-02
2.769282758235931396e-01 1.153875514864921570e-02 1.428682208061218262e-01
-9.704631567001342773e-02 -4.559408128261566162e-02 6.574206054210662842e-02
2.373119890689849854e-01 -4.695246741175651550e-02 2.497849464416503906e-01
-4.380835592746734619e-02 -7.813975214958190918e-02 1.124522536993026733e-01
3.105212748050689697e-02 -8.266767114400863647e-02 -1.666874438524246216e-02
-3.837059438228607178e-02 -7.156510651111602783e-02 1.801944971084594727e-01
4.999177902936935425e-02 -5.232596397399902344e-02 -8.868622034788131714e-02
2.918662130832672119e-02 -3.469159826636314392e-03 5.554541945457458496e-03
1.874450147151947021e-01 -7.196889817714691162e-02 -3.488004952669143677e-02
2.710632085800170898e-01 1.125911995768547058e-02 1.115124970674514771e-01
2.512678503990173340e-01 1.525280252099037170e-02 2.059850841760635376e-01
2.127601951360702515e-02 -5.506497249007225037e-02 -7.713135331869125366e-02
4.847974330186843872e-02 -2.957015298306941986e-02 -7.355543226003646851e-02
1.922021806240081787e-01 2.199709787964820862e-02 2.112116813659667969e-01
2.196262776851654053e-01 -7.355600595474243164e-02 1.220602914690971375e-01
1.357412487268447876e-01 6.546638906002044678e-03 5.922645330429077148e-03
2.438675314188003540e-01 -6.249219179153442383e-02 -1.037961989641189575e-02
5.062568187713623047e-02 -8.109135553240776062e-03 -2.491017431020736694e-02
1.859138160943984985e-01 -5.980480462312698364e-02 2.463443577289581299e-01
2.442902326583862305e-02 1.295016705989837646e-02 2.033205926418304443e-01
3.900180757045745850e-02 1.539205387234687805e-02 1.406899392604827881e-01
1.116721332073211670e-02 -5.715422332286834717e-03 1.077383756637573242e-02
1.062288880348205566e-03 7.835611701011657715e-03 1.193520501255989075e-01
-6.351284682750701904e-02 -2.714409492909908295e-02 2.442479878664016724e-02
3.220728039741516113e-02 -8.582559227943420410e-02 7.673203945159912109e-03
1.496884673833847046e-01 -7.317349314689636230e-02 2.064556628465652466e-01
1.341540217399597168e-01 2.355788275599479675e-02 1.973342001438140869e-01
-4.396364092826843262e-04 -6.584885716438293457e-02 2.365377843379974365e-01
1.352293789386749268e-01 -8.207812905311584473e-02 -1.676491647958755493e-02
8.465088903903961182e-03 -7.304796576499938965e-02 2.106963396072387695e-01
1.067183539271354675e-01 5.963310599327087402e-03 3.079915046691894531e-01
-8.417055010795593262e-02 -6.450268626213073730e-02 6.813269853591918945e-02
3.069242089986801147e-02 -2.406552433967590332e-02 -5.634177476167678833e-02
2.135217338800430298e-01 8.055042475461959839e-03 2.727598696947097778e-02
1.932923793792724609e-01 -8.709793910384178162e-03 -4.010006040334701538e-02
9.908670186996459961e-02 -1.552718132734298706e-02 -6.121806055307388306e-02
1.450071036815643311e-01 -7.982730865478515625e-03 3.301887214183807373e-01
1.232740059494972229e-01 -8.769108355045318604e-02 6.152337789535522461e-02
2.070625424385070801e-01 1.744875311851501465e-02 2.449385523796081543e-01
7.877916097640991211e-02 1.108037680387496948e-02 2.814745306968688965e-01
5.976474285125732422e-02 1.714092493057250977e-02 2.204408198595046997e-01
5.739104747772216797e-02 1.665769889950752258e-02 1.198601499199867249e-01
-4.307758808135986328e-02 -6.385141611099243164e-02 2.110137343406677246e-01
2.309507429599761963e-01 -3.920597210526466370e-02 2.744165062904357910e-01
2.520485520362854004e-01 -6.770607829093933105e-02 6.286419928073883057e-02
1.595049798488616943e-01 2.247711643576622009e-02 1.225302740931510925e-01
2.340650111436843872e-01 -4.755434021353721619e-02 -5.557168275117874146e-02
1.869611442089080811e-01 -6.558746844530105591e-02 2.212137281894683838e-01
1.269516348838806152e-02 -8.640371263027191162e-03 2.982650101184844971e-01
2.580554038286209106e-02 -1.896439306437969208e-02 -4.248595982789993286e-02
8.347667753696441650e-02 -8.574002236127853394e-02 -6.914250552654266357e-03
2.175807952880859375e-01 -5.696602165699005127e-02 -5.546901375055313110e-02
3.011555969715118408e-01 -4.440752789378166199e-03 2.107255756855010986e-01
2.132332772016525269e-01 9.324934333562850952e-03 2.790238261222839355e-01
1.330666542053222656e-01 -8.634755015373229980e-02 3.149573504924774170e-02
2.554453909397125244e-02 -7.921807467937469482e-02 -3.206191211938858032e-02
7.713425159454345703e-02 -3.449698537588119507e-02 -8.792514353990554810e-02
2.106734216213226318e-01 -3.900423645973205566e-03 3.065597116947174072e-01
-4.098108410835266113e-02 -2.046234905719757080e-03 1.276203244924545288e-01
8.368496596813201904e-02 -3.684664145112037659e-03 3.227679431438446045e-01
1.536436378955841064e-01 -4.923023656010627747e-02 2.930100858211517334e-01
-4.980191588401794434e-04 -1.677013933658599854e-03 2.690039873123168945e-01
3.155238032341003418e-01 -1.500823907554149628e-02 1.905325204133987427e-01
1.652933061122894287e-01 -1.399656012654304504e-02 -5.879388004541397095e-02
1.682983934879302979e-01 8.634552359580993652e-03 1.635530591011047363e-02
3.193398714065551758e-01 -8.363561704754829407e-03 1.066876426339149475e-01
1.792375594377517700e-01 2.237738668918609619e-02 1.267312318086624146e-01
-3.271582722663879395e-02 -1.126915216445922852e-03 1.062851622700691223e-01
1.045967638492584229e-02 4.164677113294601440e-03 2.568507492542266846e-01
2.052154988050460815e-01 -7.392705231904983521e-02 1.479299664497375488e-01
1.599503457546234131e-01 6.839413195848464966e-03 3.057388365268707275e-01
1.085903719067573547e-01 -6.479206681251525879e-02 2.578607201576232910e-01
9.416266530752182007e-02 -8.716370165348052979e-02 1.041658222675323486e-02
1.891875863075256348e-01 -7.928889244794845581e-02 1.132818758487701416e-01
7.720187306404113770e-02 -5.384392291307449341e-02 2.923756837844848633e-01
2.602205872535705566e-01 -6.060374528169631958e-02 1.033410429954528809e-02
4.827973246574401855e-02 -2.095458656549453735e-02 -5.812209099531173706e-02
-4.713527858257293701e-03 -4.570488631725311279e-02 -6.258881837129592896e-02
2.114653587341308594e-01 -6.486213207244873047e-02 -4.063310474157333374e-02
2.641848921775817871e-01 -6.353417783975601196e-02 5.000542849302291870e-02
2.547605633735656738e-01 -6.003134325146675110e-02 1.715145409107208252e-01
-7.309466600418090820e-02 -5.886502191424369812e-02 1.882653236389160156e-01
1.483531892299652100e-01 1.651367545127868652e-02 2.715631425380706787e-01
3.228437006473541260e-01 -2.236719429492950439e-02 1.631131470203399658e-01
1.483572721481323242e-01 1.241644099354743958e-02 3.530184924602508545e-02
1.358441263437271118e-01 1.851299777626991272e-02 7.967334240674972534e-02
2.259310781955718994e-01 9.711213409900665283e-03 4.312407225370407104e-02
-4.134753346443176270e-02 -7.374900579452514648e-02 7.293634116649627686e-03
3.491067141294479370e-02 -4.270494729280471802e-02 -8.168957382440567017e-02
4.871734231710433960e-02 -7.219198346138000488e-02 2.282740324735641479e-01
1.781083345413208008e-01 -8.227822184562683105e-02 6.122309714555740356e-02
1.498409062623977661e-01 1.600571721792221069e-02 5.827911198139190674e-02
-2.179870009422302246e-02 -5.214162170886993408e-02 2.627827525138854980e-01
1.815907210111618042e-01 -6.949778646230697632e-02 2.053948640823364258e-01
7.698403298854827881e-02 -8.802498877048492432e-02 1.873849332332611084e-02
1.203396320343017578e-01 -8.772235363721847534e-02 7.819087803363800049e-02
9.858274459838867188e-02 2.140266075730323792e-02 1.378083378076553345e-01
1.317567974328994751e-01 -3.915334492921829224e-02 3.178378343582153320e-01
2.952509224414825439e-01 -7.484328001737594604e-03 4.203654080629348755e-02
-7.615837454795837402e-02 -6.088938564062118530e-02 2.518896013498306274e-02
-2.455945312976837158e-02 -6.234893947839736938e-02 2.331213355064392090e-01
1.042014434933662415e-01 -7.273514568805694580e-02 2.253157645463943481e-01
2.805117368698120117e-01 9.936284273862838745e-03 1.254822611808776855e-01
-4.905550181865692139e-02 -1.562054082751274109e-02 4.234832525253295898e-02
1.038077399134635925e-01 -8.145053684711456299e-02 -3.356222063302993774e-02
4.381625354290008545e-02 -8.889250457286834717e-02 7.553392648696899414e-02
2.749338448047637939e-01 -3.641279414296150208e-03 2.532607018947601318e-01
1.991562545299530029e-01 -6.983351707458496094e-02 1.872625648975372314e-01
2.944250702857971191e-01 3.120265901088714600e-03 9.486368298530578613e-02
1.306013017892837524e-01 2.259662002325057983e-02 2.169163227081298828e-01
8.496858179569244385e-03 6.178528070449829102e-03 8.442062884569168091e-02
-2.565090358257293701e-02 -6.753966212272644043e-02 2.127210795879364014e-01
-8.740226924419403076e-02 -6.005755439400672913e-02 1.470845639705657959e-01
1.535678803920745850e-01 2.413107082247734070e-02 1.759890615940093994e-01
7.424152642488479614e-02 -2.164518833160400391e-02 -6.847526878118515015e-02
4.465498030185699463e-02 1.192742586135864258e-02 2.507346570491790771e-01
1.793542504310607910e-01 2.370141446590423584e-02 1.766300946474075317e-01
-2.209804952144622803e-03 -6.460570544004440308e-02 -5.579652637243270874e-02
-6.618092954158782959e-02 -5.219522491097450256e-02 -3.223173320293426514e-03
2.614599466323852539e-02 5.981907248497009277e-03 5.863606184720993042e-02
6.692583113908767700e-02 1.233666762709617615e-02 6.504683196544647217e-02
2.631009221076965332e-01 8.657835423946380615e-03 2.331966906785964966e-01
1.621524393558502197e-01 -1.965913921594619751e-03 -2.666728943586349487e-02
7.804775238037109375e-02 -8.693759143352508545e-02 1.264740079641342163e-01
2.181358039379119873e-01 -5.090850964188575745e-02 2.541737556457519531e-01
1.570504009723663330e-01 -5.280782282352447510e-02 -9.035905450582504272e-02
-6.973555684089660645e-02 -4.920274391770362854e-02 2.202428281307220459e-01
6.673067808151245117e-03 -2.894972451031208038e-02 -5.165155977010726929e-02
1.935035288333892822e-01 -3.971207886934280396e-02 -8.158060163259506226e-02
7.599466294050216675e-02 -7.742764055728912354e-02 2.039266824722290039e-01
2.700773477554321289e-01 7.715262472629547119e-03 7.716241478919982910e-02
6.433738768100738525e-02 -2.972457557916641235e-03 3.158851265907287598e-01
3.820598125457763672e-03 -1.619258895516395569e-02 -2.027276903390884399e-02
1.040308624505996704e-01 -8.851981163024902344e-02 4.530858248472213745e-02
5.200222134590148926e-02 -7.485735416412353516e-02 -5.798188596963882446e-02
3.103848397731781006e-01 -1.358203031122684479e-02 5.318447947502136230e-02
-2.742555737495422363e-02 -9.201318025588989258e-03 3.865529596805572510e-02
1.779617220163345337e-01 -7.682843506336212158e-02 1.591021418571472168e-01
1.754386574029922485e-01 -5.772205442190170288e-02 2.597796916961669922e-01
1.643816530704498291e-01 -8.369569480419158936e-02 8.619090914726257324e-02
1.752062141895294189e-01 1.372653990983963013e-03 3.134956359863281250e-01
1.131221055984497070e-01 1.301921904087066650e-02 2.851576209068298340e-01
3.058357238769531250e-01 -4.711215943098068237e-02 1.020865961909294128e-01
5.561745166778564453e-02 -8.921469748020172119e-02 5.428177863359451294e-02
1.827765405178070068e-01 1.884142681956291199e-02 2.495609223842620850e-01
1.209210157394409180e-01 8.929997682571411133e-03 3.014217913150787354e-01
3.018979728221893311e-01 -4.670238867402076721e-02 1.387467980384826660e-01
2.965603470802307129e-01 -4.299322515726089478e-02 1.781527549028396606e-01
-1.276149600744247437e-02 3.063507378101348877e-03 9.706442058086395264e-02
2.147264182567596436e-01 1.431402191519737244e-02 2.578342854976654053e-01
-1.936244964599609375e-02 -9.534696117043495178e-03 2.710766494274139404e-01
2.414035052061080933e-01 -6.633270531892776489e-02 1.498937606811523438e-01
-6.392022967338562012e-02 -3.787053003907203674e-02 2.423574924468994141e-01
2.471642941236495972e-02 -5.480442568659782410e-02 2.801927924156188965e-01
1.962931454181671143e-01 1.941882073879241943e-02 9.720753133296966553e-02
2.286858558654785156e-01 1.727525889873504639e-02 1.026405394077301025e-01
-3.642684221267700195e-02 -8.031044155359268188e-03 2.426532357931137085e-01
2.097504436969757080e-01 -4.464043676853179932e-02 -7.355252653360366821e-02
3.193694949150085449e-01 -3.740900382399559021e-02 1.040602624416351318e-01
1.205420643091201782e-01 -8.128216117620468140e-02 1.678596138954162598e-01
9.561364352703094482e-02 1.537336781620979309e-02 2.674711346626281738e-01
6.183464825153350830e-02 -7.854717969894409180e-02 1.969734132289886475e-01
-9.917218983173370361e-02 -3.255925327539443970e-02 1.386581510305404663e-01
1.783838272094726562e-01 3.165457397699356079e-03 -5.812861025333404541e-03
1.020591706037521362e-01 -7.756390422582626343e-02 1.998320221900939941e-01
3.035109937191009521e-01 -2.399240061640739441e-02 2.144395411014556885e-01
1.103741452097892761e-01 1.236985623836517334e-02 4.164201766252517700e-02
2.714437246322631836e-01 -5.396784842014312744e-02 1.766799688339233398e-01
1.555559784173965454e-01 -6.955628097057342529e-02 2.221775054931640625e-01
7.638144493103027344e-02 -6.483246386051177979e-02 2.600646615028381348e-01
-5.404926836490631104e-02 -7.661412656307220459e-02 7.726296782493591309e-02
1.051654070615768433e-01 5.650192499160766602e-03 7.321491837501525879e-03
-3.762401640415191650e-02 -2.577900886535644531e-04 1.519181728363037109e-01
7.204903662204742432e-02 1.488927006721496582e-02 2.560269832611083984e-01
2.084723412990570068e-01 2.190301567316055298e-02 1.862308681011199951e-01
2.159744501113891602e-01 2.114671096205711365e-02 1.469000726938247681e-01
-7.823802530765533447e-03 -7.548461854457855225e-02 1.873760372400283813e-01
2.708578705787658691e-01 -5.902404338121414185e-02 1.413384974002838135e-01
2.117696702480316162e-01 1.902545243501663208e-02 2.279987782239913940e-01
4.563853144645690918e-02 8.439272642135620117e-03 5.546569824218750000e-02
1.533445119857788086e-01 -6.333184242248535156e-02 2.501284182071685791e-01
-1.000486761331558228e-01 -3.896962106227874756e-02 1.564080268144607544e-01
1.507863253355026245e-01 -8.543619513511657715e-02 6.904055923223495483e-02
1.368039995431900024e-01 -8.345718681812286377e-02 1.364073455333709717e-01
-5.051456391811370850e-02 -5.092794448137283325e-02 2.406579405069351196e-01
2.634420990943908691e-03 9.362813085317611694e-03 1.439514011144638062e-01
1.197574511170387268e-01 -1.141030527651309967e-02 -5.407752841711044312e-02
-2.935948967933654785e-02 -7.565462589263916016e-02 1.652334779500961304e-01
5.705554410815238953e-02 -3.541816771030426025e-02 3.211725950241088867e-01
-1.574903726577758789e-02 -2.386602573096752167e-02 -2.444919198751449585e-02
1.172262802720069885e-01 -4.997494816780090332e-02 2.996121048927307129e-01
-2.487842738628387451e-02 -8.207637816667556763e-02 1.021485477685928345e-01
1.521670371294021606e-01 6.033789366483688354e-03 3.147222101688385010e-03
9.609829634428024292e-02 -6.876607239246368408e-02 2.442305684089660645e-01
-7.676570117473602295e-02 -2.693566121160984039e-02 5.100908130407333374e-02
2.908582389354705811e-01 7.641714066267013550e-03 1.524180024862289429e-01
-4.666273295879364014e-02 -3.112202882766723633e-02 2.651956379413604736e-01
-7.219013571739196777e-02 -6.923839449882507324e-02 5.365359038114547729e-02
-1.086111366748809814e-02 -8.241242170333862305e-02 2.100346237421035767e-02
2.975413203239440918e-01 -4.493602365255355835e-02 2.853511273860931396e-02
2.737034559249877930e-01 -1.090543158352375031e-02 3.809154033660888672e-03
1.473760306835174561e-01 1.958420872688293457e-02 2.520049810409545898e-01
9.000373631715774536e-02 5.594059824943542480e-03 3.051731288433074951e-01
1.843301057815551758e-01 -7.817144691944122314e-02 1.375705301761627197e-01
2.101162970066070557e-01 -4.032012820243835449e-02 2.864943444728851318e-01
1.362035423517227173e-02 -6.492473930120468140e-02 -6.456071883440017700e-02
1.750623583793640137e-01 -8.186895400285720825e-02 1.009374111890792847e-01
1.883735209703445435e-01 -1.697514019906520844e-02 -5.985733121633529663e-02
2.745977044105529785e-01 -2.646151930093765259e-02 -2.034912258386611938e-02
1.658698916435241699e-01 -7.578416913747787476e-02 -3.404109925031661987e-02
-2.848003804683685303e-02 -1.987794414162635803e-02 -1.240797340869903564e-03
2.838746905326843262e-01 -5.411842465400695801e-02 3.308679163455963135e-02
2.877508401870727539e-01 3.110226243734359741e-03 7.836614549160003662e-02
-3.195756673812866211e-02 -2.808719873428344727e-04 2.031149268150329590e-01
4.530978202819824219e-02 -7.960928976535797119e-02 1.878356933593750000e-01
2.541586160659790039e-01 1.431178674101829529e-02 1.088687926530838013e-01
-3.860908746719360352e-02 -7.621815800666809082e-02 1.472988724708557129e-01
2.334457188844680786e-01 -1.467732153832912445e-02 2.983424961566925049e-01
7.146993279457092285e-02 -7.441450655460357666e-02 -6.292264908552169800e-02
-4.901424050331115723e-03 -5.982991307973861694e-03 2.559584379196166992e-02
2.546898126602172852e-01 -3.066644072532653809e-03 2.745670974254608154e-01
1.005023270845413208e-01 2.236281707882881165e-02 1.699789315462112427e-01
-1.600585877895355225e-02 -2.317154780030250549e-03 6.019249558448791504e-02
2.438379228115081787e-01 -5.599836260080337524e-02 -3.248774260282516479e-02
2.377195358276367188e-01 -2.403321862220764160e-02 -4.864392429590225220e-02
2.258497774600982666e-01 -3.238991275429725647e-02 2.900935709476470947e-01
1.057912260293960571e-01 2.243036776781082153e-02 1.957074701786041260e-01
2.353074848651885986e-01 1.587460562586784363e-02 2.277023792266845703e-01
1.698240488767623901e-01 1.687248796224594116e-02 2.663669288158416748e-01
4.300864040851593018e-02 -8.847685158252716064e-02 3.965072333812713623e-02
2.304711937904357910e-02 -7.377198338508605957e-02 -5.052725225687026978e-02
2.455813139677047729e-01 9.305723011493682861e-03 5.669127404689788818e-02
2.478643357753753662e-01 5.626738071441650391e-03 3.865340352058410645e-02
3.270352184772491455e-01 -2.051201462745666504e-02 1.367856264114379883e-01
1.847811341285705566e-01 1.191607862710952759e-02 3.672012686729431152e-02
2.645273506641387939e-01 -1.287757232785224915e-02 -9.791411459445953369e-03
2.694521546363830566e-01 -4.861997067928314209e-02 -1.620944589376449585e-02
3.113088011741638184e-01 -3.547844290733337402e-02 1.695774793624877930e-01
2.715019583702087402e-01 1.299307867884635925e-02 1.619744598865509033e-01
-9.391419589519500732e-02 -2.937759831547737122e-02 9.856625646352767944e-02
2.777947485446929932e-01 -4.557297378778457642e-02 2.046916037797927856e-01
1.373995095491409302e-02 -7.986775040626525879e-02 -2.186856418848037720e-02
1.382443308830261230e-01 -2.908594906330108643e-03 -3.068024665117263794e-02
1.945071816444396973e-01 2.186854183673858643e-02 1.289260834455490112e-01
2.426894307136535645e-01 -2.277046442031860352e-02 2.885386049747467041e-01
3.109090924263000488e-01 -3.556419163942337036e-02 4.158464074134826660e-02
2.711914777755737305e-01 -1.356034912168979645e-02 2.654848098754882812e-01
4.893928021192550659e-02 -4.150804132223129272e-03 -1.001063734292984009e-02
2.040053009986877441e-01 -7.197504490613937378e-02 -1.759610325098037720e-02
3.150703907012939453e-01 -3.589573502540588379e-02 1.542095243930816650e-01
2.233587205410003662e-03 4.840146750211715698e-03 2.409918010234832764e-01
1.145111918449401855e-01 -2.106161788105964661e-03 -2.576526254415512085e-02
-9.484441578388214111e-02 -4.881013929843902588e-02 1.676934510469436646e-01
2.169942259788513184e-01 -2.204268798232078552e-02 -5.749575048685073853e-02
2.241805195808410645e-01 -7.187148928642272949e-02 1.501912623643875122e-02
5.901833251118659973e-02 1.170918345451354980e-02 2.657288908958435059e-01
1.676300615072250366e-01 -5.201897025108337402e-02 2.807319164276123047e-01
2.415197640657424927e-01 -4.984006285667419434e-03 -7.181100547313690186e-03
-9.189257025718688965e-02 -2.563831955194473267e-02 1.537643969058990479e-01
1.771348118782043457e-01 -7.893955335021018982e-03 -4.198955744504928589e-02
2.373033761978149414e-01 -5.725491046905517578e-02 2.120790779590606689e-01
1.591142714023590088e-01 -3.543360158801078796e-02 3.170733451843261719e-01
2.236101627349853516e-01 1.628705114126205444e-02 8.731574565172195435e-02
2.476834505796432495e-01 1.698732376098632812e-02 1.351403594017028809e-01
2.684597969055175781e-01 4.815783351659774780e-03 5.671968311071395874e-02
2.511473894119262695e-01 1.636381074786186218e-02 1.898717582225799561e-01
1.379681378602981567e-02 9.433772414922714233e-03 1.081835627555847168e-01
2.679426968097686768e-01 -4.356808960437774658e-02 2.261376380920410156e-01
1.907099485397338867e-01 -8.031626790761947632e-02 8.243673294782638550e-02
1.185719072818756104e-01 -4.588160663843154907e-02 -9.786147624254226685e-02
