6.475249528884887695e-01 1.706661656498908997e-03 -4.047175496816635132e-02
7.019581794738769531e-01 1.190905459225177765e-02 -1.881981268525123596e-02
-1.036654412746429443e-01 6.793236732482910156e-02 1.964554376900196075e-02
7.631671428680419922e-01 -5.535997450351715088e-03 -2.716714702546596527e-02
5.102905631065368652e-01 7.713286206126213074e-03 -4.218235984444618225e-02
4.470534920692443848e-01 3.641941770911216736e-02 -4.008916392922401428e-02
4.687792658805847168e-01 4.459848999977111816e-02 -2.485426329076290131e-02
6.187392473220825195e-01 2.203629538416862488e-02 -3.105622716248035431e-02
6.801316142082214355e-02 3.351648151874542236e-02 2.189395390450954437e-02
3.208543062210083008e-01 6.240388751029968262e-02 2.922183601185679436e-03
5.813962221145629883e-02 5.069566145539283752e-02 -2.142647653818130493e-02
4.749475717544555664e-01 -1.220984756946563721e-02 1.601527072489261627e-02
7.555132508277893066e-01 -2.702614665031433105e-02 -1.107045076787471771e-02
4.193076491355895996e-01 -6.306976079940795898e-03 -1.409848313778638840e-02
3.269810080528259277e-01 5.331964790821075439e-02 2.447358705103397369e-02
4.632799029350280762e-01 4.415317252278327942e-02 8.229924365878105164e-03
4.273915886878967285e-01 4.351671785116195679e-02 1.969590224325656891e-02
3.845465183258056641e-02 6.481845676898956299e-02 -2.351657114923000336e-02
-1.644232869148254395e-02 5.236993730068206787e-02 3.127261251211166382e-02
2.024489045143127441e-01 2.882226370275020599e-02 -2.710028178989887238e-02
4.456079304218292236e-01 4.431537911295890808e-02 -3.139327839016914368e-02
2.319209277629852295e-01 1.047847047448158264e-02 1.117813121527433395e-02
4.152265191078186035e-01 -1.654397696256637573e-03 2.891262993216514587e-02
2.511698305606842041e-01 3.808921575546264648e-02 4.283417388796806335e-02
1.191242039203643799e-01 7.540529221296310425e-02 -1.960090547800064087e-02
2.456048727035522461e-01 1.083835400640964508e-02 2.294296398758888245e-02
2.665903568267822266e-01 5.028456076979637146e-02 3.599974513053894043e-02
1.269257217645645142e-01 5.164109170436859131e-02 -3.089444339275360107e-02
5.181826353073120117e-01 -1.500375568866729736e-02 1.610655151307582855e-02
5.591975450515747070e-01 3.486811369657516479e-02 -1.034548506140708923e-02
2.313530743122100830e-01 1.231446117162704468e-02 2.253211475908756256e-02
6.142338514328002930e-01 -7.271151989698410034e-03 2.500658854842185974e-02
5.032672882080078125e-01 1.789437979459762573e-02 3.202849999070167542e-02
-5.020716786384582520e-02 8.685708045959472656e-02 3.922908101230859756e-03
4.242720901966094971e-01 -8.687138557434082031e-03 1.447065640240907669e-02
3.573822379112243652e-01 4.901008680462837219e-03 -2.373639307916164398e-02
4.415445327758789062e-01 -4.016783088445663452e-03 -2.429748326539993286e-02
2.182895541191101074e-01 6.934778392314910889e-02 1.552043296396732330e-02
1.231251060962677002e-01 6.287906318902969360e-02 -3.018978610634803772e-02
3.595239520072937012e-01 1.368039101362228394e-02 3.897611796855926514e-02
4.076312184333801270e-01 -3.455270081758499146e-03 -1.837796717882156372e-02
5.766790509223937988e-01 1.305118203163146973e-03 -4.133471474051475525e-02
5.750441551208496094e-01 2.973295561969280243e-02 -2.846582606434822083e-02
3.660125434398651123e-01 1.239735633134841919e-03 2.779022045433521271e-02
-3.237649798393249512e-02 8.688501268625259399e-02 8.266688324511051178e-03
1.429632306098937988e-01 7.151384651660919189e-02 -2.411832101643085480e-02
1.133496016263961792e-01 4.012951999902725220e-02 -2.264577150344848633e-02
4.553647935390472412e-01 3.170111775398254395e-02 -4.232416301965713501e-02
4.864047765731811523e-01 -1.357708126306533813e-02 -1.086500938981771469e-02
1.441052556037902832e-02 4.709005355834960938e-02 3.233202174305915833e-02
7.831304073333740234e-01 -1.359263062477111816e-02 -2.536058053374290466e-02
5.526810884475708008e-02 3.650272265076637268e-02 2.548957243561744690e-02
6.675878167152404785e-01 -2.628334611654281616e-02 -5.542557220906019211e-03
6.503689289093017578e-01 -2.482943981885910034e-02 -1.217354275286197662e-02
-9.502330422401428223e-02 7.243231683969497681e-02 -1.179590937681496143e-03
-1.095003783702850342e-01 7.732380926609039307e-02 2.181319892406463623e-02
4.259251952171325684e-01 7.964549586176872253e-03 3.682344406843185425e-02
8.422178030014038086e-02 7.095419615507125854e-02 3.215653821825981140e-02
2.944391667842864990e-01 2.412689849734306335e-02 4.191374406218528748e-02
5.569583773612976074e-01 -1.047823950648307800e-02 -3.058277443051338196e-02
1.555542647838592529e-01 7.226678729057312012e-02 2.192803472280502319e-02
1.927573233842849731e-01 6.460590660572052002e-02 2.907250449061393738e-02
1.083271950483322144e-01 2.869980968534946442e-02 2.549041435122489929e-02
4.740187227725982666e-01 4.528064280748367310e-03 -3.824713453650474548e-02
3.103014230728149414e-01 4.118971526622772217e-03 2.309663221240043640e-02
1.598189175128936768e-01 7.657545059919357300e-02 -1.038894057273864746e-02
7.655003666877746582e-01 -1.575801521539688110e-03 -1.431213691830635071e-02
5.747231245040893555e-01 1.333557255566120148e-02 2.541841380298137665e-02
1.874018013477325439e-01 4.556025564670562744e-02 4.292495548725128174e-02
5.306187272071838379e-02 4.226611182093620300e-02 3.467344865202903748e-02
2.548255920410156250e-01 5.380343273282051086e-02 3.409052640199661255e-02
6.243976354598999023e-01 -9.843613952398300171e-04 2.444266714155673981e-02
5.386149883270263672e-02 5.432767421007156372e-02 4.058235883712768555e-02
5.698049664497375488e-01 3.044877387583255768e-02 4.092813003808259964e-03
6.969302296638488770e-01 -2.411353588104248047e-02 -2.074295468628406525e-02
3.055219650268554688e-01 2.216729708015918732e-02 -3.537806123495101929e-02
2.868320643901824951e-01 6.685227155685424805e-03 -8.945737034082412720e-03
4.366308450698852539e-01 3.744840249419212341e-02 -4.008018225431442261e-02
2.002214193344116211e-01 7.420244812965393066e-02 -8.630569791421294212e-04
3.440286517143249512e-01 3.533513098955154419e-02 3.876803442835807800e-02
7.269889116287231445e-02 6.228654086589813232e-02 -2.689843438565731049e-02
-6.490957736968994141e-02 6.661289185285568237e-02 3.103673271834850311e-02
3.098913133144378662e-01 5.837435275316238403e-02 1.908391900360584259e-02
2.619079351425170898e-01 5.490198731422424316e-02 -3.586764261126518250e-02
6.215095520019531250e-01 1.115756109356880188e-03 -4.128915444016456604e-02
1.251471191644668579e-01 6.993660330772399902e-02 2.981748431921005249e-02
-7.136526703834533691e-02 7.387907058000564575e-02 2.973677404224872589e-02
7.786461114883422852e-01 -2.432467415928840637e-02 -1.777890138328075409e-02
3.735660016536712646e-01 5.027025565505027771e-02 2.013973519206047058e-02
3.377583920955657959e-01 1.747576519846916199e-02 4.024974629282951355e-02
6.971371173858642578e-02 3.844715282320976257e-02 -1.034496538341045380e-02
2.654527425765991211e-01 6.644226610660552979e-03 1.210278179496526718e-02
9.113578498363494873e-02 2.935128845274448395e-02 1.749497465789318085e-02
5.127695798873901367e-01 1.975553482770919800e-02 2.997574023902416229e-02
2.291959226131439209e-01 7.178552448749542236e-02 -5.318889860063791275e-03
2.116823196411132812e-02 6.499764323234558105e-02 3.794974461197853088e-02
6.949016451835632324e-02 4.027199745178222656e-02 3.543253988027572632e-02
3.988860249519348145e-01 3.286553546786308289e-03 -2.849702723324298859e-02
6.496022939682006836e-01 -9.036004543304443359e-03 2.173722162842750549e-02
4.527178704738616943e-01 4.654347151517868042e-02 5.065124016255140305e-03
4.065645039081573486e-01 5.308596417307853699e-03 3.522387519478797913e-02
5.632773041725158691e-01 3.096157871186733246e-02 -2.937417477369308472e-02
6.021976470947265625e-03 4.697826504707336426e-02 -4.271804820746183395e-03
1.016767323017120361e-01 2.879568561911582947e-02 1.276078866794705391e-03
2.979240417480468750e-01 6.022393703460693359e-02 1.798334904015064240e-02
2.132788151502609253e-01 6.495423614978790283e-02 -2.875334583222866058e-02
5.563795566558837891e-01 -1.699847728013992310e-02 -1.856579817831516266e-02
4.402567148208618164e-01 2.840201370418071747e-02 -4.374434798955917358e-02
9.436120092868804932e-02 4.856532067060470581e-02 -2.579776942729949951e-02
3.597150444984436035e-01 5.591745674610137939e-02 1.135653816163539886e-02
1.555457860231399536e-01 6.614863872528076172e-02 -2.919895015656948090e-02
3.632244467735290527e-02 3.755338862538337708e-02 1.518270093947649002e-02
3.265160620212554932e-01 4.714236408472061157e-02 3.213159367442131042e-02
-1.871523261070251465e-02 5.536661297082901001e-02 -8.860763162374496460e-03
-7.546886801719665527e-02 7.251293957233428955e-02 -6.646513938903808594e-03
3.390518426895141602e-01 -1.483568921685218811e-03 5.088360980153083801e-03
7.549085617065429688e-01 -1.362808048725128174e-03 -2.509989961981773376e-02
4.406696557998657227e-01 1.070407778024673462e-02 -3.997881710529327393e-02
4.799879193305969238e-01 3.410363197326660156e-02 -3.918062523007392883e-02
6.186851859092712402e-01 1.448687911033630371e-02 1.670343056321144104e-02
1.512440741062164307e-01 2.068371698260307312e-02 9.455045685172080994e-03
2.816007733345031738e-01 4.635091125965118408e-02 -3.955829888582229614e-02
7.191373109817504883e-01 8.815456181764602661e-03 -1.529299002140760422e-02
5.106496810913085938e-02 3.730396553874015808e-02 -4.783670883625745773e-04
2.058048695325851440e-01 2.206563204526901245e-02 3.557239472866058350e-02
7.238067388534545898e-01 -5.242411047220230103e-03 1.015944965183734894e-02
2.995099127292633057e-01 3.439251333475112915e-02 4.180885478854179382e-02
3.520156741142272949e-01 -1.182001084089279175e-03 -7.433393038809299469e-03
7.204958200454711914e-01 5.949253216385841370e-03 -2.677273377776145935e-02
2.651126980781555176e-01 3.436708450317382812e-02 -3.805682435631752014e-02
1.768118441104888916e-01 5.193570256233215332e-02 -3.487038239836692810e-02
6.253336071968078613e-01 2.517377585172653198e-02 -1.391713228076696396e-02
2.355151325464248657e-01 3.927659615874290466e-02 -3.727257996797561646e-02
1.779839396476745605e-01 3.641110658645629883e-02 -2.982931584119796753e-02
1.292664706707000732e-01 7.164497673511505127e-02 -2.438364923000335693e-02
6.788369417190551758e-01 -1.868177205324172974e-02 -2.901648357510566711e-02
2.787489891052246094e-01 1.045525074005126953e-02 -1.614372245967388153e-02
9.556774795055389404e-02 3.179540112614631653e-02 -5.420918576419353485e-03
2.618533372879028320e-02 6.439621746540069580e-02 -2.210043184459209442e-02
5.420881509780883789e-01 -1.731193065643310547e-02 -1.427028328180313110e-02
4.006966948509216309e-02 3.969796746969223022e-02 -1.975202467292547226e-03
6.319869160652160645e-01 2.264643460512161255e-02 -2.467711642384529114e-02
2.237561643123626709e-01 5.247524753212928772e-02 3.804486244916915894e-02
4.498479664325714111e-01 4.725074023008346558e-02 -2.331590279936790466e-02
3.928017616271972656e-01 1.212793774902820587e-02 -3.693964332342147827e-02
9.518459439277648926e-02 3.551125898957252502e-02 3.454752638936042786e-02
-9.004795551300048828e-02 6.273981928825378418e-02 1.308832317590713501e-02
3.537523150444030762e-01 5.970542132854461670e-02 -3.623709315434098244e-03
7.947794198989868164e-01 -1.804538071155548096e-02 -4.955682437866926193e-03
2.078287303447723389e-01 5.555681884288787842e-02 3.699391707777976990e-02
4.012134075164794922e-01 4.411748424172401428e-02 -3.731336072087287903e-02
7.562869787216186523e-02 3.137119114398956299e-02 1.301599014550447464e-02
7.482636570930480957e-01 -2.093730866909027100e-02 -2.618345618247985840e-02
5.868116617202758789e-01 1.764903590083122253e-02 2.001825347542762756e-02
6.559908390045166016e-01 1.840677112340927124e-02 -2.153709763661026955e-03
1.722057163715362549e-01 5.458023399114608765e-02 3.998596966266632080e-02
1.927011907100677490e-01 2.412924915552139282e-02 3.620023280382156372e-02
3.941958248615264893e-01 -2.809744328260421753e-03 -1.652304641902446747e-02
2.362535893917083740e-01 2.664454840123653412e-02 4.142686724662780762e-02
3.813728094100952148e-01 -1.488644629716873169e-04 2.751644514501094818e-02
1.307157576084136963e-01 4.039022698998451233e-02 -2.582033351063728333e-02
6.859598159790039062e-01 -2.600695937871932983e-02 2.000134438276290894e-03
3.667442202568054199e-01 3.109374456107616425e-02 3.886790946125984192e-02
2.787262201309204102e-02 3.960130363702774048e-02 2.081836014986038208e-02
5.753540992736816406e-01 2.636288665235042572e-02 1.117924787104129791e-02
2.428077757358551025e-01 7.000552117824554443e-02 -1.215439662337303162e-02
6.366828680038452148e-01 -2.472337707877159119e-02 -8.425620384514331818e-03
6.774226427078247070e-01 1.041926071047782898e-02 6.513154134154319763e-03
4.829374253749847412e-01 1.015581004321575165e-02 -4.212249070405960083e-02
-8.966487646102905273e-02 8.587145060300827026e-02 9.326902218163013458e-03
3.856979310512542725e-01 4.389029741287231445e-02 -3.863172978162765503e-02
5.548685789108276367e-01 -9.618625044822692871e-04 -3.943207487463951111e-02
7.887747883796691895e-01 -2.228704094886779785e-02 -1.919195428490638733e-02
4.976204931735992432e-01 4.303482919931411743e-02 -1.455918420106172562e-02
5.977962017059326172e-01 -1.744133234024047852e-02 -2.429750002920627594e-02
5.995725989341735840e-01 -8.415617048740386963e-04 2.695021964609622955e-02
5.461527109146118164e-01 -1.961363852024078369e-02 1.507827895693480968e-03
4.963815510272979736e-01 -1.209615543484687805e-02 -1.834516786038875580e-02
4.536786079406738281e-01 3.474265336990356445e-02 2.631705440580844879e-02
4.319156408309936523e-01 1.915025524795055389e-02 3.771553561091423035e-02
1.180926412343978882e-01 3.010445646941661835e-02 -9.757581166923046112e-03
2.170243263244628906e-01 1.475508138537406921e-02 2.501101978123188019e-02
4.107025861740112305e-01 -8.117966353893280029e-03 1.101841125637292862e-02
7.081055641174316406e-01 -2.685459703207015991e-02 -1.246564835309982300e-02
2.766984701156616211e-01 5.632612109184265137e-02 -3.431295230984687805e-02
6.544125080108642578e-02 5.975447222590446472e-02 4.023065045475959778e-02
5.247577428817749023e-01 -9.890515357255935669e-03 -2.760664187371730804e-02
2.903251051902770996e-01 6.611225008964538574e-02 -2.205189084634184837e-03
1.541913598775863647e-01 2.280446887016296387e-02 2.614886499941349030e-02
4.130242466926574707e-01 3.826143592596054077e-02 2.905190922319889069e-02
3.334879875183105469e-04 5.896145850419998169e-02 3.745892271399497986e-02
4.239069521427154541e-01 4.139540717005729675e-02 -3.788742795586585999e-02
-5.250212550163269043e-02 8.209191262722015381e-02 -7.276705931872129440e-03
-5.084246397018432617e-03 8.353035897016525269e-02 1.943315193057060242e-02
1.822452545166015625e-01 2.828984707593917847e-02 3.889949619770050049e-02
2.353069186210632324e-02 3.965970128774642944e-02 1.186046842485666275e-02
1.887715756893157959e-01 2.127088233828544617e-02 -1.343369856476783752e-02
4.862522482872009277e-01 1.064685732126235962e-02 3.518051281571388245e-02
5.200649499893188477e-01 4.021761566400527954e-02 -1.287377066910266876e-02
4.359346032142639160e-01 3.342252224683761597e-03 3.453392162919044495e-02
-6.718486547470092773e-02 5.953284725546836853e-02 2.479676343500614166e-02
2.064506858587265015e-01 1.434296183288097382e-02 1.881395280361175537e-02
5.875130295753479004e-01 -2.162757143378257751e-02 -9.818366728723049164e-03
1.424859166145324707e-01 4.765164479613304138e-02 4.295602068305015564e-02
6.418269276618957520e-01 1.289214193820953369e-02 1.315569039434194565e-02
3.639640808105468750e-01 4.671046137809753418e-02 2.721171267330646515e-02
9.028935432434082031e-02 5.784446746110916138e-02 4.084958881139755249e-02
4.122985601425170898e-01 4.392221570014953613e-02 -3.649304434657096863e-02
5.415810346603393555e-01 3.000133298337459564e-02 1.432509440928697586e-02
2.339578419923782349e-01 5.787361413240432739e-02 3.225325793027877808e-02
2.136370241641998291e-01 5.428727716207504272e-02 -3.603433817625045776e-02
6.695119738578796387e-01 8.168874308466911316e-03 1.170052401721477509e-02
6.309396028518676758e-01 2.213957719504833221e-02 -3.142878995276987553e-04
3.115206062793731689e-01 4.980244487524032593e-02 -3.788101673126220703e-02
8.249458670616149902e-02 7.961243391036987305e-02 1.769829727709293365e-02
1.112817376852035522e-01 2.636645734310150146e-02 1.644684933125972748e-02
3.764933943748474121e-01 -1.794897019863128662e-03 -1.420249976217746735e-02
-5.651274323463439941e-02 7.187490165233612061e-02 3.185797855257987976e-02
3.451411128044128418e-01 4.432014375925064087e-02 3.248393163084983826e-02
4.550758600234985352e-01 1.047812402248382568e-03 -3.325144201517105103e-02
7.741889357566833496e-02 7.273084670305252075e-02 -2.327622845768928528e-02
3.999051451683044434e-01 -7.295396178960800171e-03 -3.770514158532023430e-04
3.510690033435821533e-01 4.527515545487403870e-02 -3.936093300580978394e-02
2.329201996326446533e-01 1.986384205520153046e-02 -2.188682556152343750e-02
7.033444643020629883e-01 -2.535894140601158142e-02 4.222731105983257294e-03
2.361157834529876709e-01 6.989019364118576050e-02 7.848685607314109802e-03
2.118487507104873657e-01 2.740934677422046661e-02 -2.721832320094108582e-02
2.088814228773117065e-01 6.363208591938018799e-02 2.826566062867641449e-02
1.018063724040985107e-01 8.137290179729461670e-02 -6.652816082350909710e-04
5.161025524139404297e-01 -4.487875849008560181e-03 -3.367027267813682556e-02
5.342887639999389648e-01 3.820261359214782715e-02 -1.569425314664840698e-02
1.025336980819702148e-02 8.556818217039108276e-02 -1.045605982653796673e-03
1.952922195196151733e-01 7.315814495086669922e-02 -1.464450173079967499e-02
-8.667901158332824707e-02 8.066045492887496948e-02 2.353624440729618073e-02
3.853254914283752441e-01 4.576944932341575623e-02 2.477259188890457153e-02
3.962739109992980957e-01 5.343987792730331421e-02 5.351787433028221130e-03
1.903206259012222290e-01 1.914978958666324615e-02 2.814488299190998077e-02
-4.487067461013793945e-02 6.871224194765090942e-02 -1.209793798625469208e-02
-5.250388383865356445e-02 6.157168373465538025e-02 3.119892440736293793e-02
5.871698856353759766e-01 2.880641818046569824e-02 -2.641301043331623077e-02
4.850628674030303955e-01 3.283964097499847412e-02 2.291315607726573944e-02
5.242824554443359375e-01 1.716611161828041077e-02 2.997478097677230835e-02
2.582577466964721680e-01 6.554550677537918091e-02 -2.319715730845928192e-02
2.279121875762939453e-01 4.751110076904296875e-02 -3.774626925587654114e-02
-4.085797071456909180e-02 8.530540764331817627e-02 -3.079987131059169769e-03
4.652814567089080811e-01 -8.478503674268722534e-03 2.328515425324440002e-02
2.915343940258026123e-01 6.520962715148925781e-02 -1.539465226233005524e-02
4.813147187232971191e-01 2.610003948211669922e-02 2.990705706179141998e-02
-5.608379840850830078e-03 6.958515942096710205e-02 3.546938672661781311e-02
4.250320494174957275e-01 -5.272161215543746948e-03 2.421381324529647827e-02
6.502510309219360352e-01 -1.643769443035125732e-02 -3.048869222402572632e-02
4.678084850311279297e-01 -6.406106054782867432e-03 -2.469821460545063019e-02
3.889569640159606934e-01 2.900931984186172485e-03 -2.633603475987911224e-02
5.168418288230895996e-01 -3.594402223825454712e-03 3.047865256667137146e-02
5.075720548629760742e-01 -1.418915390968322754e-02 -1.522143464535474777e-02
3.926301002502441406e-01 3.528033941984176636e-02 -4.269249364733695984e-02
5.031971931457519531e-01 -1.371225342154502869e-02 1.711492054164409637e-02
6.643182039260864258e-02 7.108590006828308105e-02 3.314570710062980652e-02
4.855247139930725098e-01 -1.040296629071235657e-02 2.200165577232837677e-02
-6.173801422119140625e-02 8.629070967435836792e-02 2.026397502049803734e-03
1.818696558475494385e-01 6.979056447744369507e-02 2.227684855461120605e-02
6.822438836097717285e-01 -1.122117042541503906e-03 -3.835423663258552551e-02
1.639877557754516602e-01 2.424339577555656433e-02 -1.213199738413095474e-02
1.776428669691085815e-01 4.022084921598434448e-02 4.334392398595809937e-02
6.748076081275939941e-01 6.731485947966575623e-03 -3.669936582446098328e-02
7.648487091064453125e-01 -2.228067815303802490e-02 1.978460000827908516e-03
6.610578298568725586e-01 2.393472939729690552e-03 -3.961040452122688293e-02
8.529156446456909180e-02 3.656632825732231140e-02 3.402492403984069824e-02
2.852141261100769043e-01 1.789053715765476227e-02 -2.882485650479793549e-02
3.355189561843872070e-01 2.250717021524906158e-02 -3.854048252105712891e-02
1.535511463880538940e-01 2.287907339632511139e-02 -4.873353056609630585e-03
3.333649635314941406e-01 6.137875095009803772e-02 -1.482780557125806808e-02
5.966966748237609863e-01 1.413972582668066025e-02 2.131818234920501709e-02
7.435613870620727539e-01 -1.419728994369506836e-02 -3.149999305605888367e-02
-1.198005974292755127e-01 7.847948372364044189e-02 8.184108883142471313e-03
6.190535426139831543e-01 -1.919666305184364319e-02 -2.354164980351924896e-02
5.407491326332092285e-01 3.257001191377639771e-02 -3.209287300705909729e-02
1.796382963657379150e-01 1.757429912686347961e-02 1.849928498268127441e-02
6.057203412055969238e-01 -1.266205310821533203e-02 -3.215443342924118042e-02
1.695117950439453125e-01 2.279337868094444275e-02 3.039686381816864014e-02
4.735499024391174316e-01 7.050925865769386292e-03 3.553062304854393005e-02
7.281109094619750977e-01 6.762983277440071106e-03 -1.880983822047710419e-02
3.483053147792816162e-01 6.020080298185348511e-02 -1.227441243827342987e-02
7.167160511016845703e-03 7.641565799713134766e-02 -1.733226701617240906e-02
2.585055232048034668e-01 4.358908161520957947e-02 -3.923693671822547913e-02
7.172414660453796387e-02 8.101026713848114014e-02 1.561942882835865021e-02
1.755339652299880981e-01 7.606582343578338623e-02 -5.849774926900863647e-03
2.626928091049194336e-01 6.395209580659866333e-02 1.803201623260974884e-02
-5.295839905738830566e-02 8.229246735572814941e-02 2.342790924012660980e-02
5.463625788688659668e-01 2.212315425276756287e-02 -4.159602895379066467e-02
2.695186436176300049e-01 2.053197659552097321e-02 3.972233459353446960e-02
1.373672783374786377e-01 2.979470789432525635e-02 -1.488878298550844193e-02
2.530789971351623535e-01 2.171684801578521729e-02 3.956004977226257324e-02
2.335990667343139648e-01 1.639518141746520996e-02 3.211672231554985046e-02
2.388495206832885742e-02 8.470068126916885376e-02 1.136532332748174667e-02
2.093850374221801758e-01 7.296578586101531982e-02 -1.043973211199045181e-02
5.711145997047424316e-01 3.294606506824493408e-02 -7.537907920777797699e-03
-1.106798350811004639e-01 7.382088154554367065e-02 4.339864011853933334e-03
5.016043186187744141e-01 3.575753420591354370e-02 1.495838724076747894e-02
5.976806879043579102e-01 -2.277322858572006226e-02 -5.983028095215559006e-03
2.837499082088470459e-01 6.285453587770462036e-02 1.537577621638774872e-02
4.046866297721862793e-01 3.545670583844184875e-02 3.267297893762588501e-02
3.042252063751220703e-01 5.380838364362716675e-02 2.761895023286342621e-02
-7.175439596176147461e-02 8.304051309823989868e-02 2.155792899429798126e-02
6.675779819488525391e-01 -2.237061038613319397e-02 -2.226120978593826294e-02
5.651212334632873535e-01 -3.656875342130661011e-03 -3.806803002953529358e-02
1.387327462434768677e-01 6.035020202398300171e-02 -3.166113421320915222e-02
1.258903741836547852e-02 6.766248494386672974e-02 -2.060607075691223145e-02
2.194335907697677612e-01 2.989272028207778931e-02 4.210796579718589783e-02
1.354218721389770508e-01 7.898361980915069580e-02 3.514713840559124947e-03
-1.906216144561767578e-03 7.822935283184051514e-02 2.835918031632900238e-02
5.365505814552307129e-01 -1.867587119340896606e-02 5.459244828671216965e-03
4.042636156082153320e-01 4.733739793300628662e-02 1.839210279285907745e-02
2.510064840316772461e-02 7.624563574790954590e-02 2.967141568660736084e-02
3.193288743495941162e-01 5.909001827239990234e-02 1.512872427701950073e-02
6.651958823204040527e-02 8.185371011495590210e-02 -9.355973452329635620e-03
7.274541854858398438e-01 -2.596832439303398132e-02 -1.732774451375007629e-02
2.313328683376312256e-01 6.184234842658042908e-02 -3.121972829103469849e-02
4.792476296424865723e-01 -1.443645358085632324e-02 5.578071344643831253e-03
5.717337131500244141e-01 1.635644771158695221e-02 -4.228260740637779236e-02
6.177662611007690430e-01 -2.285202220082283020e-02 -1.316919084638357162e-02
-4.419535398483276367e-03 8.631208539009094238e-02 2.353701973333954811e-03
3.026943802833557129e-01 5.957417935132980347e-02 -2.814328111708164215e-02
4.425388872623443604e-01 3.471177443861961365e-02 2.812599763274192810e-02
1.593675762414932251e-01 4.666184633970260620e-02 -3.275051712989807129e-02
2.453946918249130249e-01 5.971143394708633423e-02 2.853169478476047516e-02
5.798702239990234375e-01 -1.783163473010063171e-02 1.641481928527355194e-02
3.280988335609436035e-01 1.709921471774578094e-02 -3.396168723702430725e-02
1.591861844062805176e-01 4.112999886274337769e-02 4.308842122554779053e-02
5.158112049102783203e-01 3.099079802632331848e-02 1.902468688786029816e-02
1.392230540513992310e-01 7.760885357856750488e-02 -1.163070462644100189e-02
4.103786349296569824e-01 2.780487388372421265e-02 -4.374337196350097656e-02
1.103923469781875610e-01 5.506233125925064087e-02 4.158600047230720520e-02
8.415335416793823242e-02 3.327307477593421936e-02 -4.514656495302915573e-03
2.905082106590270996e-01 8.143806830048561096e-03 2.795595489442348480e-02
5.032885074615478516e-01 6.082568317651748657e-03 3.406701236963272095e-02
-1.055557429790496826e-01 8.427090197801589966e-02 1.163697149604558945e-02
3.212782740592956543e-01 6.147909909486770630e-02 -1.972799561917781830e-02
5.575775504112243652e-01 1.351652108132839203e-02 -4.347302019596099854e-02
2.076147049665451050e-01 1.994576305150985718e-02 -1.609150879085063934e-02
5.298913121223449707e-01 3.366581350564956665e-02 -3.261430934071540833e-02
6.585406661033630371e-01 -1.365111395716667175e-02 1.950911618769168854e-02
3.582707345485687256e-01 5.222148448228836060e-02 2.002666704356670380e-02
2.431184053421020508e-03 8.317941427230834961e-02 -9.219804778695106506e-03
4.468416869640350342e-01 4.934397339820861816e-02 -1.267497427761554718e-02
1.353499889373779297e-01 2.301329933106899261e-02 7.006961852312088013e-03
2.730453610420227051e-01 3.649978712201118469e-02 4.241942241787910461e-02
4.855370223522186279e-01 -3.762796521186828613e-03 3.024208731949329376e-02
1.751041412353515625e-01 2.446205914020538330e-02 -1.571528241038322449e-02
5.357459783554077148e-01 2.512944303452968597e-02 2.211201004683971405e-02
-3.878182172775268555e-02 5.147687718272209167e-02 1.992038637399673462e-02
5.736774802207946777e-01 -9.844291955232620239e-03 2.563916519284248352e-02
1.098868697881698608e-01 6.553502380847930908e-02 -2.861772291362285614e-02
6.826183795928955078e-01 1.048905774950981140e-02 -3.183875232934951782e-02
7.334740161895751953e-01 -2.745408937335014343e-02 -9.469671174883842468e-03
3.634683191776275635e-01 5.861314758658409119e-02 -1.255741249769926071e-02
4.626343846321105957e-01 4.750536009669303894e-02 -1.040915306657552719e-02
3.971683382987976074e-01 2.010412700474262238e-02 3.949667513370513916e-02
1.996907293796539307e-01 1.766029000282287598e-02 2.728396654129028320e-02
4.490899443626403809e-01 -9.414773434400558472e-03 -1.353902742266654968e-02
4.676884412765502930e-01 2.764667198061943054e-02 -4.337906092405319214e-02
3.660639524459838867e-01 5.827863514423370361e-02 -2.549684140831232071e-03
4.597000479698181152e-01 -1.289051026105880737e-02 1.289904466830193996e-03
5.410767793655395508e-01 -6.269484758377075195e-03 -3.406015783548355103e-02
-7.972398400306701660e-02 6.085938587784767151e-02 8.084071800112724304e-03
5.056598186492919922e-01 3.926976397633552551e-02 5.686144344508647919e-03
4.305364787578582764e-01 5.132253468036651611e-02 -1.071005407720804214e-02
2.481530010700225830e-01 6.989951431751251221e-02 6.056732963770627975e-04
3.842060565948486328e-01 5.576052889227867126e-02 -1.758933812379837036e-02
3.058482408523559570e-01 1.519459672272205353e-02 -2.899192832410335541e-02
1.988477259874343872e-01 2.260516397655010223e-02 -1.851644180715084076e-02
5.938943624496459961e-01 2.582528442144393921e-02 6.142833735793828964e-03
2.525730729103088379e-01 1.084830053150653839e-02 -8.776814676821231842e-03
4.465454816818237305e-02 8.127721399068832397e-02 1.939066499471664429e-02
5.191158652305603027e-01 4.354547709226608276e-03 -4.092740640044212341e-02
3.484166264533996582e-01 3.372579440474510193e-02 -4.244925826787948608e-02
7.572960853576660156e-01 -1.164771616458892822e-03 -6.258455570787191391e-03
3.208797276020050049e-01 3.307346254587173462e-03 2.368522621691226959e-02
2.479550689458847046e-01 3.493390232324600220e-02 -3.682516142725944519e-02
1.279955506324768066e-01 7.503152638673782349e-02 2.083221264183521271e-02
6.116054058074951172e-01 2.591386064887046814e-02 -2.492337254807353020e-03
2.169597148895263672e-01 1.980036869645118713e-02 3.433820232748985291e-02
9.330523014068603516e-02 7.653682678937911987e-02 2.306253835558891296e-02
2.958913743495941162e-01 5.337255075573921204e-03 -8.039704523980617523e-03
2.919113934040069580e-01 5.521404743194580078e-02 -3.455185517668724060e-02
3.091404438018798828e-01 3.970219939947128296e-02 -4.119202494621276855e-02
9.794452786445617676e-02 8.049788326025009155e-02 1.102962810546159744e-02
3.638037443161010742e-01 -1.949146389961242676e-03 -9.396622888743877411e-03
7.040309906005859375e-02 3.370662406086921692e-02 1.018379116430878639e-03
5.710566043853759766e-01 -2.057160809636116028e-02 7.123929914087057114e-03
4.714404344558715820e-01 4.019592702388763428e-02 -3.342178091406822205e-02
9.417679905891418457e-02 6.631683558225631714e-02 3.597946465015411377e-02
9.513233602046966553e-02 5.843418836593627930e-02 -2.886811271309852600e-02
4.199192523956298828e-01 -9.209491312503814697e-03 -3.860968572553247213e-04
6.454378962516784668e-01 -2.493485063314437866e-02 2.144310390576720238e-03
6.780138611793518066e-01 8.403621613979339600e-04 1.594772189855575562e-02
6.221975088119506836e-01 -8.048016577959060669e-03 -3.721707686781883240e-02
1.259739995002746582e-01 3.162751346826553345e-02 3.514174744486808777e-02
5.761247873306274414e-01 -1.197129115462303162e-02 -3.052570298314094543e-02
6.731091737747192383e-01 -2.535290271043777466e-02 -1.443267706781625748e-02
7.788406014442443848e-01 -1.308453083038330078e-02 -3.095253196079283953e-04
4.543381929397583008e-01 -1.055473461747169495e-02 1.649687439203262329e-02
4.910526871681213379e-01 -2.395037561655044556e-03 -3.342384472489356995e-02
2.868424952030181885e-01 4.149813205003738403e-03 5.743154790252447128e-03
3.586594164371490479e-01 3.977310657501220703e-02 -4.168381914496421814e-02
7.282243967056274414e-01 -3.127776086330413818e-03 -3.356370702385902405e-02
2.218001484870910645e-01 1.652601733803749084e-02 -1.310700643807649612e-02
3.008617162704467773e-01 4.891787841916084290e-02 -3.861539810895919800e-02
4.293982982635498047e-01 4.961244016885757446e-02 4.603617824614048004e-03
3.344447612762451172e-01 5.689756572246551514e-02 1.626692339777946472e-02
1.725301295518875122e-01 1.977285556495189667e-02 -3.374046180397272110e-03
3.829400539398193359e-01 5.219607800245285034e-02 1.385254692286252975e-02
1.081461608409881592e-01 6.438437849283218384e-02 3.679319471120834351e-02
3.327049911022186279e-01 5.884183570742607117e-02 -2.442886866629123688e-02
5.827196836471557617e-01 3.147408366203308105e-02 -1.617879793047904968e-02
1.082735359668731689e-01 7.375975698232650757e-02 2.609428763389587402e-02
5.186114311218261719e-01 -1.763524487614631653e-02 1.829923479817807674e-03
1.885764449834823608e-01 6.860532611608505249e-02 -2.557372301816940308e-02
6.013813018798828125e-01 -1.703753322362899780e-02 1.852041855454444885e-02
3.664358258247375488e-01 4.700547829270362854e-02 -3.733783587813377380e-02
3.068475425243377686e-01 6.349569559097290039e-02 4.933900199830532074e-03
1.421306431293487549e-01 3.469607606530189514e-02 -2.253901213407516479e-02
-1.866513490676879883e-02 8.663586527109146118e-02 8.177099749445915222e-03
4.137410521507263184e-01 2.129356563091278076e-02 3.847789391875267029e-02
2.468202710151672363e-01 2.292945794761180878e-02 -2.822557650506496429e-02
7.242356538772583008e-01 -1.581586152315139771e-02 -3.180524334311485291e-02
2.332977056503295898e-01 2.686920389533042908e-02 -3.000217303633689880e-02
6.583231687545776367e-01 1.496219635009765625e-02 -3.189974650740623474e-02
7.352429628372192383e-01 -1.247698441147804260e-02 1.027887780219316483e-02
5.586376190185546875e-01 -1.811129599809646606e-02 1.370272506028413773e-02
5.203446745872497559e-01 1.789766363799571991e-02 -4.398197308182716370e-02
2.596206665039062500e-01 5.923660844564437866e-02 2.707062475383281708e-02
-4.515895247459411621e-02 7.796046137809753418e-02 2.881861664354801178e-02
7.731270790100097656e-01 -5.937799811363220215e-03 -2.365957759320735931e-02
5.307301878929138184e-01 3.621825948357582092e-02 4.180277697741985321e-03
3.296027183532714844e-01 6.226534768939018250e-02 -3.910203929990530014e-03
4.980712234973907471e-01 1.968410983681678772e-02 -4.418344795703887939e-02
3.272293210029602051e-01 2.037266269326210022e-03 -9.186012670397758484e-03
-2.770602703094482422e-02 5.703116580843925476e-02 3.304643929004669189e-02
6.662409305572509766e-01 -1.338418573141098022e-02 -3.416385129094123840e-02
5.648211240768432617e-01 -1.285430043935775757e-03 2.956590987741947174e-02
2.222198247909545898e-01 3.179955482482910156e-02 -3.239521011710166931e-02
4.600447416305541992e-01 4.188675433397293091e-02 -3.278667479753494263e-02
3.253670632839202881e-01 2.142563462257385254e-04 1.271043322049081326e-03
5.630726814270019531e-01 -2.079019322991371155e-02 -1.011122949421405792e-03
6.471562981605529785e-01 4.580330103635787964e-03 1.926398091018199921e-02
6.323049664497375488e-01 2.362590283155441284e-03 -4.115824028849601746e-02
-8.816358447074890137e-02 7.845012098550796509e-02 -3.677785862237215042e-03
4.843471050262451172e-01 4.399644583463668823e-02 -1.995771005749702454e-02
-6.149023771286010742e-03 4.744382575154304504e-02 -1.563510159030556679e-05
3.132909238338470459e-01 5.709167569875717163e-02 -3.071558289229869843e-02
1.718326956033706665e-01 1.797395572066307068e-02 1.264886837452650070e-02
4.312265813350677490e-01 -9.756002575159072876e-03 -4.759934730827808380e-03
5.049692988395690918e-01 -1.660273596644401550e-02 1.460750936530530453e-03
1.658707410097122192e-01 7.371575385332107544e-02 -1.856221444904804230e-02
2.008343636989593506e-01 4.073600471019744873e-02 -3.474967554211616516e-02
-1.152250170707702637e-02 7.414825260639190674e-02 -1.680159941315650940e-02
2.694775462150573730e-01 6.680387258529663086e-02 -1.689492724835872650e-02
6.381394863128662109e-01 2.313358336687088013e-02 -1.294835377484560013e-02
5.994607806205749512e-01 5.876831710338592529e-04 -4.131190478801727295e-02
3.419367969036102295e-01 5.312476307153701782e-02 -3.298806026577949524e-02
3.462107181549072266e-01 1.704774796962738037e-02 -3.597823902964591980e-02
5.742121934890747070e-01 -2.125630900263786316e-02 -6.089178845286369324e-03
3.086697459220886230e-01 6.368251144886016846e-02 -1.516350731253623962e-02
1.432940214872360229e-01 2.275805547833442688e-02 2.116595208644866943e-02
2.633601725101470947e-01 1.694748550653457642e-02 -2.383455075323581696e-02
5.318611860275268555e-01 -1.848278194665908813e-02 -3.347082529217004776e-03
6.597731113433837891e-01 1.321012899279594421e-02 7.758266758173704147e-03
1.930827647447586060e-01 3.270151093602180481e-02 -2.914925105869770050e-02
-7.865351438522338867e-02 8.164063096046447754e-02 -3.824491752311587334e-03
3.839948773384094238e-02 5.418455600738525391e-02 -2.029350027441978455e-02
1.178683638572692871e-01 8.006478846073150635e-02 5.248323082923889160e-03
-2.811884880065917969e-02 8.518350124359130859e-02 1.668928936123847961e-02
7.106245756149291992e-01 -8.477922528982162476e-04 1.020953059196472168e-02
4.624023139476776123e-01 2.512186579406261444e-02 3.287055343389511108e-02
4.281421005725860596e-01 4.831091314554214478e-02 -2.711708843708038330e-02
7.011749744415283203e-01 1.170681975781917572e-02 -8.587017655372619629e-03
4.570720791816711426e-01 -6.747160106897354126e-03 -2.209261246025562286e-02
3.201101422309875488e-01 2.223981358110904694e-02 -3.695210069417953491e-02
3.757679462432861328e-01 2.189811691641807556e-02 4.031492024660110474e-02
5.779342055320739746e-01 -3.983248025178909302e-04 2.876879461109638214e-02
6.931478977203369141e-01 1.208437047898769379e-02 -2.514792792499065399e-02
-2.262106537818908691e-02 4.878275468945503235e-02 2.198781818151473999e-02
7.424948215484619141e-01 -5.163870751857757568e-03 5.419154185801744461e-03
1.983894705772399902e-01 3.509930148720741272e-02 4.299377277493476868e-02
1.046674847602844238e-01 7.244996726512908936e-02 -2.383438684046268463e-02
6.924555301666259766e-01 -2.120801061391830444e-02 1.158052589744329453e-02
5.554100275039672852e-01 2.396366372704505920e-02 -3.965645283460617065e-02
4.254019260406494141e-01 2.845946699380874634e-03 -3.168192505836486816e-02
7.558386325836181641e-01 -5.939081311225891113e-03 1.977142179384827614e-03
-4.244521260261535645e-02 5.616582930088043213e-02 2.880885265767574310e-02
2.817297279834747314e-01 4.798572510480880737e-02 3.636622801423072815e-02
6.425343751907348633e-01 -2.227101847529411316e-02 -1.964756660163402557e-02
2.579953968524932861e-01 7.517661899328231812e-03 4.802533425390720367e-03
1.490001976490020752e-01 3.876363486051559448e-02 4.219932109117507935e-02
7.643564939498901367e-01 -2.386800199747085571e-02 -2.086773887276649475e-02
4.275892674922943115e-01 3.341152891516685486e-02 -4.261954501271247864e-02
7.000061273574829102e-01 3.319680690765380859e-04 1.175963785499334335e-02
1.605195850133895874e-01 2.014082670211791992e-02 1.930059865117073059e-02
5.228730440139770508e-01 7.422972470521926880e-03 3.286912664771080017e-02
7.251857519149780273e-01 -1.943856477737426758e-02 1.012998260557651520e-02
2.684134840965270996e-01 2.442014589905738831e-02 -3.269269317388534546e-02
3.856195807456970215e-01 5.261159688234329224e-02 -2.729879505932331085e-02
4.434511661529541016e-01 1.603519916534423828e-02 3.740789368748664856e-02
6.142579913139343262e-01 1.706391572952270508e-02 -3.787979111075401306e-02
5.516976714134216309e-01 2.256767265498638153e-02 2.179411984980106354e-02
2.807508707046508789e-01 2.793644554913043976e-02 -3.649906814098358154e-02
5.449070930480957031e-01 -7.078994065523147583e-03 2.797856554388999939e-02
6.254368424415588379e-01 -1.582650467753410339e-02 -2.965844981372356415e-02
5.358334779739379883e-01 1.665962114930152893e-02 2.880635112524032593e-02
1.149451881647109985e-01 2.742739208042621613e-02 -1.194549142383038998e-03
5.676190257072448730e-01 -1.869737729430198669e-02 -1.610672846436500549e-02
7.386084198951721191e-01 -5.915358662605285645e-03 -3.280504792928695679e-02
1.689264178276062012e-01 3.554209321737289429e-02 4.205566644668579102e-02
6.029739975929260254e-02 7.937180250883102417e-02 2.168297953903675079e-02
7.445386648178100586e-01 4.302337765693664551e-04 -2.662807889282703400e-02
2.458240538835525513e-01 6.396577507257461548e-02 -2.763797901570796967e-02
3.446842432022094727e-01 -2.426914870738983154e-04 1.984426006674766541e-02
5.907108783721923828e-01 3.006652183830738068e-02 -7.581923622637987137e-03
1.609486937522888184e-01 6.122040748596191406e-02 3.599130362272262573e-02
6.855516433715820312e-01 -2.598054707050323486e-02 -1.372481044381856918e-02
-1.332509666681289673e-01 -5.900075659155845642e-03 1.255851089954376221e-01
-2.330526113510131836e-01 -6.491983309388160706e-03 3.276845812797546387e-01
-2.762854993343353271e-01 -1.199376769363880157e-02 3.471817374229431152e-01
-2.289427816867828369e-01 1.050857827067375183e-03 2.602590024471282959e-01
-2.203880101442337036e-01 -4.358341544866561890e-02 1.417643874883651733e-01
-2.246667891740798950e-01 -4.935975745320320129e-02 2.296179682016372681e-01
-2.770670354366302490e-01 -3.482427820563316345e-02 3.778156042098999023e-01
-2.066867798566818237e-01 -4.320158809423446655e-02 3.088213205337524414e-01
-1.564711779356002808e-01 -3.846069425344467163e-02 1.514637917280197144e-01
-1.338955760002136230e-01 -2.524258568882942200e-02 1.029555574059486389e-01
-2.172902524471282959e-01 -3.732656687498092651e-02 3.487201035022735596e-01
-2.555346488952636719e-01 -4.973975569009780884e-02 2.360564023256301880e-01
-2.897304296493530273e-01 -6.249520927667617798e-03 2.644677162170410156e-01
-1.469588577747344971e-01 -5.530664697289466858e-03 2.373589277267456055e-01
-1.711764037609100342e-01 -3.654875978827476501e-02 1.108275204896926880e-01
-2.664644420146942139e-01 -9.307533502578735352e-03 3.382705450057983398e-01
-2.161812782287597656e-01 -1.618393324315547943e-02 3.556818962097167969e-01
-1.795274913311004639e-01 -4.444734007120132446e-02 2.233069986104965210e-01
-2.091277241706848145e-01 -2.996876835823059082e-03 1.077675595879554749e-01
-2.934615314006805420e-01 -1.682107150554656982e-02 1.617450565099716187e-01
-2.837961912155151367e-01 -4.394512251019477844e-02 1.946336627006530762e-01
-1.695078015327453613e-01 -1.873751543462276459e-02 6.353773176670074463e-02
-1.921806335449218750e-01 -1.000240445137023926e-05 2.619380354881286621e-01
-2.468814551830291748e-01 -4.328211769461631775e-03 1.376533210277557373e-01
-1.316468864679336548e-01 -1.182099618017673492e-02 9.827060252428054810e-02
-2.043034881353378296e-01 1.410270109772682190e-03 2.537313699722290039e-01
-1.693931072950363159e-01 -4.012828692793846130e-03 2.678688168525695801e-01
-2.917061746120452881e-01 -3.086476773023605347e-02 1.529421359300613403e-01
-2.108046263456344604e-01 -3.101903758943080902e-02 8.233231306076049805e-02
-2.911266684532165527e-01 -4.746516048908233643e-02 2.744368910789489746e-01
-1.908885687589645386e-01 -4.570632055401802063e-02 1.872608810663223267e-01
-2.941869497299194336e-01 -4.655433446168899536e-02 3.000168800354003906e-01
-3.206169009208679199e-01 -3.062697872519493103e-02 3.473599553108215332e-01
-1.951092779636383057e-01 -1.019460801035165787e-02 7.377868890762329102e-02
-2.305456399917602539e-01 -4.633370414376258850e-02 1.677588969469070435e-01
-2.485515922307968140e-01 -4.965809732675552368e-02 2.765059769153594971e-01
-2.986986339092254639e-01 -3.551491349935531616e-02 1.760269999504089355e-01
-1.236939877271652222e-01 -2.350756898522377014e-02 1.240960210561752319e-01
-2.321308106184005737e-01 -4.968801885843276978e-02 2.517923414707183838e-01
-2.363334596157073975e-01 -3.352820873260498047e-03 1.302543133497238159e-01
-2.108485698699951172e-01 -7.120944559574127197e-03 8.966685831546783447e-02
-2.748140692710876465e-01 -1.500819437205791473e-02 1.332259774208068848e-01
-1.407348364591598511e-01 -2.333913929760456085e-02 2.646623849868774414e-01
-2.762185335159301758e-01 -5.481315776705741882e-03 2.978491187095642090e-01
-2.167895287275314331e-01 3.129282966256141663e-03 2.038770616054534912e-01
-2.261696606874465942e-01 2.353118732571601868e-03 1.866194009780883789e-01
-2.687949836254119873e-01 -5.458090454339981079e-03 1.683934777975082397e-01
-1.677881479263305664e-01 -4.238136485219001770e-02 2.090004086494445801e-01
-3.096200227737426758e-01 -1.223511714488267899e-02 2.477355152368545532e-01
-1.812488287687301636e-01 2.265639603137969971e-03 2.164852172136306763e-01
-2.504492402076721191e-01 -1.009529456496238708e-03 2.750353217124938965e-01
-2.564957439899444580e-01 -6.214078515768051147e-03 3.231903016567230225e-01
-2.803517580032348633e-01 -4.193721339106559753e-03 2.298382222652435303e-01
-2.566163837909698486e-01 -1.033380068838596344e-02 1.212944462895393372e-01
-2.285522818565368652e-01 -2.227667719125747681e-04 2.780207991600036621e-01
-1.263671368360519409e-01 -1.377393677830696106e-02 2.189896255731582642e-01
-3.061775267124176025e-01 -2.638339251279830933e-02 3.666217923164367676e-01
-1.712933182716369629e-01 -4.260999336838722229e-02 1.772205233573913574e-01
-1.451401710510253906e-01 -2.087587490677833557e-03 1.361866891384124756e-01
-3.072789013385772705e-01 -4.151866957545280457e-02 2.262116372585296631e-01
-1.685575842857360840e-01 -4.175890237092971802e-02 2.354170382022857666e-01
-1.897718906402587891e-01 -4.805428907275199890e-03 2.958547472953796387e-01
-3.128186464309692383e-01 -1.315402146428823471e-02 2.657136619091033936e-01
-1.873587220907211304e-01 -4.364625364542007446e-02 2.697046399116516113e-01
-1.430603861808776855e-01 -3.596417978405952454e-02 1.912923753261566162e-01
-2.324883341789245605e-01 -3.709258139133453369e-02 1.099921241402626038e-01
-1.697868406772613525e-01 1.440923660993576050e-03 2.103958278894424438e-01
-1.771610379219055176e-01 -4.333735629916191101e-02 2.424916326999664307e-01
-1.636496186256408691e-01 -6.726460531353950500e-03 8.381290733814239502e-02
-2.885934710502624512e-01 -6.550097838044166565e-03 2.806150615215301514e-01
-2.600269615650177002e-01 -4.770796000957489014e-02 3.137711882591247559e-01
-1.368295550346374512e-01 -3.312623500823974609e-02 1.542207598686218262e-01
-1.256402730941772461e-01 -2.814888581633567810e-02 1.839779764413833618e-01
-2.330674380064010620e-01 2.196040004491806030e-04 1.585902273654937744e-01
-2.916246652603149414e-01 -4.544003307819366455e-02 3.226491212844848633e-01
-2.175956666469573975e-01 -1.113353203982114792e-02 8.203311264514923096e-02
-1.459250450134277344e-01 -3.608481958508491516e-03 1.161888316273689270e-01
-2.316254228353500366e-01 1.777583733201026917e-03 2.429517209529876709e-01
-1.793891340494155884e-01 -4.185287654399871826e-02 1.462949067354202271e-01
-3.173444867134094238e-01 -4.148604720830917358e-02 2.986631393432617188e-01
-2.647609114646911621e-01 -4.888343438506126404e-02 2.252073734998703003e-01
-2.511793076992034912e-01 -4.739380627870559692e-02 1.885833442211151123e-01
-2.372077554464340210e-01 -1.477853115648031235e-02 3.615478277206420898e-01
-1.764733940362930298e-01 1.914395019412040710e-03 1.482874155044555664e-01
-2.107973843812942505e-01 -4.589938744902610779e-02 1.653205603361129761e-01
-3.203620314598083496e-01 -1.677282899618148804e-02 2.861375212669372559e-01
-3.173970580101013184e-01 -4.047374427318572998e-02 2.546251118183135986e-01
-2.283745557069778442e-01 -4.246336221694946289e-02 1.355100274085998535e-01
-2.441562116146087646e-01 -7.972536608576774597e-03 3.363983929157257080e-01
-2.375432401895523071e-01 -3.362746909260749817e-02 1.012608408927917480e-01
-1.661175787448883057e-01 -2.972518652677536011e-02 3.046106696128845215e-01
-1.443273276090621948e-01 -1.886470243334770203e-02 2.735487222671508789e-01
-2.103616744279861450e-01 -3.745950013399124146e-02 3.417733609676361084e-01
-1.954235285520553589e-01 -4.567677527666091919e-02 2.618014216423034668e-01
-2.222801893949508667e-01 -5.281772464513778687e-03 3.182954192161560059e-01
-1.756452620029449463e-01 -3.026087209582328796e-02 8.032202720642089844e-02
-2.009631991386413574e-01 -4.703733325004577637e-02 1.965009272098541260e-01
-2.720458209514617920e-01 -2.599513716995716095e-02 3.831505477428436279e-01
-3.238193094730377197e-01 -2.755168452858924866e-02 3.387713432312011719e-01
-1.893463730812072754e-01 -4.577220976352691650e-02 2.368611991405487061e-01
-2.743693888187408447e-01 -7.911265827715396881e-03 3.234793543815612793e-01
-2.148929536342620850e-01 -4.222264885902404785e-02 1.314807534217834473e-01
-3.137485980987548828e-01 -4.023957252502441406e-02 3.301641941070556641e-01
-2.959830760955810547e-01 -7.959662005305290222e-03 2.735174596309661865e-01
-2.768604159355163574e-01 -1.018267218023538589e-02 3.368036746978759766e-01
-1.707103699445724487e-01 -3.878863155841827393e-02 2.752352058887481689e-01
-1.784917712211608887e-01 1.341214403510093689e-03 2.293256521224975586e-01
-2.281006127595901489e-01 -1.214306987822055817e-02 3.507485389709472656e-01
-3.100645840167999268e-01 -1.356676407158374786e-02 3.037072718143463135e-01
-2.134385406970977783e-01 1.863632351160049438e-03 2.496437281370162964e-01
