6.852053403854370117e-01 -2.534519508481025696e-02 -8.299605548381805420e-02
6.844857335090637207e-01 -9.582099318504333496e-02 4.438422620296478271e-03
-3.949328064918518066e-01 -4.216946661472320557e-03 -6.210651993751525879e-02
1.233882382512092590e-01 -1.056626439094543457e-01 -5.237177759408950806e-02
1.113869994878768921e-01 -9.239731729030609131e-02 5.841445550322532654e-02
1.778607666492462158e-01 -1.038683205842971802e-01 -5.563293397426605225e-02
-3.136524260044097900e-01 1.232304796576499939e-02 -2.890838310122489929e-02
1.731159687042236328e-01 -5.899846181273460388e-02 7.052759826183319092e-02
-2.143741250038146973e-01 -1.763012260198593140e-03 -8.898386359214782715e-02
-5.055020451545715332e-01 -5.154987424612045288e-02 -5.085777863860130310e-02
-4.511267542839050293e-01 -7.719680666923522949e-02 -3.746777400374412537e-02
5.303038954734802246e-01 -1.033002734184265137e-01 -3.056998923420906067e-02
-4.747793078422546387e-02 -6.519123911857604980e-02 6.414160132408142090e-02
2.751285135746002197e-01 2.883260324597358704e-02 -2.486867830157279968e-03
7.290397882461547852e-01 -2.065279148519039154e-02 3.434218466281890869e-02
6.791812181472778320e-01 -5.738398060202598572e-02 4.997793212532997131e-02
2.496281266212463379e-01 -4.792982339859008789e-02 -1.051130890846252441e-01
5.303037166595458984e-01 1.087906211614608765e-02 2.076237276196479797e-02
-4.165589213371276855e-01 -4.497040063142776489e-03 -1.074832398444414139e-02
5.579739809036254883e-01 -1.412762142717838287e-02 -9.395770728588104248e-02
6.444254517555236816e-02 3.099173679947853088e-02 -6.120686233043670654e-02
4.573902189731597900e-01 -1.098997145891189575e-01 -1.984388008713722229e-02
6.767747998237609863e-01 1.058739423751831055e-02 -6.077624857425689697e-02
1.588609218597412109e-01 -1.041908413171768188e-01 4.701999947428703308e-02
-4.554146528244018555e-02 -3.967326134443283081e-03 4.029926285147666931e-02
1.897276937961578369e-02 -9.968814253807067871e-02 -6.113950535655021667e-02
7.486570477485656738e-01 -8.799962699413299561e-02 -1.504734810441732407e-02
1.096377223730087280e-01 -4.450026899576187134e-03 -1.058724075555801392e-01
1.442903131246566772e-01 -8.054677397012710571e-02 -8.605004847049713135e-02
-1.561697125434875488e-01 -2.343888953328132629e-02 -1.012867689132690430e-01
-1.166358590126037598e-03 -1.096712350845336914e-01 3.207709640264511108e-02
3.016580045223236084e-01 1.800721511244773865e-02 2.058679610490798950e-02
-1.522345542907714844e-01 2.411375567317008972e-02 -2.469246834516525269e-02
-1.510256528854370117e-01 2.224166318774223328e-02 -6.099308654665946960e-02
2.794586420059204102e-01 3.136092051863670349e-02 -6.353637576103210449e-02
-3.210093080997467041e-02 -5.295784026384353638e-02 6.505525112152099609e-02
5.199289321899414062e-02 -5.446548014879226685e-02 -1.028366684913635254e-01
3.337455987930297852e-01 -7.478795945644378662e-03 5.010417476296424866e-02
-2.162699401378631592e-02 -1.142504364252090454e-01 -2.138647623360157013e-02
4.162520766258239746e-01 -2.480982989072799683e-02 5.946948751807212830e-02
2.034840136766433716e-01 2.123765647411346436e-03 -1.029527634382247925e-01
1.095181182026863098e-01 -1.891227252781391144e-02 -1.094554513692855835e-01
-2.189734876155853271e-01 -1.934674754738807678e-02 4.029025882482528687e-02
6.931763887405395508e-01 -9.488727152347564697e-02 -1.025024615228176117e-02
8.475522398948669434e-01 -3.062956780195236206e-02 -5.537934973835945129e-02
6.122940778732299805e-02 -1.177239120006561279e-01 -2.666670829057693481e-03
-3.340937495231628418e-01 -7.606802880764007568e-02 3.549075871706008911e-02
-1.282886564731597900e-01 -9.038571268320083618e-03 -9.955996274948120117e-02
3.917014598846435547e-01 -2.044155076146125793e-02 -1.048953533172607422e-01
4.097358882427215576e-01 2.044500038027763367e-02 1.230339705944061279e-02
-1.384955644607543945e-02 2.696168050169944763e-02 -9.172830730676651001e-03
-2.345311045646667480e-01 1.362485811114311218e-02 -6.733192503452301025e-02
-3.762193918228149414e-01 3.233633935451507568e-03 -1.720407605171203613e-02
3.155263960361480713e-01 -2.331759780645370483e-03 4.587777331471443176e-02
1.623611152172088623e-01 2.223053202033042908e-02 1.281009241938591003e-02
-4.178050160408020020e-01 -3.324583172798156738e-03 -5.218918994069099426e-02
-4.837450385093688965e-02 1.549489051103591919e-02 1.476098969578742981e-02
3.151459693908691406e-01 2.241021767258644104e-02 1.215771958231925964e-02
7.168503403663635254e-01 -9.173563867807388306e-02 -1.512348745018243790e-02
-4.795101284980773926e-02 -3.766239807009696960e-02 -1.056165099143981934e-01
3.871277570724487305e-01 -4.910507425665855408e-02 6.792561709880828857e-02
6.059426069259643555e-01 -1.800925284624099731e-02 4.523365572094917297e-02
-1.854451298713684082e-01 -5.928745120763778687e-02 5.604725703597068787e-02
2.217100262641906738e-01 -1.181242167949676514e-01 5.118232220411300659e-04
8.000073581933975220e-02 -1.164878457784652710e-01 1.561532169580459595e-02
1.632487773895263672e-01 -3.524199128150939941e-02 -1.091879308223724365e-01
2.625717520713806152e-01 -8.186709880828857422e-02 -8.327339589595794678e-02
8.606191277503967285e-01 -8.260510861873626709e-03 -2.612398564815521240e-02
7.333552241325378418e-01 -5.483275279402732849e-02 -6.883599609136581421e-02
1.856685429811477661e-01 -1.111024320125579834e-01 3.525662049651145935e-02
4.534415304660797119e-01 2.340505644679069519e-02 -7.082413136959075928e-02
5.988482236862182617e-01 -1.015423387289047241e-01 1.647147536277770996e-02
-3.942493796348571777e-01 -6.885099411010742188e-02 2.924729138612747192e-02
2.630248665809631348e-01 -1.121132373809814453e-01 3.136657550930976868e-02
-2.310585379600524902e-01 -1.033798158168792725e-01 -2.942428365349769592e-02
-2.575399875640869141e-01 -9.495499730110168457e-02 2.860970050096511841e-02
-1.626419425010681152e-01 1.385384425520896912e-02 5.978804081678390503e-03
3.565004467964172363e-02 -6.175494194030761719e-02 -9.892223775386810303e-02
-2.237198948860168457e-01 -6.872384995222091675e-02 -8.273933827877044678e-02
5.408294200897216797e-01 -1.074708700180053711e-01 -1.227276399731636047e-03
6.577434539794921875e-01 -6.062468886375427246e-02 -7.493598759174346924e-02
-4.424669742584228516e-01 -1.430715993046760559e-02 -6.130001321434974670e-02
-3.967055678367614746e-01 -6.398773193359375000e-02 -6.664779782295227051e-02
5.103362202644348145e-01 1.775705441832542419e-02 -7.486904412508010864e-02
2.628715932369232178e-01 -1.697191037237644196e-02 5.781340971589088440e-02
-2.604123651981353760e-01 -2.199894748628139496e-02 -9.324610233306884766e-02
4.283612966537475586e-02 -1.153066456317901611e-01 -2.257615141570568085e-02
-9.291923046112060547e-02 -1.129655987024307251e-01 -1.548850722610950470e-02
-3.555300831794738770e-01 -4.774038493633270264e-02 -8.131134510040283203e-02
8.353124856948852539e-01 -6.086008623242378235e-02 -4.356285929679870605e-02
6.084575653076171875e-01 -5.492842942476272583e-02 -8.352589607238769531e-02
-7.828581333160400391e-02 2.829048410058021545e-02 -5.003632605075836182e-02
2.797631621360778809e-01 -7.084991782903671265e-02 -9.220087528228759766e-02
5.935401916503906250e-01 1.204150915145874023e-02 1.231957972049713135e-02
-3.445904850959777832e-01 -9.658199548721313477e-02 -3.073081374168395996e-03
5.112607479095458984e-01 -1.025393605232238770e-01 -3.600696474313735962e-02
4.936863780021667480e-01 -7.595522701740264893e-02 6.003920361399650574e-02
3.983339369297027588e-01 3.167279437184333801e-02 -2.254303358495235443e-02
7.042035460472106934e-02 -3.820887207984924316e-02 6.567463278770446777e-02
4.684067070484161377e-01 3.583889454603195190e-03 -9.279964864253997803e-02
4.405302405357360840e-01 2.778945490717887878e-02 -6.116510555148124695e-02
-3.249655961990356445e-01 -2.390597015619277954e-03 9.160194545984268188e-03
7.227720320224761963e-02 9.259123355150222778e-03 -9.728233516216278076e-02
3.130099773406982422e-01 -1.135451495647430420e-01 2.419270575046539307e-02
-3.890396952629089355e-01 -1.018383726477622986e-02 7.569389417767524719e-03
4.042494297027587891e-02 -1.163942366838455200e-01 1.231158152222633362e-02
8.655731081962585449e-01 -1.730223558843135834e-02 -4.424774646759033203e-02
-2.865087985992431641e-01 -4.469977319240570068e-02 -8.965566754341125488e-02
-2.190144956111907959e-01 -8.713850378990173340e-02 4.260641708970069885e-02
7.499800324440002441e-01 4.150740802288055420e-03 -5.545057356357574463e-04
-3.757169246673583984e-01 -3.176502883434295654e-03 -6.027016788721084595e-04
-6.745490431785583496e-02 -1.136546432971954346e-01 1.046741940081119537e-02
4.629412293434143066e-01 -1.093026548624038696e-01 2.006553113460540771e-02
-1.768539845943450928e-01 -6.711710244417190552e-03 -9.521059691905975342e-02
3.534624576568603516e-01 2.783459797501564026e-02 -2.403518185019493103e-03
7.260888814926147461e-03 2.654268965125083923e-02 -5.563454702496528625e-03
-2.660164833068847656e-01 -2.041659317910671234e-02 3.628551587462425232e-02
7.028427720069885254e-02 3.042488172650337219e-02 -1.323437970131635666e-02
4.334761500358581543e-01 1.532436534762382507e-02 -8.477827906608581543e-02
7.144824862480163574e-01 -8.723388612270355225e-02 -3.225520253181457520e-02
-6.986588239669799805e-02 -8.402989804744720459e-02 5.687128379940986633e-02
5.151623487472534180e-01 -2.564788237214088440e-02 -9.843026101589202881e-02
3.372541069984436035e-02 -1.035719811916351318e-01 -5.480440706014633179e-02
1.487829089164733887e-01 3.482068702578544617e-02 -4.196699336171150208e-02
7.660745829343795776e-02 -1.168521493673324585e-01 -1.611614972352981567e-02
8.802825808525085449e-01 -1.534918881952762604e-02 -9.843391366302967072e-03
-1.327480971813201904e-01 -3.863501548767089844e-02 -1.018656045198440552e-01
6.126455068588256836e-01 2.137515321373939514e-02 -4.677250981330871582e-02
8.317244648933410645e-01 -7.056426256895065308e-02 -3.003966808319091797e-02
4.167516827583312988e-01 -7.882094383239746094e-02 -8.006139844655990601e-02
5.096957087516784668e-03 1.813344657421112061e-02 1.385789737105369568e-02
2.090229690074920654e-01 1.955957338213920593e-02 -8.811497688293457031e-02
-5.428740382194519043e-01 -3.722815215587615967e-02 -1.698854006826877594e-02
4.758188128471374512e-01 -2.475666999816894531e-02 5.715246871113777161e-02
-5.877766013145446777e-02 -1.099830567836761475e-01 -3.437889739871025085e-02
-3.919661045074462891e-02 -1.448387652635574341e-02 -1.054897755384445190e-01
-3.818675279617309570e-01 -8.093746006488800049e-02 -5.008769407868385315e-02
-4.455146193504333496e-01 -4.791969805955886841e-02 -6.741152703762054443e-02
3.543846011161804199e-01 -1.148650348186492920e-01 1.247051730751991272e-02
5.301225185394287109e-02 2.372834458947181702e-02 5.332898348569869995e-03
1.120977252721786499e-01 1.891332119703292847e-02 -8.834381401538848877e-02
5.100205540657043457e-02 9.875468909740447998e-03 -9.622998535633087158e-02
3.241369128227233887e-02 3.278697654604911804e-02 -3.742510452866554260e-02
-3.604289293289184570e-01 -8.408190310001373291e-02 2.391208708286285400e-02
-1.982589960098266602e-01 1.676201447844505310e-02 -6.699323654174804688e-03
-5.029891729354858398e-01 -3.642763197422027588e-02 -5.524566024541854858e-02
-2.749322056770324707e-01 -6.844301521778106689e-02 -7.846964895725250244e-02
1.284129619598388672e-01 1.961919665336608887e-02 1.690102368593215942e-02
-1.981173157691955566e-01 -8.540941774845123291e-02 4.613685235381126404e-02
2.509361207485198975e-01 -6.190698221325874329e-02 7.051400840282440186e-02
2.041627466678619385e-02 -5.556774139404296875e-02 -1.017827242612838745e-01
-9.075468778610229492e-02 3.025282174348831177e-03 2.978037297725677490e-02
-1.302500367164611816e-01 -1.332518458366394043e-02 4.308370873332023621e-02
-5.144422650337219238e-01 -2.877795323729515076e-02 -4.785782098770141602e-02
2.607229948043823242e-01 3.257229551672935486e-02 -1.576384529471397400e-02
3.879194259643554688e-01 -1.487109810113906860e-02 5.441801622509956360e-02
6.545296907424926758e-01 1.792460680007934570e-02 -4.665869474411010742e-02
1.979455351829528809e-01 -1.933805644512176514e-03 4.595790430903434753e-02
3.401739299297332764e-01 3.389217332005500793e-02 -3.245501220226287842e-02
-6.870695948600769043e-02 2.815986797213554382e-02 -2.392663061618804932e-02
-4.645590484142303467e-02 -7.688207924365997314e-02 -8.610695600509643555e-02
4.889964461326599121e-01 -4.240126907825469971e-02 6.299068033695220947e-02
3.865373134613037109e-01 -1.140261739492416382e-01 -1.124763675034046173e-02
5.412213206291198730e-01 -9.920528531074523926e-02 3.435067832469940186e-02
-1.194427907466888428e-01 2.485902234911918640e-02 -1.885307766497135162e-02
4.378477632999420166e-01 -3.270055353641510010e-02 -1.024893224239349365e-01
2.469268441200256348e-02 -1.152011007070541382e-01 1.711095869541168213e-02
1.222890317440032959e-01 -7.135733217000961304e-02 6.844565272331237793e-02
3.690119981765747070e-01 2.595381811261177063e-02 -7.267842441797256470e-02
-6.706428527832031250e-02 -9.252663701772689819e-02 -6.827000528573989868e-02
7.742123603820800781e-01 -8.528466522693634033e-02 3.576409071683883667e-04
-1.522617042064666748e-01 -9.207555651664733887e-02 -6.352448463439941406e-02
3.392895460128784180e-01 -1.160762608051300049e-01 2.483073621988296509e-04
1.777130663394927979e-01 -7.565995305776596069e-02 6.790129840373992920e-02
2.728845775127410889e-01 -1.087094843387603760e-01 -4.294739291071891785e-02
-4.387028813362121582e-01 -8.415205776691436768e-02 -6.095095537602901459e-03
2.241314947605133057e-01 1.514926552772521973e-03 4.268638044595718384e-02
5.191540718078613281e-01 -1.083435416221618652e-01 -9.135653264820575714e-03
2.179681807756423950e-01 -4.186541587114334106e-02 -1.074224710464477539e-01
-4.922096133232116699e-01 -1.454904489219188690e-02 -3.023682348430156708e-02
1.818110048770904541e-02 2.226592227816581726e-02 6.367867812514305115e-03
-6.151892244815826416e-02 -6.656549125909805298e-02 -9.337235987186431885e-02
8.624258041381835938e-01 -1.269780471920967102e-02 -4.727821797132492065e-03
-4.198011755943298340e-02 8.982591331005096436e-03 -9.326140582561492920e-02
8.494525551795959473e-01 -4.834784939885139465e-02 2.338014170527458191e-02
6.240237951278686523e-01 -9.677778184413909912e-02 -3.020213916897773743e-02
7.170274257659912109e-01 -8.247300982475280762e-02 3.032993525266647339e-02
1.553805768489837646e-01 -1.180092394351959229e-01 8.347796276211738586e-03
4.506305158138275146e-01 -1.033098846673965454e-01 -4.199933260679244995e-02
-4.065855741500854492e-01 -8.760815858840942383e-02 -2.683554962277412415e-02
-2.892569005489349365e-01 -1.014279201626777649e-01 2.081688493490219116e-03
5.081087946891784668e-01 -5.440824478864669800e-02 -9.182862937450408936e-02
-1.084841787815093994e-02 1.701290160417556763e-02 1.483596861362457275e-02
7.992441654205322266e-01 -4.898178204894065857e-02 -6.108337268233299255e-02
-5.226023197174072266e-01 -6.471440196037292480e-02 -2.325441129505634308e-02
4.217650890350341797e-01 -5.124878138303756714e-02 -9.823077917098999023e-02
5.904624462127685547e-01 2.207627519965171814e-02 -5.125690251588821411e-02
7.120178341865539551e-01 -6.107664108276367188e-02 -6.766369938850402832e-02
2.952897250652313232e-01 -4.342349991202354431e-02 6.873537600040435791e-02
1.612071245908737183e-01 -2.231974527239799500e-02 6.060096994042396545e-02
-3.256506323814392090e-01 8.996002376079559326e-03 -1.701216399669647217e-02
9.381748735904693604e-02 -8.354549109935760498e-02 -8.300115168094635010e-02
3.281530737876892090e-01 -5.835003405809402466e-02 -9.864231944084167480e-02
2.895780503749847412e-01 1.126737520098686218e-02 3.091380372643470764e-02
6.969839930534362793e-01 -2.617689594626426697e-02 4.160843417048454285e-02
3.764238953590393066e-02 2.474517747759819031e-02 1.890780404210090637e-03
-3.919585943222045898e-01 -2.259202301502227783e-04 -1.260416395962238312e-02
3.220635056495666504e-01 -1.033337116241455078e-01 4.574326798319816589e-02
2.461627721786499023e-01 -1.025131717324256897e-01 4.890143498778343201e-02
-4.528890252113342285e-01 -4.066833108663558960e-02 1.929476857185363770e-02
-3.152973949909210205e-02 2.960072830319404602e-02 -5.426755174994468689e-02
-3.110025525093078613e-01 -7.129581272602081299e-02 -7.225279510021209717e-02
7.466672658920288086e-01 -4.104694724082946777e-02 -7.306312769651412964e-02
-7.932877540588378906e-02 -4.558969289064407349e-03 3.883057832717895508e-02
-2.675707638263702393e-01 4.962760955095291138e-03 7.124854251742362976e-03
-2.683229744434356689e-02 1.942325010895729065e-02 9.014004841446876526e-03
4.243504405021667480e-01 2.268769964575767517e-02 -7.487406581640243530e-02
5.631308555603027344e-01 -1.025593504309654236e-01 2.261747047305107117e-02
6.931346654891967773e-01 -5.289102718234062195e-02 -7.540570199489593506e-02
8.175169229507446289e-01 -3.729459643363952637e-02 2.895540744066238403e-02
5.699443817138671875e-02 -1.131106019020080566e-01 -3.224605321884155273e-02
-8.983767032623291016e-02 -6.894509494304656982e-02 -9.061537683010101318e-02
-3.093591630458831787e-01 1.001697033643722534e-02 -1.463818456977605820e-02
3.495715558528900146e-01 -9.572196006774902344e-02 -6.350514292716979980e-02
-3.696243166923522949e-01 -5.239763110876083374e-02 -7.767688482999801636e-02
1.459245830774307251e-01 -6.020576506853103638e-02 -1.006750613451004028e-01
2.237588465213775635e-01 -9.525330364704132080e-02 -6.861187517642974854e-02
5.807802677154541016e-01 -1.047576814889907837e-01 2.997267991304397583e-03
3.534655272960662842e-01 -1.067879199981689453e-01 -4.273989051580429077e-02
-1.700922846794128418e-03 2.988918498158454895e-02 -1.955296099185943604e-02
7.994921207427978516e-01 -4.894338548183441162e-02 3.392308577895164490e-02
2.441062927246093750e-01 2.665545418858528137e-02 -7.652689516544342041e-02
-4.401855468750000000e-01 -3.099187277257442474e-02 -7.037447392940521240e-02
7.674303650856018066e-02 -5.958957970142364502e-02 -1.006792634725570679e-01
-7.898589968681335449e-02 -9.638093411922454834e-02 4.667446389794349670e-02
-3.571777045726776123e-02 -9.499578922986984253e-02 -6.627742946147918701e-02
-2.641627788543701172e-01 -1.028795093297958374e-01 6.526608020067214966e-03
5.677531361579895020e-01 2.232079580426216125e-02 -5.629980191588401794e-02
6.563733816146850586e-01 1.002141088247299194e-02 -6.585799902677536011e-02
-6.754964590072631836e-03 -8.490167558193206787e-02 -7.972460985183715820e-02
-1.093911528587341309e-01 -8.928447216749191284e-02 5.086145177483558655e-02
6.885938048362731934e-01 -1.475346274673938751e-02 3.484634310007095337e-02
3.315984010696411133e-01 -6.458431482315063477e-02 6.923887133598327637e-02
3.174971938133239746e-01 -4.879586398601531982e-02 6.938488781452178955e-02
7.463691830635070801e-01 -6.141391396522521973e-02 4.053776711225509644e-02
8.902460336685180664e-01 -2.462010271847248077e-02 -3.903280943632125854e-02
2.683637738227844238e-01 -4.184035956859588623e-02 -1.066135764122009277e-01
-2.028951048851013184e-01 9.255502372980117798e-03 9.338140487670898438e-03
-2.677070796489715576e-01 1.559314131736755371e-02 -5.193276330828666687e-02
7.132464051246643066e-01 -4.045163467526435852e-02 4.526700451970100403e-02
3.708948194980621338e-01 1.541715860366821289e-02 2.297419309616088867e-02
-4.654883742332458496e-01 -1.312359608709812164e-02 -1.114818081259727478e-02
-4.143818616867065430e-01 -2.988677844405174255e-02 2.161813899874687195e-02
5.775004625320434570e-01 -9.048146009445190430e-02 -5.181658267974853516e-02
-3.078573942184448242e-01 4.630003124475479126e-03 -6.931933015584945679e-02
2.056270390748977661e-01 -3.145299106836318970e-02 -1.094098836183547974e-01
3.729134202003479004e-01 -2.511980757117271423e-02 6.085300818085670471e-02
5.095238685607910156e-01 -6.430466473102569580e-02 6.257687509059906006e-02
6.701967716217041016e-01 5.441479384899139404e-03 1.338964700698852539e-02
6.478222012519836426e-01 -9.760897606611251831e-02 1.513072848320007324e-02
-3.049820661544799805e-04 1.195327937602996826e-02 -9.249591827392578125e-02
-4.067425429821014404e-02 2.130451425909996033e-02 -7.769152522087097168e-02
7.358579039573669434e-01 9.876623749732971191e-03 -4.392503201961517334e-02
2.925093472003936768e-01 -1.164918094873428345e-01 1.124080270528793335e-02
-3.076665699481964111e-01 1.300973445177078247e-02 -4.354491084814071655e-02
5.392559766769409180e-01 -8.551852405071258545e-02 -6.342193484306335449e-02
1.568363904953002930e-01 -1.010097563266754150e-01 -6.077859178185462952e-02
5.012717843055725098e-02 -9.658613801002502441e-02 -6.671179085969924927e-02
2.162434756755828857e-01 -7.740303874015808105e-03 5.115825310349464417e-02
2.343713939189910889e-01 -1.076041609048843384e-01 4.155477881431579590e-02
7.333614826202392578e-01 1.137260720133781433e-02 -2.085139602422714233e-02
3.260327875614166260e-02 2.662629261612892151e-02 -7.210534811019897461e-02
7.641158103942871094e-01 -5.230578035116195679e-02 -6.552763283252716064e-02
3.040225505828857422e-01 -7.353657484054565430e-02 6.788572669029235840e-02
7.147141695022583008e-01 -7.232136279344558716e-02 -5.674643442034721375e-02
1.916905194520950317e-01 -1.023064702749252319e-01 4.958782717585563660e-02
1.129924803972244263e-01 3.133843466639518738e-02 -6.320372968912124634e-02
2.368008047342300415e-01 -1.142780780792236328e-01 -2.801745012402534485e-02
5.859298706054687500e-01 -2.891840972006320953e-02 5.286574736237525940e-02
-6.043115258216857910e-02 2.549419179558753967e-02 -1.027677487581968307e-02
5.112162232398986816e-02 -8.513845503330230713e-02 -8.082903921604156494e-02
-1.402656137943267822e-01 -6.976427137851715088e-02 -8.753219246864318848e-02
1.392949819564819336e-01 -1.131619215011596680e-01 2.996794506907463074e-02
-1.298142373561859131e-01 -1.121663153171539307e-01 -3.765175119042396545e-03
3.701731562614440918e-02 3.161187097430229187e-02 -2.297937311232089996e-02
6.225280761718750000e-01 -6.022287905216217041e-02 5.512395873665809631e-02
-2.043576836585998535e-01 -1.739198528230190277e-02 4.021005332469940186e-02
4.618366360664367676e-01 -8.816118538379669189e-02 -6.677400320768356323e-02
9.059577435255050659e-02 -7.221494615077972412e-02 6.763499975204467773e-02
9.094466567039489746e-01 -2.444679662585258484e-02 -2.053439803421497345e-02
-1.804761886596679688e-01 1.086279377341270447e-02 -8.008646219968795776e-02
8.132441043853759766e-01 -6.558270752429962158e-02 -4.412405937910079956e-02
4.047523736953735352e-01 -3.409047424793243408e-02 6.383155286312103271e-02
-2.141514122486114502e-01 -1.029075682163238525e-01 -3.466085344552993774e-02
4.675227403640747070e-02 -2.764136902987957001e-02 -1.090316176414489746e-01
6.144516468048095703e-01 -3.439398109912872314e-02 -8.993305265903472900e-02
1.627453416585922241e-01 -7.016168534755706787e-02 6.922183930873870850e-02
2.973942458629608154e-02 7.213126868009567261e-03 -9.771840274333953857e-02
-3.597173690795898438e-01 -9.255400300025939941e-02 -2.943109348416328430e-02
2.009347677230834961e-01 -1.002719402313232422e-01 -6.152411922812461853e-02
2.160991430282592773e-01 -9.674134105443954468e-02 5.552788451313972473e-02
-2.873576581478118896e-01 3.009095788002014160e-03 -7.532282918691635132e-02
4.360998272895812988e-01 -2.816502004861831665e-03 -9.829404950141906738e-02
-3.292478919029235840e-01 -8.703623712062835693e-02 -5.017202347517013550e-02
3.192439675331115723e-01 2.180985733866691589e-02 -8.255517482757568359e-02
-3.307052850723266602e-01 -6.263025104999542236e-02 4.095895588397979736e-02
9.196588397026062012e-02 -1.024101525545120239e-01 -5.815768986940383911e-02
-7.787618041038513184e-02 -7.735820114612579346e-02 -8.444634079933166504e-02
3.726505935192108154e-01 -8.039306849241256714e-03 4.970859363675117493e-02
4.937499761581420898e-01 3.324240446090698242e-03 3.358618542551994324e-02
-9.447181224822998047e-02 -1.038226187229156494e-01 -4.732972756028175354e-02
7.775459289550781250e-01 2.223588526248931885e-03 -4.859096556901931763e-02
8.444297313690185547e-01 -1.808108203113079071e-02 1.032553799450397491e-02
1.885319650173187256e-01 9.274143725633621216e-03 -9.838135540485382080e-02
7.633374929428100586e-01 -8.242383599281311035e-02 1.800308749079704285e-02
6.774768829345703125e-01 -9.373488277196884155e-02 -2.450726553797721863e-02
-3.493014574050903320e-01 8.737571537494659424e-03 -3.118290752172470093e-02
8.643695712089538574e-01 -6.139916181564331055e-02 -3.265099972486495972e-02
4.846453368663787842e-01 -8.576492965221405029e-02 -6.799859553575515747e-02
7.969611883163452148e-01 -7.949145138263702393e-02 1.091895438730716705e-02
7.298032045364379883e-01 -4.123120754957199097e-02 -7.541820406913757324e-02
-4.708803296089172363e-01 -6.485789269208908081e-02 -5.016472935676574707e-02
5.146631002426147461e-01 -1.059750765562057495e-01 2.198521420359611511e-02
9.101749658584594727e-01 -5.019867047667503357e-02 -3.242658451199531555e-03
5.845561027526855469e-01 -8.027552068233489990e-02 5.081523582339286804e-02
5.658572912216186523e-02 3.311033919453620911e-02 -4.683902487158775330e-02
-6.851968169212341309e-02 -4.187100008130073547e-02 6.139734759926795959e-02
-6.671753525733947754e-02 1.645160838961601257e-02 1.145421341061592102e-02
3.980669379234313965e-01 -4.240456223487854004e-02 -1.023858040571212769e-01
3.289032578468322754e-01 2.896900847554206848e-02 -4.643823020160198212e-03
-3.829960823059082031e-01 -1.704074628651142120e-02 -7.633374631404876709e-02
7.429189682006835938e-01 -4.800215363502502441e-03 -6.684495508670806885e-02
3.907015323638916016e-01 2.996548637747764587e-02 -5.986761674284934998e-02
-6.149975955486297607e-02 -7.203428447246551514e-02 6.213546916842460632e-02
5.988239049911499023e-01 -7.675987482070922852e-02 -6.751944124698638916e-02
5.102952718734741211e-01 2.681817486882209778e-02 -5.227782949805259705e-02
6.192082166671752930e-01 -9.436172246932983398e-02 3.083696588873863220e-02
5.271015167236328125e-01 -6.924778968095779419e-02 6.036965176463127136e-02
7.438223958015441895e-01 -8.853231370449066162e-02 7.455937564373016357e-03
3.284421563148498535e-01 -1.143878847360610962e-01 -1.997937262058258057e-02
-9.450367093086242676e-02 -5.620288848876953125e-02 -9.789884090423583984e-02
3.504244685173034668e-01 -4.161039367318153381e-02 -1.044374257326126099e-01
-4.999968409538269043e-01 -1.978453062474727631e-02 -1.494710706174373627e-02
3.106718659400939941e-01 -1.083597689867019653e-01 -4.179967194795608521e-02
-2.296678125858306885e-01 -9.141297638416290283e-02 -5.719304829835891724e-02
1.393356919288635254e-02 -3.296743333339691162e-02 -1.080180555582046509e-01
4.932905733585357666e-01 -1.185035705566406250e-02 -9.809876978397369385e-02
1.935344636440277100e-01 -6.191052496433258057e-02 -9.948454797267913818e-02
5.435607433319091797e-01 -2.980923838913440704e-02 5.602112784981727600e-02
6.634358763694763184e-01 -5.337091535329818726e-02 5.190055444836616516e-02
-1.286353170871734619e-02 -6.186613067984580994e-02 -9.777918457984924316e-02
-4.236270189285278320e-01 -7.988192886114120483e-02 -4.139868170022964478e-02
1.077239066362380981e-01 3.113646432757377625e-02 -1.323156524449586868e-02
7.131348848342895508e-01 1.405514776706695557e-02 -3.013341873884201050e-02
1.340401470661163330e-01 -1.181751042604446411e-01 -6.970112212002277374e-03
-3.898333311080932617e-01 -2.385327965021133423e-02 2.176572009921073914e-02
-6.744581460952758789e-02 -1.350845023989677429e-02 4.726617410778999329e-02
-1.610035300254821777e-01 5.789574235677719116e-03 1.993617042899131775e-02
3.144186139106750488e-01 -3.940309211611747742e-02 -1.060937345027923584e-01
-1.619907319545745850e-01 -1.004898101091384888e-01 -4.807507246732711792e-02
7.397240400314331055e-02 -2.032111212611198425e-02 5.772523954510688782e-02
5.048634409904479980e-01 -9.916105866432189941e-02 3.890790417790412903e-02
-3.297367691993713379e-01 3.371685743331909180e-03 -6.661406159400939941e-02
5.793319940567016602e-01 -4.614762589335441589e-02 5.843934044241905212e-02
2.101850211620330811e-01 1.994568109512329102e-02 1.775582507252693176e-02
2.601840794086456299e-01 -1.112530007958412170e-02 -1.073377430438995361e-01
5.574523210525512695e-01 -8.530969917774200439e-02 4.964046552777290344e-02
-2.570936381816864014e-01 -7.646252214908599854e-02 4.530927911400794983e-02
3.353475332260131836e-01 3.944505006074905396e-03 3.911516442894935608e-02
1.265376955270767212e-01 3.420780226588249207e-02 -4.820082336664199829e-02
8.139261603355407715e-01 -5.398419871926307678e-02 -5.501328408718109131e-02
-1.419817507266998291e-01 -7.541139423847198486e-02 5.613424256443977356e-02
3.131189942359924316e-02 1.638605073094367981e-02 1.850962638854980469e-02
2.626956999301910400e-02 -5.353822559118270874e-02 6.734560430049896240e-02
6.949090957641601562e-01 -7.007807493209838867e-02 4.429892078042030334e-02
-4.657278060913085938e-01 -7.804422825574874878e-02 -2.768631279468536377e-02
8.077299594879150391e-01 -6.385359168052673340e-02 2.805653586983680725e-02
2.694064080715179443e-01 -1.175087988376617432e-01 2.388088032603263855e-03
6.370172500610351562e-01 -7.693921029567718506e-02 4.751522466540336609e-02
2.048016786575317383e-01 -1.170086711645126343e-01 -1.638789102435112000e-02
-6.707283854484558105e-02 -3.931366652250289917e-02 -1.046302616596221924e-01
-4.200084805488586426e-01 -8.730174601078033447e-02 -1.744230836629867554e-02
2.315461933612823486e-01 -1.881648786365985870e-02 -1.091093271970748901e-01
4.259132146835327148e-01 -1.109307110309600830e-01 2.027204260230064392e-02
4.835572838783264160e-02 -7.175422459840774536e-02 -9.264588356018066406e-02
1.623406708240509033e-01 1.460002735257148743e-02 -9.372669458389282227e-02
-2.012687027454376221e-01 -1.074676364660263062e-01 6.809126585721969604e-03
6.223604679107666016e-01 -1.936675049364566803e-02 -8.921878039836883545e-02
4.533416926860809326e-01 -5.673827975988388062e-02 -9.401786327362060547e-02
5.437565445899963379e-01 -7.319744676351547241e-02 -7.634092867374420166e-02
5.860445499420166016e-01 1.963997632265090942e-02 -4.365385510027408600e-03
2.742014825344085693e-01 -3.580922260880470276e-02 6.682968139648437500e-02
1.473944485187530518e-01 -8.008119463920593262e-02 6.602643430233001709e-02
2.681273818016052246e-01 3.435408696532249451e-02 -4.915231466293334961e-02
4.038743972778320312e-01 2.177563682198524475e-02 -7.799758017063140869e-02
-1.665596663951873779e-01 -1.220808550715446472e-02 3.936389833688735962e-02
8.463817834854125977e-01 -6.593933701515197754e-02 -3.279317915439605713e-02
4.673996567726135254e-01 2.293490990996360779e-02 2.492537721991539001e-03
3.707546591758728027e-01 -4.963007941842079163e-02 -1.010999232530593872e-01
6.559351682662963867e-01 -6.875418126583099365e-02 4.959261789917945862e-02
1.677283793687820435e-01 -8.997865766286849976e-02 6.088934466242790222e-02
4.907660484313964844e-01 -2.811760082840919495e-02 5.809483304619789124e-02
2.233680039644241333e-01 -8.430848270654678345e-02 -8.165308833122253418e-02
4.880769550800323486e-01 -1.007335036993026733e-01 -4.351263493299484253e-02
2.243505418300628662e-02 -1.118379235267639160e-01 -3.469745442271232605e-02
-4.104222357273101807e-02 2.294377610087394714e-02 -3.446210175752639771e-04
2.798843085765838623e-01 -4.943987727165222168e-02 6.992800533771514893e-02
-1.819190382957458496e-01 2.248472347855567932e-02 -2.587081864476203918e-02
-3.089477717876434326e-01 -7.122884690761566162e-02 4.138230904936790466e-02
-4.511899352073669434e-01 -9.570099413394927979e-03 -1.292727887630462646e-02
2.599624991416931152e-01 3.129985556006431580e-02 -6.447348743677139282e-02
4.890167713165283203e-01 2.535693719983100891e-02 -6.167988479137420654e-02
6.338016986846923828e-01 2.003358304500579834e-02 -4.492232203483581543e-02
3.636282682418823242e-01 3.349063172936439514e-02 -4.072472453117370605e-02
1.480639576911926270e-01 -4.132351279258728027e-02 -1.080008745193481445e-01
5.784657001495361328e-01 1.027974486351013184e-02 1.714875176548957825e-02
2.084012627601623535e-01 -1.137460172176361084e-01 -3.104302287101745605e-02
7.118577957153320312e-01 -3.371074050664901733e-02 -7.937026768922805786e-02
1.668466925621032715e-01 2.953733876347541809e-02 -7.031823694705963135e-02
5.301527976989746094e-01 -8.639793097972869873e-02 5.115925893187522888e-02
4.670733809471130371e-01 -8.186355233192443848e-02 5.864294245839118958e-02
-4.267939925193786621e-02 -5.407721549272537231e-02 -1.007953286170959473e-01
1.710717380046844482e-02 3.209220245480537415e-02 -4.692362993955612183e-02
1.229490935802459717e-01 3.159009292721748352e-02 -1.415211148560047150e-02
3.656345605850219727e-02 -3.286967054009437561e-02 6.279951333999633789e-02
-2.102236449718475342e-01 -2.598220109939575195e-02 -9.787619113922119141e-02
7.858475446701049805e-01 -8.501756936311721802e-03 1.317968219518661499e-02
6.795681715011596680e-01 1.685747876763343811e-02 -2.290177531540393829e-02
2.718065083026885986e-01 -6.017611175775527954e-02 -9.920427203178405762e-02
5.042552947998046875e-05 2.958026155829429626e-02 -5.984763056039810181e-02
9.000298976898193359e-01 -4.219640046358108521e-02 6.691303104162216187e-03
1.744333058595657349e-01 -3.970408812165260315e-02 6.793823838233947754e-02
7.126982212066650391e-01 -5.712717026472091675e-02 4.612532630562782288e-02
1.147531270980834961e-01 -1.167578399181365967e-01 1.616579666733741760e-02
7.578536272048950195e-01 -7.816109806299209595e-02 -3.969329595565795898e-02
-3.807451128959655762e-01 -8.470745384693145752e-02 1.826212927699089050e-02
8.156254887580871582e-01 -7.828371226787567139e-02 -1.445423997938632965e-02
-5.263088345527648926e-01 -5.722193047404289246e-02 -4.072697833180427551e-03
5.771803855895996094e-02 -6.618747860193252563e-02 6.795778870582580566e-02
8.811038136482238770e-01 -5.710297450423240662e-02 -3.123242780566215515e-02
-1.155292987823486328e-01 -1.073740869760513306e-01 -3.621248155832290649e-02
-1.191876530647277832e-01 -7.207167893648147583e-02 -8.690401911735534668e-02
8.731324672698974609e-01 -5.505189299583435059e-02 1.423566043376922607e-02
-2.745994925498962402e-02 -3.524360805749893188e-02 6.126125529408454895e-02
7.648759335279464722e-02 -7.708445191383361816e-02 -8.879320323467254639e-02
8.318710923194885254e-01 -2.397669292986392975e-02 -5.828439071774482727e-02
4.672598838806152344e-01 3.036264702677726746e-02 -3.274253383278846741e-02
6.675812005996704102e-01 -9.377473592758178711e-02 2.116782218217849731e-02
4.793318212032318115e-01 -5.710576847195625305e-02 -9.230247139930725098e-02
-5.029681324958801270e-01 -3.988500684499740601e-02 5.733672529458999634e-03
-2.200757563114166260e-01 -5.542568862438201904e-02 5.321745947003364563e-02
6.658917665481567383e-01 1.215756312012672424e-02 4.947111010551452637e-04
-2.028418481349945068e-01 -1.030922383069992065e-01 2.245397120714187622e-02
-2.975913882255554199e-01 -9.374625980854034424e-02 -4.279383271932601929e-02
2.919946312904357910e-01 -1.098703294992446899e-01 -3.900318965315818787e-02
3.372830748558044434e-01 -1.094631105661392212e-01 -3.707258030772209167e-02
4.220142960548400879e-01 -1.088251471519470215e-01 -3.022985160350799561e-02
3.762271106243133545e-01 -1.115202307701110840e-01 2.507089823484420776e-02
3.180079162120819092e-02 -9.445864707231521606e-02 -6.928712129592895508e-02
-1.772949099540710449e-01 -3.797810524702072144e-02 5.339908972382545471e-02
-1.093256771564483643e-01 -1.114634275436401367e-01 -2.122275158762931824e-02
-1.078255176544189453e-01 -1.115097105503082275e-01 1.313685253262519836e-02
4.209114313125610352e-01 -1.026557832956314087e-01 4.109724611043930054e-02
-5.071787536144256592e-02 -8.977109193801879883e-02 5.428669974207878113e-02
5.645012855529785156e-01 -5.188577994704246521e-02 -8.886733651161193848e-02
2.808114290237426758e-01 -1.011270135641098022e-01 4.994225874543190002e-02
-1.041681766510009766e-01 -2.407848648726940155e-02 -1.041361838579177856e-01
-3.192405700683593750e-01 -8.215788751840591431e-03 -8.101065456867218018e-02
-3.055458664894104004e-01 -1.531582884490489960e-02 2.739010378718376160e-02
8.491732180118560791e-02 -3.539547324180603027e-03 -1.051883995532989502e-01
-1.342043578624725342e-01 -3.474354743957519531e-02 5.526131764054298401e-02
-7.942193746566772461e-02 2.436823770403862000e-02 -6.678310036659240723e-02
-2.478562593460083008e-01 -5.755373835563659668e-02 -8.789815008640289307e-02
3.817768096923828125e-01 -9.162192046642303467e-02 5.611026659607887268e-02
2.255672812461853027e-01 3.042805567383766174e-02 -7.012806832790374756e-03
4.222282171249389648e-01 3.056318685412406921e-02 -1.964637264609336853e-02
-2.726412713527679443e-01 -5.309638753533363342e-02 -8.792239427566528320e-02
2.840723991394042969e-01 -9.026013314723968506e-03 -1.062986850738525391e-01
-4.899495840072631836e-01 -2.154847048223018646e-02 -5.234229564666748047e-02
2.856916189193725586e-01 -1.170530021190643311e-01 -6.428533233702182770e-03
7.553663104772567749e-02 -1.088450402021408081e-01 -4.482266306877136230e-02
5.168719887733459473e-01 -5.139580368995666504e-02 6.284883618354797363e-02
4.950850903987884521e-01 -8.925590664148330688e-02 5.152443423867225647e-02
5.201181173324584961e-01 -2.354912832379341125e-02 5.431678518652915955e-02
-1.659193634986877441e-01 -4.631552100181579590e-02 -9.818433225154876709e-02
1.775793135166168213e-01 -1.160297244787216187e-01 -2.265116758644580841e-02
-9.976828098297119141e-02 -7.465526461601257324e-03 4.022112116217613220e-02
-9.158998727798461914e-02 3.219798207283020020e-03 -9.508049488067626953e-02
5.764739513397216797e-01 -1.260056905448436737e-02 4.353658482432365417e-02
6.278567016124725342e-02 -6.494365632534027100e-03 -1.059737354516983032e-01
-1.144556105136871338e-01 -1.005083322525024414e-01 3.872076049447059631e-02
5.379483103752136230e-03 -1.125721037387847900e-01 -3.115680068731307983e-02
-2.457838058471679688e-01 -1.051833331584930420e-01 1.518055796623229980e-06
6.880345940589904785e-01 3.963012248277664185e-03 1.302388682961463928e-02
-2.275991141796112061e-01 -4.085186496376991272e-02 5.019487068057060242e-02
-2.503812611103057861e-01 2.843294292688369751e-03 -8.092309534549713135e-02
5.822435617446899414e-01 -1.005368679761886597e-01 -2.847971208393573761e-02
-3.903294801712036133e-01 -9.084010124206542969e-02 -1.493716612458229065e-03
8.376230001449584961e-01 -7.479251921176910400e-02 -8.430908434092998505e-03
6.156548261642456055e-01 1.167016103863716125e-02 1.011871732771396637e-02
3.694603443145751953e-01 -1.121260821819305420e-01 -2.502421662211418152e-02
3.352334499359130859e-01 -8.901461958885192871e-02 -7.313749194145202637e-02
3.682469725608825684e-01 2.350450679659843445e-02 7.942078635096549988e-03
-2.684617042541503906e-01 -3.519998118281364441e-02 -9.304119646549224854e-02
4.664970636367797852e-01 -6.142875552177429199e-02 6.519050896167755127e-02
2.498156875371932983e-01 1.760091632604598999e-03 4.243229702115058899e-02
-3.289354443550109863e-01 -1.870214939117431641e-02 2.713838592171669006e-02
-3.452203869819641113e-01 -6.325162947177886963e-03 1.114790700376033783e-02
3.381102681159973145e-01 6.284225732088088989e-03 -9.760807454586029053e-02
-4.873242974281311035e-01 -4.495344683527946472e-02 1.213135197758674622e-02
-2.374575734138488770e-01 -8.278656005859375000e-02 -6.820690631866455078e-02
2.399494051933288574e-01 3.297103568911552429e-02 -1.731847412884235382e-02
-3.087022602558135986e-01 -4.706454649567604065e-02 -8.678565919399261475e-02
-2.033751904964447021e-01 -9.566988050937652588e-02 3.549551591277122498e-02
1.124608516693115234e-01 -3.083750419318675995e-02 6.395135819911956787e-02
4.945971369743347168e-01 -1.068697720766067505e-01 2.293999865651130676e-02
9.018126726150512695e-01 -4.502761363983154297e-02 -3.332743048667907715e-02
8.408973217010498047e-01 -6.171397864818572998e-02 2.073189988732337952e-02
7.963476777076721191e-01 3.735803067684173584e-03 -2.619041129946708679e-02
-2.462039589881896973e-01 -1.018412187695503235e-01 1.641314476728439331e-02
-1.765867173671722412e-01 -7.700579613447189331e-02 -7.926858961582183838e-02
3.423231542110443115e-01 3.126359358429908752e-02 -5.985821038484573364e-02
-2.383316755294799805e-01 1.419831812381744385e-02 -7.897212170064449310e-03
5.308314561843872070e-01 -9.728247672319412231e-02 -4.543654620647430420e-02
5.642998218536376953e-01 -7.576954364776611328e-02 -7.205724716186523438e-02
3.448328375816345215e-02 3.156511858105659485e-02 -5.501046404242515564e-02
1.890608221292495728e-01 3.369984403252601624e-02 -2.164765261113643646e-02
-1.346380412578582764e-01 7.016476243734359741e-03 2.078818157315254211e-02
-3.621834516525268555e-01 3.100711852312088013e-03 -5.819311738014221191e-02
-2.635103464126586914e-02 3.233063966035842896e-03 3.373192623257637024e-02
6.801369786262512207e-02 -3.844797238707542419e-02 -1.081476658582687378e-01
2.029772102832794189e-01 -1.175210326910018921e-01 1.184950768947601318e-02
-3.457589745521545410e-01 -9.574652463197708130e-02 -2.147713862359523773e-02
4.008381664752960205e-01 -1.132475435733795166e-01 1.324160397052764893e-02
6.393214464187622070e-01 1.949766278266906738e-02 -1.835942454636096954e-02
3.562853336334228516e-01 -8.623607456684112549e-03 5.057733878493309021e-02
1.486430466175079346e-01 -9.734276682138442993e-03 5.209046974778175354e-02
4.736767709255218506e-02 -1.105425655841827393e-01 3.313959017395973206e-02
-3.677860498428344727e-01 -6.939192861318588257e-02 -6.650065630674362183e-02
6.692959070205688477e-01 -7.469049096107482910e-02 -6.102365627884864807e-02
-4.763455390930175781e-01 -3.041366301476955414e-02 7.967054843902587891e-03
8.392384052276611328e-01 -3.658177331089973450e-02 2.423011139035224915e-02
7.408282756805419922e-01 -1.931819505989551544e-02 -7.460085302591323853e-02
3.728217482566833496e-01 1.182372868061065674e-02 -9.182120859622955322e-02
-4.107941985130310059e-01 -7.831527292728424072e-02 1.870083436369895935e-02
-3.873249292373657227e-01 -9.048061072826385498e-02 -2.495959773659706116e-02
2.112177014350891113e-02 -1.093324422836303711e-01 3.427288681268692017e-02
-1.013365387916564941e-01 2.732283994555473328e-02 -2.881289646029472351e-02
3.852409720420837402e-01 1.761421188712120056e-02 1.877271384000778198e-02
5.852636694908142090e-01 -4.543573781847953796e-02 -8.975690603256225586e-02
6.672543883323669434e-01 1.824606582522392273e-02 -3.574235737323760986e-02
4.373044669628143311e-01 -9.901672601699829102e-02 4.520330950617790222e-02
3.807104825973510742e-01 -9.209450334310531616e-02 -6.695871800184249878e-02
3.640701770782470703e-01 -4.375994950532913208e-02 6.763096153736114502e-02
4.314091801643371582e-01 -9.993936121463775635e-02 -5.094059929251670837e-02
-3.689935207366943359e-01 -8.732883632183074951e-02 -4.110788553953170776e-02
5.910151004791259766e-01 3.956060856580734253e-03 -8.186872303485870361e-02
-8.219698071479797363e-02 1.998963579535484314e-02 2.462340518832206726e-03
-7.786208391189575195e-02 -1.042557060718536377e-01 -4.769499599933624268e-02
-4.065887928009033203e-01 -5.279140546917915344e-02 -7.215039432048797607e-02
6.140338182449340820e-01 2.875823527574539185e-03 -8.011015504598617554e-02
3.778035640716552734e-01 -1.198568753898143768e-02 -1.041473746299743652e-01
4.326198995113372803e-01 -3.196885064244270325e-02 6.212810799479484558e-02
6.997320055961608887e-01 -2.428479492664337158e-04 -7.062643766403198242e-02
1.269680261611938477e-01 -3.350339829921722412e-03 -1.055725365877151489e-01
6.273888349533081055e-01 -5.295377224683761597e-03 3.262175247073173523e-02
2.054843306541442871e-01 3.360750153660774231e-02 -5.603308975696563721e-02
4.839314520359039307e-02 3.074987605214118958e-02 -6.068466231226921082e-02
-7.882961630821228027e-02 -5.847238749265670776e-02 -9.742447733879089355e-02
-2.005974650382995605e-01 -4.146676138043403625e-02 5.265926942229270935e-02
6.830458045005798340e-01 -3.943750634789466858e-02 4.831406101584434509e-02
5.731571912765502930e-01 9.872529655694961548e-03 -7.817832380533218384e-02
1.728154718875885010e-01 -1.714654080569744110e-02 -1.093855500221252441e-01
2.357305288314819336e-01 9.523343294858932495e-03 3.352136909961700439e-02
5.223683714866638184e-01 2.761801704764366150e-02 -2.669131010770797729e-02
6.720601320266723633e-01 -7.529557496309280396e-02 4.430254176259040833e-02
-4.163644909858703613e-01 -6.692849099636077881e-02 -6.063627451658248901e-02
7.799280285835266113e-01 5.879048258066177368e-03 -3.267607092857360840e-02
4.284602403640747070e-01 -9.217534959316253662e-02 -6.381273269653320312e-02
-1.362989544868469238e-01 2.033881470561027527e-02 -5.769667215645313263e-03
6.836882829666137695e-01 -8.988684415817260742e-02 2.583537995815277100e-02
-1.290707886219024658e-01 -5.983330309391021729e-02 -9.445153176784515381e-02
5.953393876552581787e-02 -9.668111801147460938e-03 4.990977421402931213e-02
2.650031447410583496e-01 -9.235444664955139160e-02 5.881998315453529358e-02
6.490079164505004883e-01 -9.464003145694732666e-02 -3.016639687120914459e-02
2.479036748409271240e-01 2.621188759803771973e-04 -1.034063845872879028e-01
3.423609733581542969e-01 -1.010478883981704712e-01 4.800517484545707703e-02
1.531404256820678711e-02 -7.741191238164901733e-02 -8.746874332427978516e-02
3.147104680538177490e-01 3.385461494326591492e-02 -2.691384404897689819e-02
3.415541648864746094e-01 2.545615658164024353e-02 -7.535082846879959106e-02
5.867397189140319824e-01 1.504176855087280273e-02 -6.941941380500793457e-02
-2.282513082027435303e-01 -2.719871327280998230e-02 -9.657226502895355225e-02
7.922881096601486206e-02 2.310192957520484924e-02 -8.140347898006439209e-02
7.142648100852966309e-01 1.076414436101913452e-02 -8.301863446831703186e-03
-1.603408753871917725e-01 -1.037374362349510193e-01 2.792294695973396301e-02
6.991497874259948730e-01 1.504475995898246765e-02 -2.263949997723102570e-02
1.343057006597518921e-01 8.759345859289169312e-03 -9.863632917404174805e-02
-1.030948758125305176e-01 1.266275346279144287e-02 1.490302756428718567e-02
-1.004499495029449463e-01 -8.346836268901824951e-02 -7.744467258453369141e-02
2.318342477083206177e-01 2.327576652169227600e-02 1.143217273056507111e-02
6.005510687828063965e-01 -7.558868825435638428e-02 5.208413675427436829e-02
3.065356016159057617e-01 -1.782513037323951721e-02 -1.075236946344375610e-01
3.102555274963378906e-01 2.863697335124015808e-02 -6.998448073863983154e-02
-1.025072634220123291e-01 -2.618856914341449738e-02 5.334157869219779968e-02
-3.016139864921569824e-01 -3.997609019279479980e-04 1.025623083114624023e-02
7.440122216939926147e-02 3.366633877158164978e-02 -4.398965835571289062e-02
-1.528920829296112061e-01 -5.171589553356170654e-03 3.398021683096885681e-02
-5.298941731452941895e-01 -2.998987212777137756e-02 -3.927380591630935669e-02
5.007215738296508789e-01 -1.673371717333793640e-02 5.123146250844001770e-02
2.537862956523895264e-01 -1.069989055395126343e-01 -4.766099900007247925e-02
1.310744583606719971e-01 -7.301804423332214355e-02 -9.239542484283447266e-02
-4.334777593612670898e-03 -9.376549720764160156e-02 5.353192612528800964e-02
-2.049131989479064941e-01 -4.780021309852600098e-02 -9.524846076965332031e-02
4.629105925559997559e-01 4.656057804822921753e-03 3.373828157782554626e-02
-4.718334674835205078e-01 -7.749494910240173340e-02 -5.213856697082519531e-03
6.563408374786376953e-01 -8.559873700141906738e-02 3.745641559362411499e-02
-1.736789941787719727e-02 -1.136222183704376221e-01 1.912164688110351562e-02
1.005086675286293030e-01 -1.157056987285614014e-01 2.049575373530387878e-02
1.319247484207153320e-01 2.812373265624046326e-02 -7.314275950193405151e-02
-2.357299625873565674e-01 -4.141182824969291687e-02 -9.477676451206207275e-02
-3.416635394096374512e-01 -3.223420679569244385e-02 3.439657390117645264e-02
-3.555189967155456543e-01 -6.216900050640106201e-02 -7.398885488510131836e-02
-1.039172410964965820e-01 -7.216859608888626099e-03 -1.002328544855117798e-01
1.395339369773864746e-01 -1.023434549570083618e-01 -5.856653302907943726e-02
-1.722271144390106201e-01 -8.594126999378204346e-02 4.820399358868598938e-02
