2.482566982507705688e-01 -1.425792574882507324e-01 -5.505359172821044922e-02
3.612338304519653320e-01 -4.585078358650207520e-02 -3.645394146442413330e-01
-3.872762322425842285e-01 2.875040285289287567e-03 -5.823580026626586914e-01
-1.357608139514923096e-01 6.431670486927032471e-02 -7.956708669662475586e-01
-1.049720346927642822e-01 -7.036943454295396805e-03 -8.284567594528198242e-01
-3.475984334945678711e-01 1.033406704664230347e-01 -1.222077906131744385e-01
-1.346682906150817871e-01 8.911671489477157593e-02 -6.402862071990966797e-01
-4.102883338928222656e-01 -1.558400318026542664e-02 -4.057092666625976562e-01
-3.827910125255584717e-02 4.042808711528778076e-02 -8.611285686492919922e-02
-3.570416569709777832e-01 -4.199536517262458801e-02 -2.476364970207214355e-01
1.481631249189376831e-01 2.913186140358448029e-02 -4.837809801101684570e-01
2.630234360694885254e-01 -1.410744637250900269e-01 -5.419063568115234375e-01
2.954952716827392578e-01 -1.383070051670074463e-01 -5.777999162673950195e-01
-2.561645209789276123e-01 -6.169751286506652832e-02 -1.239031553268432617e-03
-3.598211407661437988e-01 6.886534392833709717e-02 -7.611315250396728516e-01
-1.240163594484329224e-01 -6.004898250102996826e-02 1.368025839328765869e-01
4.118105769157409668e-01 -1.607611626386642456e-01 -2.991111278533935547e-01
3.977395594120025635e-02 -1.296900957822799683e-01 -3.052071928977966309e-01
4.214746952056884766e-01 -6.730262190103530884e-02 -4.686961770057678223e-01
-7.979606091976165771e-02 -4.627167433500289917e-02 -7.480274438858032227e-01
-5.612757205963134766e-01 1.216885000467300415e-01 -5.535356998443603516e-01
-5.910795927047729492e-02 -1.098045334219932556e-01 -6.709247827529907227e-02
-1.792682111263275146e-01 9.088904410600662231e-02 -2.476181536912918091e-01
2.428740411996841431e-01 -1.572429537773132324e-01 -2.838109731674194336e-01
4.191303253173828125e-01 -8.270466327667236328e-02 -2.786220908164978027e-01
3.355597257614135742e-01 -1.626843065023422241e-01 -3.011319935321807861e-01
3.729789257049560547e-01 -1.418353021144866943e-01 -5.679378509521484375e-01
2.999496459960937500e-01 -1.743409223854541779e-02 -4.970139861106872559e-01
3.263529539108276367e-01 -1.522780656814575195e-01 -1.282034516334533691e-01
-7.006989419460296631e-02 -4.144883900880813599e-02 -7.707499265670776367e-01
-5.290678143501281738e-01 2.556069754064083099e-02 -3.907572627067565918e-01
-4.546238183975219727e-01 -1.222183089703321457e-02 -2.283723950386047363e-01
-5.516626238822937012e-01 2.542508207261562347e-02 -2.742997109889984131e-01
-5.337868332862854004e-01 3.681413084268569946e-02 7.876753807067871094e-05
1.608193367719650269e-01 -1.008262038230895996e-01 -7.033486366271972656e-01
-3.299985453486442566e-02 5.059357732534408569e-02 -1.607021838426589966e-01
-1.296489536762237549e-01 6.195744872093200684e-02 -9.366524219512939453e-02
-9.147126972675323486e-02 3.754901140928268433e-02 -8.671194314956665039e-03
-3.291798532009124756e-01 2.882016263902187347e-02 1.290429234504699707e-01
-1.130922436714172363e-01 -3.864201903343200684e-02 1.592636406421661377e-01
1.897874325513839722e-01 2.973431721329689026e-03 -7.310491800308227539e-01
-1.733728498220443726e-02 -1.154877543449401855e-01 -4.560729861259460449e-02
1.664045453071594238e-02 5.560498684644699097e-02 -6.784114837646484375e-01
-2.541599869728088379e-01 -6.483295559883117676e-02 -2.846214175224304199e-02
-3.188729882240295410e-01 -5.008072592318058014e-03 -6.506150960922241211e-01
2.697920054197311401e-02 -1.207549422979354858e-01 -4.201728999614715576e-01
2.328022569417953491e-01 1.666650176048278809e-03 -4.014803171157836914e-01
3.374049663543701172e-01 -1.571019589900970459e-01 -1.703651547431945801e-01
3.204406499862670898e-01 -1.487862616777420044e-01 -5.124643445014953613e-01
-4.495190382003784180e-01 -9.218396618962287903e-03 -5.522316694259643555e-02
-1.790092885494232178e-02 6.519119441509246826e-02 -3.476271629333496094e-01
4.358769953250885010e-02 -1.262030601501464844e-01 -3.854561150074005127e-01
-4.074963927268981934e-01 1.271731108427047729e-01 -2.777620255947113037e-01
-4.174417853355407715e-01 4.412277787923812866e-02 -6.837029457092285156e-01
2.587527632713317871e-01 -8.292662352323532104e-02 -7.730523943901062012e-01
2.156475335359573364e-01 -1.277562528848648071e-01 -6.005638837814331055e-01
-2.014336287975311279e-01 -6.613827496767044067e-02 -4.828007817268371582e-01
-5.475974082946777344e-01 7.826645672321319580e-02 3.519505262374877930e-03
-4.180772900581359863e-01 -1.677612774074077606e-02 -2.273285388946533203e-02
2.872442007064819336e-01 -1.464796718209981918e-02 -5.856485366821289062e-01
1.637253016233444214e-01 -1.338888257741928101e-01 -5.088359117507934570e-01
-5.244910120964050293e-01 1.214690059423446655e-01 -1.473022252321243286e-01
-8.010229468345642090e-02 7.398214936256408691e-02 -2.802730798721313477e-01
-1.678325533866882324e-01 7.328696548938751221e-02 -1.174583435058593750e-01
3.001304864883422852e-01 -6.952687352895736694e-02 -7.708688378334045410e-01
-5.053980275988578796e-02 -6.868605315685272217e-02 -6.848055720329284668e-01
9.042069315910339355e-02 2.917234785854816437e-02 -2.375807762145996094e-01
-5.901741385459899902e-01 4.933603107929229736e-02 -8.966472744941711426e-02
-4.672401547431945801e-01 7.778214290738105774e-03 1.651546359062194824e-02
-1.011683493852615356e-01 -1.029263287782669067e-01 -3.055258095264434814e-01
2.546310424804687500e-04 6.389059126377105713e-02 -6.124024391174316406e-01
-3.669312596321105957e-01 7.736106961965560913e-02 2.104163169860839844e-02
3.078788518905639648e-01 -5.189240723848342896e-02 -1.642632782459259033e-01
-3.799488544464111328e-01 5.205719918012619019e-02 9.351924061775207520e-02
1.182984709739685059e-01 -1.017558649182319641e-01 -6.733995079994201660e-01
-4.821018874645233154e-02 2.447935007512569427e-02 -8.500435352325439453e-01
-1.517291069030761719e-01 -5.859301239252090454e-02 -6.185352802276611328e-01
-4.874286055564880371e-01 1.358359903097152710e-01 -5.029131174087524414e-01
-2.026395499706268311e-01 -5.637539923191070557e-02 -5.546179413795471191e-01
3.110249042510986328e-01 -2.572096884250640869e-02 -3.791829943656921387e-01
-2.338229864835739136e-02 -1.120379939675331116e-02 9.635028243064880371e-02
3.836436867713928223e-01 -7.251711934804916382e-02 -6.846084594726562500e-01
4.557601809501647949e-01 -1.522643715143203735e-01 -4.272548258304595947e-01
-1.541457921266555786e-01 8.345652371644973755e-02 -7.208471298217773438e-01
-2.470360547304153442e-01 1.070504263043403625e-01 -3.015844821929931641e-01
-2.247028052806854248e-01 -7.225192338228225708e-02 -3.510465025901794434e-01
-6.814227998256683350e-02 -9.650997072458267212e-02 -4.827209115028381348e-01
3.679146766662597656e-01 -9.429437667131423950e-02 -1.214889734983444214e-01
2.265430539846420288e-01 -1.507577002048492432e-01 -4.062008261680603027e-01
-2.889991998672485352e-01 7.133133709430694580e-02 6.261408329010009766e-03
4.119928479194641113e-01 -1.303765326738357544e-01 -6.061878204345703125e-01
-4.289698004722595215e-01 9.190396219491958618e-02 -1.566195487976074219e-02
3.450873494148254395e-01 -1.594111174345016479e-01 -4.068699479103088379e-01
3.280716538429260254e-01 -7.190573960542678833e-02 -7.508530616760253906e-01
2.422509342432022095e-01 -1.468477994203567505e-01 -8.121177554130554199e-02
-1.738433539867401123e-01 4.030853509902954102e-03 1.403677165508270264e-01
4.582926630973815918e-01 -1.041093915700912476e-01 -5.820029377937316895e-01
-3.546183109283447266e-01 4.624302685260772705e-02 -7.490513324737548828e-01
2.306148260831832886e-01 3.962906077504158020e-03 -4.382621943950653076e-01
1.628157794475555420e-01 -5.550045520067214966e-02 4.449450969696044922e-02
-2.540617585182189941e-01 -5.655125528573989868e-02 4.191377758979797363e-02
1.995548754930496216e-01 -1.476218551397323608e-01 -1.076079308986663818e-01
3.964821696281433105e-01 -1.617123037576675415e-01 -3.554421067237854004e-01
7.351098954677581787e-02 1.375986263155937195e-02 -9.760400652885437012e-02
-6.412486433982849121e-01 8.758958429098129272e-02 -3.924187719821929932e-01
4.878110885620117188e-01 -1.177235245704650879e-01 -4.790528416633605957e-01
3.011007308959960938e-01 -3.290326148271560669e-02 -7.048572301864624023e-01
1.471015065908432007e-01 -6.438935548067092896e-02 7.182535529136657715e-02
2.521778345108032227e-01 -4.771543666720390320e-03 -3.957815468311309814e-01
-9.893905371427536011e-02 6.928846985101699829e-02 -1.931153684854507446e-01
-1.737236976623535156e-03 6.074673682451248169e-02 -3.361895382404327393e-01
-4.510639905929565430e-01 1.129348501563072205e-01 -1.143283843994140625e-01
-4.002065658569335938e-01 -1.489671226590871811e-02 -4.416512548923492432e-01
-2.046980261802673340e-01 1.042550951242446899e-01 -3.803363740444183350e-01
-2.268422842025756836e-01 1.086903139948844910e-01 -3.991171121597290039e-01
6.993457674980163574e-02 1.131974719464778900e-02 -7.915276288986206055e-02
3.547881245613098145e-01 -1.474816948175430298e-01 -5.315876603126525879e-01
-4.039788246154785156e-01 1.320744752883911133e-01 -3.851830959320068359e-01
-3.509252890944480896e-02 7.345821708440780640e-02 -5.602221488952636719e-01
1.671596616506576538e-01 1.269054599106311798e-03 -1.887535154819488525e-01
-3.134601563215255737e-02 -3.012863919138908386e-02 -8.207248449325561523e-01
8.567017316818237305e-02 8.614091202616691589e-04 -5.007633566856384277e-02
-1.555685400962829590e-01 -9.294948726892471313e-02 -1.217509806156158447e-01
1.775885075330734253e-01 -1.498497724533081055e-01 -1.817405968904495239e-01
1.081656217575073242e-01 -1.236183568835258484e-01 -5.275815725326538086e-01
-4.559065103530883789e-01 1.213291659951210022e-03 -4.193794131278991699e-01
-4.997001290321350098e-01 1.119932457804679871e-01 -9.395211935043334961e-02
4.112271666526794434e-01 -1.444514840841293335e-01 -5.407640933990478516e-01
-3.480439186096191406e-01 -2.196877077221870422e-02 -5.123428106307983398e-01
2.467165887355804443e-02 -1.071053147315979004e-01 -5.463550686836242676e-01
-3.040876090526580811e-01 1.202179193496704102e-01 -5.353668332099914551e-01
-5.400707721710205078e-01 1.257348358631134033e-01 -5.592622756958007812e-01
2.244015485048294067e-01 -1.556602269411087036e-01 -2.422975897789001465e-01
2.241982966661453247e-01 -1.237088665366172791e-01 -6.289497017860412598e-01
1.389522999525070190e-01 -3.597854077816009521e-02 2.127203345298767090e-02
-5.254335403442382812e-01 1.303411573171615601e-01 -5.452473163604736328e-01
-3.419155478477478027e-01 -3.704109229147434235e-03 1.263011395931243896e-01
1.584792882204055786e-01 2.598488889634609222e-02 -5.653465986251831055e-01
1.353046596050262451e-01 -1.145177483558654785e-01 -6.188458204269409180e-01
-1.740559786558151245e-01 -6.771974265575408936e-02 8.339697122573852539e-02
-5.207113623619079590e-01 1.356961876153945923e-01 -5.003610849380493164e-01
1.783201843500137329e-01 -1.102504134178161621e-01 -6.712940931320190430e-01
2.393143028020858765e-01 -6.795838475227355957e-02 -7.972636222839355469e-01
4.462044835090637207e-01 -1.152307018637657166e-01 -2.290109694004058838e-01
-4.119719862937927246e-01 -2.157286927103996277e-02 -3.278084993362426758e-01
9.603597223758697510e-03 3.846412152051925659e-02 -7.947220802307128906e-01
-4.873497411608695984e-02 -1.155288517475128174e-01 -2.342845052480697632e-01
2.988535761833190918e-01 -1.716189272701740265e-02 -5.331287980079650879e-01
-4.192572832107543945e-01 -1.870949752628803253e-03 -4.923381209373474121e-01
1.305756121873855591e-01 -1.440746337175369263e-01 -1.716945320367813110e-01
2.364014089107513428e-02 4.155654460191726685e-02 -1.963573098182678223e-01
-2.180635482072830200e-01 -5.861456692218780518e-02 -5.101285576820373535e-01
-4.260026812553405762e-01 -2.957114018499851227e-03 4.292416572570800781e-02
-1.894520968198776245e-01 4.898995161056518555e-02 2.908504009246826172e-02
4.064399003982543945e-01 -6.343183666467666626e-02 -5.757746100425720215e-01
4.480330348014831543e-01 -8.176703751087188721e-02 -4.596599340438842773e-01
1.812612861394882202e-01 1.030755229294300079e-02 -3.036786913871765137e-01
2.542295455932617188e-01 -1.086886897683143616e-01 1.836839318275451660e-02
5.248513817787170410e-02 4.372750967741012573e-02 -2.853874564170837402e-01
-6.528273224830627441e-04 -5.979985743761062622e-02 -7.597903013229370117e-01
3.531219363212585449e-01 -1.545775681734085083e-01 -1.577292084693908691e-01
1.533061563968658447e-01 2.790873311460018158e-02 -5.011750459671020508e-01
-6.611340045928955078e-01 1.173264235258102417e-01 -3.152345120906829834e-01
-6.322029829025268555e-01 1.074372529983520508e-01 -1.405809074640274048e-01
-1.712459176778793335e-01 9.691512584686279297e-02 -6.176921129226684570e-01
2.721554040908813477e-01 -7.427741587162017822e-02 -7.813988327980041504e-01
-1.446782052516937256e-01 -1.310660876333713531e-02 -7.947906255722045898e-01
7.099388539791107178e-02 -7.391869276762008667e-02 -7.557092905044555664e-01
-5.003103986382484436e-02 -6.119302660226821899e-02 -7.174330353736877441e-01
2.616395354270935059e-01 -5.211982876062393188e-02 -8.222138881683349609e-02
-2.480470985174179077e-01 -6.962521374225616455e-02 -2.932645678520202637e-01
4.174035191535949707e-01 -1.385569423437118530e-01 -5.686548352241516113e-01
4.093495607376098633e-01 -1.089998409152030945e-01 -6.605432033538818359e-01
-8.654255419969558716e-02 4.107991605997085571e-02 -8.350874185562133789e-01
2.332193106412887573e-01 -9.086745977401733398e-02 3.115394711494445801e-02
-1.202312856912612915e-01 -1.010619550943374634e-01 -2.363177239894866943e-01
-1.096278652548789978e-01 -9.023509174585342407e-02 -4.578001499176025391e-01
1.966760307550430298e-01 -1.522745043039321899e-01 -1.978504806756973267e-01
-4.551354646682739258e-01 4.621194675564765930e-03 -4.492844045162200928e-01
3.511332720518112183e-02 -7.518806308507919312e-02 1.275568306446075439e-01
4.739839434623718262e-01 -1.357613056898117065e-01 -5.063412785530090332e-01
-1.038647070527076721e-01 1.582645438611507416e-02 -8.501850366592407227e-01
-6.347869634628295898e-01 1.284800767898559570e-01 -3.804650902748107910e-01
2.411556988954544067e-01 -5.189896374940872192e-02 -8.041807413101196289e-01
3.128041028976440430e-01 -2.258523553609848022e-02 -5.542254447937011719e-01
3.890782594680786133e-03 -4.634568840265274048e-02 -8.009470701217651367e-01
-1.880682706832885742e-01 8.026196807622909546e-02 -1.394328325986862183e-01
-1.547712385654449463e-01 9.103211760520935059e-02 -3.062570989131927490e-01
-4.507969617843627930e-01 1.353876888751983643e-01 -4.873594343662261963e-01
1.628695726394653320e-01 -1.445387452840805054e-01 -1.087538599967956543e-01
9.682996571063995361e-02 -1.080110967159271240e-01 7.175230979919433594e-02
-6.013749241828918457e-01 4.755857586860656738e-02 -2.590688467025756836e-01
-3.705726265907287598e-01 -2.858929336071014404e-02 6.771177053451538086e-03
-1.620134115219116211e-01 -6.617806851863861084e-02 -5.564026236534118652e-01
3.274396061897277832e-03 -1.138685569167137146e-01 1.000463962554931641e-04
-3.638098835945129395e-01 1.286766976118087769e-01 -4.601276814937591553e-01
2.706983089447021484e-01 -2.801806293427944183e-02 -7.388683557510375977e-01
-5.454465746879577637e-01 8.926326781511306763e-02 -1.586619019508361816e-02
7.521577179431915283e-03 5.282866209745407104e-02 -2.644698917865753174e-01
-2.460336685180664062e-01 1.035471111536026001e-01 -2.581764459609985352e-01
1.382812112569808960e-02 -1.271329540759325027e-02 7.274740934371948242e-02
2.677421569824218750e-01 -1.454840507358312607e-02 -6.703526377677917480e-01
-2.009230256080627441e-01 -5.246719717979431152e-02 -5.824484825134277344e-01
2.244542986154556274e-01 -8.855939656496047974e-02 -7.622684240341186523e-01
-1.868141293525695801e-01 7.867337018251419067e-02 -7.673613429069519043e-01
1.604803055524826050e-01 -1.380131095647811890e-01 -4.645443558692932129e-01
1.862445920705795288e-01 -1.076380461454391479e-01 -6.872107982635498047e-01
3.371170163154602051e-01 -1.577203422784805298e-01 -4.276793897151947021e-01
-2.959353923797607422e-01 -5.299196392297744751e-02 -3.628863394260406494e-01
-2.987670302391052246e-01 1.186450123786926270e-01 -3.681874275207519531e-01
-3.859826922416687012e-01 -2.154261246323585510e-02 2.093878388404846191e-02
4.526557326316833496e-01 -8.939726650714874268e-02 -5.516680479049682617e-01
-1.877425312995910645e-01 6.619679927825927734e-02 -5.171406269073486328e-02
1.976624876260757446e-01 1.151980645954608917e-02 -6.352944970130920410e-01
-2.093254625797271729e-01 1.052046418190002441e-01 -5.777673125267028809e-01
-2.079102396965026855e-01 9.239488095045089722e-02 -2.099234610795974731e-01
-2.379712462425231934e-01 8.056513220071792603e-02 -8.212229609489440918e-02
-1.871587634086608887e-01 -3.022260777652263641e-02 -7.075667381286621094e-01
2.552570104598999023e-01 -5.730538163334131241e-03 -6.208498477935791016e-01
-6.436171531677246094e-01 1.219977438449859619e-01 -3.970337808132171631e-01
-3.875416517257690430e-01 -2.964262850582599640e-02 -5.432486534118652344e-02
-2.225915044546127319e-01 -6.769036501646041870e-02 1.817092299461364746e-02
-6.414133906364440918e-01 1.177522242069244385e-01 -4.200623035430908203e-01
-6.239382922649383545e-02 -9.373692423105239868e-02 6.102877855300903320e-02
1.898609846830368042e-01 -4.880727082490921021e-02 1.496255397796630859e-03
-3.126075565814971924e-01 -1.912127248942852020e-02 1.202740967273712158e-01
1.757027953863143921e-01 -1.388959884643554688e-01 -4.764388203620910645e-01
1.025492697954177856e-01 -5.076535046100616455e-02 8.509114384651184082e-02
-1.345399320125579834e-01 -2.920159511268138885e-02 -7.594401836395263672e-01
4.124232530593872070e-01 -1.505330801010131836e-01 -4.984343647956848145e-01
-1.240864396095275879e-01 -8.076604455709457397e-02 -5.138148665428161621e-01
1.868263036012649536e-01 -1.631975732743740082e-02 -1.196003854274749756e-01
-5.935215950012207031e-02 -8.008521050214767456e-02 -6.159256100654602051e-01
-1.156366020441055298e-01 8.866691589355468750e-02 -4.031004905700683594e-01
-2.660521268844604492e-01 9.482206404209136963e-02 -1.468033641576766968e-01
3.131292760372161865e-03 5.512644350528717041e-02 -7.110459208488464355e-01
-1.161096692085266113e-01 5.741421878337860107e-02 -8.332124352455139160e-02
-5.831132531166076660e-01 4.081308841705322266e-02 -3.004330396652221680e-01
-2.777020335197448730e-01 1.162755042314529419e-01 -5.499391555786132812e-01
-2.710638567805290222e-02 1.183529943227767944e-02 3.212440013885498047e-02
1.446734964847564697e-01 -1.323667317628860474e-01 -1.673436164855957031e-02
-8.724927157163619995e-02 -3.870061039924621582e-02 1.566971838474273682e-01
-1.674226522445678711e-01 2.814822830259799957e-02 -8.378185629844665527e-01
-2.626653313636779785e-01 -2.521678805351257324e-02 -6.381729841232299805e-01
-6.619603037834167480e-01 1.075086891651153564e-01 -2.223764210939407349e-01
1.608355790376663208e-01 -1.484418362379074097e-01 -2.777132689952850342e-01
3.176638484001159668e-01 -2.601256594061851501e-02 -5.921931862831115723e-01
1.564017534255981445e-01 2.536525391042232513e-02 -6.013931632041931152e-01
3.974136710166931152e-01 -7.754815369844436646e-02 -2.428238093852996826e-01
-2.100080251693725586e-02 -1.057367995381355286e-01 -4.852549433708190918e-01
2.545393109321594238e-01 -1.342539787292480469e-01 -2.231326699256896973e-02
-2.659687399864196777e-01 -3.617767989635467529e-02 1.146755516529083252e-01
-2.397818267345428467e-01 6.332955509424209595e-02 7.210522890090942383e-03
-3.993952870368957520e-01 -2.944832667708396912e-02 -2.460363656282424927e-01
-8.087124675512313843e-02 8.355807512998580933e-02 -5.201188325881958008e-01
1.754971295595169067e-01 -1.282809078693389893e-01 9.852707386016845703e-03
-1.820905506610870361e-01 8.668126165866851807e-02 -7.261524796485900879e-01
4.768903851509094238e-01 -1.244574338197708130e-01 -5.302499532699584961e-01
-6.194825768470764160e-01 6.931456178426742554e-02 -3.848206400871276855e-01
-5.579327344894409180e-01 9.359616041183471680e-02 -3.291085362434387207e-02
-1.260319948196411133e-01 8.602003753185272217e-02 -3.144811689853668213e-01
-6.070639938116073608e-02 -1.118044853210449219e-01 -2.895483076572418213e-01
2.430495470762252808e-01 -2.923127636313438416e-02 -1.532813161611557007e-01
-5.571693181991577148e-01 1.368770599365234375e-01 -4.586485326290130615e-01
2.717826515436172485e-02 -1.293116062879562378e-01 -2.213914543390274048e-01
1.324933320283889771e-01 3.219240158796310425e-02 -5.948353409767150879e-01
1.895022541284561157e-01 1.144053228199481964e-02 -3.476174473762512207e-01
-3.996505141258239746e-01 -3.036171384155750275e-02 -1.902235299348831177e-01
-6.058450937271118164e-01 1.353913396596908569e-01 -3.308007121086120605e-01
-8.476699888706207275e-02 -1.079240590333938599e-01 -2.589735686779022217e-01
-2.590395808219909668e-01 4.176856577396392822e-02 9.171631932258605957e-02
1.807651668787002563e-01 1.574197597801685333e-02 -6.463906764984130859e-01
-5.815317630767822266e-01 1.335685253143310547e-01 -2.586397826671600342e-01
3.399970531463623047e-01 -3.940247744321823120e-02 -3.416916131973266602e-01
-1.091217696666717529e-01 8.520001173019409180e-02 -6.304872632026672363e-01
4.548311233520507812e-02 -1.102060526609420776e-01 -5.511876940727233887e-01
-3.483836650848388672e-01 1.263492554426193237e-01 -5.039436817169189453e-01
1.054926812648773193e-01 3.777220845222473145e-02 -3.967490196228027344e-01
-1.504719108343124390e-01 -6.479334086179733276e-02 -5.836737751960754395e-01
4.576250910758972168e-03 -1.227234452962875366e-01 -9.805214405059814453e-02
3.564671874046325684e-01 -1.353563070297241211e-01 -6.040352582931518555e-01
-6.004337221384048462e-02 -1.130835115909576416e-01 -1.476258486509323120e-01
-2.875759899616241455e-01 1.058798357844352722e-01 -2.124708741903305054e-01
-4.615673422813415527e-02 -1.095727980136871338e-01 -3.857847452163696289e-01
-3.141978383064270020e-01 -5.253285914659500122e-02 -7.874149084091186523e-02
-2.462154328823089600e-01 -7.049833983182907104e-02 -8.474394679069519043e-02
-2.210016995668411255e-01 -7.871045172214508057e-02 -1.589906215667724609e-01
1.422253996133804321e-01 -1.448845863342285156e-01 -3.192580640316009521e-01
-3.012652099132537842e-01 -1.469108462333679199e-02 -6.330422163009643555e-01
-1.891158819198608398e-01 -7.616958767175674438e-02 -4.132423698902130127e-01
-4.748045206069946289e-01 1.326576247811317444e-02 -4.599179029464721680e-01
3.036921024322509766e-01 -1.558804214000701904e-01 -1.517013758420944214e-01
4.556284546852111816e-01 -1.546865254640579224e-01 -3.440444767475128174e-01
-1.300046741962432861e-01 -6.189361959695816040e-02 -6.291002631187438965e-01
-5.851093679666519165e-02 4.250441491603851318e-02 -7.100263237953186035e-02
-5.402609705924987793e-03 -8.712701499462127686e-03 7.728168368339538574e-02
-1.378822922706604004e-01 9.423612803220748901e-02 -4.483852386474609375e-01
3.753753900527954102e-01 -8.535362780094146729e-02 -7.089578509330749512e-01
4.910640120506286621e-01 -1.357714533805847168e-01 -4.173076152801513672e-01
-5.139321088790893555e-02 6.557925790548324585e-02 -2.558309435844421387e-01
-3.401485458016395569e-02 4.718806594610214233e-02 -7.964183092117309570e-01
-1.654045581817626953e-01 3.003621660172939301e-02 7.823586463928222656e-02
-3.023672401905059814e-01 1.092957928776741028e-01 -2.244199961423873901e-01
-6.054280996322631836e-01 1.185094416141510010e-01 -4.999766349792480469e-01
3.800595998764038086e-01 -1.589060574769973755e-01 -2.163373827934265137e-01
2.152911275625228882e-01 -1.453328430652618408e-01 -7.694822549819946289e-02
2.957388162612915039e-01 -1.475508660078048706e-01 -8.967542648315429688e-02
-1.760452091693878174e-01 6.823028624057769775e-02 -7.569548487663269043e-02
-4.722865819931030273e-01 -6.639325991272926331e-03 -1.756708174943923950e-01
1.724611222743988037e-02 -1.238336190581321716e-01 -8.228936791419982910e-02
3.596603870391845703e-01 -1.278504729270935059e-01 -6.368689537048339844e-01
-2.016895711421966553e-01 -7.248472422361373901e-02 1.913833618164062500e-02
-4.692671895027160645e-01 9.318868070840835571e-02 -1.372489333152770996e-02
1.294180899858474731e-01 -7.709958404302597046e-02 -7.718683481216430664e-01
5.096864700317382812e-02 -7.183358073234558105e-02 -7.514206171035766602e-01
1.018871814012527466e-01 -1.395315378904342651e-01 -1.475699990987777710e-01
-2.046097517013549805e-01 1.571001484990119934e-04 -7.826991081237792969e-01
1.099719852209091187e-02 6.228472292423248291e-02 -5.939185619354248047e-01
2.061312347650527954e-01 -8.819251507520675659e-02 -7.609701156616210938e-01
3.965896964073181152e-01 -6.615714728832244873e-02 -3.142209053039550781e-01
-5.011208727955818176e-02 4.544261097908020020e-02 -9.939274191856384277e-02
2.895159125328063965e-01 -1.566625535488128662e-01 -1.622749418020248413e-01
-6.095783412456512451e-02 -7.809170335531234741e-02 1.179598271846771240e-01
7.283940911293029785e-02 2.120402269065380096e-02 -1.411051601171493530e-01
2.015693038702011108e-01 -1.520952880382537842e-01 -1.774166375398635864e-01
-2.517392635345458984e-01 5.608571693301200867e-03 -7.577690482139587402e-01
3.354540467262268066e-01 -8.597450703382492065e-02 -7.413840293884277344e-01
4.278204441070556641e-01 -9.779351204633712769e-02 -6.423588991165161133e-01
-1.023992225527763367e-01 -1.050649583339691162e-01 -2.173635810613632202e-01
-2.714772820472717285e-01 1.138269603252410889e-01 -3.509753048419952393e-01
-5.457987189292907715e-01 3.964849561452865601e-02 -1.407697796821594238e-02
1.498594731092453003e-01 -1.357888728380203247e-01 -3.658241033554077148e-02
2.500209212303161621e-01 -7.498037535697221756e-03 -6.624732017517089844e-01
-5.345426127314567566e-02 -4.620288312435150146e-02 -7.677932977676391602e-01
3.589580655097961426e-01 -8.497226983308792114e-02 -7.247267961502075195e-01
2.640511989593505859e-01 -5.226156115531921387e-02 -7.910211086273193359e-01
1.406199932098388672e-01 -7.807580381631851196e-02 8.762401342391967773e-02
7.677279412746429443e-02 4.599997401237487793e-02 -4.155851006507873535e-01
-4.213613867759704590e-01 1.332208961248397827e-01 -3.674440979957580566e-01
1.799566000699996948e-01 8.459232747554779053e-03 -7.159891128540039062e-01
-3.993964791297912598e-01 -3.025045990943908691e-02 -2.101892679929733276e-01
1.410450637340545654e-01 -1.278549898415803909e-02 -6.487894058227539062e-02
-6.270989775657653809e-01 8.415269851684570312e-02 -4.280231595039367676e-01
-7.587750256061553955e-02 -3.431983664631843567e-02 -7.870922088623046875e-01
3.181710094213485718e-02 -1.190808787941932678e-01 -4.498366117477416992e-01
-4.751341342926025391e-01 3.023617155849933624e-02 6.555965542793273926e-02
-2.521692812442779541e-01 1.027155965566635132e-01 -2.375250607728958130e-01
-6.292598843574523926e-01 1.145223826169967651e-01 -4.585607349872589111e-01
-5.518815517425537109e-01 1.008813902735710144e-01 -5.172842741012573242e-02
-4.254500195384025574e-02 7.547379285097122192e-02 -4.779315888881683350e-01
-6.124509572982788086e-01 7.962486892938613892e-02 -4.543691277503967285e-01
-6.269142031669616699e-02 7.930962741374969482e-02 -4.515285193920135498e-01
-5.706583857536315918e-01 3.240392357110977173e-02 -2.416945099830627441e-01
4.394392371177673340e-01 -9.572993963956832886e-02 -2.748265862464904785e-01
7.777924835681915283e-02 4.388114809989929199e-02 -6.426100730895996094e-01
-4.711017608642578125e-01 4.925273358821868896e-02 -6.278516054153442383e-01
-7.494360953569412231e-02 -1.105900034308433533e-01 -1.711627393960952759e-01
-5.523684024810791016e-01 1.353002488613128662e-01 -2.720164060592651367e-01
-5.911636352539062500e-01 5.771816521883010864e-02 -4.153945446014404297e-01
5.895566940307617188e-02 9.015893563628196716e-03 -5.245330929756164551e-02
-5.064872503280639648e-01 1.342191994190216064e-01 -2.705531120300292969e-01
-8.599017560482025146e-02 1.059549115598201752e-02 8.338251709938049316e-02
-4.478919133543968201e-02 -8.009538799524307251e-02 -6.333465576171875000e-01
-2.720594406127929688e-01 7.175816595554351807e-02 -6.853491067886352539e-03
2.418752759695053101e-01 -1.728281751275062561e-02 -2.264926433563232422e-01
-2.305120080709457397e-01 1.054269745945930481e-01 -3.184889853000640869e-01
-2.461789995431900024e-01 2.311717160046100616e-02 1.285998523235321045e-01
-3.340903222560882568e-01 8.878522366285324097e-02 -4.615148901939392090e-02
2.762276530265808105e-01 -1.586089283227920532e-01 -2.039978653192520142e-01
2.128647416830062866e-01 -2.528073638677597046e-02 -1.186435669660568237e-01
-3.337994217872619629e-01 1.172607541084289551e-01 -6.266506910324096680e-01
-3.871267437934875488e-01 -2.351195737719535828e-02 -3.995102643966674805e-01
3.666674494743347168e-01 -5.161203444004058838e-02 -6.428488492965698242e-01
2.117826193571090698e-01 -1.535701453685760498e-01 -3.141201734542846680e-01
3.369549512863159180e-01 -3.157058358192443848e-02 -4.546638131141662598e-01
1.136438101530075073e-01 2.530821226537227631e-02 -7.313557863235473633e-01
-1.861015856266021729e-01 9.864806383848190308e-02 -3.340837359428405762e-01
-1.594553291797637939e-01 -9.302319586277008057e-02 -1.909343302249908447e-01
-7.778944075107574463e-02 8.167628943920135498e-02 -5.805392265319824219e-01
6.954462826251983643e-02 4.938141256570816040e-02 -4.676098525524139404e-01
-5.954957753419876099e-02 -9.596772491931915283e-02 -5.035088062286376953e-01
-2.895974367856979370e-02 -6.829115003347396851e-02 -7.065385580062866211e-01
-6.040666103363037109e-01 1.266012191772460938e-01 -2.067878991365432739e-01
-5.434446334838867188e-01 2.249867282807826996e-02 -1.196730881929397583e-01
-1.057559996843338013e-01 8.183592557907104492e-02 -3.129515945911407471e-01
3.725823163986206055e-01 -1.596906781196594238e-01 -4.101154208183288574e-01
-2.582845091819763184e-01 1.147708594799041748e-01 -4.486692547798156738e-01
-4.551202654838562012e-01 2.200526557862758636e-02 7.380494475364685059e-02
2.483829855918884277e-02 2.545588649809360504e-02 -8.236721158027648926e-01
-4.449159502983093262e-01 1.359796375036239624e-01 -4.038833975791931152e-01
-3.352874517440795898e-01 7.428177446126937866e-02 1.950550079345703125e-02
2.994439601898193359e-01 -1.442777216434478760e-01 -5.385815501213073730e-01
-4.551954865455627441e-01 1.203608214855194092e-01 -6.295564174652099609e-01
-3.468732237815856934e-01 -4.018981754779815674e-02 -3.428162932395935059e-01
4.614998400211334229e-02 3.305541723966598511e-02 -1.744690239429473877e-01
-5.244792103767395020e-01 1.370495706796646118e-01 -3.057181835174560547e-01
-5.938373804092407227e-01 4.422134160995483398e-02 -1.587415486574172974e-01
-5.401462316513061523e-01 2.161335386335849762e-02 -2.920031845569610596e-01
-5.690698623657226562e-01 5.836497247219085693e-02 -1.489385962486267090e-02
-5.302029252052307129e-01 2.340947277843952179e-02 -5.170226097106933594e-02
-1.028163433074951172e-01 -9.886296838521957397e-02 -3.202813863754272461e-02
4.533542394638061523e-01 -1.213561296463012695e-01 -5.865495800971984863e-01
2.518624067306518555e-01 -2.337012439966201782e-02 -7.504334449768066406e-01
2.972295284271240234e-01 -1.075439602136611938e-01 -7.127079963684082031e-01
-3.782890439033508301e-01 -1.854886673390865326e-02 -4.686970114707946777e-01
9.391397237777709961e-03 -8.431231975555419922e-02 -6.680514812469482422e-01
7.735374569892883301e-02 -4.738724976778030396e-02 9.732583165168762207e-02
-1.040615886449813843e-02 1.641519740223884583e-02 -2.246975898742675781e-03
2.920495867729187012e-01 -1.472501605749130249e-01 -5.108269453048706055e-01
-1.717628538608551025e-02 -5.820515751838684082e-02 -7.540283203125000000e-01
-5.756844282150268555e-01 4.210346192121505737e-02 -3.561755418777465820e-01
-3.679182529449462891e-01 9.048692137002944946e-02 -3.404313325881958008e-02
-2.247885763645172119e-01 -7.596568763256072998e-02 -2.796772122383117676e-01
-2.865159511566162109e-01 -5.760603398084640503e-02 -3.320303559303283691e-01
-6.618241220712661743e-02 -1.069241017103195190e-01 -3.654569387435913086e-01
-2.320812195539474487e-01 -1.295012235641479492e-02 -7.228401899337768555e-01
-4.517107605934143066e-01 -1.193038560450077057e-02 -2.678809165954589844e-01
-3.076179027557373047e-01 -3.081984445452690125e-02 9.316968917846679688e-02
-4.110657796263694763e-02 -8.139883726835250854e-02 1.159059405326843262e-01
2.024672776460647583e-01 4.411159083247184753e-03 -6.943151354789733887e-01
-5.406897664070129395e-01 1.996533758938312531e-02 -1.467158049345016479e-01
-1.784515976905822754e-01 -8.068373799324035645e-02 -6.504058837890625000e-03
-1.957832276821136475e-02 2.297563664615154266e-02 -2.041372656822204590e-02
-2.469510734081268311e-01 -3.473292291164398193e-02 -6.131421327590942383e-01
-2.628473937511444092e-01 -6.701870262622833252e-02 -2.643817663192749023e-01
-6.201739311218261719e-01 1.321289986371994019e-01 -3.915291726589202881e-01
8.654186129570007324e-02 3.551334887742996216e-02 -7.089948654174804688e-01
4.237237572669982910e-02 -1.056767553091049194e-01 6.906998157501220703e-02
1.015255451202392578e-01 -7.390499114990234375e-02 -7.704190015792846680e-01
-3.221930563449859619e-01 -3.774895519018173218e-02 -4.489264786243438721e-01
-1.179604008793830872e-01 2.041124738752841949e-02 7.670482993125915527e-02
-2.856243848800659180e-01 1.122477427124977112e-01 -6.280821561813354492e-01
-2.808447182178497314e-01 -6.387042999267578125e-02 -1.874607056379318237e-01
-1.594718694686889648e-01 -8.735921978950500488e-02 -3.571635186672210693e-01
-4.602330327033996582e-01 1.344379037618637085e-01 -3.188021779060363770e-01
-2.066740840673446655e-01 8.322241902351379395e-02 -7.579780817031860352e-01
2.644097059965133667e-02 -1.006266698241233826e-01 8.135795593261718750e-02
3.581432104110717773e-01 -1.589664518833160400e-01 -1.998888403177261353e-01
-2.380074262619018555e-01 -7.409558445215225220e-02 -2.347942143678665161e-01
5.084748566150665283e-02 -1.331462711095809937e-01 -2.319569438695907593e-01
-2.630211114883422852e-01 -4.741795361042022705e-02 -5.052963495254516602e-01
-6.409518122673034668e-01 1.044595837593078613e-01 -4.308651983737945557e-01
3.877603411674499512e-01 -1.618317663669586182e-01 -2.745755910873413086e-01
-4.185032248497009277e-01 1.321102976799011230e-01 -3.447060585021972656e-01
3.369901180267333984e-01 -1.594999730587005615e-01 -1.975861936807632446e-01
-3.830109834671020508e-01 6.812505424022674561e-02 5.572453141212463379e-02
3.441839665174484253e-02 4.044207185506820679e-02 -7.605686187744140625e-01
1.153453588485717773e-01 3.328517824411392212e-02 -3.628226816654205322e-01
3.861799240112304688e-01 -1.558463871479034424e-01 -1.943174004554748535e-01
1.147140860557556152e-01 -1.320463418960571289e-01 -4.578101038932800293e-01
-4.830852150917053223e-01 9.270614013075828552e-03 -4.042765200138092041e-01
3.037636876106262207e-01 -1.598046869039535522e-01 -3.617235720157623291e-01
-3.679745197296142578e-01 -3.952798992395401001e-02 -1.417302489280700684e-01
-6.599219441413879395e-01 1.167866885662078857e-01 -3.376598060131072998e-01
1.599483639001846313e-01 -1.300639212131500244e-01 3.385543823242187500e-04
1.103728562593460083e-01 3.943616151809692383e-02 -5.331883430480957031e-01
-4.878104329109191895e-01 1.373474895954132080e-01 -4.735532104969024658e-01
-2.188262194395065308e-01 8.720276504755020142e-02 -1.495401263236999512e-01
2.913306355476379395e-01 -1.352706700563430786e-01 -5.946903824806213379e-01
1.283141374588012695e-01 3.461001068353652954e-02 -4.913021922111511230e-01
1.668896824121475220e-01 -1.494075953960418701e-01 -2.186584323644638062e-01
5.606643855571746826e-02 -3.180527687072753906e-02 8.489042520523071289e-02
-7.181227952241897583e-02 7.484484463930130005e-02 -3.142555952072143555e-01
-2.565088272094726562e-01 -9.217716753482818604e-03 -7.099379301071166992e-01
-4.697010517120361328e-01 1.358076930046081543e-01 -3.338005244731903076e-01
-2.173312902450561523e-01 7.160557433962821960e-03 1.463486850261688232e-01
-5.034155845642089844e-01 1.366237103939056396e-01 -3.115241825580596924e-01
4.285866618156433105e-01 -7.268741726875305176e-02 -4.153029322624206543e-01
-6.189097464084625244e-02 7.647921144962310791e-02 -3.764924705028533936e-01
1.269723474979400635e-02 5.939999967813491821e-02 -6.418640017509460449e-01
3.419463038444519043e-01 -8.437471836805343628e-02 -1.043514609336853027e-01
-5.662273764610290527e-01 1.254134327173233032e-01 -1.772189140319824219e-01
3.554475307464599609e-01 -3.831905126571655273e-02 -5.318133234977722168e-01
-4.433122277259826660e-01 2.974789589643478394e-03 -4.680458009243011475e-01
-2.640398591756820679e-02 -9.121488779783248901e-02 -5.891865491867065430e-01
-2.961415648460388184e-01 -3.853193670511245728e-02 7.667681574821472168e-02
3.708976507186889648e-02 -2.241123467683792114e-02 7.860085368156433105e-02
-5.848705768585205078e-04 -1.116314977407455444e-01 -4.658869206905364990e-01
3.112724423408508301e-01 -1.504014134407043457e-01 -1.107690185308456421e-01
-1.309588551521301270e-03 5.940897762775421143e-02 -6.806170344352722168e-01
-1.220177114009857178e-01 -5.849567055702209473e-02 -6.565259695053100586e-01
4.316526055335998535e-01 -1.586297005414962769e-01 -3.740268349647521973e-01
-3.607930541038513184e-01 1.188292205333709717e-01 -6.309359073638916016e-01
-9.986605495214462280e-02 8.454848080873489380e-02 -6.124510765075683594e-01
6.357192993164062500e-03 -2.993060089647769928e-02 1.143663227558135986e-01
1.449992209672927856e-01 2.834963984787464142e-02 -4.235424995422363281e-01
-3.115801811218261719e-01 -5.212870240211486816e-02 -5.972445011138916016e-02
3.811831474304199219e-01 -5.463632196187973022e-02 -3.588624894618988037e-01
-1.425395756959915161e-01 -6.942380219697952271e-02 -5.658607482910156250e-01
2.719761729240417480e-01 -3.764120489358901978e-02 -1.649501472711563110e-01
-3.787251561880111694e-02 5.992025882005691528e-02 -2.294428348541259766e-01
-4.336189627647399902e-01 1.040569618344306946e-01 -7.078841328620910645e-02
3.808540105819702148e-01 -1.351851075887680054e-01 -6.006899476051330566e-01
3.514298200607299805e-01 -7.312273234128952026e-02 -1.574967652559280396e-01
-5.234957337379455566e-01 3.882488608360290527e-02 -4.944516122341156006e-01
-3.419093489646911621e-01 1.032005548477172852e-01 -7.122505903244018555e-01
4.322361946105957031e-02 -1.319781690835952759e-01 -2.154979109764099121e-01
9.257668256759643555e-02 -1.270564794540405273e-01 -1.252147555351257324e-02
-4.380500316619873047e-01 -1.783332601189613342e-02 -1.453130692243576050e-01
4.301392436027526855e-01 -8.104497194290161133e-02 -3.305918276309967041e-01
-2.809033095836639404e-01 -1.787710748612880707e-02 1.409954726696014404e-01
-1.665007472038269043e-01 -9.092641621828079224e-02 -1.365434974431991577e-01
8.035379648208618164e-02 -9.908690303564071655e-02 9.211480617523193359e-02
2.965704202651977539e-01 -1.321650445461273193e-01 -6.137107610702514648e-01
-4.256060346961021423e-02 3.430274128913879395e-02 -4.747611284255981445e-02
3.480058163404464722e-02 -1.024967953562736511e-01 -5.916887521743774414e-01
1.471638679504394531e-03 -1.150927692651748657e-01 -4.324244856834411621e-01
-7.823260873556137085e-02 7.951471954584121704e-02 -6.272544860839843750e-01
-4.480233192443847656e-01 1.268335431814193726e-01 -5.929743051528930664e-01
3.998684287071228027e-01 -1.598208546638488770e-01 -4.002717137336730957e-01
2.816082835197448730e-01 -2.546965144574642181e-02 -2.694896161556243896e-01
1.549981534481048584e-03 4.796265810728073120e-02 -2.047697454690933228e-01
-5.292167663574218750e-01 1.391973644495010376e-01 -4.271351099014282227e-01
-3.864290118217468262e-01 8.139698952436447144e-02 1.279804110527038574e-02
-4.867608547210693359e-01 1.256505399942398071e-01 -1.900471895933151245e-01
-4.415940642356872559e-01 1.110419481992721558e-01 -6.687674522399902344e-01
-8.464084565639495850e-02 -5.271721631288528442e-02 -7.204013466835021973e-01
-1.359150111675262451e-01 -9.395916014909744263e-02 -5.531650781631469727e-02
7.267738878726959229e-02 -1.341229081153869629e-01 -3.297589719295501709e-01
-2.373621910810470581e-01 1.117105856537818909e-01 -4.871780872344970703e-01
-4.898195266723632812e-01 1.231637895107269287e-01 -1.683383435010910034e-01
-1.881229579448699951e-01 -5.122619122266769409e-02 -6.089344620704650879e-01
-1.181865930557250977e-01 3.290923684835433960e-02 3.485578298568725586e-02
-4.442025423049926758e-01 1.173486560583114624e-01 -1.479075551033020020e-01
-3.278349637985229492e-01 -5.018514394760131836e-02 -2.500293552875518799e-01
-2.354667633771896362e-01 -1.956116966903209686e-02 -6.958273053169250488e-01
-3.334323763847351074e-01 7.970599085092544556e-02 -3.614276647567749023e-03
-2.005701214075088501e-01 -4.531809687614440918e-02 -6.235693693161010742e-01
5.031338334083557129e-02 -4.112289473414421082e-02 1.053818762302398682e-01
2.559502124786376953e-01 -7.787669077515602112e-03 -6.444929242134094238e-01
3.591945767402648926e-02 5.681855976581573486e-02 -5.859357118606567383e-01
-1.248702853918075562e-01 8.064095675945281982e-02 -7.072867155075073242e-01
-4.097708463668823242e-01 -2.500326931476593018e-02 -9.081664681434631348e-02
-3.736069798469543457e-01 4.324362426996231079e-02 -7.276878952980041504e-01
6.743943691253662109e-02 -1.298461109399795532e-01 -3.910622298717498779e-01
7.488019764423370361e-02 -1.369405686855316162e-01 -2.288321554660797119e-01
1.073509752750396729e-01 3.492987900972366333e-02 -6.614516973495483398e-01
-4.526406526565551758e-01 1.349702179431915283e-01 -3.429307937622070312e-01
-6.297519803047180176e-01 9.996587783098220825e-02 -1.174836158752441406e-01
-3.655533194541931152e-01 -3.404925763607025146e-02 -3.523192703723907471e-01
-3.472587466239929199e-01 -3.550787270069122314e-02 8.485555648803710938e-03
-3.360284566879272461e-01 1.137613207101821899e-01 -2.213425785303115845e-01
-2.467969506978988647e-01 7.381808012723922729e-02 -3.640705347061157227e-02
-1.344417929649353027e-01 9.248649328947067261e-02 -5.796941518783569336e-01
-1.790146231651306152e-01 -2.032906003296375275e-02 -7.492774128913879395e-01
3.782353997230529785e-01 -4.743237793445587158e-02 -4.804500937461853027e-01
-6.304241418838500977e-01 1.175668537616729736e-01 -1.796717345714569092e-01
-5.633002519607543945e-01 7.391318678855895996e-02 -4.635423421859741211e-03
-2.443900108337402344e-01 -6.767050176858901978e-02 -3.457736670970916748e-01
-1.641159951686859131e-01 -8.074567466974258423e-02 2.011665701866149902e-02
3.201528638601303101e-02 1.272268593311309814e-03 1.199218630790710449e-02
-1.480770856142044067e-01 -9.529060870409011841e-02 -1.542087197303771973e-01
-4.831118583679199219e-01 1.241756603121757507e-03 -3.124276697635650635e-01
-3.711453676223754883e-01 3.957761451601982117e-03 -6.134703159332275391e-01
-1.189690083265304565e-01 6.978005170822143555e-02 -7.655137777328491211e-01
3.149880170822143555e-01 -2.498072758316993713e-02 -4.167035222053527832e-01
-5.953438878059387207e-01 7.120946049690246582e-02 -4.684221148490905762e-01
1.193067878484725952e-01 -1.389739662408828735e-01 -3.749600052833557129e-01
-1.937276870012283325e-02 -6.782307475805282593e-02 1.396951675415039062e-01
-5.867301300168037415e-02 -1.111926808953285217e-01 -3.146218657493591309e-01
-5.344849824905395508e-01 1.011625528335571289e-01 -6.150522232055664062e-01
3.411194682121276855e-01 -5.826818943023681641e-02 -2.037652283906936646e-01
-1.632850915193557739e-01 9.923015534877777100e-02 -5.126070976257324219e-01
2.579888701438903809e-01 -5.077861715108156204e-03 -5.934757590293884277e-01
-5.025537014007568359e-01 5.459519103169441223e-03 -2.569403648376464844e-01
-3.892105817794799805e-01 9.728547185659408569e-02 -5.654600262641906738e-02
3.689723610877990723e-01 -1.462162733078002930e-01 -1.280179470777511597e-01
2.278554886579513550e-01 -1.542586982250213623e-01 -3.433750271797180176e-01
-5.574591159820556641e-01 2.979079447686672211e-02 -3.073974847793579102e-01
1.641714423894882202e-01 2.333086915314197540e-02 -4.318072199821472168e-01
-5.676589608192443848e-01 1.388263702392578125e-01 -3.706832528114318848e-01
-8.713725954294204712e-02 8.483451604843139648e-02 -4.872489869594573975e-01
2.440104633569717407e-01 -1.573636978864669800e-01 -2.412947565317153931e-01
4.168657958507537842e-02 5.132496356964111328e-02 -3.504061996936798096e-01
-2.363845556974411011e-01 -6.980217993259429932e-02 -3.537780046463012695e-02
-4.724490642547607422e-01 6.621330976486206055e-03 -1.279413700103759766e-04
5.416108667850494385e-02 2.873001806437969208e-02 -7.917119860649108887e-01
-4.121791124343872070e-01 1.270502954721450806e-01 -5.832993984222412109e-01
1.870712637901306152e-02 2.658891864120960236e-02 -8.750542998313903809e-02
1.445927172899246216e-01 -1.365337967872619629e-01 -4.566839933395385742e-01
-3.281201720237731934e-01 1.416233554482460022e-02 -7.061983346939086914e-01
-3.149408400058746338e-01 -4.548617452383041382e-02 3.600984811782836914e-03
4.308398962020874023e-01 -7.965380698442459106e-02 -5.905412435531616211e-01
-2.407360076904296875e-02 6.986037641763687134e-02 -4.140725731849670410e-01
-2.280044406652450562e-01 6.911356002092361450e-02 -2.888613939285278320e-02
1.571965515613555908e-01 1.022095419466495514e-02 -7.468650937080383301e-01
-6.224002242088317871e-01 5.845209956169128418e-02 -2.136421352624893188e-01
-5.355609655380249023e-01 3.098388575017452240e-02 -4.129725992679595947e-01
-4.831666946411132812e-01 1.377449929714202881e-01 -3.667337894439697266e-01
-3.910962343215942383e-01 1.065883040428161621e-01 -1.091562658548355103e-01
4.373389482498168945e-01 -1.567000448703765869e-01 -4.046454131603240967e-01
-8.919594436883926392e-02 8.340907841920852661e-02 -5.936639904975891113e-01
7.123020291328430176e-02 4.359884560108184814e-02 -3.447021543979644775e-01
-4.275221824645996094e-01 4.738219827413558960e-02 9.427884221076965332e-02
-2.622907236218452454e-02 -9.362218528985977173e-02 8.485177159309387207e-02
2.796801328659057617e-01 -1.127248629927635193e-01 -6.953996419906616211e-01
2.618901133537292480e-01 -1.588055938482284546e-01 -2.477970868349075317e-01
1.833016127347946167e-01 -2.374580875039100647e-02 -7.812505960464477539e-02
-4.560511112213134766e-01 1.342541724443435669e-01 -5.158470273017883301e-01
-2.796085178852081299e-01 8.916740864515304565e-02 -9.311762452125549316e-02
-6.116513013839721680e-01 1.210773587226867676e-01 -4.822385907173156738e-01
-1.755429208278656006e-01 -8.227796852588653564e-02 -3.770233392715454102e-01
-9.706749767065048218e-02 1.864344812929630280e-03 -8.428702950477600098e-01
-2.845690548419952393e-01 2.333277277648448944e-02 -7.687635421752929688e-01
3.354088068008422852e-01 -3.182905912399291992e-02 -4.308469593524932861e-01
-4.765952229499816895e-01 1.839174330234527588e-02 -4.889314770698547363e-01
-2.960787415504455566e-01 1.195813417434692383e-01 -4.084033966064453125e-01
-4.418090581893920898e-01 -5.442951805889606476e-03 -4.030182659626007080e-01
-3.565354943275451660e-01 8.891391754150390625e-02 -7.473713159561157227e-01
-7.978555560111999512e-02 6.826956570148468018e-02 -7.375143766403198242e-01
3.176089525222778320e-01 -1.049286201596260071e-01 -3.825005888938903809e-02
1.168947666883468628e-01 -1.411319971084594727e-01 -1.389331519603729248e-01
-4.413356184959411621e-01 1.279406398534774780e-01 -2.462515532970428467e-01
7.308097183704376221e-02 2.164100296795368195e-02 -7.996716499328613281e-01
-2.163112908601760864e-02 6.012161076068878174e-02 -7.138798236846923828e-01
1.274997144937515259e-01 -1.081783398985862732e-01 7.032418251037597656e-02
4.060373902320861816e-01 -7.307624816894531250e-02 -2.963339686393737793e-01
2.642252445220947266e-01 -1.209128499031066895e-01 -6.594421863555908203e-01
-8.343920111656188965e-03 3.702066093683242798e-02 -1.088502407073974609e-01
-3.959061503410339355e-01 -2.510808967053890228e-02 -3.253483772277832031e-02
-3.207680284976959229e-01 -4.281298443675041199e-02 -4.029721915721893311e-01
-5.756127238273620605e-01 4.462535679340362549e-02 -3.788049221038818359e-01
4.865967035293579102e-01 -1.190584674477577209e-01 -3.679399192333221436e-01
