7.295864075422286987e-02 -6.128563731908798218e-02 1.261333823204040527e-01
1.956685818731784821e-02 -3.830180689692497253e-02 -2.538407742977142334e-01
9.970319271087646484e-02 -6.951134651899337769e-02 1.305222213268280029e-01
-7.217756509780883789e-01 -6.290798634290695190e-02 -1.012480184435844421e-01
-6.296437978744506836e-01 -8.287042379379272461e-02 8.434902876615524292e-02
2.347390949726104736e-01 -2.283899188041687012e-01 -4.882555827498435974e-02
7.906817197799682617e-01 -5.951818823814392090e-02 -1.059156432747840881e-01
4.572005271911621094e-01 -1.622062325477600098e-01 -1.587551236152648926e-01
-2.888845093548297882e-02 8.019345998764038086e-02 -1.398228704929351807e-01
-3.515266627073287964e-02 7.678455114364624023e-02 -1.781183779239654541e-01
6.130191087722778320e-01 -1.841785013675689697e-01 -1.049986258149147034e-01
-3.259986340999603271e-01 -1.539901494979858398e-01 -1.228955239057540894e-01
4.388826787471771240e-01 -9.730307012796401978e-02 -2.164323329925537109e-01
-1.988145262002944946e-01 -1.389253139495849609e-02 -2.463647127151489258e-01
6.930036544799804688e-01 -5.325724557042121887e-02 -3.006938844919204712e-03
6.610867977142333984e-01 -2.981419861316680908e-02 -2.896793931722640991e-02
4.474676549434661865e-01 -1.393693685531616211e-02 2.271460741758346558e-02
4.631361663341522217e-01 -2.358640134334564209e-01 2.034872025251388550e-02
-2.293613553047180176e-01 -6.108181551098823547e-02 1.297111511230468750e-01
-6.002286672592163086e-01 -3.934777155518531799e-02 7.191232591867446899e-02
6.812154054641723633e-01 -2.074274793267250061e-02 -1.466046571731567383e-01
6.767161488533020020e-01 -1.847286522388458252e-02 -7.316520810127258301e-02
-2.584564089775085449e-01 -2.682197839021682739e-02 -2.379431128501892090e-01
1.926921308040618896e-01 -2.099735736846923828e-01 -9.276014566421508789e-02
5.500530004501342773e-01 -3.040991723537445068e-03 -3.259387984871864319e-02
4.734843969345092773e-05 5.892120301723480225e-02 -3.691140934824943542e-02
-6.441525816917419434e-01 -1.983480527997016907e-02 -1.585832834243774414e-01
-4.349492490291595459e-01 6.851355731487274170e-02 -1.500202566385269165e-01
1.439710706472396851e-01 6.919388473033905029e-02 -1.120851188898086548e-01
-4.031265079975128174e-01 -5.323574692010879517e-02 1.128800734877586365e-01
3.867922127246856689e-01 -2.368644177913665771e-01 -7.242389023303985596e-03
-5.203644633293151855e-01 -5.269871652126312256e-02 9.688115864992141724e-02
7.058901190757751465e-01 -1.728026717901229858e-01 5.998417735099792480e-02
4.807609319686889648e-01 -2.119376510381698608e-01 -7.475040853023529053e-02
-4.101319611072540283e-02 5.138972401618957520e-02 -1.423944160342216492e-02
3.123413920402526855e-01 5.085383355617523193e-02 -9.462955594062805176e-02
-6.782971024513244629e-01 -9.007076919078826904e-02 -9.530632197856903076e-02
1.341951489448547363e-01 -2.405986487865447998e-01 7.999450713396072388e-02
6.266210079193115234e-01 -7.196038961410522461e-02 4.613666236400604248e-02
3.184974789619445801e-01 -7.559907436370849609e-02 -2.364312708377838135e-01
1.240279749035835266e-01 -2.411226779222488403e-01 1.272851228713989258e-02
2.082060575485229492e-01 1.539923995733261108e-02 -2.469159662723541260e-01
-4.306820631027221680e-01 -1.240917295217514038e-02 7.537331432104110718e-02
-8.924116194248199463e-02 -1.278055459260940552e-02 -2.541137039661407471e-01
2.842489480972290039e-01 -2.178478091955184937e-01 -7.641479372978210449e-02
7.285267114639282227e-01 -5.390034615993499756e-02 -2.172918245196342468e-02
4.773257300257682800e-02 7.077072560787200928e-02 -1.901663839817047119e-01
-2.497971951961517334e-01 1.074653863906860352e-02 -2.413867712020874023e-01
-9.093581140041351318e-02 7.829004526138305664e-02 -1.758511364459991455e-01
-4.833832979202270508e-01 4.568713903427124023e-02 -2.093034982681274414e-02
2.700970172882080078e-01 -2.740628644824028015e-02 7.497888058423995972e-02
3.308843672275543213e-01 -2.304807901382446289e-01 -4.021336510777473450e-02
-2.667592763900756836e-01 -1.742731332778930664e-01 1.413854956626892090e-01
-1.402400992810726166e-02 -1.807425916194915771e-02 9.115376323461532593e-02
-7.099692821502685547e-01 -9.190802276134490967e-02 4.840932786464691162e-02
1.517686713486909866e-02 -2.092398405075073242e-01 1.400522291660308838e-01
-5.154955387115478516e-02 1.408813893795013428e-02 -2.535788714885711670e-01
-2.059237957000732422e-01 4.681113362312316895e-02 1.722745597362518311e-03
-2.255722880363464355e-01 4.422165453433990479e-02 6.678152829408645630e-03
-1.491622924804687500e-01 -4.782703891396522522e-02 -2.415870726108551025e-01
-4.307950735092163086e-01 -1.804472953081130981e-01 9.141228348016738892e-02
-3.117388114333152771e-03 -9.747551381587982178e-02 -2.233302593231201172e-01
1.026409864425659180e-01 -2.236059606075286865e-01 1.244276240468025208e-01
4.119418859481811523e-01 -1.060587987303733826e-01 1.196998283267021179e-01
5.300254225730895996e-01 -3.450917825102806091e-02 -2.180977761745452881e-01
2.838445603847503662e-01 -7.094055414199829102e-03 4.694476723670959473e-02
-7.052108049392700195e-01 -5.405350774526596069e-02 -1.176350638270378113e-01
-2.802522182464599609e-01 -1.010188162326812744e-01 -1.931177377700805664e-01
1.100838854908943176e-01 -1.329301297664642334e-02 7.709474116563796997e-02
-7.028203010559082031e-01 -3.949430212378501892e-02 -1.273993253707885742e-01
2.733510360121726990e-02 -2.395004481077194214e-01 3.266315907239913940e-02
-8.229477703571319580e-02 7.613189518451690674e-02 -8.729866147041320801e-02
4.862418770790100098e-01 -7.156064361333847046e-02 8.208201080560684204e-02
1.529476940631866455e-01 1.462685316801071167e-02 3.389342874288558960e-02
1.241651922464370728e-01 -2.089460194110870361e-01 1.420071423053741455e-01
-4.530997574329376221e-01 1.197852939367294312e-02 -2.109119892120361328e-01
1.835599243640899658e-01 6.491866707801818848e-02 -1.033777892589569092e-01
3.420943915843963623e-01 -2.396648228168487549e-01 6.918897479772567749e-02
6.300246715545654297e-01 -1.367161422967910767e-01 8.686544746160507202e-02
5.843910574913024902e-01 -2.140365988016128540e-01 -4.461045935750007629e-02
-2.492270469665527344e-01 3.296933323144912720e-02 2.655860781669616699e-02
4.007617235183715820e-01 -2.110378593206405640e-01 -8.597788214683532715e-02
-6.566606760025024414e-01 -1.339725852012634277e-01 3.267613053321838379e-02
1.566403955221176147e-01 -2.266530841588973999e-01 1.196603551506996155e-01
3.908019661903381348e-01 8.377581834793090820e-04 1.279840618371963501e-02
3.157655894756317139e-02 4.157508164644241333e-02 -2.592802047729492188e-05
3.033010959625244141e-01 4.464365541934967041e-02 -2.002187371253967285e-01
-2.110055983066558838e-01 -2.217570841312408447e-01 3.773704171180725098e-02
5.340991020202636719e-01 -2.187382131814956665e-01 -4.537715017795562744e-02
-5.663413405418395996e-01 4.509001970291137695e-03 -1.844705641269683838e-01
-5.056000947952270508e-01 1.638836413621902466e-02 2.937201410531997681e-02
-5.148178935050964355e-01 -7.156826555728912354e-02 -1.714437901973724365e-01
1.281185001134872437e-01 -2.433163523674011230e-01 5.388347804546356201e-02
-4.957879781723022461e-01 -1.646273434162139893e-01 9.008697420358657837e-02
4.266721904277801514e-01 3.796777874231338501e-02 -1.577394008636474609e-01
2.747018337249755859e-01 2.071519196033477783e-02 -2.366948425769805908e-01
2.313357889652252197e-01 -1.956804394721984863e-01 -1.202858611941337585e-01
-5.508268475532531738e-01 -1.245600432157516479e-01 1.045774742960929871e-01
8.142989873886108398e-02 -1.865458860993385315e-02 -2.578788399696350098e-01
-4.209242016077041626e-02 -2.283818423748016357e-01 -1.496954634785652161e-02
-6.007953882217407227e-01 1.743414998054504395e-02 6.508938968181610107e-03
1.742478832602500916e-02 7.597605884075164795e-02 -1.066894978284835815e-01
7.307564616203308105e-01 -1.955201029777526855e-01 -9.715221822261810303e-04
3.407530486583709717e-01 -2.916760742664337158e-02 6.595019996166229248e-02
-3.155735731124877930e-01 7.839989662170410156e-02 -1.121710762381553650e-01
-4.577148854732513428e-01 -1.543391644954681396e-01 -8.512327075004577637e-02
2.590799033641815186e-01 -2.328089922666549683e-01 1.031934991478919983e-01
-3.060173392295837402e-01 7.700611650943756104e-02 -1.594821065664291382e-01
2.920590937137603760e-01 -3.911637514829635620e-02 -2.487288415431976318e-01
-5.313944220542907715e-01 -5.813784897327423096e-03 5.410713702440261841e-02
-1.311953067779541016e-01 -1.079796627163887024e-01 1.554970741271972656e-01
-7.026715278625488281e-01 1.300847530364990234e-02 -1.196451485157012939e-01
-6.629371643066406250e-01 -2.387294173240661621e-02 4.162087291479110718e-02
-1.395626217126846313e-01 -2.106913179159164429e-01 -5.007746815681457520e-02
-3.239634037017822266e-01 -8.584283292293548584e-03 8.005034178495407104e-02
6.304529905319213867e-01 -2.077423036098480225e-01 5.671620368957519531e-02
-5.263098478317260742e-01 5.247822403907775879e-02 -1.579511165618896484e-01
5.003863573074340820e-02 2.818993479013442993e-02 2.319372445344924927e-02
-3.761701881885528564e-01 -2.000453919172286987e-01 5.037155002355575562e-02
-4.858709573745727539e-01 -7.234737277030944824e-02 1.129727289080619812e-01
-3.160397708415985107e-01 -1.420640647411346436e-01 -1.421517729759216309e-01
6.653168797492980957e-01 -3.832561150193214417e-02 -1.438684388995170593e-02
8.444001078605651855e-01 -1.340689063072204590e-01 -4.980284720659255981e-02
-2.915629744529724121e-01 -3.546087816357612610e-02 -2.314173281192779541e-01
7.048843055963516235e-02 7.437142729759216309e-02 -1.660609841346740723e-01
-1.206970438361167908e-01 -2.154042571783065796e-01 1.176956221461296082e-01
7.914379835128784180e-01 -1.661866009235382080e-01 -6.145452708005905151e-02
3.973098397254943848e-01 -1.062453538179397583e-02 2.982960641384124756e-02
-2.319754660129547119e-01 7.004985213279724121e-02 -5.784384906291961670e-02
1.472349613904953003e-01 -2.436110973358154297e-01 3.423993289470672607e-02
-6.621529459953308105e-01 -6.309932470321655273e-02 6.829161196947097778e-02
1.249340251088142395e-01 -1.711624860763549805e-01 1.601402163505554199e-01
-1.346600502729415894e-01 -9.283842146396636963e-02 1.495943665504455566e-01
-3.963291645050048828e-01 6.993006169795989990e-02 -7.930530607700347900e-02
4.899600148200988770e-01 2.648401260375976562e-02 -1.592190563678741455e-01
2.884512245655059814e-01 -2.406821399927139282e-01 7.451632618904113770e-02
-2.664230950176715851e-02 3.521607071161270142e-02 1.731571555137634277e-02
3.545750677585601807e-01 -1.771689206361770630e-01 -1.464627981185913086e-01
-9.113617986440658569e-02 -1.948992311954498291e-01 -9.626693278551101685e-02
-4.270651936531066895e-01 -1.838856339454650879e-01 -2.221089787781238556e-02
8.275674283504486084e-02 -1.973991096019744873e-01 1.510308086872100830e-01
3.075421452522277832e-01 -2.396441549062728882e-01 7.641831785440444946e-02
-6.538739204406738281e-01 -7.139004021883010864e-02 -1.270864605903625488e-01
1.522102802991867065e-01 6.883884966373443604e-02 -1.670917272567749023e-01
3.151153326034545898e-01 -1.258114874362945557e-01 1.413499712944030762e-01
-1.457354426383972168e-01 -9.117096662521362305e-03 -2.509685456752777100e-01
2.534570097923278809e-01 -6.418957561254501343e-02 1.128932014107704163e-01
-1.104849353432655334e-01 2.683006227016448975e-03 -2.530154585838317871e-01
-5.722796916961669922e-01 -1.608584821224212646e-01 2.929838746786117554e-02
1.782272011041641235e-01 -2.413913905620574951e-01 6.707359105348587036e-03
-7.668150067329406738e-01 -6.889699399471282959e-02 8.615698665380477905e-03
2.863147556781768799e-01 3.542751818895339966e-02 -3.181569278240203857e-02
-7.779204845428466797e-01 -6.773425638675689697e-02 -1.193853467702865601e-02
2.483264654874801636e-01 6.197522580623626709e-02 -1.423500776290893555e-01
-6.922687292098999023e-01 -1.217448860406875610e-01 -8.916195482015609741e-03
-5.950145721435546875e-01 -1.485066711902618408e-01 -2.550486847758293152e-02
8.413890749216079712e-02 -2.224957942962646484e-01 -5.615762621164321899e-02
-2.182902544736862183e-01 7.648503780364990234e-02 -1.786873638629913330e-01
-4.529317021369934082e-01 5.835470557212829590e-02 -4.869914799928665161e-02
6.147066950798034668e-01 -1.408755481243133545e-01 9.211777895689010620e-02
2.442304342985153198e-01 -3.489336743950843811e-02 8.674006909132003784e-02
-4.543572366237640381e-01 -7.510888576507568359e-02 -1.829081773757934570e-01
5.337418317794799805e-01 -1.831470429897308350e-01 -1.214144527912139893e-01
5.064665079116821289e-01 -2.323844134807586670e-01 2.212320268154144287e-02
3.250158131122589111e-01 1.059642434120178223e-02 1.101477816700935364e-02
-1.046265140175819397e-01 -1.309370696544647217e-01 -1.860864460468292236e-01
1.109399050474166870e-01 -8.310098201036453247e-02 -2.366386651992797852e-01
-3.305719047784805298e-02 -6.197586655616760254e-03 -2.566260397434234619e-01
6.962801814079284668e-01 -4.637954384088516235e-02 -1.701929569244384766e-01
1.400266885757446289e-01 -2.288419306278228760e-01 1.157221570611000061e-01
-7.425461411476135254e-01 -9.807647764682769775e-02 -4.292566329240798950e-03
4.572094380855560303e-01 -2.136741429567337036e-01 -7.401409000158309937e-02
4.750801324844360352e-01 1.948326826095581055e-02 -5.770505964756011963e-02
2.333534359931945801e-01 -8.013357967138290405e-02 1.268681585788726807e-01
-2.204818725585937500e-01 -2.185740470886230469e-01 7.540676742792129517e-02
1.874788999557495117e-01 -4.135406017303466797e-02 9.981027990579605103e-02
-3.850267529487609863e-01 -1.380589604377746582e-01 -1.325548589229583740e-01
-1.865579187870025635e-01 5.854535102844238281e-02 -2.440580166876316071e-02
1.931259781122207642e-02 -1.803276091814041138e-01 -1.346459984779357910e-01
2.173744440078735352e-01 -7.857397198677062988e-02 1.273959875106811523e-01
1.575708389282226562e-01 -8.138744533061981201e-02 -2.379495501518249512e-01
3.758573234081268311e-01 -4.734145104885101318e-02 -2.407256066799163818e-01
-4.651501476764678955e-01 -1.843616962432861328e-01 4.620920121669769287e-02
-3.249678611755371094e-01 5.972363054752349854e-02 -3.259418159723281860e-02
-2.231559753417968750e-01 -1.214939355850219727e-01 -1.817885637283325195e-01
-6.001146435737609863e-01 -1.067970693111419678e-02 4.547396302223205566e-02
1.974308490753173828e-01 -5.759651213884353638e-02 -2.482613027095794678e-01
-3.179146945476531982e-01 -2.024195194244384766e-01 8.909616619348526001e-02
4.843800067901611328e-01 -2.220901101827621460e-01 8.515102416276931763e-02
2.561847567558288574e-01 -2.162758260965347290e-01 -8.022642880678176880e-02
1.447685211896896362e-01 8.711427450180053711e-03 -2.535106241703033447e-01
4.597153365612030029e-01 2.300495654344558716e-02 -1.893942058086395264e-01
6.474173069000244141e-01 -2.052651643753051758e-01 5.257455259561538696e-02
-5.704303979873657227e-01 -1.377492547035217285e-01 -7.056991755962371826e-02
1.785854101181030273e-01 -1.421767920255661011e-01 1.574826240539550781e-01
5.192235112190246582e-01 -2.057687342166900635e-01 -8.241091668605804443e-02
1.903505474328994751e-01 3.941228240728378296e-02 -1.903104037046432495e-02
4.984255135059356689e-01 -1.462822109460830688e-01 -1.720969974994659424e-01
-5.554666519165039062e-01 -9.646533429622650146e-02 -1.374107003211975098e-01
7.251496315002441406e-01 -1.133847609162330627e-01 4.495687782764434814e-02
5.977638959884643555e-01 -1.793329417705535889e-02 -2.157313749194145203e-02
-6.253991723060607910e-01 -1.365998685359954834e-01 6.028840690851211548e-02
1.272820383310317993e-01 6.901201605796813965e-02 -1.021943092346191406e-01
5.426866412162780762e-01 -3.127968683838844299e-02 2.200868725776672363e-02
-4.732939600944519043e-01 -1.726961135864257812e-01 8.633915334939956665e-02
6.351715326309204102e-01 -2.536125481128692627e-03 -1.276768147945404053e-01
3.819795325398445129e-02 7.567527890205383301e-02 -1.119933649897575378e-01
-4.998803734779357910e-01 -1.776186525821685791e-01 3.875575959682464600e-02
-1.849458664655685425e-01 4.107579588890075684e-04 7.385259121656417847e-02
-5.395920872688293457e-01 -1.124607473611831665e-01 1.103933230042457581e-01
-3.348544538021087646e-01 -2.047838270664215088e-01 1.369503885507583618e-02
2.264914959669113159e-01 -2.198382467031478882e-01 1.270782649517059326e-01
2.387482225894927979e-01 3.015292435884475708e-02 -8.480232208967208862e-03
2.705655395984649658e-01 2.498269081115722656e-03 3.506609052419662476e-02
-6.523311138153076172e-01 -3.078527748584747314e-03 2.145420759916305542e-02
6.455820202827453613e-01 -1.305306553840637207e-01 8.043811470270156860e-02
3.039326071739196777e-01 -2.157111316919326782e-01 -8.092059195041656494e-02
-5.199282169342041016e-01 -1.710702478885650635e-01 -6.819926202297210693e-04
-7.228604704141616821e-02 -1.240180879831314087e-01 1.607640087604522705e-01
4.313829168677330017e-02 -2.389315366744995117e-01 7.395619899034500122e-02
2.978920638561248779e-01 -2.313635349273681641e-01 -3.892226517200469971e-02
4.910077452659606934e-01 -2.051957547664642334e-01 -8.813406527042388916e-02
-2.643191218376159668e-01 -6.880482286214828491e-02 1.329886317253112793e-01
3.236385285854339600e-01 -1.584781408309936523e-01 1.465682089328765869e-01
-1.236868575215339661e-01 -5.593545734882354736e-02 -2.401284277439117432e-01
-5.433460474014282227e-01 1.026481389999389648e-03 -1.912759244441986084e-01
-5.333275198936462402e-01 3.005976229906082153e-02 1.148737967014312744e-03
-1.485192775726318359e-01 -1.221135407686233521e-01 1.587168574333190918e-01
5.997744202613830566e-01 -1.782513558864593506e-01 9.494351595640182495e-02
-2.434009611606597900e-01 -1.276363730430603027e-01 1.544256508350372314e-01
5.474950671195983887e-01 -2.280603647232055664e-01 2.728754281997680664e-02
4.712224006652832031e-01 -1.466075032949447632e-01 1.244750991463661194e-01
-3.642788231372833252e-01 -2.264788001775741577e-02 -2.249381542205810547e-01
3.304636776447296143e-01 -2.337430268526077271e-01 9.271999448537826538e-02
-2.609023153781890869e-01 6.837773323059082031e-02 -1.956936120986938477e-01
7.632383108139038086e-01 -1.580321192741394043e-01 -9.589786827564239502e-02
2.467514276504516602e-01 -2.174650132656097412e-01 1.285893321037292480e-01
8.313632011413574219e-01 -1.178968101739883423e-01 -9.406673163175582886e-02
4.487541615962982178e-01 -3.784027323126792908e-02 -2.327288687229156494e-01
-4.190808534622192383e-01 3.620830178260803223e-02 9.093474596738815308e-03
-4.365974962711334229e-01 -1.508801281452178955e-01 -9.858961403369903564e-02
3.758220672607421875e-01 -2.020476758480072021e-01 -1.056602597236633301e-01
-1.159578040242195129e-01 -1.691366434097290039e-01 1.584620177745819092e-01
1.626698076725006104e-01 -1.401417255401611328e-01 -1.923147439956665039e-01
-3.926191627979278564e-01 -1.974015831947326660e-01 4.951427876949310303e-02
-2.298039495944976807e-01 7.505847513675689697e-02 -7.718057185411453247e-02
-4.901335239410400391e-01 -1.754863560199737549e-01 -9.589750319719314575e-03
-3.931657373905181885e-01 -6.551913917064666748e-03 -2.228313386440277100e-01
3.090747594833374023e-01 3.604415059089660645e-02 -2.145157754421234131e-01
-2.661295421421527863e-02 -6.886852532625198364e-02 1.357082128524780273e-01
7.808131575584411621e-01 -9.691718220710754395e-02 5.094066262245178223e-03
-5.555802956223487854e-03 -3.669284284114837646e-03 -2.572353184223175049e-01
9.149589389562606812e-02 -5.776470154523849487e-02 1.222600713372230530e-01
1.057677417993545532e-01 5.376130342483520508e-02 -3.876686096191406250e-02
1.623160690069198608e-01 -2.440592497587203979e-01 4.944025725126266479e-02
-3.881667256355285645e-01 -1.833880543708801270e-01 -4.435984045267105103e-02
4.992368519306182861e-01 1.013962924480438232e-02 -4.232612624764442444e-02
6.073567867279052734e-01 -1.609666049480438232e-01 -1.396287679672241211e-01
-1.797093003988265991e-01 8.181428909301757812e-02 -1.501573622226715088e-01
-2.255944609642028809e-01 3.316649049520492554e-02 2.667911350727081299e-02
7.759862542152404785e-01 -1.809726208448410034e-01 -1.615205034613609314e-02
5.632414221763610840e-01 -2.157062292098999023e-01 7.120040059089660645e-02
-6.190101504325866699e-01 4.585988819599151611e-02 -1.023054271936416626e-01
1.613969206809997559e-01 6.964001059532165527e-02 -1.473037153482437134e-01
5.540544390678405762e-01 -5.329934135079383850e-02 -2.146255075931549072e-01
-3.678086102008819580e-01 -1.416884213685989380e-01 -1.315178573131561279e-01
2.626813352108001709e-01 -1.730524748563766479e-01 1.516419649124145508e-01
3.130994141101837158e-01 -1.896058619022369385e-01 1.425231993198394775e-01
7.933089137077331543e-01 -1.712086051702499390e-01 -2.900693565607070923e-03
-3.052352368831634521e-01 -2.088719457387924194e-01 1.472051069140434265e-02
-3.028244376182556152e-01 4.271445423364639282e-02 -2.225020825862884521e-01
-6.943126320838928223e-01 1.892285048961639404e-02 -3.945561870932579041e-02
-1.635001152753829956e-01 -1.088593825697898865e-01 -2.012047767639160156e-01
6.871710419654846191e-01 -2.060669064521789551e-01 -4.974126815795898438e-03
-3.318392634391784668e-01 -5.946642905473709106e-02 -2.151522636413574219e-01
-8.045542985200881958e-02 -1.836434602737426758e-01 1.545035839080810547e-01
8.976186811923980713e-02 -2.177567183971405029e-01 1.325279772281646729e-01
1.012278944253921509e-01 -3.399337083101272583e-02 1.004096642136573792e-01
1.457924395799636841e-01 6.500157713890075684e-02 -1.888198852539062500e-01
-1.263747066259384155e-01 -2.240867614746093750e-01 -6.410997360944747925e-03
9.011897444725036621e-02 -2.143619507551193237e-01 -7.715046405792236328e-02
3.478804826736450195e-01 3.243086487054824829e-02 -4.265235364437103271e-02
2.062818706035614014e-01 -3.398429229855537415e-02 9.035313874483108521e-02
-1.432006806135177612e-01 7.923866808414459229e-02 -9.905073046684265137e-02
-3.999791741371154785e-01 -2.212762460112571716e-02 -2.192819118499755859e-01
-6.534743309020996094e-02 6.974630057811737061e-03 6.325014680624008179e-02
-6.602517366409301758e-01 -5.504950881004333496e-02 -1.373517513275146484e-01
-4.293028712272644043e-01 2.322480082511901855e-02 -2.125239968299865723e-01
7.718299627304077148e-01 -7.037064433097839355e-02 -2.291364781558513641e-02
-1.410059481859207153e-01 -1.549963355064392090e-01 -1.535246670246124268e-01
-3.425441980361938477e-01 5.595982074737548828e-02 -2.453841641545295715e-02
-7.867952436208724976e-02 -2.082512229681015015e-01 -6.922948360443115234e-02
5.500904321670532227e-01 -1.763902157545089722e-01 1.081514731049537659e-01
4.812487959861755371e-01 -1.821897029876708984e-01 -1.296578794717788696e-01
-9.441661089658737183e-02 7.277725636959075928e-02 -7.130432128906250000e-02
-2.422181367874145508e-01 7.954154908657073975e-02 -1.035555079579353333e-01
-1.608784943819046021e-01 -1.919988989830017090e-01 1.421508193016052246e-01
4.255106449127197266e-01 3.273469954729080200e-02 -7.804634422063827515e-02
2.362336218357086182e-01 -2.389976829290390015e-01 -9.600594639778137207e-03
-2.065882682800292969e-01 -2.163260728120803833e-01 9.264945238828659058e-02
3.385634422302246094e-01 -3.781281411647796631e-03 3.199427574872970581e-02
-7.245643734931945801e-01 -3.739007934927940369e-02 2.857625484466552734e-02
-5.235620737075805664e-01 4.015338420867919922e-02 -1.738113164901733398e-02
3.836820721626281738e-01 -2.313218265771865845e-01 8.944310992956161499e-02
2.280112504959106445e-01 6.383420526981353760e-02 -1.481655836105346680e-01
1.534082144498825073e-01 4.121492803096771240e-02 -2.324627935886383057e-01
-6.194646954536437988e-01 -1.614867895841598511e-02 4.655525088310241699e-02
-4.009645581245422363e-01 4.001714289188385010e-02 4.056263715028762817e-03
-4.462812244892120361e-01 7.001309096813201904e-02 -1.080897301435470581e-01
6.389288306236267090e-01 -8.385875821113586426e-02 5.356192588806152344e-02
3.432526588439941406e-01 -1.615683436393737793e-01 -1.669766455888748169e-01
-6.081233620643615723e-01 -8.997322618961334229e-02 -1.264474391937255859e-01
-1.843783855438232422e-01 -2.012567520141601562e-01 1.290630400180816650e-01
1.962253600358963013e-01 2.304483205080032349e-02 1.322884112596511841e-02
1.800093650817871094e-01 -1.637030839920043945e-01 -1.660230159759521484e-01
-4.674033224582672119e-01 -6.455530226230621338e-02 1.118967160582542419e-01
-6.071560382843017578e-01 -1.248926669359207153e-01 -7.719951122999191284e-02
2.831039428710937500e-01 -1.684788614511489868e-01 1.503863632678985596e-01
4.190376400947570801e-02 -2.118358016014099121e-01 1.383180916309356689e-01
7.369193434715270996e-01 -1.804988980293273926e-01 -6.776136159896850586e-02
9.728271514177322388e-02 -2.046960890293121338e-01 1.458048820495605469e-01
2.617942988872528076e-01 -1.981588602066040039e-01 -1.161080896854400635e-01
9.594760090112686157e-02 -2.374008446931838989e-01 -4.677385091781616211e-03
-5.186516642570495605e-01 -8.389700204133987427e-02 -1.603715419769287109e-01
5.979298949241638184e-01 -2.153173089027404785e-01 5.600962042808532715e-02
1.960892677307128906e-01 -2.082611620426177979e-01 1.404453814029693604e-01
3.197362422943115234e-01 2.003416419029235840e-02 -5.738399922847747803e-03
-4.081655144691467285e-01 2.658255398273468018e-03 6.053452193737030029e-02
1.197529211640357971e-01 -1.311890184879302979e-01 -2.001480162143707275e-01
-2.448870539665222168e-01 -1.871008872985839844e-01 -8.194565773010253906e-02
5.311009287834167480e-01 -1.004517078399658203e-03 -2.889016829431056976e-02
-6.616739928722381592e-02 7.522866129875183105e-02 -8.493135869503021240e-02
1.802949234843254089e-03 7.779267430305480957e-02 -1.162160858511924744e-01
-4.117336273193359375e-01 -1.586478054523468018e-01 -9.235110878944396973e-02
3.580656275153160095e-02 -1.646372973918914795e-01 1.629875004291534424e-01
6.674483418464660645e-02 -2.227051407098770142e-01 1.247703060507774353e-01
-2.011841088533401489e-01 -3.822689503431320190e-02 -2.405208349227905273e-01
1.920889317989349365e-01 -2.251093089580535889e-01 -5.697535723447799683e-02
1.919728368520736694e-01 -6.184414029121398926e-03 -2.545993328094482422e-01
1.706809401512145996e-01 -2.319765388965606689e-01 1.091252788901329041e-01
-5.273684859275817871e-01 -1.614261269569396973e-01 -3.505196049809455872e-02
-5.397085547447204590e-01 5.218380689620971680e-02 -5.650781840085983276e-02
-2.286089062690734863e-01 -2.167825996875762939e-01 6.638754159212112427e-03
7.901384681463241577e-02 4.342138767242431641e-02 -9.588573127985000610e-03
1.688509285449981689e-01 -2.380087226629257202e-01 -1.100694015622138977e-02
4.891854226589202881e-01 -3.825426101684570312e-04 -1.392032578587532043e-02
-3.447190523147583008e-01 -1.539146751165390015e-01 -1.186898201704025269e-01
6.460067033767700195e-01 -1.066462993621826172e-01 -1.795817613601684570e-01
2.404896914958953857e-01 -2.075845748186111450e-01 -9.854169189929962158e-02
2.347903996706008911e-01 -2.342186421155929565e-01 1.015779599547386169e-01
-5.385854244232177734e-01 -1.372243762016296387e-01 -8.612582832574844360e-02
-2.689983248710632324e-01 7.775029540061950684e-02 -1.651052683591842651e-01
4.492601752281188965e-01 -1.381647586822509766e-01 -1.849339902400970459e-01
-1.016918756067752838e-02 1.310790330171585083e-02 -2.546603977680206299e-01
8.214633464813232422e-01 -1.311670541763305664e-01 -9.283172339200973511e-02
-3.131228387355804443e-01 3.521528840065002441e-02 2.015978097915649414e-02
3.229583203792572021e-01 -1.690534651279449463e-01 -1.584775596857070923e-01
1.908531635999679565e-01 -2.368261218070983887e-01 -1.783707551658153534e-02
2.438099086284637451e-01 4.043585807085037231e-02 -3.342083841562271118e-02
6.357828378677368164e-01 -7.682383060455322266e-03 -1.535340547561645508e-01
6.308630704879760742e-01 -1.430243849754333496e-01 -1.547912061214447021e-01
5.701941847801208496e-01 -1.069031059741973877e-01 -1.940904855728149414e-01
-6.203435659408569336e-01 -1.117056906223297119e-01 -9.318523108959197998e-02
-3.742190599441528320e-01 -2.424694225192070007e-02 9.243658930063247681e-02
8.307864069938659668e-01 -1.450759172439575195e-01 -6.183375045657157898e-02
4.809875488281250000e-01 -1.620114147663116455e-01 -1.566516160964965820e-01
-2.580710649490356445e-01 -1.467176675796508789e-01 -1.467678546905517578e-01
-4.095578193664550781e-02 -2.060131728649139404e-01 -8.057615160942077637e-02
-4.301162064075469971e-01 6.775483489036560059e-03 5.306727439165115356e-02
1.470628678798675537e-01 -2.212761491537094116e-01 -6.472724676132202148e-02
-2.586747147142887115e-02 4.456217586994171143e-02 -7.548257708549499512e-04
-7.603062391281127930e-01 -4.980590194463729858e-02 -8.444207906723022461e-02
-3.889229893684387207e-01 -5.836418271064758301e-02 -2.065349817276000977e-01
1.570121347904205322e-01 -2.300695329904556274e-01 -4.032606258988380432e-02
-6.787440776824951172e-01 1.915681362152099609e-02 -1.297376155853271484e-01
-4.952530860900878906e-01 7.727265357971191406e-03 4.325511306524276733e-02
-5.119444131851196289e-01 2.724806964397430420e-02 1.069448888301849365e-02
3.015908598899841309e-01 -2.222034484148025513e-01 1.179329082369804382e-01
-4.529634714126586914e-01 -1.162456274032592773e-01 -1.439130306243896484e-01
-5.342457890510559082e-01 -1.643431782722473145e-01 -1.917691342532634735e-02
-5.068985819816589355e-01 -1.477783918380737305e-01 -7.910880446434020996e-02
-6.529546380043029785e-01 -1.203430145978927612e-01 -5.902566388249397278e-02
2.093742191791534424e-01 -1.061359792947769165e-01 -2.220126986503601074e-01
-3.161880373954772949e-01 -1.765078604221343994e-01 1.312434971332550049e-01
-1.035224869847297668e-01 -9.770732372999191284e-02 1.520744562149047852e-01
7.175874710083007812e-01 -8.158861845731735229e-02 2.212292701005935669e-02
4.962845742702484131e-01 -4.810329899191856384e-02 5.630021542310714722e-02
3.945586383342742920e-01 1.436277478933334351e-02 -1.402308046817779541e-02
-5.752533078193664551e-01 -1.614443212747573853e-02 5.693399906158447266e-02
-5.281322598457336426e-01 -1.096815764904022217e-01 -1.307331770658493042e-01
7.320169806480407715e-01 -1.296360641717910767e-01 4.985872656106948853e-02
-6.785031557083129883e-01 7.519848644733428955e-03 -4.837688058614730835e-03
-3.633576035499572754e-01 5.521686375141143799e-02 -2.008484303951263428e-01
2.195659279823303223e-01 -2.383832186460494995e-01 9.022442251443862915e-02
-5.326103419065475464e-02 -3.301426768302917480e-04 7.219733297824859619e-02
2.489370852708816528e-02 -1.897872984409332275e-01 -1.197570934891700745e-01
6.440188288688659668e-01 -2.136056125164031982e-01 2.522718906402587891e-02
1.116585731506347656e-01 -2.339598536491394043e-01 1.032975241541862488e-01
-5.737327933311462402e-01 -1.513171195983886719e-02 -1.822842359542846680e-01
-5.694538354873657227e-01 -5.620726943016052246e-02 8.968035131692886353e-02
-2.959827780723571777e-01 -8.555100858211517334e-02 -2.034095525741577148e-01
9.774912893772125244e-02 -6.333008408546447754e-02 -2.465091347694396973e-01
-1.632411181926727295e-01 -2.075599431991577148e-01 1.236998811364173889e-01
7.605116963386535645e-01 -1.776980161666870117e-01 2.319920063018798828e-02
3.483414053916931152e-01 4.111625254154205322e-03 -2.367717921733856201e-01
-1.174944266676902771e-01 6.368611752986907959e-02 -3.990512713789939880e-02
-2.783683501183986664e-02 -1.373634189367294312e-01 1.632475852966308594e-01
1.030729338526725769e-02 -9.457571059465408325e-02 1.495120525360107422e-01
-4.150991737842559814e-01 4.540905356407165527e-04 -2.192623913288116455e-01
2.730242013931274414e-01 -8.467391878366470337e-02 -2.341016232967376709e-01
3.790068626403808594e-01 -5.484476685523986816e-03 2.601759880781173706e-02
-5.900483131408691406e-01 -1.559065133333206177e-01 3.161057084798812866e-02
-3.882300853729248047e-01 -7.238440215587615967e-02 -1.978935003280639648e-01
-7.710234820842742920e-02 -2.254097014665603638e-01 1.027922108769416809e-01
1.645750701427459717e-01 3.151846677064895630e-02 2.331066876649856567e-03
1.483303010463714600e-01 -9.907051920890808105e-03 6.913907080888748169e-02
5.527195930480957031e-01 1.026158779859542847e-02 -7.386031001806259155e-02
3.575296103954315186e-01 -2.270921915769577026e-01 -4.900452122092247009e-02
-8.915786445140838623e-02 -2.328363060951232910e-01 4.282427579164505005e-02
-1.850449889898300171e-01 -1.022463664412498474e-01 1.519984602928161621e-01
4.403439164161682129e-01 3.740406036376953125e-02 -1.351125091314315796e-01
-5.218591690063476562e-01 -8.436602354049682617e-02 1.112004891037940979e-01
1.424428075551986694e-01 -2.092210203409194946e-01 1.414567828178405762e-01
-9.115001559257507324e-02 -2.182074934244155884e-01 -3.937223553657531738e-02
6.171973943710327148e-01 -2.053336799144744873e-01 6.738562881946563721e-02
-1.227668896317481995e-01 4.578387737274169922e-02 2.433553338050842285e-03
-6.491855382919311523e-01 1.158054172992706299e-02 4.174783825874328613e-04
-8.729745447635650635e-02 -4.983952641487121582e-02 -2.452524900436401367e-01
3.207959532737731934e-01 -9.299711883068084717e-02 1.251554191112518311e-01
4.572507441043853760e-01 -1.787083148956298828e-01 -1.372132897377014160e-01
-1.648485809564590454e-01 -1.872616112232208252e-01 -9.863556921482086182e-02
2.287504673004150391e-01 -2.441145777702331543e-01 2.885761857032775879e-02
5.949988961219787598e-01 7.005639374256134033e-03 -1.360099464654922485e-01
5.901038646697998047e-01 -3.169970586895942688e-02 -2.022781968116760254e-01
-7.810902595520019531e-02 -2.084701657295227051e-01 1.341583728790283203e-01
8.784083276987075806e-02 5.368717014789581299e-03 5.503574013710021973e-02
2.801920771598815918e-01 -3.160953521728515625e-03 -2.476604282855987549e-01
3.427172005176544189e-01 -1.694006323814392090e-01 1.440522372722625732e-01
-6.295605301856994629e-01 -1.365441381931304932e-01 -3.473510965704917908e-02
4.088098108768463135e-01 -1.677727252244949341e-01 -1.558072865009307861e-01
1.355313360691070557e-01 2.108772844076156616e-02 -2.489883303642272949e-01
-5.253850221633911133e-01 2.120213210582733154e-02 1.828303933143615723e-02
5.349943637847900391e-01 -4.892048984766006470e-02 4.745092988014221191e-02
3.948476314544677734e-01 -9.876011312007904053e-02 -2.193603813648223877e-01
2.573210597038269043e-01 -2.275236546993255615e-01 -5.153327062726020813e-02
2.537533640861511230e-01 -2.408855259418487549e-01 6.529055535793304443e-04
-2.961537539958953857e-01 6.126828491687774658e-02 -3.449203073978424072e-02
-3.516535162925720215e-01 7.571424543857574463e-02 -1.500797867774963379e-01
-4.217015504837036133e-01 1.756475120782852173e-02 3.923030197620391846e-02
4.627716541290283203e-01 9.846113622188568115e-03 -2.085684239864349365e-01
1.861421391367912292e-03 4.031004011631011963e-02 5.408279597759246826e-03
1.248343884944915771e-01 4.030913114547729492e-02 -9.496584534645080566e-03
4.122910276055335999e-02 -7.192846387624740601e-02 1.353447735309600830e-01
2.720361575484275818e-02 7.745768129825592041e-02 -1.566183120012283325e-01
-1.276102364063262939e-01 3.659427165985107422e-03 6.939495354890823364e-02
-4.258854389190673828e-01 -1.359539031982421875e-01 1.312109529972076416e-01
-5.614266395568847656e-01 -1.610003113746643066e-01 -5.798976868391036987e-03
-4.084418118000030518e-01 -1.130273342132568359e-01 -1.580987870693206787e-01
2.613192796707153320e-01 -1.584760695695877075e-01 -1.727093756198883057e-01
-3.690380454063415527e-01 -1.948393583297729492e-01 -1.461100578308105469e-02
4.584027826786041260e-01 -2.669200301170349121e-03 5.601793527603149414e-04
-2.305332422256469727e-01 7.147708535194396973e-02 -1.923207938671112061e-01
-2.873826324939727783e-01 -1.280412077903747559e-01 1.507689952850341797e-01
-4.189424514770507812e-01 4.618407785892486572e-02 -1.085002347826957703e-02
-3.867183923721313477e-01 -1.907728016376495361e-01 -2.044054493308067322e-02
-4.005460739135742188e-01 -1.917687058448791504e-01 7.690560072660446167e-02
1.669174432754516602e-01 -1.534759700298309326e-01 1.593038141727447510e-01
3.410916626453399658e-01 -2.229272872209548950e-01 -6.185447424650192261e-02
-4.817482233047485352e-01 -1.631018221378326416e-01 9.850566834211349487e-02
1.205701157450675964e-01 5.967421829700469971e-02 -5.951739102602005005e-02
-4.091542959213256836e-01 -1.805965304374694824e-01 1.005670651793479919e-01
-6.067219972610473633e-01 -7.998605817556381226e-02 9.050323814153671265e-02
-3.102810680866241455e-01 -1.232967674732208252e-01 -1.661832779645919800e-01
-2.229743301868438721e-01 6.029881536960601807e-02 -2.896276488900184631e-02
-1.902976036071777344e-01 5.988104641437530518e-02 -2.167632877826690674e-01
2.138780355453491211e-01 -1.712055057287216187e-01 -1.568562835454940796e-01
-1.353442519903182983e-01 -7.762694358825683594e-02 -2.274545431137084961e-01
2.322707325220108032e-03 -1.571511924266815186e-01 1.638376116752624512e-01
5.422770977020263672e-01 -2.270574420690536499e-01 -4.502769559621810913e-03
-2.576409876346588135e-01 7.318417727947235107e-02 -7.077845931053161621e-02
4.546712934970855713e-01 1.828538626432418823e-02 -4.460900649428367615e-02
-6.772087514400482178e-02 -6.784458458423614502e-02 1.358428895473480225e-01
-4.838513731956481934e-01 6.119434535503387451e-02 -6.918621808290481567e-02
3.264488875865936279e-01 -5.413420498371124268e-02 -2.434328496456146240e-01
5.956866964697837830e-02 6.307524442672729492e-02 -2.092812359333038330e-01
-4.894047230482101440e-02 7.245886325836181641e-02 -7.498960196971893311e-02
5.578735470771789551e-01 -2.196092605590820312e-01 -3.461448103189468384e-02
-1.073519065976142883e-01 -2.314810156822204590e-01 4.887406527996063232e-02
-4.978148937225341797e-01 -1.285101324319839478e-01 1.177046522498130798e-01
1.362282335758209229e-01 -4.339754953980445862e-02 -2.535351812839508057e-01
8.195887207984924316e-01 -1.457481086254119873e-01 -7.555828243494033813e-02
-9.122679382562637329e-02 -2.282256782054901123e-01 5.610808730125427246e-04
2.279981672763824463e-01 2.086962014436721802e-02 -2.420223355293273926e-01
-6.564602851867675781e-01 3.609369695186614990e-02 -7.234141975641250610e-02
-9.542319923639297485e-02 -1.486798375844955444e-01 1.626986265182495117e-01
2.087033092975616455e-01 -2.113946378231048584e-01 -9.025023877620697021e-02
-6.205946803092956543e-01 3.116983920335769653e-02 -1.490096151828765869e-01
1.960828602313995361e-01 -1.679749786853790283e-01 -1.608695685863494873e-01
5.603765696287155151e-02 -2.347299903631210327e-01 9.641029685735702515e-02
-9.412525221705436707e-03 -1.551209837198257446e-01 -1.671468317508697510e-01
3.366045057773590088e-01 -1.479608565568923950e-02 -2.446014881134033203e-01
3.691483438014984131e-01 -1.143986880779266357e-01 -2.106498777866363525e-01
-1.729479134082794189e-01 4.965779185295104980e-02 -2.293900549411773682e-01
-4.945687651634216309e-01 -2.726985141634941101e-02 8.171167224645614624e-02
3.679120242595672607e-01 -1.350425779819488525e-01 1.376674175262451172e-01
4.982900619506835938e-01 -2.419226616621017456e-02 2.462080866098403931e-02
6.677973866462707520e-01 -2.042617201805114746e-01 4.184709489345550537e-02
-3.893854022026062012e-01 6.655180454254150391e-02 -6.280787289142608643e-02
5.024515390396118164e-01 -9.919390082359313965e-03 -6.208568811416625977e-05
4.059948921203613281e-01 -7.022614777088165283e-02 9.620783478021621704e-02
-2.870174646377563477e-01 -2.719646319746971130e-02 1.007324233651161194e-01
-1.918940693140029907e-01 -6.093205511569976807e-02 1.307097077369689941e-01
-6.731933355331420898e-02 -8.682824671268463135e-03 -2.553578913211822510e-01
-3.163418471813201904e-01 5.720908939838409424e-02 -2.062621116638183594e-01
-4.104114174842834473e-01 -1.909925639629364014e-01 -2.460964024066925049e-03
3.632755875587463379e-01 -2.116421312093734741e-01 -8.733491599559783936e-02
-2.148850411176681519e-01 -1.837323606014251709e-01 -9.559388458728790283e-02
-2.658928334712982178e-01 -1.945159733295440674e-01 1.221434548497200012e-01
-4.390012472867965698e-02 -2.360156774520874023e-01 4.948291927576065063e-02
1.194155216217041016e-01 4.760117828845977783e-02 -2.530674450099468231e-02
6.195333600044250488e-01 -1.841732263565063477e-01 8.651744574308395386e-02
1.144891791045665741e-02 -1.307629793882369995e-01 1.619415581226348877e-01
-1.924586743116378784e-01 -2.048094272613525391e-01 -5.276200920343399048e-02
-2.278477512300014496e-02 -1.256603151559829712e-01 -1.983689367771148682e-01
-6.135721802711486816e-01 -1.410269886255264282e-01 -3.460763394832611084e-02
2.265172749757766724e-01 1.544459164142608643e-02 2.159088850021362305e-02
-6.508260369300842285e-01 3.877699375152587891e-02 -9.519217163324356079e-02
4.004507064819335938e-01 -1.799408197402954102e-01 1.348412632942199707e-01
-3.627522885799407959e-01 -1.709656715393066406e-01 1.260865330696105957e-01
2.360495924949645996e-01 -1.636641621589660645e-01 -1.666139364242553711e-01
3.437311053276062012e-01 -1.065862625837326050e-01 -2.176491916179656982e-01
-1.901891976594924927e-01 -2.205288708209991455e-01 8.288317173719406128e-02
-3.180623054504394531e-01 7.141740620136260986e-02 -6.969937682151794434e-02
-4.738971590995788574e-01 5.737668275833129883e-02 -5.110873654484748840e-02
-5.492345690727233887e-01 -7.615031301975250244e-02 1.030626222491264343e-01
3.813934028148651123e-01 -1.122488081455230713e-02 -2.382114827632904053e-01
-3.932169079780578613e-01 -1.061128377914428711e-01 1.366261839866638184e-01
-6.386699527502059937e-02 4.074135422706604004e-02 9.485032409429550171e-03
-4.987979531288146973e-01 -1.685941517353057861e-01 -3.057925589382648468e-02
2.470624297857284546e-01 -2.443799972534179688e-01 4.613420367240905762e-02
7.334785461425781250e-01 -3.502731025218963623e-02 -7.748317718505859375e-02
-2.018459439277648926e-01 -2.409850433468818665e-02 1.004257574677467346e-01
1.579959690570831299e-01 -1.928990781307220459e-01 -1.231915205717086792e-01
2.376918867230415344e-02 -2.152467146515846252e-02 9.286213666200637817e-02
-8.862180262804031372e-02 -1.285633593797683716e-01 1.614281237125396729e-01
6.505643725395202637e-01 -5.836867541074752808e-02 -1.909942030906677246e-01
5.230905488133430481e-02 -1.680111289024353027e-01 -1.549854576587677002e-01
-2.432614862918853760e-01 3.488542884588241577e-02 -2.342039644718170166e-01
3.702838420867919922e-01 -1.878871619701385498e-01 -1.299746632575988770e-01
-6.234247982501983643e-02 -1.566765606403350830e-01 -1.603868305683135986e-01
1.498945206403732300e-01 -2.904656901955604553e-02 9.108646959066390991e-02
-1.381421983242034912e-01 1.565871387720108032e-02 5.345565825700759888e-02
7.175458073616027832e-01 -2.825517952442169189e-02 -8.580447733402252197e-02
3.374761343002319336e-02 4.028879851102828979e-02 -2.407597005367279053e-01
9.242250770330429077e-02 -2.060928940773010254e-02 8.705420047044754028e-02
-7.143866419792175293e-01 -1.097154617309570312e-01 -2.583455294370651245e-02
-4.913864284753799438e-02 -1.666125953197479248e-01 -1.483727395534515381e-01
7.849722504615783691e-01 -1.609015315771102905e-01 -7.823308557271957397e-02
-6.109188199043273926e-01 2.636536955833435059e-02 -1.357868313789367676e-02
-2.362039089202880859e-01 -1.503636687994003296e-01 -1.456012129783630371e-01
-2.346147894859313965e-01 -7.628126442432403564e-02 -2.180700302124023438e-01
-4.654289782047271729e-01 -9.423771500587463379e-02 -1.642588078975677490e-01
-9.865234047174453735e-02 -1.684440374374389648e-01 1.595629751682281494e-01
1.807017475366592407e-01 -2.498676255345344543e-02 8.348705619573593140e-02
4.874006509780883789e-01 -1.574051380157470703e-01 1.227529719471931458e-01
-2.017390877008438110e-01 1.962718367576599121e-02 -2.439895868301391602e-01
8.392833471298217773e-01 -1.412776112556457520e-01 -3.511374443769454956e-02
-6.734135746955871582e-01 -1.141749024391174316e-01 -5.767299234867095947e-02
5.996304750442504883e-02 -2.042657732963562012e-01 -9.617542475461959839e-02
-7.017036899924278259e-03 -1.358186155557632446e-01 -1.892988383769989014e-01
-6.781870126724243164e-01 -1.281894445419311523e-01 7.355045527219772339e-03
2.961253225803375244e-01 -2.052465379238128662e-01 -1.027817353606224060e-01
-7.877764105796813965e-01 -4.213193431496620178e-02 -4.917148873209953308e-02
-5.148220658302307129e-01 -1.875548064708709717e-02 7.065711170434951782e-02
-4.665043950080871582e-02 -5.137169733643531799e-02 1.234783008694648743e-01
5.478879213333129883e-01 -1.728675365447998047e-01 -1.343177556991577148e-01
4.628051817417144775e-01 -2.792892977595329285e-02 -2.296074926853179932e-01
-5.091031789779663086e-01 -1.722663342952728271e-01 6.219844520092010498e-02
6.854285597801208496e-01 -1.762774586677551270e-01 6.697163730859756470e-02
-3.394955992698669434e-01 -1.146813333034515381e-01 -1.702102124691009521e-01
-4.356298595666885376e-02 3.264011442661285400e-02 2.303962409496307373e-02
2.611318528652191162e-01 -1.343321949243545532e-01 1.494368314743041992e-01
7.590200304985046387e-01 -5.478739738464355469e-02 -1.380750238895416260e-01
2.243653833866119385e-01 -2.148024439811706543e-01 -8.322532474994659424e-02
3.209340572357177734e-02 6.001920998096466064e-02 -2.174801528453826904e-01
3.153823018074035645e-01 4.437293112277984619e-02 -6.789071112871170044e-02
-3.910158872604370117e-01 5.500040948390960693e-02 -2.772423066198825836e-02
5.841748416423797607e-02 -8.969366550445556641e-03 -2.580837011337280273e-01
-2.096424847841262817e-01 4.692822694778442383e-04 7.358629256486892700e-02
-5.956684947013854980e-01 -1.408872753381729126e-02 -1.758907437324523926e-01
-8.820217102766036987e-02 -9.528514742851257324e-02 -2.192941308021545410e-01
2.002834379673004150e-01 6.594781577587127686e-02 -1.562840044498443604e-01
-2.170105129480361938e-01 -1.729369163513183594e-01 -1.147549450397491455e-01
-1.896007359027862549e-01 7.430246472358703613e-02 -1.885656118392944336e-01
-3.773089349269866943e-01 -2.855673432350158691e-03 -2.255825698375701904e-01
-5.712525248527526855e-01 4.087635874748229980e-02 -1.591102033853530884e-01
-5.295704603195190430e-01 3.857034444808959961e-02 -1.778565943241119385e-01
-5.944012403488159180e-01 -4.886969178915023804e-02 -1.642595827579498291e-01
3.724400997161865234e-01 2.671112120151519775e-02 -3.577034920454025269e-02
-5.380293726921081543e-01 -3.532684966921806335e-02 -1.863639354705810547e-01
-6.564135551452636719e-01 -1.267388612031936646e-01 5.278612673282623291e-02
-4.213796257972717285e-01 -1.926767379045486450e-01 2.768526971340179443e-02
6.062610745429992676e-01 -6.421550363302230835e-02 4.435929656028747559e-02
-2.520958185195922852e-01 -2.139845937490463257e-01 7.981581240892410278e-02
3.763633072376251221e-01 -8.052503317594528198e-02 -2.303888797760009766e-01
-4.409948363900184631e-03 -1.136916279792785645e-01 1.576670408248901367e-01
6.685916185379028320e-01 -2.034800946712493896e-01 -4.111396893858909607e-02
6.492634117603302002e-02 -4.901787638664245605e-02 -2.515746355056762695e-01
-2.187870442867279053e-01 2.786218374967575073e-02 -2.397657036781311035e-01
-1.345523595809936523e-01 -3.094120696187019348e-02 -2.482616007328033447e-01
-8.264450728893280029e-02 -1.823704838752746582e-01 -1.202934533357620239e-01
7.161411643028259277e-01 -1.938026547431945801e-01 -4.308551922440528870e-02
-4.966156482696533203e-01 -5.154160410165786743e-02 -1.887551844120025635e-01
6.120260059833526611e-02 -2.223204076290130615e-02 9.120603650808334351e-02
6.468453407287597656e-01 -2.110685035586357117e-02 -4.060973599553108215e-02
-4.374576508998870850e-01 -8.653469383716583252e-02 1.256489455699920654e-01
1.858741044998168945e-03 -2.385647296905517578e-01 3.990225493907928467e-02
-4.653931558132171631e-01 -1.739198267459869385e-01 -3.387561440467834473e-02
-2.874552309513092041e-01 -1.528739929199218750e-02 -2.369067966938018799e-01
-4.259243011474609375e-01 -4.900699481368064880e-02 1.075772121548652649e-01
-3.111902475357055664e-01 -3.796134516596794128e-02 -2.279655933380126953e-01
2.845298647880554199e-01 -2.431007474660873413e-01 2.010871469974517822e-02
5.699155926704406738e-01 -1.847354173660278320e-01 1.004330590367317200e-01
4.744381606578826904e-01 -1.949408501386642456e-01 1.167596504092216492e-01
