1.960159242153167725e-01 4.312708973884582520e-02 6.985200196504592896e-02
5.797586441040039062e-01 -1.556541398167610168e-02 -6.666699796915054321e-02
2.705644369125366211e-01 -3.416282590478658676e-03 1.081785187125205994e-01
2.680657207965850830e-01 -4.734042286872863770e-02 1.052274331450462341e-01
1.582071632146835327e-01 6.457953155040740967e-02 -7.259976118803024292e-03
8.154967427253723145e-01 -8.719790726900100708e-03 -4.537702351808547974e-02
1.448406279087066650e-01 1.475862041115760803e-02 9.959851950407028198e-02
1.188415586948394775e-01 -6.676452606916427612e-02 9.313199669122695923e-03
8.243653178215026855e-01 -6.759014725685119629e-02 1.933976449072360992e-02
2.538505792617797852e-01 3.091295622289180756e-02 8.418467640876770020e-02
4.616713523864746094e-02 -6.473111361265182495e-02 5.644732713699340820e-02
-4.247888922691345215e-02 2.970663644373416901e-02 8.286882191896438599e-02
6.260430812835693359e-01 4.365786164999008179e-02 -1.974092796444892883e-03
6.982488930225372314e-02 3.987907618284225464e-02 7.511310279369354248e-02
5.843641757965087891e-01 -7.294571399688720703e-02 7.159409672021865845e-02
2.878272533416748047e-01 2.073123492300510406e-02 9.315188229084014893e-02
1.349350661039352417e-01 6.051602773368358612e-03 -6.973973661661148071e-02
1.993497312068939209e-01 -2.115621417760848999e-02 -6.314738839864730835e-02
5.197968482971191406e-01 -6.804925389587879181e-03 -7.080507278442382812e-02
2.851976454257965088e-01 -7.632956653833389282e-02 6.032590568065643311e-02
9.626129865646362305e-01 -1.880908757448196411e-02 1.975539699196815491e-02
3.597121834754943848e-01 3.403249382972717285e-02 -6.514762341976165771e-02
7.640975713729858398e-01 -7.435492705553770065e-03 -5.271965265274047852e-02
2.532711625099182129e-01 -2.777351997792720795e-02 -6.123813986778259277e-02
-2.320969104766845703e-01 4.667894542217254639e-02 3.489775955677032471e-02
3.525468707084655762e-02 -2.596800401806831360e-02 1.051437705755233765e-01
6.921074390411376953e-01 -1.598619669675827026e-02 8.742585778236389160e-02
-3.348799347877502441e-01 2.929137460887432098e-02 3.636343032121658325e-02
-8.550119400024414062e-02 2.425999380648136139e-02 8.505336940288543701e-02
-3.591966032981872559e-01 4.932559095323085785e-03 1.057692710310220718e-02
5.465042591094970703e-01 4.940123856067657471e-02 -1.361622847616672516e-02
-4.750025272369384766e-02 -2.637083083391189575e-02 -3.842990100383758545e-02
3.382282853126525879e-01 -5.408867448568344116e-02 -3.859717398881912231e-02
1.917784661054611206e-01 -7.092810422182083130e-02 1.001580525189638138e-02
8.029263019561767578e-01 6.465500220656394958e-03 5.187264084815979004e-02
7.607192397117614746e-01 -6.976309418678283691e-02 4.410292953252792358e-03
8.155313134193420410e-01 -5.539133399724960327e-02 -1.810104586184024811e-02
8.906943798065185547e-01 3.652014769613742828e-03 -1.624718494713306427e-02
5.801661014556884766e-01 -5.432193726301193237e-02 9.382947534322738647e-02
4.343096315860748291e-01 -1.630454324185848236e-02 -7.012872397899627686e-02
3.033140599727630615e-01 -7.204291969537734985e-02 7.626832276582717896e-02
2.896882891654968262e-01 5.437207221984863281e-02 -4.181025922298431396e-02
7.263046503067016602e-01 1.149940676987171173e-02 -5.109475553035736084e-02
8.541393280029296875e-02 6.214514374732971191e-02 2.596608921885490417e-02
-1.242142915725708008e-02 5.102778226137161255e-02 5.468714982271194458e-02
1.363961547613143921e-01 -6.618483364582061768e-02 3.560974262654781342e-03
5.527204275131225586e-01 -6.153263896703720093e-02 -3.023142926394939423e-02
-3.387871384620666504e-02 -3.070514462888240814e-02 9.798236191272735596e-02
9.039845466613769531e-01 -4.661511629819869995e-03 -2.173227630555629730e-02
5.515174865722656250e-01 3.499480336904525757e-02 5.443628877401351929e-02
9.058494567871093750e-01 -9.007640182971954346e-04 2.758797444403171539e-02
3.190188109874725342e-01 4.494204372167587280e-02 -5.586623400449752808e-02
5.900714397430419922e-01 -4.074838012456893921e-02 9.886346012353897095e-02
6.265876293182373047e-01 1.503639109432697296e-02 7.289851456880569458e-02
8.055609464645385742e-01 2.306253276765346527e-02 4.196357913315296173e-03
-1.822402477264404297e-01 5.491596460342407227e-02 3.069622442126274109e-03
2.068652808666229248e-01 -6.141941994428634644e-02 -1.796057261526584625e-02
5.842834711074829102e-01 4.694046825170516968e-02 3.678819164633750916e-03
7.803157567977905273e-01 -2.846023626625537872e-02 7.902892678976058960e-02
-2.437953352928161621e-01 -5.994503851979970932e-03 -2.268686704337596893e-02
3.791683912277221680e-01 -6.043215095996856689e-02 9.584797173738479614e-02
5.804514884948730469e-01 -2.524509560316801071e-03 9.236282110214233398e-02
-8.327692747116088867e-02 -4.818978905677795410e-02 2.456273883581161499e-03
1.566487997770309448e-01 -5.898211896419525146e-02 8.949477225542068481e-02
5.689045190811157227e-01 3.169515728950500488e-02 -5.355244129896163940e-02
7.080538272857666016e-01 3.383372724056243896e-02 1.698036864399909973e-02
4.432412385940551758e-01 -3.580077737569808960e-02 -5.925596505403518677e-02
2.280246913433074951e-01 -2.352256793528795242e-03 1.081998869776725769e-01
-2.947764396667480469e-01 -1.130494847893714905e-02 6.295336782932281494e-02
-2.311915159225463867e-02 -3.993100672960281372e-02 -2.563465572893619537e-02
6.739091873168945312e-01 3.917280584573745728e-02 -1.209463924169540405e-03
-7.221618294715881348e-02 -5.549554526805877686e-02 2.961224317550659180e-02
4.005315005779266357e-01 2.155389264225959778e-02 8.717079460620880127e-02
1.154318600893020630e-01 -3.367450833320617676e-02 1.070114523172378540e-01
6.520217657089233398e-01 -4.190450161695480347e-02 9.354398399591445923e-02
6.162262558937072754e-01 3.947361558675765991e-02 3.053605556488037109e-02
3.636283278465270996e-01 -3.433774225413799286e-03 -7.380652427673339844e-02
-1.438184678554534912e-01 4.040963202714920044e-02 -3.828828781843185425e-02
5.046630501747131348e-01 -5.768334865570068359e-02 -3.652026504278182983e-02
7.769975662231445312e-01 1.841019839048385620e-02 3.864300251007080078e-02
3.905452787876129150e-01 -6.748304516077041626e-02 -1.844489760696887970e-02
7.137387990951538086e-02 -6.665284931659698486e-02 5.565537512302398682e-02
2.897873222827911377e-01 4.347061365842819214e-02 6.554314494132995605e-02
-4.470035433769226074e-02 -4.790734499692916870e-02 -7.819626480340957642e-03
1.088013201951980591e-01 6.446225941181182861e-02 -9.619342163205146790e-03
-4.646253585815429688e-02 -5.839027464389801025e-02 3.662202507257461548e-02
4.700878262519836426e-01 -4.417586326599121094e-02 1.044154763221740723e-01
2.412556409835815430e-01 6.886889226734638214e-03 -7.347378134727478027e-02
5.161297917366027832e-01 -3.185710683465003967e-02 -6.129560619592666626e-02
4.760504961013793945e-01 -7.786516845226287842e-02 6.434956192970275879e-02
4.089926183223724365e-01 9.829994291067123413e-03 9.653779119253158569e-02
5.632454752922058105e-01 -5.167341977357864380e-02 -4.310103505849838257e-02
-3.422576189041137695e-01 2.689213491976261139e-02 2.747613936662673950e-03
2.700676620006561279e-01 5.341267585754394531e-02 4.666088521480560303e-02
8.096384406089782715e-01 -3.333956748247146606e-02 -4.081939905881881714e-02
2.178275585174560547e-01 -5.566801130771636963e-02 9.721334278583526611e-02
2.417147457599639893e-01 6.261202692985534668e-02 -1.655256934463977814e-02
7.512128949165344238e-01 -6.188258528709411621e-02 6.931546330451965332e-02
7.947387695312500000e-01 2.035326324403285980e-03 -4.548104107379913330e-02
1.134146749973297119e-01 -6.055399030447006226e-02 -8.149383589625358582e-03
7.564488053321838379e-02 -6.499285250902175903e-02 1.344244368374347687e-02
4.371720552444458008e-02 -6.476190686225891113e-02 2.439553476870059967e-02
6.772547960281372070e-01 -7.447898387908935547e-02 5.645893514156341553e-02
6.043732762336730957e-01 4.388317465782165527e-02 1.617075316607952118e-02
9.183426201343536377e-02 -7.511618081480264664e-03 -6.387995928525924683e-02
-1.594654917716979980e-01 -1.267371606081724167e-02 9.008996188640594482e-02
2.646631002426147461e-02 5.122569948434829712e-02 -4.386769235134124756e-02
7.341033220291137695e-01 -7.396068423986434937e-02 1.666598767042160034e-02
7.182662189006805420e-02 6.425952166318893433e-02 -9.085807949304580688e-03
-1.806000173091888428e-01 -1.292604114860296249e-02 8.709578216075897217e-02
6.082547903060913086e-01 -4.800201952457427979e-02 -4.554768651723861694e-02
-3.015038967132568359e-01 -1.441760919988155365e-02 4.801226779818534851e-03
-1.775847971439361572e-01 1.425004750490188599e-02 -4.244383424520492554e-02
2.533690333366394043e-01 -6.307643651962280273e-02 8.999184519052505493e-02
2.852940559387207031e-01 -3.381928429007530212e-02 1.106862723827362061e-01
2.807162404060363770e-01 -7.704155147075653076e-02 2.287594787776470184e-02
2.360982894897460938e-01 5.831298232078552246e-02 -3.465569764375686646e-02
8.562971651554107666e-02 -1.239078119397163391e-03 1.063147783279418945e-01
-2.798923850059509277e-01 2.033290825784206390e-02 -2.296396531164646149e-02
2.902001440525054932e-01 1.367699354887008667e-03 -7.392434030771255493e-02
2.211135923862457275e-01 6.780849769711494446e-03 -7.297293841838836670e-02
2.322274446487426758e-02 -5.254596471786499023e-02 -1.118655689060688019e-02
6.726219654083251953e-01 3.636254370212554932e-02 2.250360138714313507e-02
-6.696334481239318848e-02 -5.060470104217529297e-02 4.518215544521808624e-03
6.155884861946105957e-01 1.994492486119270325e-04 8.724438399076461792e-02
8.647764921188354492e-01 6.520057097077369690e-03 -2.347612194716930389e-02
-8.834204077720642090e-02 5.858220160007476807e-02 -1.423913054168224335e-02
7.858629524707794189e-02 5.197783559560775757e-02 -4.570419341325759888e-02
6.045761704444885254e-01 -7.881652563810348511e-02 1.722089387476444244e-02
5.616989135742187500e-01 4.503350704908370972e-02 2.654922753572463989e-02
-2.341560125350952148e-01 1.455733366310596466e-02 -3.294370323419570923e-02
8.701141476631164551e-01 -3.157982230186462402e-02 -3.201325982809066772e-02
3.865519464015960693e-01 -1.211418397724628448e-02 1.081409901380538940e-01
5.780853629112243652e-01 4.449822008609771729e-02 2.360006049275398254e-02
7.934179902076721191e-02 -6.826316565275192261e-02 3.608448058366775513e-02
6.222284436225891113e-01 -7.529683411121368408e-02 3.020309843122959137e-03
4.284574985504150391e-01 9.160516783595085144e-04 -7.379569858312606812e-02
4.910882115364074707e-01 -6.302493810653686523e-02 9.111884236335754395e-02
3.703148365020751953e-01 4.606672376394271851e-02 -5.204559117555618286e-02
7.497909069061279297e-01 2.841336466372013092e-02 -1.997394300997257233e-02
2.875913977622985840e-01 3.557319939136505127e-02 -6.537282466888427734e-02
4.069132804870605469e-01 -8.106110244989395142e-02 3.779737651348114014e-02
-1.397415697574615479e-01 2.589193172752857208e-02 7.935775071382522583e-02
-7.880261540412902832e-02 -5.414697527885437012e-02 5.363813042640686035e-02
7.295826673507690430e-01 1.145287230610847473e-02 6.104322522878646851e-02
7.456492185592651367e-01 -8.028003387153148651e-03 7.628897577524185181e-02
2.996436357498168945e-01 -6.046940386295318604e-02 -2.702926658093929291e-02
7.363376617431640625e-01 -3.228125348687171936e-02 -4.959569126367568970e-02
6.319712996482849121e-01 -6.980241090059280396e-02 -1.166105642914772034e-02
5.679045319557189941e-01 8.401855826377868652e-02 8.199937641620635986e-02
3.560873866081237793e-01 1.099822521209716797e-01 3.281356021761894226e-02
6.156327724456787109e-01 9.209239482879638672e-02 -4.499437287449836731e-02
7.930364608764648438e-01 9.521812200546264648e-02 -4.273081943392753601e-02
6.713629364967346191e-01 1.104838922619819641e-01 -8.284356445074081421e-03
7.769979834556579590e-01 1.032781302928924561e-01 -1.658582314848899841e-02
4.777761101722717285e-01 1.112567633390426636e-01 2.871712855994701385e-02
6.980453729629516602e-01 2.815043553709983826e-02 7.875482738018035889e-02
4.299464821815490723e-01 8.240678161382675171e-02 8.964791148900985718e-02
6.723618507385253906e-01 9.879101067781448364e-02 3.958623111248016357e-02
5.796912312507629395e-01 3.845200687646865845e-02 4.677473753690719604e-02
9.731969833374023438e-01 5.389761179685592651e-02 5.206751823425292969e-02
7.564567327499389648e-01 2.718131989240646362e-02 8.041687309741973877e-02
3.909767270088195801e-01 7.035559415817260742e-02 1.165438443422317505e-02
7.164703011512756348e-01 5.461751669645309448e-02 -1.311228051781654358e-02
6.234206557273864746e-01 1.133267581462860107e-01 -1.322744041681289673e-02
8.169342279434204102e-01 5.228916555643081665e-02 8.944590389728546143e-02
8.911859989166259766e-01 2.902277186512947083e-02 6.754709780216217041e-02
7.722715139389038086e-01 2.693835645914077759e-02 6.368017196655273438e-02
5.666455626487731934e-01 1.105594187974929810e-01 2.086371742188930511e-02
8.215416669845581055e-01 3.447747603058815002e-02 2.400252968072891235e-02
8.698707222938537598e-01 6.149710714817047119e-02 -2.765285596251487732e-02
8.462858796119689941e-01 3.957707434892654419e-02 9.439973160624504089e-03
8.070048689842224121e-01 4.035011678934097290e-02 9.019212797284126282e-03
7.651901245117187500e-01 5.546386539936065674e-02 -1.780449971556663513e-02
2.546333372592926025e-01 9.784410893917083740e-02 3.769847005605697632e-02
8.507013320922851562e-01 6.801405549049377441e-02 -3.471250459551811218e-02
3.765136599540710449e-01 5.714271962642669678e-02 9.361325204372406006e-02
5.283750891685485840e-01 1.090432405471801758e-01 -3.692897781729698181e-02
5.520327687263488770e-01 5.977295339107513428e-02 -2.290450036525726318e-03
5.072818398475646973e-01 4.384954273700714111e-02 1.034610867500305176e-01
8.928502202033996582e-01 2.883187681436538696e-02 5.006578937172889709e-02
8.317775130271911621e-01 9.585323929786682129e-02 2.806140109896659851e-03
6.892644762992858887e-01 3.914350271224975586e-02 2.314967289566993713e-02
2.980305850505828857e-01 6.756679713726043701e-02 6.625713407993316650e-02
7.223114967346191406e-01 3.369123488664627075e-02 9.992009401321411133e-02
6.926983594894409180e-01 1.015459969639778137e-01 -4.551313444972038269e-02
7.980352640151977539e-01 2.715953439474105835e-02 7.889196276664733887e-02
6.850779056549072266e-01 4.536725580692291260e-02 8.092816919088363647e-03
7.687789201736450195e-01 3.607327118515968323e-02 2.283370867371559143e-02
5.238343477249145508e-01 8.487091958522796631e-02 8.373805880546569824e-02
7.463719248771667480e-01 1.039291694760322571e-01 -3.499272838234901428e-02
7.175644636154174805e-01 2.945306152105331421e-02 5.494557321071624756e-02
5.546649098396301270e-01 4.900290817022323608e-02 2.009228430688381195e-02
6.791462302207946777e-01 3.013982996344566345e-02 6.011295318603515625e-02
4.062600135803222656e-01 4.958431422710418701e-02 7.588618993759155273e-02
9.441536664962768555e-01 3.216067701578140259e-02 4.166362807154655457e-02
6.795189380645751953e-01 7.492426037788391113e-02 -3.726143762469291687e-02
6.037132740020751953e-01 4.607225954532623291e-02 1.100233793258666992e-01
8.101186752319335938e-01 8.597787469625473022e-02 4.195727407932281494e-02
9.054731726646423340e-01 8.368173986673355103e-02 1.689973846077919006e-02
8.512210845947265625e-01 5.687589198350906372e-02 7.972306013107299805e-02
6.964558362960815430e-01 6.070005148649215698e-02 9.808635711669921875e-02
3.711951076984405518e-01 1.122491061687469482e-01 2.485843002796173096e-02
6.588104963302612305e-01 6.792484968900680542e-02 9.479303658008575439e-02
6.622433066368103027e-01 2.943585440516471863e-02 7.621884346008300781e-02
5.464231967926025391e-01 4.453632235527038574e-02 3.421185910701751709e-02
6.345655918121337891e-01 9.678631275892257690e-02 5.072592198848724365e-02
5.229173898696899414e-01 1.130979806184768677e-01 1.672295853495597839e-02
4.261483848094940186e-01 1.074825823307037354e-01 4.306321963667869568e-02
9.745485186576843262e-01 4.005257040262222290e-02 1.691416464745998383e-02
4.901469349861145020e-01 8.566264063119888306e-02 -2.786252647638320923e-02
6.436326503753662109e-01 3.944299742579460144e-02 2.940811775624752045e-02
2.959831953048706055e-01 7.860642671585083008e-02 8.058604598045349121e-02
3.264508843421936035e-01 8.738908916711807251e-02 3.988141193985939026e-03
4.045137763023376465e-01 1.077022403478622437e-01 4.260496050119400024e-02
9.340788125991821289e-01 6.638815999031066895e-02 4.750951379537582397e-02
8.102136850357055664e-01 5.546117946505546570e-02 -1.963878422975540161e-02
9.712324142456054688e-01 3.485791757702827454e-02 3.795807808637619019e-02
8.285795450210571289e-01 9.045872837305068970e-02 -4.188767448067665100e-02
9.910759329795837402e-01 6.166611239314079285e-02 3.378708288073539734e-02
9.339129924774169922e-01 4.861313849687576294e-02 -6.717268377542495728e-03
9.199695587158203125e-01 4.040571302175521851e-02 7.473432272672653198e-02
6.593093276023864746e-01 5.682690441608428955e-02 -1.144611835479736328e-02
3.616752326488494873e-01 9.899975359439849854e-02 -1.371904462575912476e-02
6.485620737075805664e-01 3.183511272072792053e-02 9.487491846084594727e-02
7.309413552284240723e-01 8.650431782007217407e-02 5.732398480176925659e-02
7.124977111816406250e-01 8.966954052448272705e-02 -4.785298183560371399e-02
6.741074323654174805e-01 7.332638651132583618e-02 8.679085969924926758e-02
9.272920489311218262e-01 3.349105641245841980e-02 3.006959334015846252e-02
5.233944058418273926e-01 5.738629028201103210e-02 7.295655086636543274e-03
7.063186764717102051e-01 7.825228571891784668e-02 7.573118805885314941e-02
7.302619814872741699e-01 8.334685862064361572e-02 -4.575807973742485046e-02
6.279280781745910645e-01 1.086220294237136841e-01 -3.951304778456687927e-02
4.520416855812072754e-01 1.130887120962142944e-01 2.312627807259559631e-02
7.608656287193298340e-01 7.409448921680450439e-02 7.387150824069976807e-02
5.167176127433776855e-01 7.007572799921035767e-02 -1.350296288728713989e-02
6.275493502616882324e-01 3.217520192265510559e-02 9.283970296382904053e-02
6.776418089866638184e-01 1.055237278342247009e-01 1.721422001719474792e-02
6.490070223808288574e-01 1.120228916406631470e-01 -1.219834759831428528e-02
4.704573750495910645e-01 4.368069022893905640e-02 6.492485851049423218e-02
5.497580170631408691e-01 5.563569068908691406e-02 1.096955686807632446e-01
5.715397596359252930e-01 4.160393774509429932e-02 1.071683168411254883e-01
6.762043833732604980e-01 1.099600270390510559e-01 -2.871024981141090393e-02
8.516782522201538086e-01 2.905131503939628601e-02 4.410990700125694275e-02
3.277066946029663086e-01 6.258930265903472900e-02 8.141957223415374756e-02
9.988127350807189941e-01 4.020738601684570312e-02 2.614931389689445496e-02
6.153836846351623535e-01 1.002994477748870850e-01 4.500373452901840210e-02
3.845319449901580811e-01 5.340588092803955078e-02 6.387180089950561523e-02
8.672537803649902344e-01 2.795054763555526733e-02 5.271308869123458862e-02
8.371984958648681641e-01 8.727622777223587036e-02 3.135663270950317383e-02
5.106735825538635254e-01 1.111485287547111511e-01 -3.325612470507621765e-02
6.163884997367858887e-01 1.118495240807533264e-01 4.107840359210968018e-03
7.227344512939453125e-01 2.770095318555831909e-02 8.156627416610717773e-02
4.505106210708618164e-01 6.777916103601455688e-02 2.224033698439598083e-03
7.410717010498046875e-01 2.773734182119369507e-02 6.200549378991127014e-02
3.142877817153930664e-01 9.743364155292510986e-02 6.139682233333587646e-02
2.853048443794250488e-01 1.057563275098800659e-01 2.951398305594921112e-02
9.264086484909057617e-01 8.311507105827331543e-02 7.264263927936553955e-03
4.636893272399902344e-01 9.591925889253616333e-02 -3.107808530330657959e-02
4.564339220523834229e-01 4.450772702693939209e-02 8.979250490665435791e-02
4.671907424926757812e-01 1.057775914669036865e-01 4.614851623773574829e-02
6.039379239082336426e-01 7.527066022157669067e-02 9.115459769964218140e-02
8.583048582077026367e-01 7.721161097288131714e-02 4.879477992653846741e-02
7.428824901580810547e-01 9.671850502490997314e-02 3.040062263607978821e-02
1.002182245254516602e+00 4.648125916719436646e-02 4.519698768854141235e-02
7.604174017906188965e-01 6.687495112419128418e-02 -3.294424340128898621e-02
6.123405098915100098e-01 1.131128221750259399e-01 -2.682246267795562744e-02
5.244335532188415527e-01 1.162683814764022827e-01 -1.560342684388160706e-02
2.864889800548553467e-01 7.200168073177337646e-02 5.182954296469688416e-02
3.918123841285705566e-01 8.413781225681304932e-02 8.682352304458618164e-02
8.224778175354003906e-01 2.680724114179611206e-02 6.108749285340309143e-02
4.383312165737152100e-01 1.151592358946800232e-01 -1.623733714222908020e-02
6.222547292709350586e-01 9.032457321882247925e-02 6.589785218238830566e-02
7.352465987205505371e-01 7.304564118385314941e-02 7.931396365165710449e-02
4.457702636718750000e-01 1.011888161301612854e-01 -3.003824502229690552e-02
4.756050109863281250e-01 1.164986416697502136e-01 4.871580749750137329e-04
5.227799415588378906e-01 1.061907261610031128e-01 4.074078053236007690e-02
3.675805330276489258e-01 5.487528070807456970e-02 7.808013260364532471e-02
8.494906425476074219e-01 8.840805292129516602e-02 -4.015859588980674744e-02
4.912494421005249023e-01 4.628142714500427246e-02 4.396527260541915894e-02
8.416771292686462402e-01 9.193380922079086304e-02 1.528814807534217834e-02
7.698773145675659180e-01 9.572544693946838379e-02 2.636415883898735046e-02
9.478191137313842773e-01 5.774781480431556702e-02 -1.817386224865913391e-02
5.877607464790344238e-01 8.450846374034881592e-02 7.956415414810180664e-02
4.625880718231201172e-01 4.842870682477951050e-02 4.609037190675735474e-02
5.888276696205139160e-01 9.198011457920074463e-02 -4.305409267544746399e-02
9.574106931686401367e-01 7.834623008966445923e-02 5.585188046097755432e-03
9.493824243545532227e-01 6.070207059383392334e-02 5.156411975622177124e-02
7.537759542465209961e-01 6.326987594366073608e-02 8.878026902675628662e-02
4.854981899261474609e-01 4.718830436468124390e-02 1.046973019838333130e-01
6.054890155792236328e-01 1.140451580286026001e-01 -1.163971424102783203e-02
9.149327278137207031e-01 5.523702874779701233e-02 -1.801495626568794250e-02
6.042638421058654785e-01 3.396613523364067078e-02 6.068150699138641357e-02
9.435720443725585938e-01 7.444155961275100708e-02 2.725386992096900940e-02
5.331367254257202148e-01 3.721677884459495544e-02 7.464237511157989502e-02
5.982574820518493652e-01 4.036695510149002075e-02 3.540312126278877258e-02
3.205799460411071777e-01 1.104292348027229309e-01 8.305536583065986633e-03
6.169289946556091309e-01 3.599869087338447571e-02 4.689674824476242065e-02
4.441413879394531250e-01 8.520227670669555664e-02 -2.015398442745208740e-02
7.911774516105651855e-01 9.846644103527069092e-02 9.491933509707450867e-03
9.461448192596435547e-01 4.120988398790359497e-02 6.764622032642364502e-02
7.273334860801696777e-01 7.026676833629608154e-02 -3.523774072527885437e-02
6.282355785369873047e-01 4.611065983772277832e-02 1.413730159401893616e-02
9.782500863075256348e-01 5.088719725608825684e-02 -4.800509661436080933e-03
8.191607594490051270e-01 2.824094146490097046e-02 8.147353678941726685e-02
4.141672849655151367e-01 5.015975981950759888e-02 6.144051998853683472e-02
8.202800750732421875e-01 7.083074748516082764e-02 6.824216991662979126e-02
5.564197301864624023e-01 7.997576892375946045e-02 -3.107670322060585022e-02
4.329918324947357178e-01 5.361256003379821777e-02 3.904220834374427795e-02
3.567713797092437744e-01 5.780774354934692383e-02 6.013089418411254883e-02
5.380004644393920898e-01 9.260070323944091797e-02 7.001446932554244995e-02
9.279536008834838867e-01 8.487375080585479736e-02 -1.574565097689628601e-02
6.843534708023071289e-01 8.671822398900985718e-02 6.441846489906311035e-02
5.481203794479370117e-01 1.030204892158508301e-01 4.660588875412940979e-02
3.311098515987396240e-01 7.142125070095062256e-02 2.845423109829425812e-02
5.654203891754150391e-01 1.154717728495597839e-01 -1.194635033607482910e-02
9.038387537002563477e-01 3.766624256968498230e-02 7.811020314693450928e-02
7.969116568565368652e-01 2.728769555687904358e-02 5.701214447617530823e-02
6.681619882583618164e-01 3.040701895952224731e-02 9.149610996246337891e-02
7.404667735099792480e-01 5.228012055158615112e-02 -1.094226539134979248e-02
4.904169440269470215e-01 1.037975698709487915e-01 4.977060854434967041e-02
4.546831250190734863e-01 1.164656132459640503e-01 1.746989786624908447e-03
4.397408366203308105e-01 4.631561785936355591e-02 6.846417486667633057e-02
4.746052324771881104e-01 1.162056773900985718e-01 -1.610288769006729126e-02
6.932503581047058105e-01 9.260993450880050659e-02 5.094572529196739197e-02
7.926235198974609375e-01 7.777637988328933716e-02 -4.294826462864875793e-02
7.745689749717712402e-01 9.642312675714492798e-02 -4.383411630988121033e-02
4.204657077789306641e-01 1.153326034545898438e-01 1.130028255283832550e-02
4.738986194133758545e-01 5.916982516646385193e-02 1.076356023550033569e-01
7.125827074050903320e-01 5.445932596921920776e-02 1.011695265769958496e-01
5.083692073822021484e-01 1.164251267910003662e-01 -3.757357597351074219e-03
8.737765550613403320e-01 9.276556968688964844e-02 -1.008467376232147217e-02
5.847271680831909180e-01 1.146454215049743652e-01 -2.112262323498725891e-02
5.805311799049377441e-01 7.436818629503250122e-02 -2.777245268225669861e-02
8.629066944122314453e-01 8.806054294109344482e-02 2.036185562610626221e-02
8.070042729377746582e-01 6.610076129436492920e-02 -3.320013359189033508e-02
8.339297771453857422e-01 6.509608030319213867e-02 -3.218168392777442932e-02
6.302461028099060059e-01 6.277439743280410767e-02 -1.783123984932899475e-02
4.813323616981506348e-01 8.852998912334442139e-02 8.025963604450225830e-02
8.512780666351318359e-01 5.535037815570831299e-02 -2.002863585948944092e-02
4.131771326065063477e-01 5.332327634096145630e-02 9.861738979816436768e-02
9.029059410095214844e-01 7.597852498292922974e-02 3.867295756936073303e-02
4.938832521438598633e-01 6.241212412714958191e-02 1.070071905851364136e-01
7.599081993103027344e-01 2.912328392267227173e-02 4.961653426289558411e-02
8.381923437118530273e-01 3.587552532553672791e-02 8.986082673072814941e-02
3.395230174064636230e-01 9.042476862668991089e-02 7.561667263507843018e-02
8.865350484848022461e-01 8.047017455101013184e-02 3.348354250192642212e-02
3.407821059226989746e-01 6.103136390447616577e-02 5.577688664197921753e-02
8.920769095420837402e-01 4.056027904152870178e-02 7.195539772510528564e-03
4.700097143650054932e-01 5.594598129391670227e-02 2.200012840330600739e-02
1.022822141647338867e+00 5.230710655450820923e-02 9.940898045897483826e-03
7.487809062004089355e-01 3.091090172529220581e-02 9.445890784263610840e-02
5.687345862388610840e-01 3.455355018377304077e-02 8.545354008674621582e-02
5.692337155342102051e-01 1.003500074148178101e-01 -4.340009763836860657e-02
8.520744442939758301e-01 9.560426324605941772e-02 -1.488959416747093201e-02
5.833443403244018555e-01 1.142320185899734497e-01 -2.542126923799514771e-03
3.331304490566253662e-01 1.114210709929466248e-01 2.021337673068046570e-02
8.419554233551025391e-01 2.690772339701652527e-02 6.698133796453475952e-02
7.140873074531555176e-01 1.051712259650230408e-01 7.917335256934165955e-03
2.725150883197784424e-01 7.626715302467346191e-02 6.956331431865692139e-02
5.101060867309570312e-01 7.670908421277999878e-02 9.500783681869506836e-02
7.974394559860229492e-01 3.415493667125701904e-02 2.636784873902797699e-02
9.325674772262573242e-01 6.371302902698516846e-02 -2.568462863564491272e-02
6.400794982910156250e-01 5.120883509516716003e-02 1.264510676264762878e-03
3.640651106834411621e-01 7.166977971792221069e-02 9.550935029983520508e-02
4.336464405059814453e-01 6.588368117809295654e-02 9.423250332474708557e-03
3.960689008235931396e-01 1.126600652933120728e-01 -1.466440036892890930e-02
6.337410211563110352e-01 1.098572015762329102e-01 9.946556761860847473e-03
3.485452830791473389e-01 7.365035265684127808e-02 1.779533550143241882e-02
4.573659896850585938e-01 7.631382346153259277e-02 -1.216605678200721741e-02
3.886223733425140381e-01 9.951546043157577515e-02 6.223526597023010254e-02
3.149133324623107910e-01 6.406374275684356689e-02 6.540746986865997314e-02
8.725044727325439453e-01 8.685393631458282471e-02 -3.712000325322151184e-02
9.215652942657470703e-01 4.293419793248176575e-02 3.213923424482345581e-03
5.162209272384643555e-01 1.004058197140693665e-01 5.585853010416030884e-02
5.967836380004882812e-01 9.854136407375335693e-02 5.178755894303321838e-02
7.806120514869689941e-01 5.852149426937103271e-02 8.975391089916229248e-02
4.807781577110290527e-01 7.391350716352462769e-02 -1.304255425930023193e-02
6.970002651214599609e-01 8.042863011360168457e-02 -4.290778562426567078e-02
6.543896198272705078e-01 6.600623577833175659e-02 -2.491465210914611816e-02
7.879533171653747559e-01 3.922661766409873962e-02 1.287695765495300293e-02
5.052268505096435547e-01 3.938116133213043213e-02 7.641261816024780273e-02
5.619985461235046387e-01 4.024704173207283020e-02 4.471709579229354858e-02
3.444686233997344971e-01 9.075739979743957520e-02 -4.384897649288177490e-03
7.193621397018432617e-01 6.614603102207183838e-02 9.011090546846389771e-02
3.728812634944915771e-01 1.022475957870483398e-01 5.593802407383918762e-02
6.420149803161621094e-01 4.672298580408096313e-02 1.090639233589172363e-01
3.778398633003234863e-01 1.113479286432266235e-01 -1.269514858722686768e-02
3.375565409660339355e-01 1.109014451503753662e-01 -1.119598746299743652e-04
9.202415943145751953e-01 7.687888294458389282e-02 3.053509630262851715e-02
2.544748485088348389e-01 8.273260295391082764e-02 4.830021038651466370e-02
6.515902280807495117e-01 4.565136507153511047e-02 1.178310066461563110e-02
8.912711739540100098e-01 6.168665736913681030e-02 6.596707552671432495e-02
5.711686611175537109e-01 1.011665463447570801e-01 4.864565283060073853e-02
2.946871221065521240e-01 8.638662099838256836e-02 1.590831205248832703e-02
7.027769088745117188e-01 3.558450937271118164e-02 1.027084141969680786e-01
3.326000571250915527e-01 1.080448925495147705e-01 3.669907152652740479e-02
4.584664404392242432e-01 7.035019248723983765e-02 1.017119586467742920e-01
7.721201181411743164e-01 4.123263806104660034e-02 9.958937764167785645e-02
4.075974524021148682e-01 5.516985058784484863e-02 4.341482371091842651e-02
6.554836630821228027e-01 1.098716109991073608e-01 3.392603248357772827e-03
1.006451487541198730e+00 6.099101528525352478e-02 -6.733000278472900391e-03
8.607695698738098145e-01 2.776762843132019043e-02 7.050707936286926270e-02
5.758172273635864258e-01 5.645248293876647949e-02 1.476984471082687378e-04
6.336260437965393066e-01 8.368029445409774780e-02 -4.157238826155662537e-02
7.226504087448120117e-01 1.076475679874420166e-01 -1.842283084988594055e-02
7.560127377510070801e-01 4.771482199430465698e-02 -3.605499863624572754e-03
1.004245996475219727e+00 6.589703261852264404e-02 1.457473449409008026e-02
7.620388865470886230e-01 8.045810461044311523e-02 -4.456803575158119202e-02
6.971874237060546875e-01 1.092602908611297607e-01 -2.313027530908584595e-02
4.530850648880004883e-01 5.467493087053298950e-02 2.971634268760681152e-02
7.189974188804626465e-01 3.531083837151527405e-02 3.059472329914569855e-02
5.966074466705322266e-01 5.254197865724563599e-02 4.722936078906059265e-03
4.990985989570617676e-01 6.110790371894836426e-02 4.589613527059555054e-03
5.729568004608154297e-01 6.074609979987144470e-02 1.067595034837722778e-01
5.411930084228515625e-01 1.139331310987472534e-01 9.726060554385185242e-03
7.915551662445068359e-01 8.645673841238021851e-02 4.526320099830627441e-02
8.143796920776367188e-01 9.795863926410675049e-02 -3.291058167815208435e-02
4.022951722145080566e-01 6.251475960016250610e-02 2.480921521782875061e-02
4.356181025505065918e-01 6.141451001167297363e-02 1.050842255353927612e-01
8.159998655319213867e-01 2.917888388037681580e-02 4.414331167936325073e-02
8.778697252273559570e-01 7.555332034826278687e-02 4.693624377250671387e-02
9.435694217681884766e-01 4.210536181926727295e-02 6.838975474238395691e-03
7.896264195442199707e-01 4.731997102499008179e-02 -4.937928169965744019e-03
8.941836953163146973e-01 8.978043496608734131e-02 -2.139320969581604004e-02
9.874106049537658691e-01 3.863262385129928589e-02 4.916151985526084900e-02
5.903863906860351562e-01 1.083719283342361450e-01 2.505103312432765961e-02
6.445269584655761719e-01 1.051873415708541870e-01 -4.364005848765373230e-02
7.804962992668151855e-01 6.421775370836257935e-02 -3.053514286875724792e-02
4.110195636749267578e-01 9.742318093776702881e-02 6.653887033462524414e-02
9.852297306060791016e-01 7.309228926897048950e-02 2.569040283560752869e-03
5.895137786865234375e-01 3.460167720913887024e-02 9.522336721420288086e-02
8.994877934455871582e-01 3.475899621844291687e-02 2.301388606429100037e-02
6.161655783653259277e-01 5.752188712358474731e-02 1.067111492156982422e-01
5.765023231506347656e-01 4.436537623405456543e-02 2.794080413877964020e-02
4.683415293693542480e-01 6.529904901981353760e-02 2.917079254984855652e-03
2.397477924823760986e-01 -1.231498047709465027e-01 1.742662787437438965e-01
2.622692286968231201e-02 -8.009789884090423584e-02 1.655021905899047852e-01
1.216207593679428101e-01 -1.422762721776962280e-01 3.310041129589080811e-01
1.963472068309783936e-01 -1.586485654115676880e-02 4.019001126289367676e-01
4.208397865295410156e-02 -1.056492701172828674e-01 3.769162893295288086e-01
5.834668129682540894e-02 -5.549594759941101074e-02 2.151711881160736084e-01
5.067638307809829712e-02 -9.102874994277954102e-02 3.940517306327819824e-01
-1.826295256614685059e-02 -1.064774841070175171e-01 1.741670221090316772e-01
3.259468674659729004e-01 -4.192877560853958130e-02 2.991404235363006592e-01
-1.985427737236022949e-02 -1.417272984981536865e-01 1.886948198080062866e-01
1.263059973716735840e-01 -9.483820199966430664e-02 4.353640675544738770e-01
1.406646370887756348e-01 -6.382439285516738892e-02 4.581123292446136475e-01
1.518690735101699829e-01 -6.563517451286315918e-02 1.364643424749374390e-01
2.214881479740142822e-01 -7.086776942014694214e-02 4.659409523010253906e-01
1.098548769950866699e-01 -4.619420692324638367e-02 4.239313602447509766e-01
1.236182600259780884e-01 -1.598521173000335693e-01 2.022012174129486084e-01
5.938742309808731079e-02 -9.541554749011993408e-02 1.071565598249435425e-01
2.472586780786514282e-01 -1.273423433303833008e-02 3.964734673500061035e-01
1.204627826809883118e-01 -1.199455261230468750e-01 3.939079344272613525e-01
-2.898865938186645508e-02 -1.240091770887374878e-01 1.863592416048049927e-01
7.998707145452499390e-02 -1.326752603054046631e-01 8.319677412509918213e-02
2.512800395488739014e-01 -2.891498059034347534e-02 2.498033940792083740e-01
1.469435691833496094e-01 -1.562994718551635742e-01 1.904186606407165527e-01
1.525769531726837158e-01 -3.775060549378395081e-02 4.451403319835662842e-01
3.158881366252899170e-01 -7.833074778318405151e-02 3.813079297542572021e-01
-2.931495010852813721e-02 -1.289901137351989746e-01 2.092877924442291260e-01
3.161754012107849121e-01 -6.649485975503921509e-02 2.447305917739868164e-01
1.168459355831146240e-01 -9.216055274009704590e-02 9.763886034488677979e-02
3.057817816734313965e-01 -9.825934469699859619e-02 2.694473266601562500e-01
2.169901132583618164e-01 -1.288246214389801025e-01 1.538732945919036865e-01
9.685739874839782715e-02 -3.536479175090789795e-02 3.646995127201080322e-01
3.162496536970138550e-02 -1.568770408630371094e-01 1.390845030546188354e-01
2.532822191715240479e-01 -1.168209165334701538e-01 1.811408400535583496e-01
2.869077324867248535e-01 -2.951399236917495728e-02 4.433432817459106445e-01
1.508502215147018433e-01 -2.814697474241256714e-02 2.557609081268310547e-01
2.184807062149047852e-01 -1.879078894853591919e-02 4.312154650688171387e-01
8.525186777114868164e-02 -1.618022620677947998e-01 1.611438095569610596e-01
2.147235274314880371e-01 -1.341398060321807861e-01 3.115056455135345459e-01
-2.725532650947570801e-02 -1.100211516022682190e-01 2.010603845119476318e-01
1.389197111129760742e-01 -1.225991025567054749e-01 3.894540667533874512e-01
2.451001107692718506e-01 -2.243115752935409546e-02 2.731240689754486084e-01
2.298486232757568359e-01 -1.032362431287765503e-01 4.123837351799011230e-01
2.524313330650329590e-02 -6.671699136495590210e-02 3.311053812503814697e-01
1.630357503890991211e-01 -1.487970799207687378e-01 2.798984944820404053e-01
1.968022733926773071e-01 -1.455014497041702271e-01 2.080065310001373291e-01
-2.300371229648590088e-02 -1.196702867746353149e-01 1.648886799812316895e-01
1.421752125024795532e-01 -9.071529656648635864e-02 1.001286506652832031e-01
1.080065816640853882e-01 -3.262373432517051697e-02 2.778731584548950195e-01
1.717846095561981201e-01 -1.516620218753814697e-01 2.017736732959747314e-01
1.303697824478149414e-01 -5.295807123184204102e-02 4.487177133560180664e-01
3.899182379245758057e-02 -9.020729362964630127e-02 3.822386562824249268e-01
1.339571326971054077e-01 -2.455913275480270386e-02 3.072023093700408936e-01
9.976235777139663696e-02 -1.391186863183975220e-01 3.409396409988403320e-01
6.448215991258621216e-02 -1.102856695652008057e-01 3.886260092258453369e-01
1.001649945974349976e-01 -3.275264799594879150e-02 3.483368754386901855e-01
2.601462900638580322e-01 -1.518631726503372192e-02 4.129635691642761230e-01
8.152976632118225098e-02 -1.628550589084625244e-01 1.810592859983444214e-01
2.885290682315826416e-01 -2.218310534954071045e-02 4.246376156806945801e-01
2.073381245136260986e-01 -8.797942847013473511e-02 4.488765001296997070e-01
2.875618338584899902e-01 -4.583427309989929199e-02 2.311500608921051025e-01
2.662674486637115479e-01 -2.167207747697830200e-02 2.890527546405792236e-01
2.873003482818603516e-01 -9.945914149284362793e-02 2.096048593521118164e-01
1.041972190141677856e-01 -3.998024016618728638e-02 4.019687771797180176e-01
2.952175140380859375e-01 -4.719749465584754944e-02 4.478881657123565674e-01
1.449958384037017822e-01 -1.548897624015808105e-01 1.653359532356262207e-01
3.124607503414154053e-01 -3.005218133330345154e-02 3.103459179401397705e-01
2.533863782882690430e-01 -1.039193719625473022e-01 3.937894999980926514e-01
1.235006749629974365e-01 -1.040165200829505920e-01 8.773738145828247070e-02
1.861099600791931152e-01 -1.340959519147872925e-01 3.403502106666564941e-01
3.142614960670471191e-01 -3.210017457604408264e-02 4.166761934757232666e-01
7.481125742197036743e-02 -1.541591882705688477e-01 1.152018457651138306e-01
1.008736640214920044e-01 -1.442801505327224731e-01 3.233819901943206787e-01
-7.683008909225463867e-03 -1.211185604333877563e-01 2.984126806259155273e-01
1.254584193229675293e-01 -1.292206794023513794e-01 3.722712695598602295e-01
2.035420536994934082e-01 -3.225609287619590759e-02 2.244387716054916382e-01
1.284663379192352295e-01 -6.285033375024795532e-02 1.444847881793975830e-01
2.111697345972061157e-01 -2.449203282594680786e-02 4.470522999763488770e-01
1.146316826343536377e-01 -7.046983391046524048e-02 4.451104402542114258e-01
1.702008843421936035e-01 -1.233347207307815552e-01 1.027136743068695068e-01
2.285286784172058105e-03 -1.528488695621490479e-01 1.670242697000503540e-01
1.472625732421875000e-01 -1.421948671340942383e-01 3.258605301380157471e-01
4.031971096992492676e-03 -1.398821920156478882e-01 1.212943643331527710e-01
3.126479685306549072e-02 -1.420482695102691650e-01 1.020313203334808350e-01
7.965809851884841919e-02 -8.816147595643997192e-02 4.185882210731506348e-01
7.404873520135879517e-02 -5.449716374278068542e-02 1.989823430776596069e-01
1.425560861825942993e-01 -1.297526955604553223e-01 3.703800439834594727e-01
1.540862470865249634e-01 -1.342681348323822021e-01 1.046806573867797852e-01
4.552616924047470093e-02 -8.002496510744094849e-02 1.451191306114196777e-01
1.079310923814773560e-01 -1.103494912385940552e-01 4.087739586830139160e-01
2.169456630945205688e-01 -3.690756112337112427e-02 2.114401906728744507e-01
1.793795824050903320e-01 -1.652283966541290283e-02 3.240648508071899414e-01
1.701623648405075073e-01 -1.403446793556213379e-01 3.228774070739746094e-01
3.333222866058349609e-01 -4.405742138624191284e-02 3.170001804828643799e-01
1.612775772809982300e-01 -2.885745093226432800e-02 4.315105080604553223e-01
2.011289447546005249e-01 -6.384319812059402466e-02 4.718061089515686035e-01
2.614125013351440430e-01 -9.646271169185638428e-02 1.653254479169845581e-01
5.023112893104553223e-02 -4.984821379184722900e-02 3.021267950534820557e-01
1.182392165064811707e-01 -3.942060843110084534e-02 2.228817939758300781e-01
4.306435585021972656e-02 -5.309953168034553528e-02 2.856337726116180420e-01
3.306792676448822021e-01 -6.538752466440200806e-02 3.765414953231811523e-01
7.242676615715026855e-02 -1.160695105791091919e-01 8.394780755043029785e-02
4.463493824005126953e-04 -9.858790040016174316e-02 3.265932798385620117e-01
2.961117625236511230e-01 -7.031121850013732910e-02 2.098870128393173218e-01
5.362944304943084717e-02 -1.621229052543640137e-01 2.001453042030334473e-01
1.835562884807586670e-01 -5.635176599025726318e-02 4.714152812957763672e-01
5.467183887958526611e-02 -5.006228759884834290e-02 2.600386142730712891e-01
3.055031895637512207e-01 -2.079968899488449097e-02 3.674459457397460938e-01
3.580891340970993042e-02 -1.502423882484436035e-01 2.732344269752502441e-01
2.157429456710815430e-01 -1.895446330308914185e-02 2.849450409412384033e-01
8.130097389221191406e-02 -6.776267290115356445e-02 4.202830493450164795e-01
2.021049857139587402e-01 -1.365154981613159180e-01 1.560356318950653076e-01
2.354969382286071777e-01 -2.602307125926017761e-02 2.540389895439147949e-01
2.412061393260955811e-01 -1.173711568117141724e-02 3.786895871162414551e-01
2.377952784299850464e-01 -1.329937428236007690e-01 2.462962120771408081e-01
5.903561413288116455e-02 -1.538396775722503662e-01 2.718715369701385498e-01
1.797484457492828369e-01 -1.089629232883453369e-01 4.168615937232971191e-01
2.135182321071624756e-01 -1.269695311784744263e-01 3.488640785217285156e-01
6.382445245981216431e-02 -4.481334239244461060e-02 2.862302660942077637e-01
1.624519526958465576e-01 -3.654421493411064148e-02 2.126133590936660767e-01
7.205045223236083984e-02 -8.388084173202514648e-02 1.200066655874252319e-01
-1.705533266067504883e-02 -1.321365535259246826e-01 1.479510217905044556e-01
2.422423660755157471e-02 -1.435938626527786255e-01 2.880280017852783203e-01
1.616746187210083008e-03 -7.683381438255310059e-02 2.783951759338378906e-01
2.996626496315002441e-01 -2.025720477104187012e-02 3.444503247737884521e-01
3.147847950458526611e-01 -8.398821204900741577e-02 3.649281561374664307e-01
6.702868640422821045e-02 -1.624787449836730957e-01 1.664649695158004761e-01
3.069671094417572021e-01 -9.395744651556015015e-02 2.506943643093109131e-01
1.047183573246002197e-01 -4.818411916494369507e-02 1.965969204902648926e-01
1.049034893512725830e-01 -1.491682231426239014e-01 1.081320345401763916e-01
2.481213659048080444e-01 -1.284969449043273926e-01 2.719255983829498291e-01
1.223810091614723206e-01 -2.630934491753578186e-02 3.217542171478271484e-01
1.284181624650955200e-01 -1.371152698993682861e-01 3.487227559089660645e-01
1.800633668899536133e-01 -7.930171489715576172e-02 4.605414867401123047e-01
1.000907421112060547e-01 -1.249836683273315430e-01 3.786375224590301514e-01
2.210106849670410156e-01 -1.366762667894363403e-01 1.973996758460998535e-01
5.814633518457412720e-02 -1.605337560176849365e-01 1.464574635028839111e-01
9.438382834196090698e-02 -5.414883792400360107e-02 4.205245375633239746e-01
1.205326318740844727e-01 -1.506554633378982544e-01 1.195954382419586182e-01
7.923619449138641357e-02 -1.573247164487838745e-01 2.587368488311767578e-01
2.411245107650756836e-01 -8.140755444765090942e-02 4.484601020812988281e-01
2.340328395366668701e-01 -4.997417703270912170e-02 4.734755754470825195e-01
5.685754120349884033e-02 -1.604329645633697510e-01 2.264418452978134155e-01
1.403076797723770142e-01 -4.477709159255027771e-02 1.904827356338500977e-01
1.815782189369201660e-01 -1.471064239740371704e-01 2.672935724258422852e-01
2.598317861557006836e-01 -6.801374256610870361e-02 4.567549228668212891e-01
2.784493565559387207e-01 -1.122234761714935303e-01 3.180408179759979248e-01
2.498095333576202393e-01 -1.102146580815315247e-01 3.773328661918640137e-01
1.665516495704650879e-01 -1.958866417407989502e-02 3.046589493751525879e-01
2.130032032728195190e-01 -8.556342124938964844e-02 1.272682994604110718e-01
4.802814871072769165e-02 -1.552844345569610596e-01 1.223816126585006714e-01
2.339956909418106079e-01 -1.606057584285736084e-02 3.057410717010498047e-01
2.664859890937805176e-01 -1.634280383586883545e-02 3.217297792434692383e-01
1.434356868267059326e-01 -1.112704053521156311e-01 8.845254778861999512e-02
1.521857827901840210e-01 -1.981862634420394897e-02 3.377244472503662109e-01
1.996907591819763184e-01 -1.327677816152572632e-02 3.556286692619323730e-01
1.597417891025543213e-02 -1.573598980903625488e-01 1.776913404464721680e-01
3.345164656639099121e-01 -4.704412445425987244e-02 3.842882513999938965e-01
4.262807965278625488e-02 -9.451833367347717285e-02 1.179479658603668213e-01
9.256392717361450195e-03 -7.864464819431304932e-02 2.012597620487213135e-01
2.116451412439346313e-01 -5.952846258878707886e-02 1.578856110572814941e-01
2.675523161888122559e-01 -1.148911491036415100e-01 2.062849700450897217e-01
1.205352544784545898e-01 -2.836720272898674011e-02 3.713898062705993652e-01
5.543070286512374878e-02 -1.257211416959762573e-01 8.561019599437713623e-02
1.893057823181152344e-01 -1.476690173149108887e-02 3.371101617813110352e-01
1.504243463277816772e-01 -1.097887009382247925e-01 4.170717298984527588e-01
1.305082291364669800e-01 -2.954461053013801575e-02 2.660867869853973389e-01
1.787626147270202637e-01 -1.502841264009475708e-01 2.211859375238418579e-01
2.826714515686035156e-01 -7.951787859201431274e-02 1.889447569847106934e-01
3.379653990268707275e-01 -6.053316593170166016e-02 3.185559809207916260e-01
2.891320586204528809e-01 -7.803402096033096313e-02 4.217355847358703613e-01
1.894096881151199341e-01 -1.018760874867439270e-01 4.292525649070739746e-01
3.014089465141296387e-01 -8.756560832262039185e-02 3.820818662643432617e-01
1.259996294975280762e-01 -1.591446101665496826e-01 1.797088682651519775e-01
1.892997622489929199e-01 -8.004550635814666748e-02 1.216740310192108154e-01
2.262121438980102539e-02 -1.584916114807128906e-01 1.963270455598831177e-01
1.012103483080863953e-01 -3.178166225552558899e-02 3.213412463665008545e-01
1.383817195892333984e-01 -3.099169582128524780e-02 4.160271584987640381e-01
5.810022354125976562e-02 -1.170556619763374329e-01 3.747461736202239990e-01
2.553880810737609863e-01 -1.214736700057983398e-01 3.166504800319671631e-01
2.319471538066864014e-02 -9.294641017913818359e-02 3.626330196857452393e-01
2.846415340900421143e-01 -2.414066344499588013e-02 2.943423390388488770e-01
5.411120504140853882e-02 -4.888969287276268005e-02 3.227462172508239746e-01
1.881963014602661133e-01 -1.527658104896545410e-02 3.846378922462463379e-01
2.781123518943786621e-01 -4.834164306521415710e-02 2.171972990036010742e-01
8.642369508743286133e-02 -1.477948725223541260e-01 3.077582418918609619e-01
2.038457542657852173e-01 -2.754290029406547546e-02 2.424994260072708130e-01
2.411540299654006958e-01 -1.194081231951713562e-01 3.517102301120758057e-01
-3.413856029510498047e-03 -1.480933427810668945e-01 1.512062549591064453e-01
9.250306338071823120e-02 -1.540023088455200195e-01 1.179457902908325195e-01
6.505285948514938354e-02 -1.498968601226806641e-01 2.926897108554840088e-01
9.372590482234954834e-02 -1.548536121845245361e-01 2.749629318714141846e-01
2.331680208444595337e-01 -2.676245197653770447e-02 4.553960561752319336e-01
3.214201033115386963e-01 -3.064764663577079773e-02 3.317726254463195801e-01
1.311352998018264771e-01 -8.262085914611816406e-02 4.479594826698303223e-01
-2.288968861103057861e-02 -1.365521699190139771e-01 1.733130216598510742e-01
2.671864628791809082e-01 -3.442615643143653870e-02 2.417815923690795898e-01
9.715628623962402344e-02 -9.003343433141708374e-02 1.024274080991744995e-01
