7.008941173553466797e-01 7.257109880447387695e-02 2.650869265198707581e-02
5.841811299324035645e-01 9.754353761672973633e-02 2.805186063051223755e-02
6.220918297767639160e-01 1.146954149007797241e-01 -4.535393789410591125e-03
8.029642701148986816e-01 9.146264195442199707e-02 -3.501701354980468750e-02
6.492162942886352539e-01 1.073215976357460022e-01 -5.904741957783699036e-02
5.427765846252441406e-01 5.713965743780136108e-02 7.327935099601745605e-02
4.863235056400299072e-01 1.011568605899810791e-01 -2.507288381457328796e-02
4.239181876182556152e-01 8.783502876758575439e-02 4.487190395593643188e-03
4.325095713138580322e-01 5.168984085321426392e-02 5.436111241579055786e-02
7.710891962051391602e-01 3.391138091683387756e-02 -1.251844596117734909e-02
5.280603170394897461e-01 1.454227864742279053e-01 -5.171231552958488464e-02
3.554907441139221191e-01 1.516674607992172241e-01 1.480633392930030823e-03
6.285715103149414062e-01 5.994965881109237671e-02 -1.533795055001974106e-02
7.007395029067993164e-01 1.018739044666290283e-01 -1.031866017729043961e-02
7.836841344833374023e-01 7.026679813861846924e-03 4.897584021091461182e-02
7.335785031318664551e-01 2.982780337333679199e-02 5.468279495835304260e-02
2.736556529998779297e-01 1.042171865701675415e-01 6.482461094856262207e-02
6.609708070755004883e-01 7.365460693836212158e-02 -3.578484803438186646e-02
4.431509971618652344e-01 1.536651104688644409e-01 -2.518451586365699768e-02
8.774912357330322266e-01 6.887752562761306763e-02 -3.587094694375991821e-02
4.122718572616577148e-01 1.140944957733154297e-01 -1.838470250368118286e-02
6.854264140129089355e-01 7.438427954912185669e-02 2.862958237528800964e-02
6.580295562744140625e-01 8.028308302164077759e-02 2.929776906967163086e-02
9.118078947067260742e-01 3.454566746950149536e-02 -2.415954694151878357e-02
9.176713228225708008e-01 2.575542032718658447e-02 -4.951559007167816162e-03
6.665514111518859863e-01 3.524811565876007080e-02 6.536536663770675659e-02
7.771490812301635742e-01 5.519481003284454346e-02 2.333627082407474518e-02
4.722105860710144043e-01 1.264037489891052246e-01 1.777553558349609375e-02
6.173128485679626465e-01 1.040750369429588318e-01 1.165805291384458542e-02
5.659319162368774414e-01 2.173086255788803101e-02 6.910946220159530640e-02
7.839000225067138672e-01 9.451884031295776367e-02 -3.110914677381515503e-02
5.101695656776428223e-01 4.156237095594406128e-02 4.208476096391677856e-02
4.632484912872314453e-01 1.492068767547607422e-01 -1.876197010278701782e-02
7.369201779365539551e-01 4.891800507903099060e-02 3.999966010451316833e-02
4.924034178256988525e-01 7.755658030509948730e-02 6.619197130203247070e-02
4.889714121818542480e-01 9.775718301534652710e-02 4.815172404050827026e-02
5.096654891967773438e-01 8.330070972442626953e-02 -1.331652235239744186e-02
4.484618008136749268e-01 5.390586704015731812e-02 8.491911739110946655e-02
-1.722562313079833984e-01 -1.498654633760452271e-01 7.387910783290863037e-02
2.199862003326416016e-01 -2.876536175608634949e-02 -1.259742975234985352e-01
2.222483754158020020e-01 -1.599831283092498779e-01 1.262819860130548477e-02
3.145225644111633301e-01 -1.503148972988128662e-01 4.370040073990821838e-02
3.715895414352416992e-01 -1.270291358232498169e-01 5.404287576675415039e-02
-1.027101576328277588e-01 -1.399681866168975830e-01 -9.182489477097988129e-03
-1.562809050083160400e-01 -1.538590788841247559e-01 7.181642949581146240e-02
3.924025595188140869e-02 -1.334129273891448975e-01 -4.566395655274391174e-02
1.165102794766426086e-01 -4.543247818946838379e-02 4.004578292369842529e-02
2.986611723899841309e-01 -1.528233736753463745e-01 4.457991197705268860e-02
2.807763218879699707e-01 -6.331317126750946045e-03 -5.581849440932273865e-02
4.726595282554626465e-01 -1.058282256126403809e-01 -6.635117530822753906e-02
-8.001415431499481201e-02 -1.113854944705963135e-01 9.957465529441833496e-02
3.404438495635986328e-01 -1.182413920760154724e-01 -7.254811376333236694e-02
-1.528567671775817871e-01 -5.185315757989883423e-02 -7.463393267244100571e-03
-6.280061602592468262e-02 -5.784755945205688477e-02 4.731041938066482544e-02
1.088408827781677246e-01 -5.037180334329605103e-02 -1.158193200826644897e-01
1.920409649610519409e-01 -1.432065516710281372e-01 9.074144065380096436e-02
9.246564656496047974e-02 -9.126026183366775513e-02 8.955040574073791504e-02
-1.960992813110351562e-04 -3.800157830119132996e-02 -8.954655379056930542e-02
2.839930355548858643e-01 -1.341785043478012085e-01 -5.067925527691841125e-02
3.229237794876098633e-01 -7.363669574260711670e-03 -1.059831604361534119e-01
-8.796213567256927490e-02 -1.388858258724212646e-01 -1.481908746063709259e-02
3.266838788986206055e-01 -2.543382719159126282e-02 -8.830036036670207977e-03
2.301672697067260742e-01 -7.610452175140380859e-02 -1.176567897200584412e-01
3.987939357757568359e-01 -4.874350503087043762e-02 1.295161712914705276e-02
3.298472762107849121e-01 -1.383055746555328369e-01 -3.536045178771018982e-02
3.591182827949523926e-01 -6.119221448898315430e-03 -8.059163391590118408e-02
2.678401172161102295e-01 -1.192127168178558350e-02 -1.153306812047958374e-01
-3.741165995597839355e-02 -1.468309462070465088e-01 -1.198125164955854416e-02
-4.595424234867095947e-02 -8.658951520919799805e-02 8.432346582412719727e-02
2.335492968559265137e-01 -4.566923528909683228e-02 3.458479419350624084e-02
5.128300189971923828e-01 -5.713078379631042480e-02 -1.070057004690170288e-01
6.942104548215866089e-02 -8.281400799751281738e-02 -9.927015751600265503e-02
1.426711082458496094e-01 -8.577898144721984863e-03 -5.240478366613388062e-02
2.188839912414550781e-01 -3.575321286916732788e-02 2.114890888333320618e-02
9.787089377641677856e-02 -8.006915450096130371e-02 -1.045194268226623535e-01
2.230441570281982422e-02 -1.562383472919464111e-01 9.925986826419830322e-02
3.307129740715026855e-01 -1.503621637821197510e-01 2.327751740813255310e-02
1.670161187648773193e-01 -1.486786901950836182e-01 9.145231544971466064e-02
-4.465346038341522217e-02 -9.023024141788482666e-02 -7.499509304761886597e-02
-4.368165135383605957e-02 -1.557840406894683838e-01 8.685373701155185699e-03
2.076556682586669922e-01 -1.405618190765380859e-01 -4.282983765006065369e-02
3.039588928222656250e-01 -5.688912793993949890e-02 3.980106487870216370e-02
2.651374936103820801e-01 -1.109318435192108154e-01 -8.671986311674118042e-02
1.498068720102310181e-01 -1.318484246730804443e-01 9.974341094493865967e-02
1.761452555656433105e-01 -1.631123423576354980e-01 1.737844944000244141e-02
1.601752340793609619e-01 -2.606336027383804321e-02 5.836800672113895416e-03
-6.365174055099487305e-02 -1.572485566139221191e-01 9.495790302753448486e-02
1.855626404285430908e-01 -2.830446138978004456e-02 9.834912605583667755e-03
3.211579024791717529e-01 -6.560865789651870728e-02 -1.251520663499832153e-01
4.369088709354400635e-01 -6.230681389570236206e-02 -1.196378543972969055e-01
3.272800445556640625e-01 -1.107995659112930298e-01 -8.430391550064086914e-02
-2.230879962444305420e-01 -9.408827126026153564e-02 5.292124301195144653e-02
-4.636420309543609619e-02 -5.035632848739624023e-02 3.707133978605270386e-02
1.891015470027923584e-01 -4.520664736628532410e-02 3.729014098644256592e-02
2.393000721931457520e-01 -1.075259149074554443e-01 -9.078216552734375000e-02
2.650470137596130371e-01 -8.172318339347839355e-02 -1.148739159107208252e-01
2.833377718925476074e-01 -1.160831525921821594e-01 7.910114526748657227e-02
-4.323911666870117188e-02 -7.605081051588058472e-02 7.389546930789947510e-02
1.337200105190277100e-01 -1.210656017065048218e-02 -3.469047322869300842e-02
-1.492742300033569336e-01 -1.288792192935943604e-01 -1.190872304141521454e-02
1.755982041358947754e-01 -1.550780683755874634e-01 -1.116480305790901184e-02
1.240393370389938354e-01 -8.277269452810287476e-02 8.166223019361495972e-02
4.776276350021362305e-01 -2.908786758780479431e-02 -4.229346290230751038e-02
8.137684315443038940e-02 -1.621168106794357300e-02 -2.801220118999481201e-02
3.035537004470825195e-01 -1.230758503079414368e-01 7.476218044757843018e-02
4.507289081811904907e-02 -2.694678306579589844e-02 3.272071480751037598e-04
-1.019896566867828369e-02 -3.280829265713691711e-02 5.316053517162799835e-03
3.953228592872619629e-01 -7.739268243312835693e-02 4.033765569329261780e-02
4.045010805130004883e-01 -4.625496640801429749e-02 -1.286171376705169678e-01
-2.010914683341979980e-02 -1.611328721046447754e-01 1.866413652896881104e-02
3.877972364425659180e-01 -2.654800191521644592e-02 -1.274756938219070435e-01
3.391718864440917969e-01 -5.040399730205535889e-03 -8.405479788780212402e-02
1.060256138443946838e-01 -1.335806846618652344e-01 -5.184083059430122375e-02
-1.489571332931518555e-01 -1.387680768966674805e-01 3.491508774459362030e-03
-2.612556517124176025e-02 -1.677767783403396606e-01 5.315395444631576538e-02
1.433213055133819580e-02 -5.887518078088760376e-02 5.669238418340682983e-02
-1.088534593582153320e-01 -7.112053036689758301e-02 -6.446166336536407471e-02
-1.477479040622711182e-01 -1.088565587997436523e-01 -3.435335308313369751e-02
1.098022907972335815e-01 -1.670192182064056396e-01 2.963921055197715759e-02
1.472676247358322144e-01 -8.296363055706024170e-03 -8.234863728284835815e-02
3.143345713615417480e-01 -1.378649473190307617e-01 -3.926764801144599915e-02
2.468919157981872559e-01 -9.363879263401031494e-02 -1.048588082194328308e-01
4.880037903785705566e-01 -5.278699845075607300e-02 -8.451598696410655975e-03
-2.075086832046508789e-01 -1.274887621402740479e-01 1.190773677080869675e-02
9.522889554500579834e-02 -1.612724065780639648e-01 6.020524539053440094e-03
1.083142459392547607e-01 -1.000645011663436890e-02 -6.322914361953735352e-02
8.944536000490188599e-02 -5.605426058173179626e-02 -1.123316958546638489e-01
-1.538257300853729248e-02 -6.974330544471740723e-02 -9.018851816654205322e-02
1.029680073261260986e-01 -1.701319962739944458e-02 -2.069521136581897736e-02
2.642681300640106201e-01 -1.558124423027038574e-01 5.411317199468612671e-02
2.421281039714813232e-01 -1.006666570901870728e-02 -1.098295375704765320e-01
3.719803988933563232e-01 -2.588866651058197021e-02 -1.629031635820865631e-02
2.002471536397933960e-01 -8.949340879917144775e-02 -1.067838594317436218e-01
6.560903787612915039e-02 -2.715170010924339294e-02 3.623210825026035309e-03
3.128859996795654297e-01 -9.409768134355545044e-02 6.717295199632644653e-02
-1.120418906211853027e-01 -8.982710540294647217e-02 -5.812821537256240845e-02
-1.086888015270233154e-01 -1.416244208812713623e-01 1.013780087232589722e-01
4.084447622299194336e-01 -1.063150539994239807e-01 -8.123650401830673218e-02
-1.957719027996063232e-02 -3.512011840939521790e-02 -8.015378564596176147e-02
7.665896415710449219e-02 -9.634222835302352905e-02 -9.079180657863616943e-02
3.287010192871093750e-01 -1.266865432262420654e-01 -5.982488393783569336e-02
2.157063782215118408e-02 -1.975797861814498901e-02 -3.496616333723068237e-02
-7.906685769557952881e-02 -8.057718724012374878e-02 -7.138072699308395386e-02
-7.768136262893676758e-02 -1.239180341362953186e-01 -3.811613842844963074e-02
7.029025256633758545e-02 -6.248418986797332764e-02 6.289494037628173828e-02
5.245796442031860352e-01 -3.101370856165885925e-02 -7.256023585796356201e-02
2.849942445755004883e-01 -7.818162441253662109e-02 6.205341964960098267e-02
2.806348800659179688e-01 -1.439575403928756714e-01 -2.990589663386344910e-02
4.905271828174591064e-01 -7.551903277635574341e-02 9.828601963818073273e-03
1.992888599634170532e-01 -6.542816758155822754e-03 -9.212028980255126953e-02
-1.642584800720214844e-03 -1.274886131286621094e-01 -4.811709001660346985e-02
2.258023917675018311e-01 -5.036510527133941650e-03 -6.184352189302444458e-02
-2.656325697898864746e-03 -1.609669178724288940e-01 1.488034892827272415e-02
4.315507113933563232e-01 -7.669908553361892700e-02 -1.106455102562904358e-01
-7.539895176887512207e-02 -1.118684113025665283e-01 -5.154592916369438171e-02
-1.259453594684600830e-01 -8.544239401817321777e-02 7.390572130680084229e-02
-1.159919500350952148e-01 -4.330958425998687744e-02 -3.545803204178810120e-02
-2.220963537693023682e-01 -1.133548393845558167e-01 3.031781874597072601e-03
1.954034864902496338e-01 -1.103490591049194336e-02 -3.353589028120040894e-02
3.776028752326965332e-01 -8.812244981527328491e-02 -1.062024906277656555e-01
-2.363894283771514893e-01 -9.122483432292938232e-02 3.623871505260467529e-02
-1.042918860912322998e-01 -9.972687065601348877e-02 8.993183076381683350e-02
-1.956509351730346680e-01 -1.165567338466644287e-01 -8.372223936021327972e-03
2.108492106199264526e-01 -1.276341825723648071e-01 -6.456958502531051636e-02
-1.133324205875396729e-01 -9.062182158231735229e-02 8.111472427845001221e-02
1.671100556850433350e-01 -1.202920079231262207e-01 9.715088456869125366e-02
4.858090281486511230e-01 -1.086299195885658264e-01 -5.492530018091201782e-02
4.694877564907073975e-01 -5.949911475181579590e-02 5.175658501684665680e-03
-6.089998781681060791e-02 -1.544082462787628174e-01 9.271510876715183258e-03
1.334410607814788818e-01 -1.376220434904098511e-01 -4.709264636039733887e-02
3.601871728897094727e-01 -1.286870241165161133e-02 -4.528873041272163391e-02
-1.591993272304534912e-01 -1.421290636062622070e-01 1.414788980036973953e-02
5.252079963684082031e-01 -9.765218198299407959e-02 -5.576409026980400085e-02
-4.556508362293243408e-02 -1.273931562900543213e-01 1.070383861660957336e-01
3.208302259445190430e-01 -1.501324474811553955e-01 3.233650699257850647e-03
-8.909556269645690918e-02 -8.598935604095458984e-02 7.979674637317657471e-02
2.015604823827743530e-01 -3.849590569734573364e-02 2.663462236523628235e-02
-6.452639400959014893e-02 -7.512878626585006714e-02 7.084813714027404785e-02
4.745094776153564453e-01 -8.085982501506805420e-02 -9.960614889860153198e-02
1.843400746583938599e-01 -5.464307963848114014e-03 -7.002176344394683838e-02
4.991330206394195557e-01 -1.087611019611358643e-01 -4.610566794872283936e-02
5.010093450546264648e-01 -8.731280267238616943e-02 9.687134064733982086e-03
1.596529036760330200e-01 -8.058632910251617432e-02 7.767857611179351807e-02
3.103586435317993164e-01 -7.004754245281219482e-02 5.158402770757675171e-02
4.196768999099731445e-01 -9.324890375137329102e-02 -9.620557725429534912e-02
4.921034723520278931e-02 -1.460286825895309448e-01 -2.617331221699714661e-02
1.803095787763595581e-01 -1.607275903224945068e-01 7.237973064184188843e-02
-1.511566936969757080e-01 -6.070353463292121887e-02 -4.227802902460098267e-02
4.055007994174957275e-01 -1.041297018527984619e-01 4.813974723219871521e-02
2.380218207836151123e-01 -1.433411687612533569e-01 -3.579916059970855713e-02
2.893788814544677734e-01 -6.804040074348449707e-02 -1.238952651619911194e-01
-1.998347043991088867e-01 -8.522595465183258057e-02 -2.355889417231082916e-02
2.819921672344207764e-01 -1.554188132286071777e-01 4.432174190878868103e-02
2.849095165729522705e-01 -3.633569553494453430e-02 -1.316892951726913452e-01
-1.235784292221069336e-01 -1.250908970832824707e-01 -2.492123097181320190e-02
-2.661742269992828369e-02 -7.217445224523544312e-02 7.078171521425247192e-02
-1.738289892673492432e-01 -1.436479985713958740e-01 2.490222826600074768e-02
1.021736562252044678e-01 -3.236218541860580444e-02 1.759758964180946350e-02
3.423715233802795410e-01 -8.797493577003479004e-02 -1.086173653602600098e-01
-1.246902346611022949e-02 -6.271445006132125854e-02 6.009180098772048950e-02
3.871980905532836914e-01 -4.477971047163009644e-02 -1.300881206989288330e-01
-1.422681212425231934e-01 -5.247099325060844421e-02 9.864770807325839996e-03
2.647536695003509521e-01 -1.390152871608734131e-01 7.827909290790557861e-02
5.014383792877197266e-01 -2.661067619919776917e-02 -9.941465407609939575e-02
4.495312273502349854e-01 -2.110137045383453369e-02 -5.024119839072227478e-02
4.422307908535003662e-01 -1.377911120653152466e-02 -9.385133534669876099e-02
3.396081328392028809e-01 -4.619312658905982971e-02 2.153224870562553406e-02
-1.501725614070892334e-01 -1.548582315444946289e-01 4.952485859394073486e-02
2.108988165855407715e-02 -4.595434665679931641e-02 3.751967474818229675e-02
3.221918046474456787e-01 -5.621226131916046143e-02 3.625190630555152893e-02
7.976024597883224487e-02 -1.586916446685791016e-01 9.316837042570114136e-02
1.879209578037261963e-01 -1.128850728273391724e-01 9.307076781988143921e-02
-1.643832325935363770e-01 -9.909307956695556641e-02 7.942771166563034058e-02
8.096772432327270508e-02 -1.458599269390106201e-01 -2.940859645605087280e-02
3.083459138870239258e-01 -1.462101638317108154e-01 5.731691420078277588e-02
2.613395750522613525e-01 -2.454117313027381897e-02 -1.271050870418548584e-01
1.880157887935638428e-01 -1.402439177036285400e-01 -4.371079429984092712e-02
-4.322518408298492432e-02 -3.660220280289649963e-02 6.923687644302845001e-03
2.101985514163970947e-01 -4.516914486885070801e-03 -7.646304368972778320e-02
4.797356575727462769e-02 -8.465106785297393799e-02 8.541402220726013184e-02
3.377578854560852051e-01 -5.994730442762374878e-02 3.755531460046768188e-02
2.074511945247650146e-01 -1.126551181077957153e-01 9.059525281190872192e-02
4.562021791934967041e-01 -1.004898548126220703e-01 3.029537200927734375e-02
-5.527859926223754883e-02 -7.741086184978485107e-02 -7.861560583114624023e-02
-1.002931296825408936e-01 -1.607398241758346558e-01 7.926379889249801636e-02
1.656812727451324463e-01 -6.518013775348663330e-03 -7.729342579841613770e-02
1.124259904026985168e-01 -1.479023844003677368e-01 9.921437501907348633e-02
-2.392201125621795654e-01 -1.203451901674270630e-01 2.661150693893432617e-02
4.486097693443298340e-01 -8.626225590705871582e-02 3.013329207897186279e-02
2.256115376949310303e-01 -1.255551874637603760e-01 8.965454250574111938e-02
3.711249828338623047e-01 -1.527622342109680176e-02 -1.189923733472824097e-01
-1.176093816757202148e-01 -1.490781605243682861e-01 1.321227569133043289e-02
3.490738272666931152e-01 -5.009583383798599243e-02 -1.307049393653869629e-01
-9.395006299018859863e-02 -9.732872247695922852e-02 -5.879425257444381714e-02
1.287509799003601074e-01 -1.271126270294189453e-01 -6.266318261623382568e-02
1.412578225135803223e-01 -1.213436573743820190e-01 -7.104075700044631958e-02
-4.442235827445983887e-02 -1.603722274303436279e-01 9.216792881488800049e-02
2.602705061435699463e-01 -4.970333725214004517e-02 3.710621595382690430e-02
3.443277478218078613e-01 -1.461710333824157715e-01 -4.025490023195743561e-03
3.316043019294738770e-01 -1.333946734666824341e-02 -3.781114891171455383e-02
4.220995008945465088e-01 -1.213550716638565063e-01 3.732824325561523438e-02
1.720811575651168823e-01 -1.661281585693359375e-01 4.419303312897682190e-02
-1.864655911922454834e-01 -6.275156140327453613e-02 4.332712851464748383e-03
2.451573312282562256e-01 -7.436228543519973755e-02 6.436258554458618164e-02
1.401577442884445190e-01 -7.872376590967178345e-02 7.739759236574172974e-02
4.903674423694610596e-01 -7.411052286624908447e-02 -1.021432355046272278e-01
-7.409363985061645508e-02 -6.396223604679107666e-02 5.500280112028121948e-02
3.703209757804870605e-01 -4.985807463526725769e-02 2.038348093628883362e-02
3.863866329193115234e-01 -1.613634079694747925e-02 -4.227330535650253296e-02
-1.720111072063446045e-01 -6.269575655460357666e-02 2.173697203397750854e-02
-2.144337892532348633e-01 -8.343629539012908936e-02 -1.264519430696964264e-02
7.958120107650756836e-02 -1.552461981773376465e-01 -9.545310400426387787e-03
3.437150120735168457e-01 -7.814966142177581787e-03 -6.068627536296844482e-02
9.797173738479614258e-02 -2.032012492418289185e-02 -9.942059963941574097e-02
-1.680523455142974854e-01 -1.025961041450500488e-01 -3.190497308969497681e-02
9.696856141090393066e-03 -1.496423780918121338e-01 1.044660508632659912e-01
9.770763665437698364e-02 -1.547183394432067871e-01 -1.185717340558767319e-02
5.521862506866455078e-01 -8.907775580883026123e-02 -4.327896237373352051e-02
5.492023229598999023e-01 -5.103671550750732422e-02 -9.195650368928909302e-02
-6.239025294780731201e-02 -1.201311200857162476e-01 1.044225767254829407e-01
2.970773279666900635e-01 -1.170398443937301636e-01 -7.768202573060989380e-02
3.032872080802917480e-01 -1.026352345943450928e-01 -9.542819112539291382e-02
-5.048911273479461670e-02 -3.206383809447288513e-02 -1.221324969083070755e-02
1.581887900829315186e-01 -7.752446830272674561e-02 -1.121941655874252319e-01
2.664985954761505127e-01 -6.128467619419097900e-03 -1.013474613428115845e-01
3.752509951591491699e-01 -1.031809076666831970e-01 -8.988494426012039185e-02
3.650618344545364380e-02 -1.662972271442413330e-01 8.165819942951202393e-02
-2.177511751651763916e-01 -1.381296068429946899e-01 5.079597979784011841e-02
4.577530622482299805e-01 -1.570292562246322632e-02 -8.295807242393493652e-02
-3.073289990425109863e-02 -3.196289390325546265e-02 -3.328388556838035583e-03
-1.101197898387908936e-01 -1.130271628499031067e-01 -4.182326421141624451e-02
4.938285946846008301e-01 -1.053650602698326111e-01 9.747835807502269745e-03
4.445427060127258301e-01 -4.220265522599220276e-02 -7.468828931450843811e-03
-5.537584424018859863e-03 -3.783306479454040527e-02 1.861943677067756653e-02
2.657528519630432129e-01 -9.239211678504943848e-02 7.413820177316665649e-02
-3.354854881763458252e-02 -1.136914044618606567e-01 -5.845565348863601685e-02
5.311721563339233398e-01 -9.079702198505401611e-02 -9.034345857799053192e-03
4.543820321559906006e-01 -1.235843449831008911e-01 1.368331629782915115e-02
2.902483046054840088e-01 -9.811749309301376343e-02 7.301929593086242676e-02
9.764648973941802979e-02 -1.195903420448303223e-01 1.030830517411231995e-01
1.262345463037490845e-01 -3.103273361921310425e-02 1.563332602381706238e-02
3.058829307556152344e-01 -4.147146269679069519e-02 2.046910673379898071e-02
-4.739661514759063721e-02 -1.005957573652267456e-01 9.536018222570419312e-02
-1.041840910911560059e-01 -4.597117006778717041e-02 -5.321310088038444519e-02
-9.821584820747375488e-02 -1.613658368587493896e-01 4.610145464539527893e-02
3.898384571075439453e-01 -1.376395672559738159e-01 3.069708496332168579e-02
-1.687045693397521973e-01 -5.636563897132873535e-02 -8.993083611130714417e-03
7.218486070632934570e-02 -2.699493989348411560e-02 -1.006947681307792664e-01
3.402191996574401855e-01 -7.874913513660430908e-03 -1.062100008130073547e-01
8.541702479124069214e-02 -5.788744240999221802e-02 5.726978182792663574e-02
-1.328620314598083496e-01 -1.437231600284576416e-01 7.022689096629619598e-03
-1.017603278160095215e-01 -4.523357748985290527e-02 9.930443949997425079e-03
9.815543889999389648e-02 -3.475842624902725220e-02 -1.115673407912254333e-01
3.467712998390197754e-01 -1.946616917848587036e-02 -2.482102997601032257e-02
1.443611532449722290e-01 -1.675314158201217651e-01 4.393951594829559326e-02
1.734463572502136230e-01 -1.315446197986602783e-01 -5.816845223307609558e-02
4.802683740854263306e-02 -1.400514394044876099e-01 1.067930310964584351e-01
-1.224172115325927734e-01 -1.163594871759414673e-01 9.746504575014114380e-02
-1.437391340732574463e-02 -1.669501662254333496e-01 4.144421592354774475e-02
-4.331021010875701904e-02 -1.628658771514892578e-01 3.023482114076614380e-02
-1.044898927211761475e-01 -7.725932449102401733e-02 6.810645014047622681e-02
8.251048624515533447e-02 -1.332470625638961792e-01 -5.044900253415107727e-02
-1.905722916126251221e-02 -1.680378466844558716e-01 6.891169399023056030e-02
4.582963138818740845e-02 -4.210418462753295898e-02 -1.035712286829948425e-01
9.941142797470092773e-02 -1.367709785699844360e-02 -3.484933450818061829e-02
2.273650765419006348e-01 -6.317661702632904053e-02 5.587669461965560913e-02
3.714935779571533203e-01 -1.061769574880599976e-02 -5.641839280724525452e-02
-2.237329781055450439e-01 -1.252845823764801025e-01 7.129688560962677002e-02
8.320233225822448730e-02 -1.676119565963745117e-01 3.211347013711929321e-02
1.673433184623718262e-01 -6.549976766109466553e-03 -6.188787892460823059e-02
2.589491307735443115e-01 -1.457909196615219116e-01 -2.822144702076911926e-02
2.243409752845764160e-01 -5.270902439951896667e-02 4.443934932351112366e-02
-1.290157139301300049e-01 -1.505504846572875977e-01 9.166395664215087891e-02
1.669028699398040771e-01 -6.644082069396972656e-02 6.420799344778060913e-02
5.539681911468505859e-01 -6.070468574762344360e-02 -3.541827946901321411e-02
6.470552831888198853e-02 -1.253634095191955566e-01 1.061000004410743713e-01
-1.633217930793762207e-02 -1.377080380916595459e-01 -3.130565211176872253e-02
-1.458941996097564697e-01 -1.485642343759536743e-01 2.324186265468597412e-02
9.734532237052917480e-02 -1.493169963359832764e-01 9.990452975034713745e-02
2.471938729286193848e-02 -1.052450314164161682e-01 -7.625713944435119629e-02
3.608755767345428467e-02 -1.596326231956481934e-01 5.564526654779911041e-03
1.919378936290740967e-01 -4.010801762342453003e-02 -1.259142905473709106e-01
4.731038808822631836e-01 -1.216757893562316895e-01 -1.007989328354597092e-02
1.822734177112579346e-01 -1.174463331699371338e-02 -1.042924448847770691e-01
-2.315240502357482910e-01 -1.314102709293365479e-01 4.602147266268730164e-02
2.963270246982574463e-02 -1.443851292133331299e-01 -2.690712735056877136e-02
-6.924268603324890137e-02 -1.597329974174499512e-01 2.668382599949836731e-02
2.925879955291748047e-01 -1.452611982822418213e-01 6.471002101898193359e-02
9.860228002071380615e-02 -1.427009701728820801e-01 -3.644328564405441284e-02
2.094090133905410767e-01 -8.255752921104431152e-02 7.484405487775802612e-02
5.325146913528442383e-01 -4.423837363719940186e-02 -1.007006093859672546e-01
9.018450975418090820e-03 -8.611373603343963623e-02 8.633669465780258179e-02
1.582323312759399414e-01 -9.723745286464691162e-03 -4.177444428205490112e-02
1.361321657896041870e-01 -1.575359106063842773e-01 -5.467869807034730911e-03
3.515164852142333984e-01 -1.062275841832160950e-01 6.305799633264541626e-02
3.629128634929656982e-01 -8.028432726860046387e-03 -1.031005084514617920e-01
4.403015971183776855e-01 -1.280267983675003052e-01 -2.219237387180328369e-02
4.226160645484924316e-01 -1.305499374866485596e-01 -2.501614764332771301e-02
2.199763655662536621e-01 -5.244405940175056458e-02 -1.272327154874801636e-01
-2.065601646900177002e-01 -8.146167546510696411e-02 4.310547187924385071e-02
1.631145030260086060e-01 -1.468574255704879761e-02 -1.059705168008804321e-01
-5.883336067199707031e-02 -9.632641077041625977e-02 -6.796783953905105591e-02
1.283316463232040405e-01 -9.747184813022613525e-03 -4.882675781846046448e-02
8.386759459972381592e-02 -7.408356666564941406e-02 7.534658163785934448e-02
4.388295114040374756e-01 -1.941291987895965576e-02 -1.135298684239387512e-01
2.855302393436431885e-01 -1.397673040628433228e-02 -1.192090660333633423e-01
3.519788384437561035e-01 -3.290947154164314270e-02 -1.314172148704528809e-01
1.945112347602844238e-01 -2.268821001052856445e-02 -1.935666427016258240e-03
8.299088478088378906e-02 -3.022953122854232788e-02 1.223679538816213608e-02
3.613542020320892334e-01 -3.551959246397018433e-02 2.554377540946006775e-03
9.708026051521301270e-02 -4.718799889087677002e-02 4.266016557812690735e-02
5.360343456268310547e-01 -3.919524699449539185e-02 -5.562683194875717163e-02
-9.509709477424621582e-02 -1.249232739210128784e-01 1.032826155424118042e-01
4.909625649452209473e-02 -5.843837186694145203e-02 -1.052858754992485046e-01
5.331859588623046875e-01 -3.460181504487991333e-02 -8.874315768480300903e-02
1.652398258447647095e-01 -1.186015307903289795e-01 -7.574060559272766113e-02
9.119497239589691162e-02 -1.235758513212203979e-02 -7.470123469829559326e-02
2.144113183021545410e-01 -1.541729271411895752e-01 7.583194971084594727e-02
-1.907636225223541260e-01 -1.468092054128646851e-01 6.420268863439559937e-02
-2.174912393093109131e-02 -2.653664723038673401e-02 -6.085945293307304382e-02
5.455991029739379883e-01 -7.647450268268585205e-02 -1.929502934217453003e-02
3.552715480327606201e-02 -2.141597867012023926e-02 -7.957016676664352417e-02
4.548813402652740479e-01 -1.265175640583038330e-01 -2.659481950104236603e-03
1.786370128393173218e-01 -9.518919885158538818e-02 -1.008796840906143188e-01
-1.312643289566040039e-03 -1.294962763786315918e-01 1.082154661417007446e-01
-8.129505813121795654e-02 -1.559017598628997803e-01 1.871120184659957886e-02
9.105260670185089111e-02 -1.359704136848449707e-01 1.048672497272491455e-01
5.684316158294677734e-01 -7.225186377763748169e-02 -5.220764875411987305e-02
-1.173304915428161621e-01 -5.370030552148818970e-02 2.622907608747482300e-02
5.644727945327758789e-01 -5.258922651410102844e-02 -6.182231381535530090e-02
1.528097540140151978e-01 -1.601325124502182007e-01 2.908117137849330902e-03
2.358572185039520264e-01 -1.222145631909370422e-01 -7.232540845870971680e-02
2.604931592941284180e-02 -1.060909926891326904e-01 1.003407388925552368e-01
-1.101246476173400879e-02 -1.119480803608894348e-01 1.030627861618995667e-01
-2.747677266597747803e-02 -1.301439553499221802e-01 -4.031907394528388977e-02
1.658766269683837891e-01 -1.429876536130905151e-01 -3.853290155529975891e-02
1.429030895233154297e-01 -4.816842079162597656e-02 4.349484667181968689e-02
3.006218075752258301e-01 -2.247939258813858032e-02 -1.093585696071386337e-02
2.235599458217620850e-01 -4.367686808109283447e-03 -8.313553035259246826e-02
1.517492979764938354e-01 -7.107026875019073486e-03 -6.552755087614059448e-02
5.294425040483474731e-02 -4.014212265610694885e-02 2.969915047287940979e-02
1.815216839313507080e-01 -7.844477891921997070e-03 -4.825017228722572327e-02
1.681040227413177490e-02 -2.889391407370567322e-02 4.971930757164955139e-04
4.251310229301452637e-01 -2.339252829551696777e-02 -3.526144474744796753e-02
2.988592088222503662e-01 -8.144935965538024902e-02 -1.152175217866897583e-01
7.545828819274902344e-03 -2.050227671861648560e-02 -4.797950014472007751e-02
3.926534950733184814e-01 -1.228153705596923828e-02 -1.104144752025604248e-01
4.207234084606170654e-01 -6.588345021009445190e-02 -1.195051744580268860e-01
3.780323266983032227e-01 -6.158792600035667419e-02 -1.252631992101669312e-01
2.923173904418945312e-01 -3.739726170897483826e-02 1.637354120612144470e-02
2.509534358978271484e-01 -6.997776031494140625e-02 -1.220106109976768494e-01
4.871592819690704346e-01 -3.620054572820663452e-02 -3.203999251127243042e-02
5.496025085449218750e-02 -2.251438051462173462e-02 -1.083585247397422791e-02
1.293106824159622192e-01 -1.672399640083312988e-01 6.334543228149414062e-02
2.995176911354064941e-01 -7.832273840904235840e-03 -5.141401290893554688e-02
-7.741452753543853760e-02 -9.543602168560028076e-02 8.940925449132919312e-02
2.893585562705993652e-01 -1.522816419601440430e-01 -1.448418945074081421e-03
4.005711674690246582e-01 -6.076245754957199097e-02 2.559714391827583313e-02
4.472486972808837891e-01 -7.356894016265869141e-02 -1.109074279665946960e-01
2.673787176609039307e-01 -1.528379321098327637e-01 -5.977097433060407639e-03
1.222276687622070312e-02 -5.185476318001747131e-02 -9.796972572803497314e-02
-5.510468780994415283e-02 -4.256706312298774719e-02 1.912666484713554382e-02
1.549125313758850098e-01 -1.650258600711822510e-01 2.376751974225044250e-02
3.801827430725097656e-01 -1.350308954715728760e-01 4.231624677777290344e-02
2.840029001235961914e-01 -1.334227621555328369e-02 -3.080026432871818542e-02
1.929348856210708618e-01 -1.631675213575363159e-01 2.187596634030342102e-02
8.470304310321807861e-02 -4.217956960201263428e-02 3.464451059699058533e-02
-1.744582653045654297e-01 -1.510355770587921143e-01 5.842136591672897339e-02
2.348354756832122803e-01 -1.030215620994567871e-02 -3.641062229871749878e-02
3.428899049758911133e-01 -8.643315732479095459e-02 5.742464959621429443e-02
-5.054825544357299805e-02 -1.212040483951568604e-01 -4.708704352378845215e-02
-2.229899168014526367e-01 -8.002094179391860962e-02 1.650769263505935669e-03
7.444041967391967773e-02 -9.287095069885253906e-02 9.130333364009857178e-02
1.574926078319549561e-01 -1.504913717508316040e-02 -2.171662077307701111e-02
5.172722339630126953e-01 -6.654119491577148438e-02 -7.710380479693412781e-03
-2.256193459033966064e-01 -9.461096674203872681e-02 -5.153273232281208038e-03
2.873368859291076660e-01 -1.560106277465820312e-01 2.650860324501991272e-02
2.590033113956451416e-01 -1.581980884075164795e-01 1.787528023123741150e-02
3.649520277976989746e-01 -1.408388912677764893e-01 -1.688563823699951172e-02
3.161759972572326660e-01 -1.689455658197402954e-02 -2.572283521294593811e-02
2.487775981426239014e-01 -1.848132163286209106e-02 -1.219441592693328857e-01
-4.574912786483764648e-02 -6.311392039060592651e-02 -8.391522616147994995e-02
7.508230209350585938e-02 -2.137198299169540405e-02 -1.087613776326179504e-02
4.081019163131713867e-01 -1.246522888541221619e-01 4.106337577104568481e-02
2.078245580196380615e-01 -5.373537540435791016e-03 -6.124944239854812622e-02
2.727641463279724121e-01 -4.038429632782936096e-02 2.317434921860694885e-02
1.009582132101058960e-01 -1.688074618577957153e-01 4.326544329524040222e-02
1.825182288885116577e-01 -5.966983735561370850e-02 -1.224139928817749023e-01
3.024186193943023682e-02 -1.652409434318542480e-01 2.465907484292984009e-02
1.823171973228454590e-03 -1.682592928409576416e-01 4.597190022468566895e-02
4.016979634761810303e-01 -1.162544414401054382e-01 -6.674154847860336304e-02
2.486141324043273926e-01 -4.064895212650299072e-02 2.612954750657081604e-02
3.385873138904571533e-02 -6.025405600666999817e-02 -1.022000536322593689e-01
8.860964328050613403e-02 -1.080741360783576965e-01 -8.163775503635406494e-02
-1.594468355178833008e-01 -1.491642892360687256e-01 3.208332136273384094e-02
1.127932295203208923e-01 -1.298837512731552124e-01 1.034072116017341614e-01
1.180409938097000122e-01 -9.772263467311859131e-03 -7.489830255508422852e-02
5.085416436195373535e-01 -4.737242683768272400e-02 -2.382731065154075623e-02
-1.193430423736572266e-01 -6.134739890694618225e-02 4.140299558639526367e-02
5.463972687721252441e-02 -1.696647852659225464e-01 6.097777187824249268e-02
2.641410231590270996e-01 -3.742933273315429688e-03 -8.463811129331588745e-02
4.569329917430877686e-01 -1.237355917692184448e-01 -2.678291685879230499e-02
5.027868747711181641e-01 -2.441062778234481812e-02 -7.992994785308837891e-02
2.962758541107177734e-01 -2.374283224344253540e-02 -1.281570345163345337e-01
2.104164808988571167e-01 -1.031837165355682373e-01 -9.483008831739425659e-02
6.991656869649887085e-02 -4.580510407686233521e-02 4.003678262233734131e-02
5.357571840286254883e-01 -6.559330224990844727e-02 -9.403692930936813354e-02
-1.151555478572845459e-01 -1.593711972236633301e-01 4.594786837697029114e-02
3.693036437034606934e-01 -1.816919445991516113e-02 -3.260067850351333618e-02
3.547760546207427979e-01 -1.603265851736068726e-02 -1.212074458599090576e-01
1.355693191289901733e-01 -1.030381768941879272e-01 9.418805688619613647e-02
4.447579979896545410e-01 -8.702772855758666992e-02 -9.907233715057373047e-02
1.522565186023712158e-01 -1.067794561386108398e-01 9.454744309186935425e-02
1.405090093612670898e-02 -1.670496761798858643e-01 3.536238521337509155e-02
3.747656345367431641e-01 -7.498849928379058838e-02 4.338452965021133423e-02
4.450136125087738037e-01 -1.074180975556373596e-01 -7.196182012557983398e-02
4.583984613418579102e-02 -7.466481626033782959e-02 -9.996377676725387573e-02
-1.306933760643005371e-01 -1.148931831121444702e-01 -3.416720032691955566e-02
-2.471479773521423340e-02 -3.992948681116104126e-02 1.983776316046714783e-02
-1.816640496253967285e-01 -6.665681302547454834e-02 -2.643832936882972717e-02
-1.268868446350097656e-01 -4.541246220469474792e-02 -9.915335103869438171e-03
2.654614746570587158e-01 -7.217361778020858765e-02 5.995614081621170044e-02
4.132416844367980957e-01 -1.850617676973342896e-02 -4.374236613512039185e-02
-1.765753924846649170e-01 -1.309457868337631226e-01 9.018692374229431152e-02
2.107910066843032837e-01 -1.885285228490829468e-02 -1.185971572995185852e-01
5.317758023738861084e-02 -1.515513658523559570e-02 -5.158330127596855164e-02
1.979833394289016724e-01 -6.918753683567047119e-02 -1.197248697280883789e-01
2.546750009059906006e-02 -9.139471501111984253e-02 9.083763509988784790e-02
3.736025094985961914e-01 -1.120087504386901855e-01 5.776309967041015625e-02
1.307640969753265381e-02 -1.143050864338874817e-01 -6.571482121944427490e-02
-9.292224049568176270e-02 -3.736059367656707764e-02 -2.251138910651206970e-02
3.954624533653259277e-01 -9.184572100639343262e-02 -1.007779836654663086e-01
4.764876067638397217e-01 -1.173042207956314087e-01 7.312887348234653473e-03
4.533795416355133057e-01 -6.750382483005523682e-02 1.736204698681831360e-02
1.781884878873825073e-01 -1.128015220165252686e-01 -8.323264867067337036e-02
-2.070142030715942383e-01 -1.153640970587730408e-01 7.784369587898254395e-02
1.558294892311096191e-01 -4.813406243920326233e-02 -1.220757141709327698e-01
7.015107572078704834e-02 -1.059484258294105530e-01 -8.164682239294052124e-02
1.152614802122116089e-01 -3.328339755535125732e-02 -1.140274405479431152e-01
5.030893087387084961e-01 -8.226389437913894653e-02 -9.067070484161376953e-02
1.128382384777069092e-01 -1.685808300971984863e-01 5.790606886148452759e-02
-1.528142392635345459e-01 -9.178306162357330322e-02 -4.373586550354957581e-02
4.552366435527801514e-01 -1.769854873418807983e-02 -6.537900120019912720e-02
2.845396995544433594e-01 -9.836338460445404053e-02 -1.004161462187767029e-01
2.744070589542388916e-01 -1.864768564701080322e-02 -1.621987856924533844e-02
-2.228030562400817871e-02 -2.480566129088401794e-02 -3.818220645189285278e-02
1.981419175863265991e-01 -1.585542410612106323e-01 7.233228534460067749e-02
-4.267157614231109619e-02 -1.362853348255157471e-01 -2.876883372664451599e-02
1.305867731571197510e-02 -3.725307062268257141e-02 2.017274871468544006e-02
5.325862169265747070e-01 -1.000593826174736023e-01 -2.668470889329910278e-02
1.735200732946395874e-01 -1.305600255727767944e-02 -2.732498943805694580e-02
7.272529602050781250e-02 -1.396928727626800537e-01 1.055469438433647156e-01
-1.633723378181457520e-01 -5.850234627723693848e-02 -2.978786081075668335e-02
3.962700366973876953e-01 -1.327565908432006836e-01 -3.105698898434638977e-02
-1.061451733112335205e-01 -1.260498613119125366e-01 -2.853845804929733276e-02
4.158840477466583252e-01 -1.233352869749069214e-01 -4.906643182039260864e-02
-1.824547648429870605e-01 -1.338617503643035889e-01 9.037380106747150421e-03
1.380082070827484131e-01 -5.720966309309005737e-02 -1.186165064573287964e-01
2.129618823528289795e-01 -1.631522327661514282e-01 3.345479071140289307e-02
6.590574234724044800e-02 -1.286933571100234985e-01 -5.528269708156585693e-02
1.835590302944183350e-01 -1.599005162715911865e-01 4.705804400146007538e-03
-2.094155550003051758e-01 -7.197108864784240723e-02 -2.376362681388854980e-05
2.409113198518753052e-01 -1.805096119642257690e-02 -1.475413236767053604e-02
1.739372909069061279e-01 -9.899697452783584595e-02 8.884362131357192993e-02
3.449531793594360352e-01 -7.517938315868377686e-02 -1.187500208616256714e-01
5.356560647487640381e-02 -9.669475257396697998e-02 -8.755814284086227417e-02
2.129068970680236816e-01 -5.943439900875091553e-02 5.324830114841461182e-02
1.409353613853454590e-01 -1.518577337265014648e-01 -1.981815323233604431e-02
3.453232049942016602e-01 -3.285346180200576782e-02 1.229431480169296265e-03
3.305917382240295410e-01 -1.459452658891677856e-01 -1.189829036593437195e-02
2.904491424560546875e-01 -6.070388853549957275e-02 4.577411338686943054e-02
-7.857786118984222412e-02 -3.764989972114562988e-02 -5.330795422196388245e-02
3.848421573638916016e-02 -1.539436578750610352e-01 -8.887043222784996033e-03
-3.758564591407775879e-02 -1.443295776844024658e-01 1.062554493546485901e-01
-2.747547626495361328e-02 -9.165147691965103149e-02 8.972814679145812988e-02
3.360949754714965820e-01 -5.824645608663558960e-02 -1.283252835273742676e-01
-5.071195960044860840e-02 -1.512869596481323242e-01 1.020457148551940918e-01
5.059382915496826172e-01 -2.892890200018882751e-02 -5.945033952593803406e-02
1.237548887729644775e-02 -2.440309897065162659e-02 -1.545809395611286163e-02
3.232426047325134277e-01 -8.961515128612518311e-02 -1.079140454530715942e-01
5.263369083404541016e-01 -4.568110406398773193e-02 -3.563788160681724548e-02
9.970840811729431152e-02 -2.226810902357101440e-02 -5.352594889700412750e-03
3.519006967544555664e-01 -1.471601426601409912e-01 2.022133395075798035e-02
-1.366537213325500488e-01 -1.133718341588973999e-01 9.406682848930358887e-02
1.738047152757644653e-01 -4.743093624711036682e-02 4.121798276901245117e-02
1.296952366828918457e-03 -6.995686888694763184e-02 6.989068537950515747e-02
4.257018566131591797e-01 -1.099049150943756104e-01 -7.245470583438873291e-02
3.903743028640747070e-01 -1.406065821647644043e-01 1.149906683713197708e-02
2.464493513107299805e-01 -4.445493221282958984e-03 -9.022391587495803833e-02
3.941958546638488770e-01 -1.378710418939590454e-01 -1.223245542496442795e-02
-1.296282708644866943e-01 -7.305268943309783936e-02 -5.688674002885818481e-02
4.188706725835800171e-02 -6.032762676477432251e-02 5.977439880371093750e-02
3.656412959098815918e-01 -1.449147760868072510e-01 1.034913863986730576e-02
1.308158040046691895e-02 -2.530658990144729614e-02 -7.826640456914901733e-02
-2.250067889690399170e-01 -1.289234161376953125e-01 2.762715518474578857e-02
2.645019888877868652e-01 -5.294345319271087646e-02 -1.294203698635101318e-01
-5.410306155681610107e-02 -6.609812378883361816e-02 6.067311018705368042e-02
4.716363549232482910e-01 -1.195583790540695190e-01 -3.116590902209281921e-02
2.526113092899322510e-01 -1.257515400648117065e-01 -6.680770963430404663e-02
4.212775230407714844e-01 -7.173551619052886963e-02 2.979804575443267822e-02
4.076750576496124268e-01 -1.093059033155441284e-02 -7.034703344106674194e-02
4.275656491518020630e-02 -1.924724876880645752e-02 -2.656714618206024170e-02
-4.921570420265197754e-03 -1.655665189027786255e-01 8.344399929046630859e-02
4.061897695064544678e-01 -1.353001594543457031e-01 2.412321045994758606e-02
-2.188427746295928955e-02 -4.836338013410568237e-02 -8.849672973155975342e-02
9.672958403825759888e-02 -9.596912562847137451e-02 -9.338822960853576660e-02
1.728622317314147949e-01 -7.834121584892272949e-03 -9.031106531620025635e-02
2.047707140445709229e-01 -1.286040097475051880e-01 9.275663644075393677e-02
4.639379680156707764e-02 -1.070584580302238464e-01 -7.762960344552993774e-02
3.925290703773498535e-01 -9.823679924011230469e-03 -6.853540241718292236e-02
4.730730503797531128e-02 -1.653385460376739502e-01 2.314855158329010010e-02
-3.672146797180175781e-02 -2.852989733219146729e-02 -2.139981277287006378e-02
4.145055413246154785e-01 -1.353653669357299805e-01 -5.943816155195236206e-03
-4.774956405162811279e-02 -2.878595516085624695e-02 -4.021678864955902100e-02
-1.132232844829559326e-01 -4.172541201114654541e-02 -1.851996220648288727e-02
-1.334682106971740723e-01 -1.565208137035369873e-01 4.393077269196510315e-02
3.489285707473754883e-01 -1.275498569011688232e-01 -5.541343986988067627e-02
-1.885282397270202637e-01 -1.394537985324859619e-01 2.342278510332107544e-02
-1.024493575096130371e-02 -9.861712157726287842e-02 -7.606106251478195190e-02
2.349762767553329468e-01 -2.363470941781997681e-02 -1.962358132004737854e-03
-5.819484591484069824e-02 -1.474624723196029663e-01 -6.494410801678895950e-03
1.156569570302963257e-01 -1.136069148778915405e-01 -7.837654650211334229e-02
4.777413308620452881e-01 -2.081532031297683716e-02 -6.821278482675552368e-02
3.075430989265441895e-01 -1.297042965888977051e-01 -5.673920363187789917e-02
5.247145891189575195e-04 -5.349840223789215088e-02 4.797973111271858215e-02
-1.006188392639160156e-01 -4.040699452161788940e-02 -8.849866688251495361e-03
4.653141498565673828e-01 -7.969669997692108154e-02 2.147766947746276855e-02
7.387601584196090698e-02 -1.131476983428001404e-01 1.023339927196502686e-01
5.881507694721221924e-02 -2.183876186609268188e-02 -8.988583832979202271e-02
2.223839759826660156e-01 -1.586496084928512573e-01 6.402876228094100952e-02
3.204698860645294189e-01 -1.765702664852142334e-02 -1.239445209503173828e-01
7.310766726732254028e-02 -1.694930195808410645e-01 4.856653884053230286e-02
-6.792609393596649170e-02 -3.335587307810783386e-02 -1.911533996462821960e-02
1.289093345403671265e-01 -1.025881916284561157e-01 -9.069487452507019043e-02
-5.207622051239013672e-02 -3.383365273475646973e-02 -6.214687600731849670e-02
-1.386409699916839600e-01 -1.567967087030410767e-01 7.309991866350173950e-02
4.193748235702514648e-01 -1.340278685092926025e-01 1.416513789445161819e-02
-6.391739845275878906e-02 -3.649633005261421204e-02 -1.313753426074981689e-03
4.060760140419006348e-01 -9.497448801994323730e-03 -9.051359444856643677e-02
-5.540934205055236816e-02 -4.782099649310112000e-02 -7.754698395729064941e-02
4.237139970064163208e-02 -1.204407289624214172e-01 -6.297982484102249146e-02
1.288044452667236328e-01 -1.641651690006256104e-01 1.666485145688056946e-02
7.700817286968231201e-02 -1.276282221078872681e-02 -5.537115782499313354e-02
1.645053327083587646e-01 -1.599607616662979126e-01 7.809593528509140015e-02
3.266151547431945801e-01 -4.109190031886100769e-02 1.682747900485992432e-02
2.949887216091156006e-01 -3.848209977149963379e-03 -8.452070504426956177e-02
3.621018230915069580e-01 -1.344169974327087402e-01 -3.764433413743972778e-02
2.491628974676132202e-01 -1.600908637046813965e-01 3.640767931938171387e-02
3.077463507652282715e-01 -1.435185074806213379e-01 -2.629110589623451233e-02
-1.878817379474639893e-01 -1.183540374040603638e-01 8.531424403190612793e-02
2.934528589248657227e-01 -7.614262402057647705e-03 -1.073559373617172241e-01
4.861683398485183716e-02 -1.007982194423675537e-01 9.706512093544006348e-02
2.692816853523254395e-01 -1.006199792027473450e-01 -9.825403243303298950e-02
2.114185690879821777e-01 -1.312961429357528687e-02 -2.663376927375793457e-02
-1.301541924476623535e-03 -1.689716279506683350e-01 6.286099553108215332e-02
1.380179971456527710e-01 -2.062382549047470093e-02 -7.048806175589561462e-03
3.129889667034149170e-01 -4.543557763099670410e-03 -7.444515079259872437e-02
1.063335612416267395e-01 -7.709389179944992065e-02 7.756607979536056519e-02
-2.405639886856079102e-01 -1.091674864292144775e-01 5.556853115558624268e-02
-1.663744747638702393e-01 -8.668576180934906006e-02 -4.022360593080520630e-02
3.587499856948852539e-01 -8.272304385900497437e-02 -1.123294234275817871e-01
1.539582461118698120e-01 -9.721095860004425049e-02 -9.750546514987945557e-02
3.828980922698974609e-01 -7.607303559780120850e-03 -9.068375080823898315e-02
-9.414553642272949219e-02 -8.277459442615509033e-02 -6.639870256185531616e-02
-2.769410610198974609e-03 -2.308417856693267822e-02 -6.095194444060325623e-02
2.644599676132202148e-01 -1.081049144268035889e-01 8.093427121639251709e-02
4.167838394641876221e-02 -3.493594378232955933e-02 1.868202537298202515e-02
-1.116970181465148926e-01 -1.612865626811981201e-01 6.488595902919769287e-02
3.141242861747741699e-01 -1.102566793560981750e-01 7.214828580617904663e-02
-9.743371605873107910e-02 -6.177906692028045654e-02 4.742689803242683411e-02
-5.333796143531799316e-03 -1.539547741413116455e-01 -2.909480594098567963e-03
1.881936490535736084e-01 -9.593454003334045410e-02 8.576925098896026611e-02
3.265628218650817871e-01 -7.012411952018737793e-03 -6.031001731753349304e-02
6.661100685596466064e-02 -1.515192687511444092e-01 -1.695649512112140656e-02
5.660600662231445312e-01 -6.998629868030548096e-02 -6.744014471769332886e-02
-1.249744892120361328e-01 -1.055494248867034912e-01 -4.419706389307975769e-02
4.320383369922637939e-01 -4.669687151908874512e-02 -1.258026361465454102e-01
2.585390508174896240e-01 -7.896997034549713135e-03 -4.670929908752441406e-02
3.715339899063110352e-01 -6.064999848604202271e-02 3.184700012207031250e-02
-3.039941191673278809e-02 -4.720241203904151917e-02 3.377482667565345764e-02
2.606564760208129883e-02 -7.740415632724761963e-02 -9.544237703084945679e-02
1.883261650800704956e-01 -1.053903251886367798e-01 -9.173406660556793213e-02
4.562245309352874756e-01 -3.171231225132942200e-02 -1.207792237401008606e-01
-1.782529950141906738e-01 -8.315427601337432861e-02 5.841343849897384644e-02
1.442182064056396484e-02 -9.379073977470397949e-02 -8.387118577957153320e-02
