6.011453866958618164e-01 2.271031588315963745e-02 -4.892402514815330505e-02
8.311793804168701172e-01 -7.777655124664306641e-02 1.085929945111274719e-02
6.099101901054382324e-01 -3.459594026207923889e-02 -3.217286244034767151e-02
1.769250631332397461e-02 7.348230481147766113e-02 2.331796102225780487e-02
1.160543560981750488e-01 3.730146214365959167e-02 -2.116811648011207581e-02
4.168525338172912598e-01 4.827894642949104309e-02 -4.021408781409263611e-02
6.728929281234741211e-02 6.713302433490753174e-02 -5.563365668058395386e-02
8.845887184143066406e-01 -7.382967323064804077e-02 -1.444954983890056610e-02
6.474915146827697754e-01 -5.421588197350502014e-02 2.616330515593290329e-03
2.304805815219879150e-01 -7.783152628690004349e-03 4.897897690534591675e-02
8.790360689163208008e-01 -3.328575566411018372e-02 -3.077904693782329559e-02
2.477976083755493164e-01 7.200522720813751221e-02 -4.267023503780364990e-02
8.735523223876953125e-01 -8.450026065111160278e-02 2.515977993607521057e-02
4.737973213195800781e-02 7.619442045688629150e-02 -6.105636432766914368e-02
2.828146815299987793e-01 3.815676271915435791e-02 3.013774380087852478e-02
8.602809309959411621e-01 -4.754229262471199036e-02 1.022263802587985992e-02
9.761419296264648438e-01 -8.284992724657058716e-02 5.185162182897329330e-03
3.215125501155853271e-01 -1.572235487401485443e-02 9.101119637489318848e-02
5.555430650711059570e-01 -1.769485697150230408e-02 -5.070067569613456726e-02
5.393002033233642578e-01 3.809497505426406860e-02 -7.360257208347320557e-02
4.410438835620880127e-01 -3.483320400118827820e-02 9.023428708314895630e-02
6.702409982681274414e-01 -7.050476968288421631e-02 5.979648977518081665e-02
3.952759206295013428e-01 -2.860810980200767517e-02 3.022415190935134888e-02
8.509197235107421875e-01 -6.579669564962387085e-02 -2.609306015074253082e-02
4.084923267364501953e-01 -3.841905668377876282e-02 6.782748550176620483e-02
4.764432907104492188e-01 1.689841784536838531e-02 -8.645560592412948608e-02
2.969941794872283936e-01 -1.400636322796344757e-02 3.178267925977706909e-02
9.648553133010864258e-01 -6.129252165555953979e-02 -4.678767547011375427e-02
3.554986119270324707e-01 6.528506428003311157e-02 -8.259159326553344727e-02
5.868972539901733398e-01 3.059321828186511993e-02 -9.747804701328277588e-02
6.091364026069641113e-01 8.500028401613235474e-03 -1.200119592249393463e-02
4.865843057632446289e-01 -3.398291021585464478e-02 6.647242698818445206e-03
5.505516529083251953e-01 3.369094431400299072e-02 -6.018263846635818481e-02
7.574570178985595703e-01 -3.920340444892644882e-03 -9.363114088773727417e-02
1.603359282016754150e-01 4.434894397854804993e-02 -4.899591207504272461e-02
2.979585528373718262e-02 7.785101979970932007e-02 1.161361485719680786e-02
2.934273183345794678e-01 -2.023802697658538818e-02 6.107564270496368408e-02
8.162536621093750000e-01 -1.412750594317913055e-02 -5.280652642250061035e-02
-8.919164538383483887e-02 6.317856162786483765e-02 1.725525967776775360e-02
3.331423401832580566e-01 5.710633471608161926e-03 7.105055451393127441e-02
1.265331804752349854e-01 8.985768258571624756e-02 -6.375786662101745605e-02
2.215415984392166138e-01 4.479386284947395325e-02 3.308582678437232971e-02
3.590446710586547852e-01 -1.132627017796039581e-02 -3.030240070074796677e-03
2.532519698143005371e-01 -9.906550869345664978e-03 4.224170371890068054e-02
5.502334833145141602e-01 1.584393903613090515e-02 -9.704276919364929199e-02
1.247917711734771729e-01 8.735685050487518311e-02 -4.612777382135391235e-02
2.654996514320373535e-01 1.508072949945926666e-02 -2.868256904184818268e-02
2.416808903217315674e-01 4.635411128401756287e-02 2.492082118988037109e-02
8.682070970535278320e-01 -3.926843777298927307e-02 -9.989024139940738678e-03
1.342311501502990723e-01 7.464875280857086182e-02 -8.494070731103420258e-03
2.988796830177307129e-01 6.440313905477523804e-02 -3.934180364012718201e-02
2.987834215164184570e-01 5.441834777593612671e-02 -9.407823532819747925e-02
-4.418909549713134766e-02 5.961101129651069641e-02 -8.942559361457824707e-04
4.408088624477386475e-01 4.996862635016441345e-02 -5.912653729319572449e-02
7.056223154067993164e-01 -7.385616004467010498e-02 5.909652262926101685e-02
5.260348320007324219e-03 7.018366456031799316e-02 3.180553391575813293e-02
3.978947699069976807e-01 4.439108446240425110e-02 -1.007273346185684204e-01
7.331817150115966797e-01 -3.011796250939369202e-02 -6.818802654743194580e-02
1.810234785079956055e-01 7.383092492818832397e-02 -2.173437178134918213e-02
7.697014808654785156e-01 -2.841921895742416382e-02 -7.609362155199050903e-02
6.455498337745666504e-01 5.051166284829378128e-03 -9.779635071754455566e-02
6.204643249511718750e-01 2.486094646155834198e-02 -7.198364287614822388e-02
5.897753834724426270e-01 -5.009896680712699890e-02 8.219223469495773315e-02
7.953692674636840820e-01 -1.537660323083400726e-02 -3.483474627137184143e-02
-6.562134623527526855e-02 7.491783052682876587e-02 -2.120689488947391510e-02
3.559347689151763916e-01 5.066058412194252014e-02 -2.149370312690734863e-02
2.385976910591125488e-01 6.730681657791137695e-02 -2.380760014057159424e-02
2.649528384208679199e-01 7.299548387527465820e-02 -9.361660480499267578e-02
4.523685574531555176e-01 2.357319556176662445e-02 9.996451437473297119e-03
7.236772775650024414e-02 9.043138474225997925e-02 -3.618946671485900879e-02
-1.234844326972961426e-02 9.583568572998046875e-02 -2.768682874739170074e-02
3.782852590084075928e-01 2.528722397983074188e-02 -7.727939635515213013e-02
7.144637703895568848e-01 -5.516326427459716797e-02 -1.606821082532405853e-02
6.302020549774169922e-01 -4.992603510618209839e-02 -2.886268310248851776e-03
9.494122266769409180e-01 -4.913889244198799133e-02 -3.145579993724822998e-02
7.049282193183898926e-01 -7.229473441839218140e-02 4.203205555677413940e-02
7.586977481842041016e-01 -7.832831144332885742e-02 4.816101118922233582e-02
-4.670476913452148438e-02 9.910795092582702637e-02 -3.424037992954254150e-02
2.712528109550476074e-01 3.432706370949745178e-02 4.016216844320297241e-02
7.316651940345764160e-02 3.718950599431991577e-02 6.993303447961807251e-02
3.670200109481811523e-01 1.121441833674907684e-02 -5.233313143253326416e-02
1.476377248764038086e-03 9.008316695690155029e-02 -1.225449424237012863e-02
5.614513754844665527e-01 -5.863092839717864990e-02 6.804441660642623901e-02
9.167596101760864258e-01 -3.817046433687210083e-02 -6.829793751239776611e-02
7.391369342803955078e-02 2.681498229503631592e-02 2.314061112701892853e-02
4.528233706951141357e-01 1.974860765039920807e-02 -8.552619069814682007e-02
1.468232870101928711e-01 5.963085591793060303e-02 2.244899235665798187e-02
3.150252401828765869e-01 3.871691599488258362e-02 2.017338946461677551e-02
3.275533318519592285e-01 3.360293433070182800e-02 2.691239118576049805e-02
-1.370674371719360352e-02 3.845437616109848022e-02 4.687945172190666199e-02
-8.445534110069274902e-02 9.187503904104232788e-02 3.308430314064025879e-05
5.831643342971801758e-01 -5.852184258401393890e-04 1.742654107511043549e-02
3.781081736087799072e-01 3.712449595332145691e-02 4.283244255930185318e-03
7.424746751785278320e-01 -7.344708591699600220e-02 2.819815278053283691e-02
4.227842390537261963e-01 -2.277282997965812683e-02 8.662801235914230347e-02
6.994739174842834473e-01 -4.374664649367332458e-02 -3.701180592179298401e-02
7.143170833587646484e-01 2.370224799960851669e-03 -4.446776211261749268e-02
2.240756452083587646e-01 5.497345328330993652e-02 1.171427220106124878e-02
3.294644057750701904e-01 -2.669831737875938416e-02 8.009348809719085693e-02
7.554205656051635742e-01 -1.178841292858123779e-02 -2.427189424633979797e-02
4.423785209655761719e-01 4.583594948053359985e-02 -4.442650452256202698e-02
2.528808712959289551e-01 6.019214540719985962e-02 -9.544898755848407745e-03
-6.941762566566467285e-02 8.530176430940628052e-02 1.364059932529926300e-02
2.980697453022003174e-01 3.728856518864631653e-02 2.775478363037109375e-02
4.100273549556732178e-01 5.710935965180397034e-02 -9.609071165323257446e-02
6.750056147575378418e-01 -3.512853011488914490e-02 -4.781625047326087952e-02
5.323757529258728027e-01 -4.792468622326850891e-02 8.650208264589309692e-02
1.619051992893218994e-01 5.831336230039596558e-02 -6.979281455278396606e-02
5.962476134300231934e-01 -2.567377313971519470e-02 5.649408698081970215e-02
6.483285427093505859e-01 -3.310880810022354126e-02 -4.520387947559356689e-02
-1.531335711479187012e-02 4.265657439827919006e-02 2.886582165956497192e-02
3.539593517780303955e-01 5.662866681814193726e-02 -1.013269424438476562e-01
-7.786622643470764160e-02 9.661557525396347046e-02 -1.549415476620197296e-02
2.181655764579772949e-01 -3.152678254991769791e-03 3.851591050624847412e-02
-3.536748886108398438e-02 7.996395975351333618e-02 1.976545900106430054e-02
6.329224705696105957e-01 -1.365850493311882019e-02 2.654607594013214111e-02
1.312434077262878418e-01 3.548076376318931580e-02 6.564503163099288940e-02
6.444168090820312500e-01 -4.458142817020416260e-02 6.877377629280090332e-02
3.738673031330108643e-01 -1.276667229831218719e-02 -5.071832798421382904e-03
6.280322670936584473e-01 1.555885188281536102e-02 -3.979032486677169800e-02
-1.887428760528564453e-02 9.138039499521255493e-02 -5.568351596593856812e-02
3.687182962894439697e-01 9.672472253441810608e-03 5.819887667894363403e-02
5.967512726783752441e-02 2.754198573529720306e-02 7.556533813476562500e-02
8.589787483215332031e-01 -2.612362429499626160e-02 -4.008413478732109070e-02
4.233071506023406982e-01 -9.629273787140846252e-03 -2.897752635180950165e-02
2.691802382469177246e-01 5.906246230006217957e-02 -1.219977438449859619e-02
2.535474300384521484e-02 4.815678671002388000e-02 -7.702923379838466644e-03
4.708038270473480225e-01 4.730630666017532349e-02 -6.716295331716537476e-02
6.653602719306945801e-01 -6.701651215553283691e-02 7.416798919439315796e-02
6.266429424285888672e-01 -4.370789974927902222e-05 -9.100164473056793213e-02
7.729766368865966797e-01 -4.606115445494651794e-02 -4.916072264313697815e-02
8.810269832611083984e-02 3.222706541419029236e-02 1.469149719923734665e-03
2.703026831150054932e-01 1.564972288906574249e-02 6.941970437765121460e-02
2.115030735731124878e-01 6.797930598258972168e-02 -1.596307195723056793e-02
5.690656900405883789e-01 3.302954137325286865e-02 -7.114273309707641602e-02
9.637913703918457031e-01 -7.958598434925079346e-02 1.489256136119365692e-02
2.027896642684936523e-01 3.185535222291946411e-02 -4.049357026815414429e-02
3.089875280857086182e-01 -2.288379240781068802e-03 8.377769589424133301e-02
9.375063180923461914e-01 -8.525041490793228149e-02 1.258107274770736694e-02
2.578612565994262695e-01 3.627680242061614990e-02 -6.385073065757751465e-02
7.973335981369018555e-01 -5.680705606937408447e-02 -3.355027362704277039e-02
1.218426227569580078e-01 6.706506013870239258e-02 -7.021657377481460571e-02
-6.203389167785644531e-02 6.228635087609291077e-02 2.250860910862684250e-03
3.367686271667480469e-01 6.745402514934539795e-02 -7.825230062007904053e-02
2.883930206298828125e-01 -5.618931259959936142e-03 1.081259548664093018e-02
2.213282287120819092e-01 7.761288434267044067e-02 -9.034490585327148438e-02
8.586354255676269531e-01 -5.711913108825683594e-02 2.678213268518447876e-02
1.855272650718688965e-01 2.917322143912315369e-02 6.576798111200332642e-02
3.589439392089843750e-01 5.676323175430297852e-02 -4.112733155488967896e-02
2.421896457672119141e-01 1.159433089196681976e-02 -1.302538998425006866e-02
3.047333955764770508e-01 8.703945204615592957e-03 7.233379781246185303e-02
4.516469240188598633e-01 -3.767833858728408813e-02 3.310415521264076233e-02
5.715712308883666992e-01 -4.165733698755502701e-03 2.802130207419395447e-02
1.466625630855560303e-01 1.814646646380424500e-02 1.054806821048259735e-02
2.593317925930023193e-01 -4.452043678611516953e-03 2.071868814527988434e-02
4.428562521934509277e-01 1.148479618132114410e-02 3.671285510063171387e-02
1.628547906875610352e-01 3.613815084099769592e-02 -3.538469597697257996e-02
3.617115914821624756e-01 2.198976278305053711e-02 -6.859969347715377808e-02
2.785201072692871094e-01 6.651620566844940186e-02 -3.741290047764778137e-02
1.987549066543579102e-01 5.940283089876174927e-02 9.120879694819450378e-03
4.906708896160125732e-01 4.512475803494453430e-02 -7.137403637170791626e-02
8.089945316314697266e-01 -3.446481004357337952e-02 -7.300078868865966797e-02
8.127321004867553711e-01 -3.570583090186119080e-02 6.028295960277318954e-03
2.578755915164947510e-01 1.828818116337060928e-03 4.169369582086801529e-03
6.226583719253540039e-01 -3.354632109403610229e-02 6.074525415897369385e-02
4.435050189495086670e-01 -8.070474490523338318e-03 6.734741479158401489e-02
6.994144916534423828e-01 5.735856480896472931e-03 -4.707146808505058289e-02
8.230708241462707520e-01 -2.644346281886100769e-02 -1.906527020037174225e-02
6.043255329132080078e-01 2.890293113887310028e-02 -8.523595333099365234e-02
7.263065576553344727e-01 -6.736422330141067505e-02 1.302614063024520874e-02
7.564361095428466797e-01 -3.773817420005798340e-02 2.965762838721275330e-02
5.181657075881958008e-01 5.334763322025537491e-03 -7.928549498319625854e-02
8.785166740417480469e-01 -4.587999358773231506e-02 -4.755100235342979431e-04
-1.317555010318756104e-01 8.652478456497192383e-02 -5.330914631485939026e-03
2.554856538772583008e-01 -1.505921036005020142e-02 7.690618187189102173e-02
7.031664848327636719e-01 -5.296787247061729431e-02 6.458394974470138550e-02
-6.360766291618347168e-02 5.134989321231842041e-02 4.055321961641311646e-02
6.385896205902099609e-01 -2.259638719260692596e-02 -6.170210242271423340e-02
9.468967914581298828e-01 -8.217109739780426025e-02 -2.319395076483488083e-03
1.142247915267944336e-01 1.997779868543148041e-02 2.152813412249088287e-02
3.169140219688415527e-02 9.645055979490280151e-02 -5.949012935161590576e-02
1.434501409530639648e-01 2.652364782989025116e-02 -8.578903973102569580e-03
3.062714040279388428e-01 3.040949814021587372e-02 3.854744881391525269e-02
6.739507913589477539e-01 -2.055024262517690659e-03 -1.269576046615839005e-02
6.188123226165771484e-01 -1.534363441169261932e-02 -6.922115385532379150e-02
9.120184183120727539e-02 1.684090308845043182e-02 7.617560029029846191e-02
8.250740170478820801e-01 -7.093539834022521973e-02 -7.593237329274415970e-03
7.240758538246154785e-01 -4.393773619085550308e-03 -9.545179456472396851e-02
4.407858550548553467e-01 -2.352095209062099457e-02 -3.301075659692287445e-03
3.857171237468719482e-01 4.433836415410041809e-02 -1.589112356305122375e-02
8.145121932029724121e-01 -8.203309029340744019e-02 4.857425019145011902e-02
2.980302870273590088e-01 6.843641400337219238e-02 -5.396273732185363770e-02
1.327452957630157471e-01 5.869775637984275818e-02 -6.266801804304122925e-02
6.892443895339965820e-01 -5.047719553112983704e-02 -1.979748904705047607e-02
1.796705722808837891e-01 2.732953615486621857e-02 -2.398881129920482635e-02
5.631669759750366211e-01 2.587283775210380554e-02 -3.932268545031547546e-02
3.831666707992553711e-01 6.158761307597160339e-02 -8.114974945783615112e-02
8.290632963180541992e-01 -8.208694308996200562e-02 2.989167720079421997e-02
4.620136916637420654e-01 5.598898977041244507e-03 4.190602153539657593e-02
6.179977655410766602e-01 -5.881086457520723343e-03 1.646352559328079224e-02
5.279829502105712891e-01 3.035349585115909576e-02 -3.616585209965705872e-02
1.815495193004608154e-01 1.082430966198444366e-02 1.404101587831974030e-02
5.432641506195068359e-01 -6.121330428868532181e-03 -6.751773506402969360e-02
9.294314384460449219e-01 -7.298914343118667603e-02 2.298809960484504700e-02
4.251419305801391602e-01 5.400258675217628479e-02 -6.759420782327651978e-02
4.951624870300292969e-01 -1.466382294893264771e-02 -4.021983966231346130e-02
2.960245013236999512e-01 6.992257386445999146e-02 -9.496857970952987671e-02
5.242884159088134766e-03 5.471843108534812927e-02 5.553885176777839661e-02
2.619597315788269043e-01 2.728134393692016602e-02 5.415100976824760437e-02
8.462888598442077637e-01 -8.291321247816085815e-02 2.686567977070808411e-02
1.822967231273651123e-01 2.960212063044309616e-03 3.828304260969161987e-02
3.950347304344177246e-01 5.231355316936969757e-04 -4.070341959595680237e-02
8.167326450347900391e-01 -1.254038698971271515e-02 -8.374719321727752686e-02
4.051005244255065918e-01 -6.811214145272970200e-03 -2.911749668419361115e-02
7.149857282638549805e-01 -1.394066773355007172e-02 -1.661303918808698654e-03
3.784915506839752197e-01 5.416511744260787964e-02 -4.158015921711921692e-02
8.218616247177124023e-01 -5.770628899335861206e-02 3.935086727142333984e-02
8.684423565864562988e-01 -6.814692914485931396e-02 3.792145103216171265e-02
-9.649589657783508301e-02 7.766527682542800903e-02 2.962475642561912537e-02
8.223712444305419922e-03 8.382243663072586060e-02 2.667130436748266220e-03
5.399378538131713867e-01 3.469671588391065598e-03 -8.099856227636337280e-02
5.028179287910461426e-01 -2.162308618426322937e-02 -2.829202637076377869e-02
3.287835717201232910e-01 6.462480872869491577e-03 -3.199581801891326904e-02
4.658366143703460693e-01 3.043293207883834839e-02 -1.053160615265369415e-02
5.779659748077392578e-01 1.766524463891983032e-02 -2.250082790851593018e-02
7.402536869049072266e-01 -6.854501366615295410e-02 6.765846908092498779e-02
4.185895025730133057e-01 3.363921493291854858e-02 -1.289108302444219589e-03
9.106639027595520020e-02 8.633083105087280273e-02 -2.832531742751598358e-02
8.621478080749511719e-02 6.084751337766647339e-02 3.378549963235855103e-02
-1.593923568725585938e-02 6.841810792684555054e-02 -3.011406213045120239e-02
7.751727104187011719e-01 -6.005050987005233765e-02 -2.117595821619033813e-02
4.220257699489593506e-01 -4.056147485971450806e-02 7.564800232648849487e-02
2.388810664415359497e-01 2.432855032384395599e-02 6.319914013147354126e-02
5.334955453872680664e-02 4.402749612927436829e-02 6.420879065990447998e-02
5.964535474777221680e-01 -6.246090680360794067e-02 6.081187725067138672e-02
4.659351408481597900e-01 7.031379733234643936e-03 -7.051668316125869751e-02
5.957847833633422852e-02 3.690094873309135437e-02 3.060129936784505844e-03
7.217670679092407227e-01 -7.275924086570739746e-02 3.500903770327568054e-02
2.057658582925796509e-01 -4.208482336252927780e-03 8.463139086961746216e-02
7.029088735580444336e-01 3.713420592248439789e-04 -9.751830995082855225e-02
5.098067522048950195e-01 3.055580146610736847e-02 -2.853754349052906036e-02
5.126117467880249023e-01 -2.469022199511528015e-02 7.389196753501892090e-02
4.402565956115722656e-01 -4.260919243097305298e-02 6.455068290233612061e-02
7.308411598205566406e-01 5.323912948369979858e-03 -6.941293179988861084e-02
6.656835675239562988e-01 5.266048945486545563e-03 -9.909831732511520386e-02
7.852492928504943848e-01 -6.156138330698013306e-02 5.387143045663833618e-02
5.273019075393676758e-01 -1.066362112760543823e-02 5.154637247323989868e-02
1.828474253416061401e-01 8.432819694280624390e-02 -8.007206767797470093e-02
7.674189805984497070e-01 -5.437124520540237427e-02 5.052563175559043884e-02
4.369137585163116455e-01 8.479789830744266510e-04 5.599410086870193481e-02
4.006690680980682373e-01 -2.821080759167671204e-02 9.099134802818298340e-02
5.380764603614807129e-01 -5.325261875987052917e-02 4.797834157943725586e-02
5.323959589004516602e-01 2.356012538075447083e-02 -1.903406716883182526e-02
6.556540727615356445e-01 -3.799614310264587402e-02 5.851556360721588135e-02
3.512177467346191406e-01 3.623916953802108765e-02 1.468555256724357605e-02
9.031763672828674316e-02 7.880971580743789673e-02 -6.196599453687667847e-03
2.675945162773132324e-01 7.204774022102355957e-02 -5.265293270349502563e-02
4.107314050197601318e-01 -2.016385551542043686e-03 6.602880358695983887e-02
3.101981580257415771e-01 7.000092882663011551e-03 -2.703074552118778229e-02
6.899712085723876953e-01 -2.926984801888465881e-02 -6.140367314219474792e-02
4.865213632583618164e-01 7.493623998016119003e-03 3.168237209320068359e-02
6.067906618118286133e-01 3.215105738490819931e-03 -9.183454513549804688e-02
7.965527772903442383e-01 -7.982562482357025146e-02 3.287465125322341919e-02
5.825200080871582031e-01 -3.810729458928108215e-02 -1.635561138391494751e-02
6.488775014877319336e-01 2.107609435915946960e-02 -7.970832288265228271e-02
1.918707340955734253e-01 1.578917726874351501e-02 8.026172220706939697e-02
6.299475431442260742e-01 -3.125524148344993591e-02 -4.416740313172340393e-02
4.243583381175994873e-01 1.842746324837207794e-02 -7.791645824909210205e-02
5.312885046005249023e-01 5.290345754474401474e-03 2.241034992039203644e-02
-3.302544355392456055e-03 8.210614323616027832e-02 -5.301124975085258484e-02
1.172150075435638428e-01 1.146969292312860489e-02 7.801868766546249390e-02
5.583879947662353516e-01 -4.388579726219177246e-02 6.417234893888235092e-03
8.495800495147705078e-01 -1.937524229288101196e-02 -7.817383110523223877e-02
7.441855669021606445e-01 -5.457478389143943787e-02 -2.550448663532733917e-02
2.111830264329910278e-01 5.831909365952014923e-03 1.399789191782474518e-02
2.536797821521759033e-01 1.183759979903697968e-02 7.676444202661514282e-02
3.362565934658050537e-01 3.300423547625541687e-02 -7.833597809076309204e-02
9.942580461502075195e-01 -7.422781735658645630e-02 -2.237857133150100708e-02
1.013749241828918457e-01 6.447517126798629761e-02 -6.176267191767692566e-02
4.937962591648101807e-01 3.457971289753913879e-02 -1.042394936084747314e-01
1.781195700168609619e-01 5.371838808059692383e-02 -6.797309964895248413e-02
-2.331012487411499023e-02 7.414764165878295898e-02 2.907755225896835327e-02
2.085563242435455322e-01 5.217537283897399902e-02 2.189973741769790649e-02
7.782955169677734375e-01 -3.914511203765869141e-02 -6.189367547631263733e-02
6.115530729293823242e-01 1.516397669911384583e-02 -3.056608140468597412e-02
4.871080219745635986e-01 -4.937839508056640625e-02 7.114247232675552368e-02
6.843548417091369629e-01 1.389472372829914093e-02 -7.118730247020721436e-02
9.397451877593994141e-01 -5.654378980398178101e-02 -7.243028841912746429e-03
7.723180651664733887e-01 -1.861803606152534485e-02 -1.476475782692432404e-02
2.019540220499038696e-01 8.293674141168594360e-02 -7.596836984157562256e-02
9.769666194915771484e-02 3.610661998391151428e-02 6.895172595977783203e-02
2.902102470397949219e-01 2.254590578377246857e-02 5.555991083383560181e-02
3.763186037540435791e-01 -3.221712261438369751e-02 5.656702071428298950e-02
8.640012741088867188e-01 -3.281399607658386230e-02 -2.354887314140796661e-02
6.809676885604858398e-01 -3.032067045569419861e-02 4.063210636377334595e-02
6.847281455993652344e-01 1.418088749051094055e-02 -9.260744601488113403e-02
9.586825966835021973e-02 7.294566184282302856e-02 6.598172243684530258e-03
4.518355727195739746e-01 4.847815632820129395e-02 -1.025316938757896423e-01
4.718557596206665039e-01 -1.173787284642457962e-03 -5.865626037120819092e-02
3.134801983833312988e-02 5.566425621509552002e-02 -2.533029578626155853e-02
2.825421094894409180e-01 4.923672601580619812e-02 -8.642910420894622803e-02
3.134548664093017578e-01 -1.065588556230068207e-02 1.374447159469127655e-02
5.291681289672851562e-01 -5.472049489617347717e-02 7.042953372001647949e-02
5.731066465377807617e-01 -3.221764788031578064e-02 -2.667319774627685547e-02
1.303104460239410400e-01 7.141241803765296936e-03 6.860578060150146484e-02
5.126805901527404785e-01 4.307396709918975830e-02 -8.075883984565734863e-02
6.524118781089782715e-01 1.134875603020191193e-02 -3.928182646632194519e-02
7.923064231872558594e-01 -7.418680191040039062e-02 6.008716672658920288e-02
4.748848080635070801e-01 1.675743423402309418e-02 1.712040416896343231e-02
3.841193914413452148e-01 -3.365780413150787354e-02 8.543351292610168457e-02
8.764699101448059082e-02 7.976509630680084229e-02 -7.399093359708786011e-02
4.986408650875091553e-01 -4.618561360985040665e-03 -5.948057398200035095e-02
1.625239849090576172e-01 2.376122772693634033e-02 -9.914314374327659607e-03
2.557801008224487305e-01 7.721506804227828979e-02 -8.005279302597045898e-02
7.152222990989685059e-01 -4.626365378499031067e-02 -3.580873087048530579e-02
3.126078844070434570e-01 4.628257453441619873e-02 4.520024638622999191e-03
4.538331329822540283e-01 -3.354580327868461609e-02 1.874501630663871765e-02
7.776119112968444824e-01 -1.096777990460395813e-02 -3.818207234144210815e-02
6.523399949073791504e-01 -4.289830848574638367e-02 -2.631711587309837341e-02
1.450450122356414795e-01 7.729016989469528198e-02 -1.922221854329109192e-02
4.718576371669769287e-01 -4.687371477484703064e-02 6.366857886314392090e-02
4.827012121677398682e-01 3.085732087492942810e-02 -1.810242235660552979e-02
7.382102012634277344e-01 -1.622451934963464737e-03 -4.526001214981079102e-02
4.369427859783172607e-01 -1.672052405774593353e-02 -1.802902854979038239e-02
6.780225634574890137e-01 -2.056873403489589691e-02 2.482965216040611267e-02
3.924143314361572266e-02 6.686536967754364014e-02 -4.671385884284973145e-02
8.041195869445800781e-01 -2.818492427468299866e-02 -6.353131495416164398e-03
4.152050614356994629e-02 4.048129543662071228e-02 2.743230666965246201e-03
5.772502422332763672e-01 2.705669403076171875e-02 -5.074604228138923645e-02
8.319623470306396484e-01 -8.243503421545028687e-02 4.842866957187652588e-02
2.466125786304473877e-01 3.155628964304924011e-02 -5.322202295064926147e-02
9.018900990486145020e-01 -4.128489270806312561e-02 -2.228645980358123779e-02
8.901330828666687012e-02 2.123651280999183655e-02 3.212036564946174622e-02
2.257912307977676392e-01 5.468694865703582764e-02 -8.050658553838729858e-02
5.060901641845703125e-01 -3.570906445384025574e-02 3.868716303259134293e-03
-1.037947833538055420e-01 9.564401209354400635e-02 -2.799809537827968597e-02
2.354170680046081543e-01 4.457470402121543884e-02 -7.010328769683837891e-02
3.927849531173706055e-01 -3.642504289746284485e-02 7.302353531122207642e-02
5.037768483161926270e-01 -5.122924223542213440e-02 7.678572833538055420e-02
7.461736202239990234e-01 -2.084497921168804169e-02 -8.255191892385482788e-02
2.698293328285217285e-02 2.846175245940685272e-02 5.924853682518005371e-02
2.937554121017456055e-01 3.515323996543884277e-02 -7.132936269044876099e-02
2.060828804969787598e-01 7.200806587934494019e-02 -9.049821645021438599e-02
5.127535462379455566e-01 7.298748474568128586e-03 2.423065528273582458e-02
5.125349760055541992e-02 7.317579537630081177e-02 1.694387383759021759e-02
3.926969468593597412e-01 5.869153141975402832e-02 -9.776314347982406616e-02
7.935464382171630859e-04 9.820862859487533569e-02 -4.825874418020248413e-02
3.695253729820251465e-01 4.742019250988960266e-02 -9.920776635408401489e-02
4.001048505306243896e-01 3.748367354273796082e-02 -3.974269144237041473e-03
8.633291721343994141e-01 -4.461678862571716309e-02 -6.525492668151855469e-02
4.101437330245971680e-01 -1.565063185989856720e-02 -1.130696479231119156e-02
-4.013007879257202148e-02 7.229891419410705566e-02 3.450779244303703308e-02
4.873540103435516357e-01 -2.000773325562477112e-02 7.343553751707077026e-02
5.748999118804931641e-01 -2.117564342916011810e-02 5.536094307899475098e-02
5.824602842330932617e-01 -4.976619407534599304e-02 1.397228986024856567e-02
6.169049739837646484e-01 -6.421349197626113892e-02 5.439930409193038940e-02
6.831619739532470703e-01 -6.475052982568740845e-02 7.459940761327743530e-02
8.047903776168823242e-01 -4.397105798125267029e-02 -5.856447666883468628e-02
4.179052710533142090e-01 -1.197447441518306732e-02 7.714816927909851074e-02
7.355838418006896973e-01 -4.750985279679298401e-02 -3.821443021297454834e-02
3.871312141418457031e-01 2.511899359524250031e-02 2.675409615039825439e-02
9.069967269897460938e-02 4.513747990131378174e-02 -2.734327502548694611e-02
3.751275539398193359e-01 2.888576593250036240e-03 -3.932782635092735291e-02
3.073175549507141113e-01 -4.452262539416551590e-03 -3.369199112057685852e-05
-1.067185103893280029e-01 8.452843874692916870e-02 1.804054155945777893e-02
8.538187742233276367e-01 -8.394916355609893799e-02 4.277502372860908508e-02
6.246823072433471680e-01 9.221939370036125183e-03 -2.026436477899551392e-02
8.864674568176269531e-01 -8.070479333400726318e-02 4.717975389212369919e-03
1.005659103393554688e-01 8.994572609663009644e-02 -4.648617655038833618e-02
2.735835313796997070e-01 -1.716919802129268646e-02 8.311813324689865112e-02
1.087186634540557861e-01 7.766158133745193481e-02 -7.695627212524414062e-02
9.899412393569946289e-01 -7.545278221368789673e-02 -2.793316729366779327e-03
6.634137034416198730e-01 -5.051054432988166809e-02 7.058519870042800903e-02
5.614570975303649902e-01 3.578539937734603882e-02 -8.416325598955154419e-02
-1.278141140937805176e-02 5.021379888057708740e-02 6.101447343826293945e-02
5.257534980773925781e-01 2.376971021294593811e-02 -1.008264943957328796e-01
6.343630552291870117e-01 2.316951379179954529e-02 -9.423852711915969849e-02
7.770524024963378906e-01 -5.179883446544408798e-03 -8.972264081239700317e-02
7.577487230300903320e-01 -2.166638895869255066e-02 -1.600699964910745621e-03
1.115526854991912842e-01 8.426263928413391113e-02 -2.886459790170192719e-02
6.666499972343444824e-01 -5.837550759315490723e-02 7.517004851251840591e-03
1.145208775997161865e-01 6.874871999025344849e-02 1.124087348580360413e-02
2.033126950263977051e-01 7.996352761983871460e-02 -5.277534946799278259e-02
6.122977733612060547e-01 -5.860855430364608765e-02 3.020462393760681152e-02
3.718117475509643555e-01 2.666363678872585297e-02 2.809444069862365723e-02
8.698958158493041992e-01 -5.845177918672561646e-02 -4.428825154900550842e-02
5.829126834869384766e-01 -8.191931992769241333e-03 -7.281123846769332886e-02
5.379978418350219727e-01 3.298368677496910095e-02 -4.987131059169769287e-02
6.604683399200439453e-01 -9.369501844048500061e-03 -8.497202396392822266e-02
5.496131181716918945e-01 2.249342575669288635e-02 -2.336932346224784851e-02
-1.226181685924530029e-01 7.232598960399627686e-02 2.077084407210350037e-02
8.018280863761901855e-01 -1.084271259605884552e-02 -8.767906576395034790e-02
9.126241207122802734e-01 -6.072813272476196289e-02 -4.595349356532096863e-02
9.490021467208862305e-01 -4.496647045016288757e-02 -5.062418803572654724e-02
4.623564779758453369e-01 -1.580728217959403992e-02 -2.818409167230129242e-02
6.912467479705810547e-01 -6.184646487236022949e-02 8.841622620820999146e-03
2.739955782890319824e-01 2.978562936186790466e-02 -5.801285058259963989e-02
9.134165048599243164e-01 -5.054766684770584106e-02 -6.710217799991369247e-03
9.146493673324584961e-01 -8.501479774713516235e-02 3.075190633535385132e-02
3.877197504043579102e-01 1.654435135424137115e-02 4.241872206330299377e-02
2.558788061141967773e-01 -6.045279558748006821e-03 8.973241597414016724e-02
4.675660729408264160e-01 -3.284611552953720093e-02 1.100420579314231873e-02
6.101257205009460449e-01 -2.131740748882293701e-02 -5.750618502497673035e-02
6.637302637100219727e-01 -7.404858712106943130e-03 3.547016065567731857e-03
9.126052260398864746e-02 5.836750566959381104e-02 -5.022802203893661499e-02
4.033775329589843750e-01 -2.087410911917686462e-02 4.103145096451044083e-03
1.920691877603530884e-01 3.824195265769958496e-02 5.114081874489784241e-02
3.295486867427825928e-01 -2.726733218878507614e-03 -1.254248991608619690e-02
2.406480908393859863e-01 3.855294734239578247e-02 3.993948921561241150e-02
5.853145718574523926e-01 1.179716642946004868e-02 -1.058731600642204285e-02
1.307371258735656738e-01 4.047116637229919434e-02 -3.261432051658630371e-02
5.280588865280151367e-01 1.242294907569885254e-02 8.833216503262519836e-03
3.982368707656860352e-01 -9.308690205216407776e-03 7.758557051420211792e-02
1.594084501266479492e-02 6.320248544216156006e-02 -3.306269273161888123e-02
3.293413221836090088e-01 5.986282229423522949e-02 -3.790739178657531738e-02
1.103705167770385742e-01 4.479828476905822754e-02 5.591864138841629028e-02
2.681243419647216797e-01 5.695754289627075195e-02 -9.103020280599594116e-02
4.037527740001678467e-01 6.785275414586067200e-03 5.461876094341278076e-02
5.748563408851623535e-01 -5.567196756601333618e-02 8.286782354116439819e-02
-4.253196716308593750e-02 8.877094089984893799e-02 1.273314934223890305e-03
3.448171019554138184e-01 2.476082928478717804e-02 -6.863642483949661255e-02
-4.601073265075683594e-02 4.731329903006553650e-02 3.801413252949714661e-02
7.877341508865356445e-01 -7.614468038082122803e-02 2.020277827978134155e-02
6.970547437667846680e-01 -6.869792193174362183e-02 2.947039529681205750e-02
8.410438299179077148e-01 -1.762087456881999969e-02 -5.997208878397941589e-02
8.213973045349121094e-02 4.077821224927902222e-02 -1.535668037831783295e-02
5.385782122611999512e-01 -3.898539766669273376e-02 5.637020803987979889e-04
6.956070661544799805e-01 1.389730256050825119e-03 -3.148042038083076477e-02
5.815007090568542480e-01 -5.755879729986190796e-02 4.173877462744712830e-02
4.034414291381835938e-01 -3.317505866289138794e-02 4.242087155580520630e-02
8.999502658843994141e-01 -7.276326417922973633e-02 -2.007990702986717224e-02
7.990052700042724609e-01 -6.908782571554183960e-02 -5.328035447746515274e-03
1.450407505035400391e-01 3.598075732588768005e-02 -2.900590002536773682e-02
-2.286371588706970215e-02 5.523980781435966492e-02 -1.460832543671131134e-03
8.522078394889831543e-01 -6.708952784538269043e-02 4.158739000558853149e-02
3.061084747314453125e-01 2.484845183789730072e-02 -5.874836444854736328e-02
5.899181365966796875e-01 2.000595070421695709e-02 -3.445095196366310120e-02
7.426699995994567871e-01 -6.314948946237564087e-02 -4.471122287213802338e-03
9.332453012466430664e-01 -5.116786062717437744e-02 -5.989502370357513428e-02
3.902467787265777588e-01 1.494880579411983490e-02 -6.471849977970123291e-02
5.671090483665466309e-01 -5.146012455224990845e-02 2.571249008178710938e-02
4.997109770774841309e-01 -4.857681319117546082e-02 5.026687309145927429e-02
6.150908470153808594e-01 -1.986931450664997101e-02 4.264711216092109680e-02
8.972753286361694336e-01 -5.156185850501060486e-02 2.648968715220689774e-03
3.667227625846862793e-01 6.126338616013526917e-02 -6.305294483900070190e-02
1.653105020523071289e-03 3.573452681303024292e-02 4.280932247638702393e-02
4.174417257308959961e-01 -2.690271660685539246e-02 1.485798694193363190e-02
5.577971935272216797e-01 3.234669100493192673e-03 1.804903522133827209e-02
7.600661516189575195e-01 -3.157104831188917160e-03 -5.413392558693885803e-02
2.260417640209197998e-01 7.511416822671890259e-02 -4.407707601785659790e-02
8.335074782371520996e-01 -2.422260120511054993e-02 -8.387374132871627808e-02
8.578072786331176758e-01 -7.662372291088104248e-02 -5.232030525803565979e-04
8.792857527732849121e-01 -6.290776282548904419e-02 2.804686874151229858e-02
4.784926772117614746e-01 -1.151455938816070557e-02 6.445085257291793823e-02
9.335640668869018555e-01 -7.553179562091827393e-02 -1.903181709349155426e-02
7.342807054519653320e-01 -3.897796198725700378e-02 -5.391681194305419922e-02
4.586648941040039062e-02 5.107250064611434937e-02 -2.210150659084320068e-02
4.388221204280853271e-01 -7.816536352038383484e-03 -3.738944604992866516e-02
2.487358003854751587e-01 5.955341085791587830e-02 -8.977223187685012817e-02
4.598999619483947754e-01 5.102455988526344299e-02 -8.261907845735549927e-02
8.155241012573242188e-01 -5.407801643013954163e-02 -4.276256263256072998e-02
3.501278162002563477e-01 -3.014097735285758972e-02 7.416304200887680054e-02
-3.027683496475219727e-02 6.822822242975234985e-02 -2.424848824739456177e-02
6.803226470947265625e-01 -1.746559143066406250e-02 -7.753864675760269165e-02
5.881330966949462891e-01 2.894260920584201813e-02 -6.562120467424392700e-02
7.482597231864929199e-02 5.219237133860588074e-02 -3.472594544291496277e-02
3.356716036796569824e-01 -1.353935152292251587e-02 1.211825944483280182e-02
2.980123162269592285e-01 -2.070006914436817169e-02 8.487635105848312378e-02
4.297338724136352539e-01 -3.300191089510917664e-02 2.797524631023406982e-02
3.451168537139892578e-03 9.516788274049758911e-02 -2.999728545546531677e-02
1.732769906520843506e-01 -8.272626437246799469e-04 7.299302518367767334e-02
5.608900189399719238e-01 3.221619129180908203e-02 -1.025699153542518616e-01
6.607642769813537598e-01 -5.254369974136352539e-02 -6.202175281941890717e-03
4.796681404113769531e-01 -3.163744881749153137e-02 8.575600385665893555e-02
6.554935574531555176e-01 -6.676337867975234985e-02 4.228255897760391235e-02
4.922565221786499023e-01 -3.964842483401298523e-02 2.065437845885753632e-02
3.780588507652282715e-01 -2.765700593590736389e-02 3.582232072949409485e-02
3.981698155403137207e-01 3.153979405760765076e-02 1.020635291934013367e-02
1.547397375106811523e-01 2.535740844905376434e-03 7.039262354373931885e-02
7.059599757194519043e-01 -5.902782082557678223e-02 -3.893212415277957916e-03
3.116171360015869141e-01 1.526839099824428558e-02 -4.365321993827819824e-02
1.455760896205902100e-01 2.816983126103878021e-02 7.260294258594512939e-02
6.904684305191040039e-01 -7.230399549007415771e-02 6.279719620943069458e-02
1.356643438339233398e-01 1.064784266054630280e-02 3.992979228496551514e-02
9.659444093704223633e-01 -5.883096158504486084e-02 -1.721037365496158600e-02
5.197389721870422363e-01 -5.245489627122879028e-02 5.720794945955276489e-02
9.536093473434448242e-02 4.748981818556785583e-02 5.433166772127151489e-02
2.139240056276321411e-01 3.108152188360691071e-02 5.800484865903854370e-02
5.269324183464050293e-01 4.111263528466224670e-02 -9.230243414640426636e-02
2.753854393959045410e-01 4.931996017694473267e-02 9.155927225947380066e-03
3.839913308620452881e-01 -1.200690399855375290e-03 7.035899907350540161e-02
9.868601560592651367e-01 -5.982093513011932373e-02 -3.616809844970703125e-02
5.907834768295288086e-01 -2.529663965106010437e-02 -4.556227475404739380e-02
6.797199249267578125e-01 9.428158402442932129e-03 -4.812495410442352295e-02
7.566218376159667969e-01 -6.043705344200134277e-02 -1.533154956996440887e-02
1.978244781494140625e-01 6.138708814978599548e-02 -8.157781511545181274e-02
8.791506290435791016e-01 -4.851569607853889465e-02 -6.137939542531967163e-02
9.287592172622680664e-01 -6.072187423706054688e-02 5.786797497421503067e-03
6.781563758850097656e-01 -6.348950415849685669e-02 1.884390227496623993e-02
9.424468278884887695e-01 -6.305746734142303467e-02 -4.445525258779525757e-02
1.406113207340240479e-01 6.696234922856092453e-03 5.392367765307426453e-02
2.983164787292480469e-01 7.217625528573989868e-02 -7.709423452615737915e-02
2.869120240211486816e-01 5.779272690415382385e-02 -1.510136947035789490e-02
4.170030653476715088e-01 -3.760585188865661621e-02 5.345423147082328796e-02
-4.516401886940002441e-02 6.103279814124107361e-02 5.063903704285621643e-02
8.950579166412353516e-01 -5.003278702497482300e-02 -6.056495755910873413e-02
2.266803979873657227e-01 1.800378412008285522e-02 -2.134096622467041016e-02
2.814694941043853760e-01 8.721910417079925537e-03 -2.087796665728092194e-02
8.133217096328735352e-01 -6.627400219440460205e-02 -1.628005132079124451e-02
1.491010189056396484e-02 7.325077801942825317e-02 -4.797657579183578491e-02
5.877187252044677734e-01 3.132941201329231262e-02 -8.067013323307037354e-02
2.082711309194564819e-01 -6.741825025528669357e-03 6.520046293735504150e-02
4.393496811389923096e-01 1.534847542643547058e-02 -7.684814929962158203e-02
1.360358893871307373e-01 4.397994652390480042e-02 5.277733877301216125e-02
4.823625087738037109e-02 2.396686747670173645e-02 6.530621647834777832e-02
1.003565788269042969e-01 1.375438459217548370e-02 5.626602470874786377e-02
4.444006979465484619e-01 5.251985415816307068e-02 -7.547828555107116699e-02
8.202091455459594727e-01 -4.653725028038024902e-02 -5.688166245818138123e-02
9.566777944564819336e-02 9.209828823804855347e-02 -6.957247108221054077e-02
5.477207899093627930e-01 3.758170455694198608e-02 -9.480937570333480835e-02
5.946633219718933105e-02 2.472489327192306519e-02 3.986785188317298889e-02
6.602445244789123535e-01 -2.059024572372436523e-02 3.051253780722618103e-02
5.228595137596130371e-01 3.985267505049705505e-02 -6.907898932695388794e-02
1.324727535247802734e-01 1.609460636973381042e-02 2.341881208121776581e-02
4.944455325603485107e-01 3.847279772162437439e-02 -4.574337601661682129e-02
-1.103809177875518799e-01 9.156524389982223511e-02 2.641014289110898972e-03
5.995118618011474609e-01 -4.597388207912445068e-02 -2.706613857299089432e-03
2.225146889686584473e-01 6.199402734637260437e-02 -4.125080537050962448e-03
3.307047486305236816e-02 3.438643366098403931e-02 2.380269207060337067e-02
5.105578899383544922e-01 -2.420552540570497513e-03 4.254071414470672607e-02
4.582172632217407227e-02 8.284057676792144775e-02 -4.237650893628597260e-03
5.811670422554016113e-02 9.427486360073089600e-02 -4.849112406373023987e-02
3.951716721057891846e-01 5.006286129355430603e-02 -3.598160669207572937e-02
2.347026020288467407e-01 7.918920367956161499e-02 -7.084799557924270630e-02
7.149600982666015625e-01 -2.897013351321220398e-02 2.797693386673927307e-02
1.625834405422210693e-01 1.354020647704601288e-02 1.554572209715843201e-02
1.662052273750305176e-01 8.641346544027328491e-02 -7.015953212976455688e-02
6.402629613876342773e-01 -6.866673473268747330e-03 -8.500645309686660767e-02
2.131575345993041992e-01 3.858342394232749939e-02 -5.516246333718299866e-02
1.677568256855010986e-01 2.453954145312309265e-02 7.401008903980255127e-02
6.994685530662536621e-01 -2.158438414335250854e-02 -7.496944814920425415e-02
-1.744507551193237305e-01 9.070985019207000732e-02 1.456740684807300568e-02
6.096601486206054688e-01 6.224622949957847595e-02 -6.046630442142486572e-02
4.941802620887756348e-01 2.046304009854793549e-02 -7.782069593667984009e-02
5.423183441162109375e-01 -3.424743935465812683e-02 2.254031971096992493e-02
-6.522819399833679199e-02 5.840641632676124573e-02 1.843917928636074066e-02
7.763788104057312012e-01 2.815567888319492340e-02 -3.215260058641433716e-02
8.242158293724060059e-01 -1.780387386679649353e-02 -6.033354252576828003e-02
-3.079077601432800293e-02 1.093928217887878418e-01 5.544752627611160278e-02
7.373467087745666504e-01 -4.486288875341415405e-03 -7.382152229547500610e-02
2.735359668731689453e-01 8.063928782939910889e-02 -8.569628745317459106e-02
7.974979281425476074e-01 -4.533650353550910950e-02 -1.475634053349494934e-03
1.090531051158905029e-01 1.091732978820800781e-01 3.272434324026107788e-02
2.299297749996185303e-01 -6.372854113578796387e-05 7.340147346258163452e-02
5.290873050689697266e-01 -1.803434267640113831e-02 8.318687975406646729e-02
3.452855348587036133e-01 4.649867862462997437e-02 8.255128562450408936e-02
3.060865402221679688e-01 4.411447793245315552e-03 -1.345051825046539307e-02
6.772743463516235352e-01 4.932759329676628113e-02 -3.564199060201644897e-02
8.041329383850097656e-01 -4.632547870278358459e-02 1.211876887828111649e-02
1.439697444438934326e-01 1.158425211906433105e-02 5.509279668331146240e-02
2.048585712909698486e-01 9.987938404083251953e-02 -7.613529264926910400e-02
5.179664492607116699e-02 1.259267181158065796e-01 -2.244436554610729218e-02
-9.328722953796386719e-03 1.039206683635711670e-01 6.225265562534332275e-02
4.163059592247009277e-01 -2.391711995005607605e-02 4.851159453392028809e-02
1.009159684181213379e-01 4.083237051963806152e-02 -1.810970529913902283e-02
2.462550103664398193e-01 7.791963219642639160e-02 6.222259998321533203e-02
3.153045177459716797e-01 -1.715086400508880615e-03 -1.147184520959854126e-03
1.957809478044509888e-01 9.072050452232360840e-03 2.089531719684600830e-02
-1.567720770835876465e-01 7.621118426322937012e-02 3.720551729202270508e-02
-3.281611204147338867e-02 4.421348497271537781e-02 4.690357297658920288e-02
2.598655223846435547e-01 6.794556975364685059e-02 7.334642112255096436e-02
6.727871298789978027e-02 2.932530269026756287e-02 2.559046447277069092e-02
2.754662632942199707e-01 7.710020989179611206e-03 9.863303601741790771e-02
8.316677808761596680e-01 1.479959301650524139e-02 -3.473898023366928101e-02
5.857033729553222656e-01 2.400902099907398224e-02 -8.849427103996276855e-02
4.449516236782073975e-01 -2.284481003880500793e-02 1.490604318678379059e-02
2.960304617881774902e-01 2.844469249248504639e-02 1.001867726445198059e-01
3.943814635276794434e-01 8.694384992122650146e-02 -7.943477481603622437e-02
3.445227742195129395e-01 7.814034819602966309e-02 -8.929783850908279419e-02
1.827098578214645386e-01 4.738665372133255005e-02 -5.110052973031997681e-02
8.143488168716430664e-01 -4.388790205121040344e-02 -9.443594142794609070e-03
4.278984665870666504e-01 1.781433820724487305e-03 -4.207601398229598999e-02
4.451191127300262451e-01 7.529444992542266846e-02 1.201932877302169800e-02
1.761331409215927124e-01 9.225387871265411377e-02 -7.705688476562500000e-02
5.852810144424438477e-01 -1.232996582984924316e-03 7.658371329307556152e-02
4.503515362739562988e-01 1.051901839673519135e-02 -5.991733819246292114e-02
1.301334649324417114e-01 7.902660220861434937e-02 -6.765699386596679688e-02
1.022422611713409424e-01 2.452339977025985718e-02 2.059545740485191345e-02
6.414719820022583008e-01 4.688303545117378235e-02 -8.563028275966644287e-02
-8.889347314834594727e-03 8.034066855907440186e-02 8.865801990032196045e-02
7.559915184974670410e-01 2.820633724331855774e-02 -1.426520384848117828e-02
2.027460336685180664e-01 5.391579121351242065e-02 -6.249138712882995605e-02
3.872726559638977051e-01 4.900183901190757751e-02 -8.689074963331222534e-02
4.619669020175933838e-01 8.310922980308532715e-02 -6.878487765789031982e-02
-8.909478783607482910e-02 7.062575221061706543e-02 3.953591920435428619e-03
7.988063097000122070e-01 2.399200201034545898e-02 -5.408553034067153931e-02
4.628910422325134277e-01 5.666696652770042419e-02 4.446609318256378174e-02
8.127675652503967285e-01 -5.216512829065322876e-03 2.088691852986812592e-02
3.363220989704132080e-01 5.096247792243957520e-02 -8.211351186037063599e-02
4.941811561584472656e-01 5.691651999950408936e-02 3.484663739800453186e-02
4.195684194564819336e-02 1.195026040077209473e-01 2.033190801739692688e-02
1.489113867282867432e-01 3.488299995660781860e-02 -2.351963706314563751e-02
5.418113470077514648e-01 -2.843077853322029114e-02 -3.174134530127048492e-03
-3.779083490371704102e-03 1.234858781099319458e-01 1.758587360382080078e-02
3.054970800876617432e-01 2.526094019412994385e-02 -5.074185878038406372e-02
2.616625726222991943e-01 -2.487689256668090820e-03 8.060044795274734497e-02
4.870337843894958496e-01 8.138992637395858765e-02 -3.992349654436111450e-02
5.145875811576843262e-01 2.114941738545894623e-02 7.531082630157470703e-02
7.046340703964233398e-01 -4.152106121182441711e-02 -3.763598389923572540e-03
6.559976339340209961e-01 -5.980800837278366089e-03 -6.765253841876983643e-02
3.907440900802612305e-01 7.539355009794235229e-02 3.080083802342414856e-02
5.541223287582397461e-02 2.897091209888458252e-02 3.615281730890274048e-02
6.572282910346984863e-01 3.222264349460601807e-03 5.954024195671081543e-02
1.466992050409317017e-01 1.024546623229980469e-01 3.938893228769302368e-02
6.971130371093750000e-01 4.580091685056686401e-02 -3.785362839698791504e-02
3.598788380622863770e-01 -3.736712038516998291e-03 -1.203159242868423462e-02
2.610347270965576172e-01 5.011986941099166870e-02 9.125334024429321289e-02
7.230661511421203613e-01 2.460875920951366425e-02 -8.502989262342453003e-02
5.034787058830261230e-01 -2.730659767985343933e-02 6.931762676686048508e-03
1.096910089254379272e-01 4.743671417236328125e-02 -3.179718554019927979e-02
6.423996090888977051e-01 -3.376433625817298889e-02 -1.511891745030879974e-02
6.279882788658142090e-02 3.639525175094604492e-02 6.738082505762577057e-03
7.859346270561218262e-02 6.594584882259368896e-02 9.553481638431549072e-02
4.056514203548431396e-01 8.260276913642883301e-02 7.936481386423110962e-03
2.773158848285675049e-01 -7.597818970680236816e-03 5.565582215785980225e-02
-3.801816701889038086e-02 5.968581885099411011e-02 1.132086385041475296e-03
7.832374572753906250e-01 -2.891284599900245667e-02 -4.532235860824584961e-02
4.838707447052001953e-01 7.979730516672134399e-02 -2.432560734450817108e-02
4.014963209629058838e-01 1.906900852918624878e-02 -6.214167177677154541e-02
2.015813291072845459e-01 2.540760114789009094e-02 -2.309760265052318573e-02
-3.293037414550781250e-03 5.155700817704200745e-02 2.138386480510234833e-03
