-1.586889475584030151e-01 6.402585655450820923e-02 2.101767249405384064e-02
7.376634478569030762e-01 6.308905780315399170e-03 1.268577482551336288e-02
7.982328534126281738e-03 1.093980073928833008e-01 6.839048583060503006e-03
5.417742133140563965e-01 7.036372274160385132e-02 -6.879820022732019424e-03
-4.469786584377288818e-02 1.215713322162628174e-01 -7.150139659643173218e-02
-4.268751740455627441e-01 9.286512434482574463e-02 3.590686246752738953e-02
-1.729358732700347900e-02 8.895155042409896851e-02 5.118978768587112427e-02
3.687164485454559326e-01 5.060215294361114502e-02 5.720172077417373657e-02
2.310404032468795776e-01 7.280583679676055908e-02 4.476735740900039673e-02
-8.012239634990692139e-02 1.261501610279083252e-01 -2.847614325582981110e-02
4.053468704223632812e-01 8.700315654277801514e-02 -9.480128437280654907e-02
4.327195584774017334e-01 8.417157828807830811e-02 -1.386534050107002258e-02
5.133336186408996582e-01 7.052198052406311035e-03 4.586029052734375000e-02
5.772559642791748047e-01 1.009855419397354126e-02 1.503443717956542969e-02
1.261802017688751221e-01 8.323140442371368408e-02 4.232021048665046692e-02
2.552043199539184570e-01 3.848832845687866211e-02 8.327876031398773193e-02
-1.522943526506423950e-01 8.180621266365051270e-02 -1.662918552756309509e-02
-1.787995249032974243e-01 1.164578944444656372e-01 1.618523336946964264e-02
-2.495135813951492310e-01 8.569805324077606201e-02 7.576030492782592773e-02
2.636451423168182373e-01 6.984252482652664185e-02 4.473405331373214722e-02
4.565718770027160645e-01 1.836434379220008850e-02 8.556037209928035736e-03
-1.252188533544540405e-01 5.273339152336120605e-02 4.299747198820114136e-02
1.698071956634521484e-01 4.581163078546524048e-02 -8.158460259437561035e-03
2.637707889080047607e-01 1.131499260663986206e-01 -7.893697917461395264e-02
5.264533758163452148e-01 5.589931458234786987e-02 2.360186725854873657e-02
-2.915875315666198730e-01 1.013365387916564941e-01 5.631939694285392761e-02
-3.922808170318603516e-01 8.601628243923187256e-02 3.886078298091888428e-02
-1.146757751703262329e-01 4.640990868210792542e-02 6.494225561618804932e-02
1.302554011344909668e-01 7.472888380289077759e-02 5.561210960149765015e-02
3.460783660411834717e-01 2.893240749835968018e-02 8.024558424949645996e-02
5.942703485488891602e-01 5.146952345967292786e-02 -7.299163937568664551e-02
4.618142247200012207e-01 3.635701537132263184e-02 -3.445812687277793884e-02
3.063420057296752930e-01 7.264579087495803833e-02 3.344390168786048889e-02
4.434487819671630859e-01 1.099475473165512085e-02 3.826022520661354065e-02
1.246533021330833435e-01 1.205757558345794678e-01 -5.714361742138862610e-02
8.548625707626342773e-01 4.529532790184020996e-02 -4.241595417261123657e-02
-1.405549198389053345e-01 6.760645657777786255e-02 8.309937082231044769e-03
1.470121443271636963e-01 6.927339732646942139e-02 6.153304874897003174e-02
8.409199118614196777e-01 4.150175303220748901e-02 -2.643966116011142731e-02
4.898914098739624023e-01 9.559793770313262939e-02 -8.628255873918533325e-02
-3.520147800445556641e-01 8.035335689783096313e-02 3.825824335217475891e-02
5.019559264183044434e-01 1.669370010495185852e-02 5.806700326502323151e-03
7.548434138298034668e-01 6.214812397956848145e-03 1.436798926442861557e-02
3.906728327274322510e-01 1.003503501415252686e-01 -5.110273882746696472e-02
7.434000372886657715e-01 1.762562990188598633e-02 -2.532386779785156250e-02
6.721793115139007568e-02 9.207449853420257568e-02 -6.696819514036178589e-02
2.173366546630859375e-01 1.106699928641319275e-01 -8.984424918889999390e-02
-7.935948669910430908e-02 1.287600696086883545e-01 -4.375313594937324524e-02
-5.790720880031585693e-02 5.535257980227470398e-02 1.724909804761409760e-02
2.282222360372543335e-01 8.548663556575775146e-02 2.259938977658748627e-02
4.181243479251861572e-01 5.217435956001281738e-02 -5.691608786582946777e-02
-4.892840981483459473e-03 1.234040260314941406e-01 -3.307387605309486389e-02
7.939564585685729980e-01 4.176490753889083862e-02 -1.180207356810569763e-02
1.820208281278610229e-01 7.542812824249267578e-02 4.754265770316123962e-02
-1.801727712154388428e-02 4.686145484447479248e-02 2.979515679180622101e-02
4.117749333381652832e-01 7.798632979393005371e-02 4.433601628988981247e-03
-3.065715730190277100e-02 4.229761660099029541e-02 4.825073853135108948e-02
-1.322618275880813599e-01 1.172186285257339478e-01 -6.107065081596374512e-02
-2.455435842275619507e-01 1.303756535053253174e-01 -4.023770242929458618e-02
7.663636803627014160e-01 4.767175763845443726e-02 -1.537625584751367569e-02
3.996948599815368652e-01 6.511185318231582642e-02 3.081918321549892426e-02
5.863183736801147461e-01 6.520605087280273438e-02 -6.046204827725887299e-03
6.292111873626708984e-01 6.105937063694000244e-03 4.577916115522384644e-02
7.992539405822753906e-01 5.916347354650497437e-02 -6.885722279548645020e-02
1.577028036117553711e-01 6.538280099630355835e-02 -4.307549819350242615e-02
2.378508150577545166e-01 1.988853514194488525e-02 5.503476038575172424e-02
1.845647394657135010e-02 1.210739687085151672e-01 -2.902202308177947998e-02
6.783702969551086426e-02 1.158355623483657837e-01 -8.174286037683486938e-02
7.169997096061706543e-01 7.118227332830429077e-02 -6.854402273893356323e-02
9.778654575347900391e-02 8.632532507181167603e-02 -6.437908113002777100e-02
8.562288880348205566e-01 1.797401532530784607e-02 -2.840800397098064423e-02
-4.458397626876831055e-01 9.780313074588775635e-02 3.278403356671333313e-02
-2.484876066446304321e-01 1.259497255086898804e-01 -1.894973102025687695e-03
-3.334264159202575684e-01 1.257985979318618774e-01 5.617971066385507584e-03
-3.536754250526428223e-01 1.291602849960327148e-01 -1.078005135059356689e-02
1.921688020229339600e-02 3.797281160950660706e-02 4.805584996938705444e-02
9.001430869102478027e-02 9.810210764408111572e-02 -7.576479017734527588e-02
-1.454854458570480347e-01 9.264786541461944580e-02 5.882183834910392761e-02
-2.291836291551589966e-01 8.374638855457305908e-02 -3.734827507287263870e-03
3.492280840873718262e-01 8.897538483142852783e-02 -7.261269260197877884e-03
3.021889030933380127e-01 1.656404882669448853e-02 7.778525352478027344e-02
-2.019603550434112549e-02 1.230619475245475769e-01 -2.830343879759311676e-02
1.640986800193786621e-01 2.801257744431495667e-02 4.161527007818222046e-02
2.834247648715972900e-01 8.386316150426864624e-02 -8.320618420839309692e-02
4.885580539703369141e-01 8.745209872722625732e-02 -3.666646778583526611e-02
6.470829844474792480e-01 1.949023082852363586e-02 -2.104419469833374023e-02
2.178528308868408203e-01 6.882392615079879761e-02 5.288317054510116577e-02
-7.137031853199005127e-02 1.135373413562774658e-01 8.902078494429588318e-03
2.046485394239425659e-01 9.022323787212371826e-02 1.704775914549827576e-02
3.714438676834106445e-01 9.704010188579559326e-02 -3.390593081712722778e-02
8.099535703659057617e-01 5.314797163009643555e-02 -4.384486377239227295e-02
2.634484767913818359e-01 2.330856770277023315e-02 3.253823518753051758e-02
4.384674131870269775e-02 1.247642785310745239e-01 -5.654785782098770142e-02
-1.503596752882003784e-01 5.284786224365234375e-02 5.146835744380950928e-02
2.047419250011444092e-01 2.136119082570075989e-02 5.973994359374046326e-02
-4.228949546813964844e-01 9.922722727060317993e-02 1.999343000352382660e-02
3.549954295158386230e-02 1.179626286029815674e-01 -7.900296151638031006e-02
-1.827901154756546021e-01 1.115071624517440796e-01 -4.988747090101242065e-02
7.445250153541564941e-01 2.401113510131835938e-02 2.497638761997222900e-02
-8.465395867824554443e-02 1.278989017009735107e-01 -6.141475588083267212e-02
1.396750807762145996e-01 9.654571115970611572e-02 1.462211646139621735e-02
-1.196325868368148804e-01 6.850815564393997192e-02 1.652620150707662106e-03
-9.866340458393096924e-02 1.208892390131950378e-01 -6.732043344527482986e-03
4.523999094963073730e-01 6.326667964458465576e-02 2.472664788365364075e-02
-8.785866200923919678e-02 1.091495677828788757e-01 2.141663990914821625e-02
4.738656878471374512e-01 9.023571014404296875e-02 -4.108626767992973328e-02
-1.461090594530105591e-01 1.291231662034988403e-01 -2.957012318074703217e-02
6.769011020660400391e-01 3.419319167733192444e-02 -5.326041206717491150e-02
1.136858016252517700e-01 3.134394064545631409e-02 4.371833801269531250e-02
-7.951934635639190674e-02 1.105395182967185974e-01 -6.441952288150787354e-02
2.843263745307922363e-01 1.118509396910667419e-01 -7.918290793895721436e-02
6.405882239341735840e-01 6.436101347208023071e-02 -1.739206165075302124e-02
6.839434504508972168e-01 1.620932295918464661e-02 4.223502799868583679e-02
7.220634818077087402e-01 6.292614340782165527e-02 -3.778283298015594482e-02
-8.894158899784088135e-02 1.164599657058715820e-01 4.095545969903469086e-03
2.204649895429611206e-01 2.811468765139579773e-02 2.687666565179824829e-02
3.208845853805541992e-01 1.992097496986389160e-02 8.261208981275558472e-02
5.257230401039123535e-01 9.206369519233703613e-02 -6.986467540264129639e-02
2.389782667160034180e-02 9.914901852607727051e-02 -6.858336180448532104e-02
-1.165660768747329712e-01 1.262171119451522827e-01 -6.207711994647979736e-02
5.005488395690917969e-01 2.628830075263977051e-02 -1.849360391497612000e-02
5.240348577499389648e-01 8.834213018417358398e-03 3.010226041078567505e-02
4.321350455284118652e-01 8.448428660631179810e-02 -9.473812580108642578e-02
2.199440449476242065e-01 1.004883050918579102e-01 -9.094016626477241516e-03
-2.396454066038131714e-01 9.600655734539031982e-02 6.132450327277183533e-02
4.524218440055847168e-01 8.705647289752960205e-02 -2.590741589665412903e-02
6.736576557159423828e-03 5.400122702121734619e-02 9.174934029579162598e-02
1.124065816402435303e-01 1.081248447299003601e-01 -8.439525216817855835e-02
3.708065748214721680e-01 1.044631898403167725e-01 -6.307854503393173218e-02
-3.231272697448730469e-01 9.383852034807205200e-02 5.502220010384917259e-04
7.038088440895080566e-01 3.586626052856445312e-02 1.935522444546222687e-02
-2.876473069190979004e-01 1.098272204399108887e-01 4.110316187143325806e-02
4.725691080093383789e-01 7.397631555795669556e-02 -8.941286057233810425e-02
5.709803104400634766e-01 1.774875074625015259e-02 -7.414238527417182922e-03
2.483084350824356079e-01 3.585356846451759338e-02 1.529548899270594120e-04
-4.924014210700988770e-03 3.679082170128822327e-02 6.296185404062271118e-02
6.997950077056884766e-01 2.949034795165061951e-02 -4.669237881898880005e-02
2.695450782775878906e-01 5.998516082763671875e-02 5.854672193527221680e-02
6.160098314285278320e-01 1.365033537149429321e-02 5.367480218410491943e-02
3.495067358016967773e-01 8.053342998027801514e-02 1.116079278290271759e-02
5.719338059425354004e-01 8.252768218517303467e-02 -4.689646139740943909e-02
5.736432671546936035e-01 5.874617025256156921e-02 -8.053924143314361572e-02
7.498190402984619141e-01 6.693723797798156738e-02 -7.149902731180191040e-02
5.460839271545410156e-01 8.198789507150650024e-02 -9.590288251638412476e-02
2.418520301580429077e-01 2.751113846898078918e-02 2.386916987597942352e-02
-3.120387792587280273e-01 8.503136038780212402e-02 1.429438870400190353e-02
5.817541480064392090e-02 1.147596836090087891e-01 -1.624660007655620575e-02
4.350397288799285889e-01 2.053879201412200928e-02 6.065943278372287750e-03
1.604165136814117432e-01 1.187603920698165894e-01 -7.761732488870620728e-02
4.823136925697326660e-01 4.511912539601325989e-02 4.716189578175544739e-02
4.050757586956024170e-01 5.375857278704643250e-02 4.753750190138816833e-02
1.772214174270629883e-01 4.235872626304626465e-02 8.758254349231719971e-02
1.447186470031738281e-01 1.201025173068046570e-01 -7.271058857440948486e-02
2.072140723466873169e-01 1.158898174762725830e-01 -6.013985350728034973e-02
7.104131579399108887e-02 4.836369305849075317e-02 9.151731431484222412e-02
1.247149258852005005e-01 1.201800107955932617e-01 -7.741355150938034058e-02
-4.581005573272705078e-01 1.110325306653976440e-01 1.480310503393411636e-02
-8.412827551364898682e-02 6.558218598365783691e-02 8.787734061479568481e-02
1.595595180988311768e-01 5.107302963733673096e-02 8.199430257081985474e-02
6.210738420486450195e-01 8.433908224105834961e-03 1.473379321396350861e-02
5.851275324821472168e-01 2.152328938245773315e-02 -1.863672025501728058e-02
-2.616195678710937500e-01 1.190489977598190308e-01 1.887252740561962128e-02
2.822400629520416260e-02 9.988376498222351074e-02 2.491759881377220154e-02
-9.229779243469238281e-03 8.085681498050689697e-02 6.300313025712966919e-02
1.662939786911010742e-02 4.196642711758613586e-02 9.562380611896514893e-02
-3.104247450828552246e-01 1.124221980571746826e-01 3.756606578826904297e-02
-3.047822415828704834e-02 4.170008003711700439e-02 9.390757977962493896e-02
5.669952630996704102e-01 6.469176709651947021e-02 -6.499690935015678406e-04
-4.042126536369323730e-01 1.119402274489402771e-01 -4.659623373299837112e-03
3.699861466884613037e-02 3.272284939885139465e-02 6.689178943634033203e-02
-2.510495185852050781e-01 1.120742261409759521e-01 -3.865015134215354919e-02
-1.490961462259292603e-01 1.003841981291770935e-01 4.613041877746582031e-02
4.262762963771820068e-01 6.071858108043670654e-02 -7.040516287088394165e-02
8.458545804023742676e-01 1.386359706521034241e-02 -1.729201339185237885e-02
4.342405796051025391e-01 1.824618875980377197e-02 7.458459585905075073e-02
-3.488724231719970703e-01 7.362085580825805664e-02 7.189679890871047974e-02
4.704607129096984863e-01 2.284845709800720215e-02 -5.856636445969343185e-03
1.278785914182662964e-01 9.942272305488586426e-02 -8.101464807987213135e-02
1.665913462638854980e-01 8.233214169740676880e-02 -6.846677511930465698e-02
1.354257762432098389e-01 4.331927746534347534e-02 4.091794136911630630e-03
2.080444097518920898e-01 1.109672486782073975e-01 -3.741698339581489563e-02
3.641489148139953613e-01 9.236834943294525146e-02 -1.893119513988494873e-02
-4.455446004867553711e-01 1.012258529663085938e-01 5.525647103786468506e-02
3.923112452030181885e-01 1.626044884324073792e-02 2.783951908349990845e-02
1.480955779552459717e-01 7.662602514028549194e-02 -5.863175541162490845e-02
7.314485311508178711e-02 3.247956931591033936e-02 5.221252888441085815e-02
8.481855988502502441e-01 1.508861035108566284e-02 4.974537063390016556e-03
4.689124226570129395e-01 8.070399612188339233e-02 -1.377272792160511017e-02
1.809925734996795654e-01 1.165992915630340576e-01 -8.259378373622894287e-02
-4.248456656932830811e-02 1.281148046255111694e-01 -5.620186775922775269e-02
2.065647244453430176e-01 6.342119723558425903e-02 6.216053664684295654e-02
9.840551018714904785e-02 4.875141382217407227e-02 -1.087659387849271297e-03
-4.450479745864868164e-01 1.185843795537948608e-01 2.464938163757324219e-02
1.209637746214866638e-01 2.596672251820564270e-02 7.896626740694046021e-02
-1.297923773527145386e-01 9.005775302648544312e-02 6.138569861650466919e-02
-3.188698887825012207e-01 1.303609609603881836e-01 -2.298814430832862854e-02
6.514496207237243652e-01 1.361178234219551086e-02 -6.344403605908155441e-03
5.945732593536376953e-01 4.107472300529479980e-02 3.347419574856758118e-02
5.621775388717651367e-01 8.182937651872634888e-02 -9.540059417486190796e-02
1.925600171089172363e-01 8.053853362798690796e-02 3.738969191908836365e-02
5.307325124740600586e-01 6.492149829864501953e-02 -8.447813987731933594e-02
7.038624882698059082e-01 5.814336240291595459e-03 1.747899502515792847e-02
6.186935305595397949e-01 3.794530779123306274e-02 3.324403241276741028e-02
8.198149502277374268e-02 7.503117620944976807e-02 -4.671785607933998108e-02
1.419747173786163330e-01 4.072946310043334961e-02 9.118132293224334717e-02
6.114876866340637207e-01 7.401067018508911133e-02 -9.351302683353424072e-02
3.432991802692413330e-01 8.840239048004150391e-02 -9.196910262107849121e-02
-2.845697104930877686e-02 1.013503223657608032e-01 2.986734546720981598e-02
3.648337423801422119e-01 2.284259349107742310e-02 1.229153480380773544e-02
-1.928419619798660278e-01 1.040239781141281128e-01 -4.083145037293434143e-02
-4.655195772647857666e-02 9.230003505945205688e-02 4.896599426865577698e-02
5.249376296997070312e-01 3.532353043556213379e-02 -4.033280164003372192e-02
5.100177526473999023e-01 5.899478122591972351e-02 2.146898210048675537e-02
4.757056832313537598e-01 1.354656368494033813e-02 2.050145529210567474e-02
5.098461508750915527e-01 6.631416827440261841e-02 8.200250566005706787e-03
-7.947532832622528076e-02 1.203300058841705322e-01 -8.151831105351448059e-03
4.739254713058471680e-01 7.071441411972045898e-02 6.834957748651504517e-03
1.502147614955902100e-01 8.874122053384780884e-02 2.875946089625358582e-02
-9.630598127841949463e-02 1.150379031896591187e-01 -6.486634910106658936e-02
-1.073006242513656616e-01 9.116022288799285889e-02 5.747603625059127808e-02
7.701827287673950195e-01 1.533084362745285034e-02 -2.128463238477706909e-02
4.220720827579498291e-01 1.883252337574958801e-02 1.335203275084495544e-02
-1.164698451757431030e-01 9.885195642709732056e-02 4.539635777473449707e-02
2.689009308815002441e-01 7.187890261411666870e-02 -6.778555363416671753e-02
-4.052990674972534180e-01 1.089209988713264465e-01 4.723087698221206665e-02
6.891663670539855957e-01 4.690069705247879028e-02 5.456676241010427475e-03
2.907101511955261230e-01 5.716713517904281616e-02 5.948240309953689575e-02
7.820985317230224609e-01 6.201285868883132935e-02 -7.028023153543472290e-02
-7.380513846874237061e-02 8.408433198928833008e-02 6.494905799627304077e-02
3.230160474777221680e-02 6.593246012926101685e-02 -2.338495291769504547e-02
-1.185909062623977661e-01 1.228208839893341064e-01 -9.511007927358150482e-03
5.748354792594909668e-01 4.588536173105239868e-02 3.027963452041149139e-02
-2.987186908721923828e-01 6.965930014848709106e-02 8.394447714090347290e-02
-5.498372018337249756e-02 9.134268760681152344e-02 -4.833665862679481506e-02
-3.634903430938720703e-01 7.712527364492416382e-02 7.439566403627395630e-02
-4.017223417758941650e-02 1.112307980656623840e-01 9.876966476440429688e-03
4.365186095237731934e-01 9.416799992322921753e-02 -4.290369898080825806e-02
2.086363732814788818e-01 9.029774367809295654e-02 -8.179455250501632690e-02
7.102647423744201660e-01 1.703093200922012329e-02 -2.130226232111454010e-02
6.816924214363098145e-01 2.678048238158226013e-02 -4.009839147329330444e-02
-1.050414592027664185e-01 1.291210204362869263e-01 -3.895911946892738342e-02
7.657991647720336914e-01 6.156628578901290894e-02 -5.132336169481277466e-02
2.556922733783721924e-01 1.942506805062294006e-02 5.102708563208580017e-02
-5.893768370151519775e-02 4.109310731291770935e-02 6.565566360950469971e-02
5.536805987358093262e-01 6.248276680707931519e-03 5.044947564601898193e-02
4.132425189018249512e-01 7.221146672964096069e-02 -8.319466561079025269e-02
4.049941599369049072e-01 4.180558025836944580e-02 -3.733026981353759766e-02
3.299152255058288574e-01 2.371620014309883118e-02 1.658037863671779633e-02
7.298662066459655762e-01 5.406088382005691528e-02 -8.137134462594985962e-02
4.515601694583892822e-01 9.732591360807418823e-02 -6.096899136900901794e-02
4.081632494926452637e-01 1.337660104036331177e-02 3.575697168707847595e-02
5.631188750267028809e-01 7.178554683923721313e-02 -1.504171639680862427e-02
6.696973443031311035e-01 6.512118130922317505e-02 -2.711589075624942780e-02
3.379307985305786133e-01 1.041839420795440674e-01 -4.914316907525062561e-02
-3.041361570358276367e-01 7.174713909626007080e-02 4.541176557540893555e-02
4.604211449623107910e-01 1.227812096476554871e-02 2.840234152972698212e-02
-2.293806523084640503e-01 6.489230692386627197e-02 3.928217291831970215e-02
-3.145547211170196533e-02 6.030122190713882446e-02 8.924952149391174316e-02
6.212325692176818848e-01 7.589709758758544922e-02 -4.199563711881637573e-02
2.650232315063476562e-01 1.028612703084945679e-01 -2.518592961132526398e-02
2.038039714097976685e-01 3.433191403746604919e-02 1.269863080233335495e-02
5.475035905838012695e-01 2.227910608053207397e-02 6.013794988393783569e-02
6.694375276565551758e-01 1.237348094582557678e-02 -4.777156747877597809e-03
8.619154095649719238e-01 3.690815716981887817e-02 -2.493922412395477295e-02
-1.297429651021957397e-01 1.198874115943908691e-01 8.471575565636157990e-04
-1.032315045595169067e-01 7.058153301477432251e-02 -6.042986176908016205e-03
1.869844496250152588e-01 1.031404659152030945e-01 -8.856452256441116333e-02
2.728720903396606445e-01 1.658274605870246887e-02 6.819111853837966919e-02
1.733459532260894775e-01 5.417628958821296692e-02 -2.578281424939632416e-02
-1.969991624355316162e-02 1.183769255876541138e-01 -1.253519300371408463e-02
3.885257840156555176e-01 7.801306992769241333e-02 -8.697690814733505249e-02
6.564488410949707031e-01 6.966618448495864868e-02 -3.506970405578613281e-02
4.097405076026916504e-01 1.009669080376625061e-01 -6.128836423158645630e-02
-3.584104776382446289e-01 1.159872412681579590e-01 3.272822499275207520e-02
-2.724500298500061035e-01 7.145199924707412720e-02 8.704430609941482544e-02
1.112521141767501831e-01 4.041044414043426514e-02 1.643802784383296967e-02
1.308146417140960693e-01 2.923710644245147705e-02 4.674471914768218994e-02
-4.292268157005310059e-01 1.207626760005950928e-01 2.039085887372493744e-02
3.263451457023620605e-01 8.636818081140518188e-02 3.247819375246763229e-03
4.268502593040466309e-01 1.008633598685264587e-01 -8.662626892328262329e-02
4.338707923889160156e-01 7.547538727521896362e-02 5.235601682215929031e-03
-2.212531119585037231e-01 6.883192062377929688e-02 2.605403028428554535e-02
-1.994365304708480835e-01 5.910553038120269775e-02 4.731183126568794250e-02
3.884424269199371338e-02 9.220641851425170898e-02 3.835644200444221497e-02
6.234853863716125488e-01 5.243402719497680664e-02 -7.620284706354141235e-02
5.376545190811157227e-01 8.925542235374450684e-02 -6.014287099242210388e-02
4.186998605728149414e-01 7.044952362775802612e-02 1.797921024262905121e-02
7.964982390403747559e-01 2.952166646718978882e-02 6.794368848204612732e-03
1.849887818098068237e-01 3.084026277065277100e-02 2.673155069351196289e-02
-1.841347068548202515e-01 6.498034298419952393e-02 2.542874217033386230e-02
3.286157250404357910e-01 1.000829711556434631e-01 -9.521825611591339111e-02
3.588706254959106445e-01 2.865662425756454468e-02 -2.087262226268649101e-03
-3.080652952194213867e-01 1.191819906234741211e-01 2.248111926019191742e-02
6.580954790115356445e-01 3.810321539640426636e-02 -5.828585475683212280e-02
-2.232119590044021606e-01 6.012935936450958252e-02 5.306236073374748230e-02
-2.213572412729263306e-01 1.265394836664199829e-01 -4.913663491606712341e-02
2.770471572875976562e-02 1.159326434135437012e-01 -1.391680166125297546e-02
3.397845625877380371e-01 5.911023914813995361e-02 -5.824733525514602661e-02
-2.805873155593872070e-01 1.278165429830551147e-01 -5.298031959682703018e-03
-1.528238505125045776e-01 9.123596549034118652e-02 -3.144935891032218933e-02
7.238238453865051270e-01 3.479720652103424072e-02 1.655885577201843262e-02
-3.270566463470458984e-01 7.184568047523498535e-02 5.629768967628479004e-02
-2.306101173162460327e-01 1.313576251268386841e-01 -3.636671602725982666e-02
-3.730942010879516602e-01 8.638826012611389160e-02 3.022912889719009399e-02
2.999209761619567871e-01 1.098236739635467529e-01 -8.597895503044128418e-02
-1.626341491937637329e-01 1.175864934921264648e-01 1.139358244836330414e-02
1.977417021989822388e-01 6.632948666810989380e-02 -5.046393349766731262e-02
-1.467100232839584351e-01 1.127936467528343201e-01 2.083772979676723480e-02
-1.676048785448074341e-01 8.303913474082946777e-02 -1.565313711762428284e-02
8.715096116065979004e-01 1.478418707847595215e-02 -6.222052033990621567e-03
3.104233145713806152e-01 5.440091714262962341e-02 6.043447181582450867e-02
1.076605394482612610e-01 6.507204473018646240e-02 -3.469929844141006470e-02
-8.531616628170013428e-02 4.420882463455200195e-02 9.022653102874755859e-02
2.280567586421966553e-02 4.607445746660232544e-02 2.175764553248882294e-02
7.527543306350708008e-01 1.212885603308677673e-02 -1.140407286584377289e-02
-6.109394133090972900e-02 8.900486677885055542e-02 5.608260259032249451e-02
5.002973079681396484e-01 1.268625259399414062e-02 6.706790626049041748e-02
2.469611167907714844e-01 9.201915562152862549e-02 5.769980140030384064e-03
4.515141844749450684e-01 5.759314447641372681e-02 -6.867746263742446899e-02
4.517323374748229980e-01 9.644009172916412354e-02 -9.338185191154479980e-02
3.228753805160522461e-01 1.091475933790206909e-01 -8.137470483779907227e-02
3.343643844127655029e-01 3.355223685503005981e-02 -9.597656317055225372e-03
2.251390963792800903e-01 1.925536990165710449e-02 6.933560222387313843e-02
4.237493276596069336e-01 1.448287442326545715e-02 2.762586623430252075e-02
4.940182566642761230e-01 1.089101284742355347e-02 2.707487158477306366e-02
5.957237482070922852e-01 7.517884671688079834e-02 -3.206371143460273743e-02
1.527477800846099854e-01 4.476287215948104858e-02 -2.641605678945779800e-03
5.168228745460510254e-01 8.060214668512344360e-02 -2.511754259467124939e-02
5.433262884616851807e-02 4.590356349945068359e-02 9.382389485836029053e-02
7.707468271255493164e-01 5.115742981433868408e-02 -7.824026793241500854e-02
2.835532128810882568e-01 1.831986010074615479e-02 8.090318739414215088e-02
7.255473136901855469e-01 1.588772982358932495e-02 -1.972133480012416840e-02
5.697865486145019531e-01 8.649675548076629639e-02 -6.204217672348022461e-02
3.699370920658111572e-01 1.059187874197959900e-01 -7.807923108339309692e-02
4.063637852668762207e-01 1.350063085556030273e-02 7.356289774179458618e-02
9.717889130115509033e-02 7.184648513793945312e-02 -4.415588453412055969e-02
-1.346551030874252319e-01 6.421657651662826538e-02 9.121850878000259399e-02
1.677347570657730103e-01 1.003489419817924500e-01 -8.553947508335113525e-02
8.521526455879211426e-01 2.973788604140281677e-02 -9.190696291625499725e-03
2.811028957366943359e-01 3.019429370760917664e-02 8.173293434083461761e-03
-2.671833038330078125e-01 1.016574874520301819e-01 -2.386309951543807983e-02
3.303213417530059814e-01 1.000899523496627808e-01 -3.268646448850631714e-02
-1.348089128732681274e-01 9.073086827993392944e-02 -3.399493172764778137e-02
8.221888542175292969e-01 2.381360903382301331e-02 -4.186535626649856567e-02
-3.574266433715820312e-01 1.019255220890045166e-01 -3.856537397950887680e-03
5.514262914657592773e-01 3.886603564023971558e-02 -4.974586516618728638e-02
6.372402310371398926e-01 3.660951927304267883e-02 -5.413702130317687988e-02
5.136482119560241699e-01 4.120516777038574219e-02 -4.969849810004234314e-02
-3.779570460319519043e-01 1.137854754924774170e-01 3.797079622745513916e-02
-4.250277280807495117e-01 1.046467125415802002e-01 5.324237793684005737e-02
-2.929098010063171387e-01 1.309681981801986694e-01 -2.501127682626247406e-02
-2.694728970527648926e-01 1.030374467372894287e-01 5.209742113947868347e-02
4.335679411888122559e-01 8.979637920856475830e-02 -2.868643030524253845e-02
2.819185853004455566e-01 8.641025424003601074e-02 1.145116705447435379e-02
1.805186122655868530e-01 1.140781939029693604e-01 -4.185716435313224792e-02
-2.322267442941665649e-01 5.778775364160537720e-02 7.270371168851852417e-02
5.864151716232299805e-01 5.804671719670295715e-02 7.981032133102416992e-03
2.080983370542526245e-01 2.600668370723724365e-02 3.697716072201728821e-02
1.642419695854187012e-01 2.333888411521911621e-02 7.982139289379119873e-02
1.868579238653182983e-01 6.024048477411270142e-02 -3.889725729823112488e-02
2.530355751514434814e-01 8.209693431854248047e-02 -7.828193157911300659e-02
3.186881840229034424e-01 9.535240381956100464e-02 -1.655257306993007660e-02
3.164254128932952881e-01 1.535411551594734192e-02 5.308493971824645996e-02
5.430394411087036133e-01 2.420764788985252380e-02 -1.948930509388446808e-02
6.830393671989440918e-01 1.927249878644943237e-02 -2.418621629476547241e-02
-7.110185921192169189e-02 4.508750885725021362e-02 5.174939706921577454e-02
-2.643955349922180176e-01 7.358693331480026245e-02 2.667204476892948151e-02
-1.613508015871047974e-01 1.268727779388427734e-01 -1.676797680556774139e-02
2.007507085800170898e-01 1.008657440543174744e-01 -6.269314792007207870e-03
6.434391736984252930e-01 2.919153869152069092e-02 -4.133012145757675171e-02
4.367670416831970215e-01 5.829964950680732727e-02 3.563936427235603333e-02
7.645425796508789062e-01 2.908139303326606750e-02 1.499321963638067245e-02
6.410637497901916504e-01 6.598944962024688721e-02 -8.985272049903869629e-02
4.935517311096191406e-01 7.479853928089141846e-02 -9.133196622133255005e-02
2.137216329574584961e-01 2.425187826156616211e-02 8.766023814678192139e-02
-2.066784948110580444e-01 5.627133324742317200e-02 8.672797679901123047e-02
1.531207561492919922e-02 1.254500448703765869e-01 -4.986030608415603638e-02
-1.759089082479476929e-01 1.010439321398735046e-01 4.765252768993377686e-02
-1.955120116472244263e-01 1.251490712165832520e-01 -5.340105295181274414e-02
-4.867658019065856934e-03 1.184550821781158447e-01 -7.571576535701751709e-02
3.828275799751281738e-01 8.341298252344131470e-02 -1.433050492778420448e-03
4.005162417888641357e-02 5.999473109841346741e-02 8.420219272375106812e-02
5.945851206779479980e-01 6.896842271089553833e-03 2.607776783406734467e-02
8.355761766433715820e-01 2.525483071804046631e-02 1.646866672672331333e-03
5.754451751708984375e-01 4.011032730340957642e-02 -5.432844161987304688e-02
8.701926469802856445e-01 2.130897715687751770e-02 -3.508797660470008850e-02
5.171603560447692871e-01 2.043762430548667908e-02 6.509748846292495728e-02
5.813306570053100586e-01 3.039000183343887329e-02 -3.726104274392127991e-02
2.121887356042861938e-01 4.935537278652191162e-02 7.826911658048629761e-02
1.508606672286987305e-01 1.183314099907875061e-01 -5.267160385847091675e-02
-2.915790081024169922e-01 9.281478077173233032e-02 -5.331482272595167160e-03
-1.246298849582672119e-02 5.966549366712570190e-02 8.854434639215469360e-02
-2.053660899400711060e-01 1.148779988288879395e-01 2.294965460896492004e-02
4.128800332546234131e-01 1.043613627552986145e-02 5.251439288258552551e-02
5.351936221122741699e-01 8.240193128585815430e-03 5.900402739644050598e-02
7.156839370727539062e-01 2.559980750083923340e-02 2.928979136049747467e-02
1.950988173484802246e-02 1.256481409072875977e-01 -6.569221615791320801e-02
5.768084526062011719e-01 3.521591797471046448e-02 4.395914077758789062e-02
4.645360112190246582e-01 8.574888110160827637e-03 4.877091199159622192e-02
1.899167299270629883e-01 1.069932505488395691e-01 -2.046358026564121246e-02
7.474888563156127930e-01 6.241130828857421875e-02 -4.586677998304367065e-02
4.950812458992004395e-01 5.552187561988830566e-02 2.993845380842685699e-02
1.513804942369461060e-01 1.086493730545043945e-01 -8.749981224536895752e-02
-1.725172847509384155e-01 7.084671407938003540e-02 8.805891498923301697e-03
2.462590932846069336e-01 5.353892967104911804e-02 -3.614266589283943176e-02
-3.536112904548645020e-01 1.231178864836692810e-01 -2.479683980345726013e-02
-2.762724161148071289e-01 6.315105408430099487e-02 7.237534224987030029e-02
-1.842211633920669556e-01 1.233917772769927979e-01 -1.710285781882703304e-03
7.330985665321350098e-01 6.237596273422241211e-03 2.846919372677803040e-02
5.806214809417724609e-01 5.586348474025726318e-03 4.512523114681243896e-02
1.668998599052429199e-01 9.001936018466949463e-02 2.365610189735889435e-02
5.589352846145629883e-01 7.856079936027526855e-02 -3.090658597648143768e-02
8.900277614593505859e-01 2.218141034245491028e-02 -3.373825177550315857e-02
3.008658289909362793e-01 5.180896073579788208e-02 -4.106650128960609436e-02
7.152403593063354492e-01 2.638803794980049133e-02 -4.199806600809097290e-02
-2.618998885154724121e-01 6.193608045578002930e-02 6.605490297079086304e-02
6.342404484748840332e-01 6.287202239036560059e-03 2.281308546662330627e-02
-1.955684572458267212e-01 7.268766313791275024e-02 1.038501877337694168e-02
1.007306054234504700e-01 1.098007410764694214e-01 -1.031367201358079910e-02
3.569003343582153320e-01 9.404180198907852173e-02 -9.546440839767456055e-02
-1.740952283143997192e-01 1.296857297420501709e-01 -5.102208629250526428e-02
3.545234203338623047e-01 1.753856986761093140e-02 3.166525438427925110e-02
1.052126288414001465e-02 9.695018082857131958e-02 3.326113149523735046e-02
-4.621297121047973633e-03 9.359895437955856323e-02 4.153843224048614502e-02
4.692152738571166992e-01 9.650576859712600708e-03 6.469501554965972900e-02
-1.858516484498977661e-01 9.393470734357833862e-02 6.038157269358634949e-02
6.024769544601440430e-01 8.462744206190109253e-02 -8.480397611856460571e-02
3.120809793472290039e-01 8.173546195030212402e-02 -8.386258780956268311e-02
1.751472949981689453e-01 1.104994043707847595e-01 -2.782462909817695618e-02
-2.444736808538436890e-01 8.936882764101028442e-02 -1.019679289311170578e-02
4.939967393875122070e-01 9.115220606327056885e-02 -5.078696087002754211e-02
-2.275231033563613892e-01 9.823770821094512939e-02 -2.718305774033069611e-02
5.263016223907470703e-01 3.567204996943473816e-02 5.161083117127418518e-02
4.368677735328674316e-01 3.677265718579292297e-02 6.352204829454421997e-02
5.462005734443664551e-01 8.043687790632247925e-03 2.943100780248641968e-02
6.202625632286071777e-01 6.297126412391662598e-02 -9.299109689891338348e-03
2.381710708141326904e-02 7.334622740745544434e-02 7.005439698696136475e-02
3.251237273216247559e-01 4.957960546016693115e-02 6.446081399917602539e-02
6.554881334304809570e-01 4.847546294331550598e-02 -7.312033325433731079e-02
-1.765737682580947876e-01 1.012136787176132202e-01 -4.041932523250579834e-02
2.102272808551788330e-01 7.919458299875259399e-02 3.708704933524131775e-02
1.766163259744644165e-01 6.106901913881301880e-02 6.895736604928970337e-02
2.788988053798675537e-01 4.817352816462516785e-02 -3.118454664945602417e-02
8.129285573959350586e-01 4.058769345283508301e-02 -1.520620100200176239e-02
4.294296801090240479e-01 3.209812194108963013e-02 -2.122078463435173035e-02
1.606306284666061401e-01 1.067495048046112061e-01 -1.369760278612375259e-02
5.837304890155792236e-02 6.291958689689636230e-02 7.944273203611373901e-02
2.344166487455368042e-01 1.097246706485748291e-01 -3.989548236131668091e-02
-4.312259554862976074e-01 1.127589866518974304e-01 3.942522406578063965e-02
-2.517042160034179688e-01 7.699033617973327637e-02 1.522662397474050522e-02
-5.066816508769989014e-02 7.483798265457153320e-02 7.534083724021911621e-02
8.308523297309875488e-01 1.020582020282745361e-02 -3.140081185847520828e-03
8.462946116924285889e-02 7.304114103317260742e-02 6.372305750846862793e-02
6.675896644592285156e-01 2.815694734454154968e-02 3.585090115666389465e-02
8.069979548454284668e-01 2.096389234066009521e-02 -3.587422519922256470e-02
8.055466413497924805e-02 3.808686882257461548e-02 3.019660525023937225e-02
-3.288205862045288086e-01 1.074503585696220398e-01 -1.808468438684940338e-02
-7.685126364231109619e-02 6.264169514179229736e-02 4.710529930889606476e-03
3.865570127964019775e-01 4.712751507759094238e-02 -4.455021023750305176e-02
-4.240279793739318848e-01 1.241797208786010742e-01 -1.033815438859164715e-03
5.682685971260070801e-02 1.228571683168411255e-01 -7.430230081081390381e-02
1.552216857671737671e-01 7.911869883537292480e-02 4.523666575551033020e-02
-3.306418657302856445e-01 7.880055159330368042e-02 3.458040580153465271e-02
4.332377016544342041e-02 7.794809341430664062e-02 -4.510873556137084961e-02
5.478738546371459961e-01 1.416576281189918518e-02 6.065336056053638458e-03
5.486615896224975586e-01 5.263010412454605103e-02 2.477714046835899353e-02
6.166501641273498535e-01 5.184940248727798462e-02 1.267166621983051300e-02
5.902540683746337891e-01 8.367431908845901489e-02 -5.846560746431350708e-02
-2.153059393167495728e-01 1.241724789142608643e-01 -1.081100781448185444e-04
-1.032456308603286743e-01 1.126163899898529053e-01 1.560781802982091904e-02
6.493596434593200684e-01 5.585864186286926270e-03 2.500079013407230377e-02
6.767364144325256348e-01 5.834464728832244873e-02 -8.464955538511276245e-02
6.409499645233154297e-01 3.500505536794662476e-02 3.288842365145683289e-02
6.600877642631530762e-01 4.387852922081947327e-02 1.669410429894924164e-02
-8.026511967182159424e-02 4.211033880710601807e-02 7.344317436218261719e-02
4.011469185352325439e-01 6.336411088705062866e-02 -7.135952264070510864e-02
4.709656834602355957e-01 6.293130666017532349e-02 -7.755590230226516724e-02
6.668330430984497070e-01 2.095625922083854675e-02 -2.647588029503822327e-02
2.270576655864715576e-01 3.732318431138992310e-02 5.955843953415751457e-04
1.055721715092658997e-01 1.221281737089157104e-01 -6.292827427387237549e-02
2.879188954830169678e-01 6.672930717468261719e-02 4.603735357522964478e-02
3.176163733005523682e-01 6.214974820613861084e-02 -6.007616221904754639e-02
5.632404685020446777e-01 1.279041171073913574e-02 6.053544208407402039e-02
6.396828591823577881e-02 4.225420579314231873e-02 2.229438163340091705e-02
9.022718667984008789e-02 6.331533938646316528e-02 -2.872753329575061798e-02
6.446109712123870850e-02 8.984304964542388916e-02 3.917939588427543640e-02
6.761966347694396973e-01 7.134813070297241211e-02 -4.689924046397209167e-02
4.118032157421112061e-01 3.255665674805641174e-02 -1.961262151598930359e-02
-3.865727782249450684e-01 1.011630147695541382e-01 5.111692473292350769e-03
2.249398529529571533e-01 6.665114313364028931e-02 -5.474363267421722412e-02
9.901010245084762573e-02 3.395201638340950012e-02 3.856935352087020874e-02
8.840902149677276611e-02 1.170274317264556885e-01 -8.248919248580932617e-02
1.324478387832641602e-01 6.887714564800262451e-02 -4.487515240907669067e-02
4.763552546501159668e-01 3.105767816305160522e-02 -2.561975829303264618e-02
5.226553976535797119e-02 3.093857690691947937e-02 8.099026978015899658e-02
-2.452766448259353638e-01 9.781232476234436035e-02 -2.306091599166393280e-02
-3.250209689140319824e-01 9.083723276853561401e-02 7.199825346469879150e-02
5.774734616279602051e-01 8.706989884376525879e-02 -8.631065487861633301e-02
-3.963135182857513428e-02 6.165965273976325989e-02 -1.166428672149777412e-03
4.307492077350616455e-02 4.960946366190910339e-02 8.300223387777805328e-03
-2.475525885820388794e-01 6.422098726034164429e-02 4.804122820496559143e-02
-1.824689656496047974e-01 5.578960478305816650e-02 9.100607037544250488e-02
8.087791204452514648e-01 3.992661088705062866e-02 -6.653614342212677002e-02
1.919955015182495117e-03 9.415738284587860107e-02 -6.035424396395683289e-02
1.680429279804229736e-02 3.427482768893241882e-02 6.762482225894927979e-02
4.354615211486816406e-01 9.828672558069229126e-02 -5.878526344895362854e-02
6.892734766006469727e-01 6.592702120542526245e-03 1.424459088593721390e-02
8.399124145507812500e-01 5.161524564027786255e-02 -6.044993177056312561e-02
-2.526060938835144043e-01 1.090150922536849976e-01 3.990375623106956482e-02
3.530578017234802246e-01 9.977068006992340088e-02 -3.766171261668205261e-02
3.789531290531158447e-01 1.156992465257644653e-02 6.366356462240219116e-02
-2.659026980400085449e-01 1.215372383594512939e-01 -4.207620769739151001e-02
1.488623023033142090e-01 8.763483166694641113e-02 -7.240489870309829712e-02
6.980623602867126465e-01 6.813161075115203857e-02 -4.469817876815795898e-02
-6.294740736484527588e-02 5.064525082707405090e-02 3.096021153032779694e-02
-2.274873107671737671e-01 5.997702479362487793e-02 8.808679133653640747e-02
-3.364465236663818359e-01 1.141888201236724854e-01 3.551072999835014343e-02
-3.780578970909118652e-01 1.047554910182952881e-01 5.405797436833381653e-02
-1.280231624841690063e-01 1.301101446151733398e-01 -5.094097182154655457e-02
5.177441239356994629e-01 7.293452322483062744e-02 -9.110902249813079834e-02
-4.060880541801452637e-01 1.023024916648864746e-01 9.012410417199134827e-03
-5.428837239742279053e-02 1.039013415575027466e-01 2.812911942601203918e-02
2.093873769044876099e-01 4.822816699743270874e-02 -2.016005292534828186e-02
6.587098240852355957e-01 7.688805460929870605e-03 1.270135119557380676e-02
6.378085613250732422e-01 8.099037408828735352e-02 -7.304770499467849731e-02
2.127035856246948242e-01 5.848620831966400146e-02 -3.980125114321708679e-02
4.984515905380249023e-01 3.387376293540000916e-02 5.770239979028701782e-02
8.309938311576843262e-01 3.478947654366493225e-02 -1.043635047972202301e-02
8.240044116973876953e-02 4.406407475471496582e-02 1.335918623954057693e-02
4.074149727821350098e-01 8.696956932544708252e-02 -1.500548701733350754e-02
-1.157825440168380737e-01 8.091975003480911255e-02 7.312281429767608643e-02
-2.000490576028823853e-01 9.172280132770538330e-02 -2.317708730697631836e-02
4.440272450447082520e-01 2.596522122621536255e-02 -9.443652816116809845e-03
-1.817010790109634399e-01 1.085155457258224487e-01 3.405334055423736572e-02
-1.989597231149673462e-01 5.444099754095077515e-02 6.872640550136566162e-02
5.334970355033874512e-01 7.668732106685638428e-02 -1.943936198949813843e-02
2.610437572002410889e-01 4.363855719566345215e-02 -1.938856393098831177e-02
4.928013086318969727e-01 4.529404640197753906e-02 -5.430596321821212769e-02
2.966894581913948059e-02 -2.805676311254501343e-03 1.065561175346374512e-01
2.390391826629638672e-01 -3.422582522034645081e-02 1.870358884334564209e-01
2.805442363023757935e-02 -8.087691664695739746e-02 1.395136564970016479e-01
1.278545260429382324e-01 -6.777405738830566406e-02 3.742512315511703491e-02
-3.454376757144927979e-02 -7.112607359886169434e-02 1.219229698181152344e-01
1.337947249412536621e-01 -7.602059841156005859e-02 1.701028794050216675e-01
7.249867171049118042e-02 -8.161955326795578003e-02 8.512257039546966553e-02
1.679686605930328369e-01 -1.263429597020149231e-02 7.643517851829528809e-02
2.351119369268417358e-02 9.466271847486495972e-03 1.597772240638732910e-01
1.783284246921539307e-01 -5.232556164264678955e-02 3.292039036750793457e-02
2.908915281295776367e-03 5.004130303859710693e-03 1.459374278783798218e-01
-1.153705194592475891e-01 -2.570744603872299194e-02 1.874659955501556396e-01
1.528107672929763794e-01 -7.919213920831680298e-02 7.378237694501876831e-02
-1.573141664266586304e-02 -4.591114073991775513e-02 2.624506950378417969e-01
1.963759064674377441e-01 -7.163432240486145020e-02 1.446924209594726562e-01
1.114418357610702515e-01 -1.112676039338111877e-02 7.271385937929153442e-02
1.973593831062316895e-01 -1.809813082218170166e-03 1.846086084842681885e-01
2.593395709991455078e-01 -2.929553389549255371e-02 1.122229844331741333e-01
6.879635155200958252e-03 1.129882410168647766e-02 2.293331176042556763e-01
-4.529785364866256714e-02 -2.999981492757797241e-02 2.738641202449798584e-01
2.086704969406127930e-01 -7.293552160263061523e-02 9.959268569946289062e-02
-1.058405712246894836e-01 -4.608327150344848633e-02 1.658942550420761108e-01
1.882959455251693726e-01 -3.156614303588867188e-02 2.325874567031860352e-01
6.554238498210906982e-03 8.539482951164245605e-03 2.484024167060852051e-01
1.102400943636894226e-01 1.153575256466865540e-02 1.753306686878204346e-01
5.282898992300033569e-02 -7.666399329900741577e-02 6.932953745126724243e-02
2.275262176990509033e-01 -9.796839207410812378e-03 1.598183214664459229e-01
-5.531348288059234619e-03 -7.717390358448028564e-02 1.457865238189697266e-01
9.303920716047286987e-02 -8.378513157367706299e-02 1.041024327278137207e-01
-3.096654266119003296e-02 -4.717172309756278992e-02 2.568736374378204346e-01
2.038212418556213379e-01 -5.900735035538673401e-03 1.211816817522048950e-01
1.009185388684272766e-01 -7.733846455812454224e-02 1.754216849803924561e-01
-1.855980604887008667e-02 9.764701128005981445e-03 2.154417634010314941e-01
-3.111588954925537109e-02 -6.418931484222412109e-02 9.062376618385314941e-02
4.811321198940277100e-02 -3.401882946491241455e-03 9.968521445989608765e-02
1.442265510559082031e-01 -5.455851927399635315e-02 2.285325378179550171e-01
1.607829332351684570e-01 -2.550841122865676880e-02 4.944979399442672729e-02
1.144293546676635742e-01 5.157381296157836914e-03 2.411462366580963135e-01
4.626671224832534790e-02 -8.190106600522994995e-02 1.414768546819686890e-01
1.631395071744918823e-01 -6.327544152736663818e-02 2.002882808446884155e-01
2.366863191127777100e-01 -1.332488656044006348e-02 1.405025720596313477e-01
2.466475069522857666e-01 -5.483372509479522705e-02 1.443640291690826416e-01
6.979687511920928955e-02 2.579923719167709351e-03 2.639969587326049805e-01
-2.537233382463455200e-02 8.437272161245346069e-03 1.955808401107788086e-01
-3.876477479934692383e-03 -3.957150503993034363e-02 6.183301657438278198e-02
-2.918094396591186523e-02 -6.255090236663818359e-03 2.751792371273040771e-01
1.826378405094146729e-01 2.396259456872940063e-03 1.754618883132934570e-01
-3.763738274574279785e-02 7.177881896495819092e-03 2.105739265680313110e-01
-9.257736057043075562e-02 -3.524121642112731934e-02 1.303732395172119141e-01
2.154221534729003906e-01 -2.440819516777992249e-02 6.972953677177429199e-02
1.356076896190643311e-01 -4.504369199275970459e-02 2.468065917491912842e-01
7.723420858383178711e-03 -6.960889697074890137e-02 7.343878597021102905e-02
4.949983209371566772e-02 -3.276786580681800842e-02 4.778667539358139038e-02
-4.253204911947250366e-02 -6.478363275527954102e-02 2.027487158775329590e-01
5.364766716957092285e-02 -7.995344698429107666e-02 1.635428071022033691e-01
-2.234334498643875122e-02 -7.471184432506561279e-02 1.435869485139846802e-01
-5.765336006879806519e-02 -4.023642092943191528e-02 2.586322128772735596e-01
1.776877939701080322e-01 -6.509105861186981201e-02 1.865507215261459351e-01
6.613905727863311768e-02 -8.345027267932891846e-02 1.219268441200256348e-01
1.322420835494995117e-01 -3.317637369036674500e-02 3.746063262224197388e-02
-5.510083585977554321e-02 -6.507241725921630859e-02 1.223188042640686035e-01
9.413152188062667847e-02 -8.165411651134490967e-02 7.957302778959274292e-02
9.702126681804656982e-02 3.549642860889434814e-04 2.604337930679321289e-01
1.065935492515563965e-01 1.217411831021308899e-02 1.902671754360198975e-01
8.881726115942001343e-02 -7.439159601926803589e-02 5.247133970260620117e-02
-1.108996048569679260e-01 -2.509734407067298889e-02 1.718464344739913940e-01
2.034238278865814209e-01 -5.351543426513671875e-02 1.968628913164138794e-01
1.710093468427658081e-01 -3.070620074868202209e-02 2.432713806629180908e-01
-2.388551086187362671e-02 -1.400051452219486237e-02 1.025232076644897461e-01
-7.438466697931289673e-02 -3.169941902160644531e-02 1.128568798303604126e-01
1.413344740867614746e-01 -6.908626109361648560e-02 1.938455551862716675e-01
2.131319940090179443e-01 -6.607708334922790527e-02 1.519758552312850952e-01
2.305237352848052979e-01 -2.569536119699478149e-02 1.970329880714416504e-01
-2.257689833641052246e-03 -6.511422246694564819e-02 2.205637395381927490e-01
1.610092446208000183e-02 -6.365309655666351318e-02 5.886633694171905518e-02
4.598626866936683655e-02 1.318390294909477234e-02 1.840546280145645142e-01
-5.778739601373672485e-02 -6.649328768253326416e-02 1.390646845102310181e-01
8.917421102523803711e-03 -4.754967242479324341e-02 5.395573377609252930e-02
-4.584546387195587158e-02 -5.713184177875518799e-02 9.178157150745391846e-02
-7.767990976572036743e-02 -6.061205267906188965e-02 1.738985776901245117e-01
9.786322712898254395e-03 -7.765375077724456787e-02 1.624355316162109375e-01
1.393795907497406006e-01 -7.910540699958801270e-02 1.497435569763183594e-01
8.827466517686843872e-02 7.888995110988616943e-03 1.377406716346740723e-01
4.373984038829803467e-02 -7.757794857025146484e-02 1.772894263267517090e-01
3.459683433175086975e-02 -7.975244522094726562e-02 9.462954103946685791e-02
3.482187911868095398e-02 1.141487434506416321e-02 2.371173352003097534e-01
-5.561674386262893677e-02 -6.322648376226425171e-03 1.443114727735519409e-01
-1.217767596244812012e-02 -3.718185052275657654e-02 2.746218144893646240e-01
-9.530543535947799683e-02 -2.122749760746955872e-02 2.479581832885742188e-01
9.750446677207946777e-02 -6.854616105556488037e-03 8.346512913703918457e-02
8.696742355823516846e-02 -7.061159610748291016e-02 2.054648846387863159e-01
3.304382041096687317e-02 -7.658594101667404175e-02 7.900440692901611328e-02
1.347449421882629395e-01 9.157087653875350952e-03 1.665595620870590210e-01
9.894296526908874512e-04 -4.700928926467895508e-02 2.630883455276489258e-01
