3.457770943641662598e-01 4.571170732378959656e-02 -8.862470835447311401e-02
-1.967354714870452881e-01 3.078801743686199188e-02 -4.680770635604858398e-02
2.978425025939941406e-01 -3.094363957643508911e-02 -2.242270298302173615e-02
3.596752285957336426e-01 -2.316530793905258179e-02 -4.195012897253036499e-02
-4.970484375953674316e-01 1.063773036003112793e-01 7.675842195749282837e-02
5.378077626228332520e-01 2.674838155508041382e-02 -8.407300710678100586e-02
4.355364739894866943e-01 -3.736077249050140381e-02 2.561296708881855011e-02
2.335800230503082275e-01 1.351899504661560059e-01 -3.247986733913421631e-02
3.771094083786010742e-01 1.245038881897926331e-01 -4.233436286449432373e-02
-3.432266712188720703e-01 1.125003248453140259e-01 8.591120690107345581e-02
-3.365190923213958740e-01 9.790772199630737305e-02 9.606056660413742065e-02
2.629535794258117676e-01 2.286913990974426270e-02 -7.973079383373260498e-02
2.909652888774871826e-01 -2.156624197959899902e-02 6.806537508964538574e-02
-1.026133298873901367e-01 -3.016617149114608765e-03 -2.513983659446239471e-02
-4.197711348533630371e-01 1.247020214796066284e-01 -1.183333061635494232e-02
-5.485609173774719238e-03 1.158134192228317261e-01 8.291776478290557861e-02
-3.660130500793457031e-01 1.333009600639343262e-01 -8.956601843237876892e-03
4.311484396457672119e-01 1.202532276511192322e-01 -4.401962459087371826e-02
-1.847589015960693359e-01 1.468632817268371582e-01 3.006951417773962021e-03
7.287561893463134766e-01 3.764365613460540771e-02 5.310992896556854248e-02
-1.192125678062438965e-01 1.477541327476501465e-01 2.211979776620864868e-02
3.182013034820556641e-01 5.259120091795921326e-02 9.720080345869064331e-02
-3.955274224281311035e-01 1.360739618539810181e-01 5.156626924872398376e-03
6.187705993652343750e-01 -1.395235210657119751e-02 5.263178050518035889e-02
1.021625101566314697e-02 9.896048903465270996e-02 -7.194726169109344482e-02
-5.027247071266174316e-01 1.155827939510345459e-01 6.634532660245895386e-02
2.839753329753875732e-01 1.370980441570281982e-01 -1.097447238862514496e-02
-1.766540408134460449e-01 2.926550805568695068e-04 7.844916731119155884e-02
-6.208219528198242188e-01 8.292857557535171509e-02 2.726274542510509491e-02
2.136651873588562012e-01 1.409558653831481934e-01 -3.906512632966041565e-03
1.928839087486267090e-01 -2.670924365520477295e-02 -2.266023494303226471e-02
-3.097316622734069824e-01 1.437959671020507812e-01 2.360392734408378601e-02
6.679874062538146973e-01 -8.214309811592102051e-03 5.099442601203918457e-02
2.549794912338256836e-01 1.343073397874832153e-01 2.791787311434745789e-02
8.392910361289978027e-01 1.138279587030410767e-02 2.916492335498332977e-02
7.693122029304504395e-01 8.198004961013793945e-02 -4.130884259939193726e-02
2.782114744186401367e-01 2.025545760989189148e-02 9.790463745594024658e-02
3.659342974424362183e-02 4.693005606532096863e-02 -7.659096270799636841e-02
2.920966148376464844e-01 9.460127353668212891e-02 8.087894320487976074e-02
6.828252077102661133e-01 -2.833036333322525024e-02 -2.164732478559017181e-02
-2.039703726768493652e-02 1.235759928822517395e-01 -5.406299978494644165e-02
1.406597197055816650e-01 3.316636383533477783e-02 1.060347780585289001e-01
2.226260900497436523e-01 1.087042391300201416e-01 7.485223561525344849e-02
2.444676607847213745e-01 4.311569035053253174e-03 -6.740663945674896240e-02
-7.726936042308807373e-02 7.025862485170364380e-02 -7.185672223567962646e-02
8.509396314620971680e-01 2.848853729665279388e-02 2.801269479095935822e-02
-5.809566378593444824e-02 -8.946903049945831299e-03 -2.275273762643337250e-02
1.774669289588928223e-01 -2.651174366474151611e-02 5.913960188627243042e-02
7.995390295982360840e-01 3.930111601948738098e-02 3.851848840713500977e-02
7.890008687973022461e-01 7.685127109289169312e-02 -4.412906616926193237e-02
3.530448079109191895e-01 7.717099040746688843e-03 -7.415176928043365479e-02
8.507047295570373535e-01 9.911060333251953125e-04 1.989384368062019348e-02
1.816905438899993896e-01 3.392372280359268188e-02 1.047833189368247986e-01
6.326960325241088867e-01 8.599348366260528564e-02 4.080499708652496338e-02
1.657951921224594116e-01 -2.936474978923797607e-03 8.952867239713668823e-02
1.234397292137145996e-01 3.908411413431167603e-02 -7.958918809890747070e-02
-1.140757799148559570e-01 8.197320997714996338e-02 -6.850413978099822998e-02
-3.111009001731872559e-01 4.881065338850021362e-02 -4.113219678401947021e-02
7.766559123992919922e-01 -6.312020123004913330e-04 3.759701550006866455e-02
3.875345587730407715e-01 9.172593057155609131e-02 7.333897799253463745e-02
1.642705500125885010e-02 4.953149706125259399e-02 1.102914363145828247e-01
8.949352502822875977e-01 2.943896688520908356e-02 1.340295374393463135e-02
-1.706353127956390381e-01 1.206080541014671326e-01 8.204651623964309692e-02
7.771482467651367188e-01 6.223842129111289978e-02 3.087048418819904327e-02
-2.382930517196655273e-01 1.365694105625152588e-01 5.865783989429473877e-02
4.465777277946472168e-01 1.237055212259292603e-01 1.145555172115564346e-02
5.525083541870117188e-01 -3.387597948312759399e-02 2.651910483837127686e-02
-2.400936186313629150e-01 3.916399553418159485e-02 -4.623251408338546753e-02
-7.243511080741882324e-02 1.459309458732604980e-01 3.159704059362411499e-02
2.705707550048828125e-01 3.648851439356803894e-02 -8.508965373039245605e-02
8.267351984977722168e-01 9.515438228845596313e-03 -5.665390193462371826e-02
-8.144584298133850098e-02 1.137238889932632446e-01 8.743206411600112915e-02
-1.780962347984313965e-01 5.582268163561820984e-02 -6.061590462923049927e-02
-2.649625241756439209e-01 2.584862895309925079e-02 9.611974656581878662e-02
9.694132953882217407e-02 -2.037625014781951904e-02 6.782387197017669678e-02
3.204044997692108154e-01 6.088985502719879150e-02 -8.902775496244430542e-02
-5.190930366516113281e-01 1.238530799746513367e-01 1.816213503479957581e-02
6.052111834287643433e-02 -9.415037930011749268e-03 8.237796276807785034e-02
-3.851191401481628418e-01 7.967825978994369507e-02 -3.806757181882858276e-02
-2.744537889957427979e-01 -1.834467053413391113e-03 5.008711665868759155e-02
4.079325795173645020e-01 3.303341567516326904e-02 9.175028651952743530e-02
1.030030548572540283e-01 1.444421708583831787e-01 1.580281928181648254e-02
2.028451561927795410e-01 1.075131520628929138e-01 7.773315161466598511e-02
-3.378447294235229492e-01 3.831792622804641724e-02 9.710163623094558716e-02
-1.096587777137756348e-01 6.590306758880615234e-02 -6.896235048770904541e-02
3.861515522003173828e-01 -2.931662648916244507e-02 -3.147476911544799805e-02
1.375938653945922852e-01 4.897516220808029175e-02 1.071468442678451538e-01
3.259150385856628418e-01 1.335431188344955444e-01 -2.116996981203556061e-02
5.776624679565429688e-01 1.131284981966018677e-01 -7.468529045581817627e-03
9.193854928016662598e-01 1.414972916245460510e-02 -3.346933424472808838e-02
5.156643986701965332e-01 8.340387046337127686e-02 6.362178921699523926e-02
-5.385584831237792969e-01 1.093008518218994141e-01 1.585061661899089813e-03
-4.594815373420715332e-01 9.885271638631820679e-02 8.650061488151550293e-02
2.265480458736419678e-01 2.739338949322700500e-02 -8.028636872768402100e-02
-5.554271340370178223e-01 4.446687921881675720e-02 3.917680308222770691e-02
1.081543564796447754e-01 3.369440138339996338e-02 -7.677359879016876221e-02
7.066888809204101562e-01 -2.461002767086029053e-02 2.176072448492050171e-02
8.122910261154174805e-01 -1.077601313591003418e-02 1.846442744135856628e-02
5.244593024253845215e-01 2.266568690538406372e-02 8.050963282585144043e-02
3.887316584587097168e-01 4.990502819418907166e-02 9.227184951305389404e-02
4.587653577327728271e-01 3.769566491246223450e-02 8.747114241123199463e-02
1.528152227401733398e-01 1.424179673194885254e-01 -1.412116922438144684e-02
1.656621694564819336e-01 -1.899269223213195801e-02 7.220374047756195068e-02
-6.550377607345581055e-02 9.680791199207305908e-02 9.933787584304809570e-02
6.510263085365295410e-01 2.757960930466651917e-02 -8.026901632547378540e-02
1.626921296119689941e-01 -2.745753526687622070e-02 5.628592520952224731e-02
-3.849865198135375977e-01 1.580912619829177856e-02 6.410882622003555298e-02
1.582765579223632812e-02 1.120336502790451050e-01 -6.506717950105667114e-02
-1.985370814800262451e-01 1.734158396720886230e-02 9.504235535860061646e-02
2.988037168979644775e-01 7.784109562635421753e-02 9.060382843017578125e-02
8.386440277099609375e-01 4.687230288982391357e-02 -5.932690203189849854e-02
8.918083906173706055e-01 3.089707344770431519e-03 -3.443314880132675171e-02
6.546521186828613281e-01 9.830173850059509277e-02 1.425846293568611145e-02
7.970118522644042969e-01 -2.013869583606719971e-02 -1.588090322911739349e-03
4.632409811019897461e-01 8.804726600646972656e-02 6.706205755472183228e-02
-3.847684264183044434e-01 7.739921659231185913e-02 1.000176221132278442e-01
-2.255635857582092285e-01 -8.249297738075256348e-03 2.968315407633781433e-02
9.196397662162780762e-02 3.270345553755760193e-02 -7.535884529352188110e-02
-5.135685205459594727e-04 8.521220833063125610e-02 1.035030931234359741e-01
2.983352839946746826e-01 1.262813210487365723e-01 -4.727123677730560303e-02
5.660701394081115723e-01 -3.453194350004196167e-02 2.144104987382888794e-02
-2.909876406192779541e-01 8.312188088893890381e-03 7.353715598583221436e-02
1.464066356420516968e-01 1.119978949427604675e-01 7.780484855175018311e-02
-1.039638519287109375e-01 1.360305249691009521e-01 -3.430420905351638794e-02
5.990715026855468750e-01 1.109167039394378662e-01 -1.465191133320331573e-02
-1.003586053848266602e-01 -1.840855181217193604e-02 4.379401355981826782e-02
-3.255543410778045654e-01 1.383055001497268677e-01 4.906787723302841187e-02
9.992718696594238281e-04 -8.632779121398925781e-03 -3.222077339887619019e-02
3.187646269798278809e-01 4.871267825365066528e-03 8.996161073446273804e-02
2.951608300209045410e-01 2.894160710275173187e-02 -8.335772901773452759e-02
-1.115661859512329102e-01 -1.344496756792068481e-02 6.053422391414642334e-02
-3.662074208259582520e-01 1.220363751053810120e-02 6.150427460670471191e-02
5.920193195343017578e-01 -1.135174185037612915e-02 5.827870965003967285e-02
-4.624487757682800293e-01 2.805589884519577026e-02 6.294873356819152832e-02
9.066574573516845703e-01 6.925895810127258301e-03 -3.250525891780853271e-02
-2.166149318218231201e-01 1.462405025959014893e-01 2.786527760326862335e-02
-2.525584101676940918e-01 4.677375406026840210e-02 1.062176823616027832e-01
6.533057689666748047e-01 9.235624223947525024e-02 -5.577831715345382690e-02
-2.555866539478302002e-02 5.863527953624725342e-02 1.106051728129386902e-01
-5.887684226036071777e-02 1.439679861068725586e-01 3.846468776464462280e-02
5.261663198471069336e-01 1.006878539919853210e-01 4.361379891633987427e-02
-5.443432927131652832e-01 1.199937835335731506e-01 4.397223144769668579e-02
4.219211935997009277e-01 1.145306229591369629e-02 8.654539287090301514e-02
-3.615370988845825195e-01 5.035481974482536316e-02 -3.375758230686187744e-02
-4.720175266265869141e-01 8.786629140377044678e-02 8.975502103567123413e-02
-2.798908948898315430e-02 -8.579261600971221924e-03 -2.816565148532390594e-02
-1.002812385559082031e-02 3.279384970664978027e-02 1.082530841231346130e-01
-2.348645329475402832e-01 1.136502623558044434e-01 8.837920427322387695e-02
-2.695806622505187988e-01 9.804411977529525757e-02 9.841396659612655640e-02
2.254543006420135498e-01 5.122359842061996460e-03 9.374105930328369141e-02
2.892675399780273438e-01 -1.029638946056365967e-02 8.071289956569671631e-02
8.386981487274169922e-01 6.872808933258056641e-02 -1.989252865314483643e-03
-5.164812803268432617e-01 3.460054099559783936e-02 4.011997580528259277e-02
8.026537895202636719e-01 2.895825915038585663e-02 -6.717120856046676636e-02
5.347119569778442383e-01 5.817107483744621277e-02 -8.668032288551330566e-02
-2.366957068443298340e-02 1.119137704372406006e-01 8.728101849555969238e-02
2.137213945388793945e-01 1.281208992004394531e-01 4.943087697029113770e-02
3.494818210601806641e-01 -3.620377182960510254e-02 3.443640470504760742e-02
5.444448590278625488e-01 -2.671303600072860718e-02 -3.791936486959457397e-02
-9.872850775718688965e-02 -1.882766187191009521e-02 1.778949052095413208e-02
6.037653684616088867e-01 6.648693233728408813e-02 6.220119446516036987e-02
3.818283677101135254e-01 -3.316128253936767578e-02 4.375849664211273193e-02
-8.060456812381744385e-02 5.617056414484977722e-02 1.110516414046287537e-01
4.500420391559600830e-02 -3.044568002223968506e-03 8.873992413282394409e-02
2.596891522407531738e-01 8.202132582664489746e-02 9.155060350894927979e-02
-6.136817336082458496e-01 9.846628457307815552e-02 2.857829816639423370e-02
6.759770512580871582e-01 9.233132749795913696e-02 2.005888149142265320e-02
3.961021304130554199e-01 -3.370653092861175537e-02 -2.067450247704982758e-02
-1.969883739948272705e-01 1.408114433288574219e-01 -1.797981746494770050e-02
-3.577139973640441895e-02 9.781951457262039185e-02 -7.000087201595306396e-02
-2.135584056377410889e-01 1.305837780237197876e-01 6.944192200899124146e-02
-9.121905267238616943e-02 7.292179018259048462e-02 1.090742275118827820e-01
-3.610844612121582031e-01 1.201049685478210449e-01 7.745704799890518188e-02
-1.570869982242584229e-01 1.233357861638069153e-01 7.894252240657806396e-02
3.141466379165649414e-01 7.718782126903533936e-02 -8.654648065567016602e-02
3.968840241432189941e-01 -1.982857286930084229e-02 -4.839710146188735962e-02
-1.419303417205810547e-01 8.628877997398376465e-02 -6.565637141466140747e-02
1.605343073606491089e-01 1.254040747880935669e-03 -5.965778976678848267e-02
-4.076025485992431641e-01 9.880024194717407227e-02 9.125254303216934204e-02
-6.444364786148071289e-03 2.929162234067916870e-03 9.280079603195190430e-02
-3.763377070426940918e-01 1.009911671280860901e-02 3.091938421130180359e-02
4.410365223884582520e-02 1.455765068531036377e-01 2.098967134952545166e-02
-3.432612121105194092e-02 7.790899276733398438e-02 -7.466187328100204468e-02
3.107551336288452148e-01 9.659786522388458252e-02 -7.846051454544067383e-02
-1.104821264743804932e-01 1.116372942924499512e-01 8.984259516000747681e-02
2.728149294853210449e-01 5.092528462409973145e-02 1.004090905189514160e-01
8.223794102668762207e-01 5.629263073205947876e-02 -5.809421837329864502e-02
4.900555908679962158e-01 1.813903823494911194e-02 8.293753862380981445e-02
-4.356325864791870117e-01 4.504825919866561890e-02 -1.542114838957786560e-02
1.427415013313293457e-01 -2.718234062194824219e-02 5.580664426088333130e-02
-2.489973604679107666e-01 1.322752684354782104e-01 -2.783326245844364166e-02
1.710051000118255615e-01 1.427482664585113525e-01 4.682534839957952499e-03
1.268032044172286987e-01 -1.271821558475494385e-03 -5.462733656167984009e-02
2.140587866306304932e-01 -3.499113768339157104e-02 4.075901117175817490e-03
6.342223286628723145e-01 1.063258051872253418e-01 -2.265570871531963348e-02
-3.921169042587280273e-02 7.684849202632904053e-02 1.074285358190536499e-01
-3.238782882690429688e-01 4.063246399164199829e-02 9.948530793190002441e-02
8.468574285507202148e-02 -2.994144707918167114e-02 8.804049342870712280e-03
-1.876911520957946777e-01 1.792527735233306885e-03 -1.702784933149814606e-02
6.652004122734069824e-01 7.161785662174224854e-02 4.822643101215362549e-02
-4.904101490974426270e-01 6.373356282711029053e-02 -1.434506103396415710e-02
-2.273826897144317627e-01 7.660380005836486816e-02 -5.831066519021987915e-02
-6.621482968330383301e-02 1.349412202835083008e-01 -3.796854615211486816e-02
-5.213037133216857910e-01 5.156758427619934082e-02 7.637537270784378052e-02
2.341285496950149536e-01 -3.176942467689514160e-02 4.788228124380111694e-02
1.713086962699890137e-01 7.530665397644042969e-02 -8.468968421220779419e-02
2.645376920700073242e-01 1.383661329746246338e-01 -6.739875301718711853e-03
4.386544972658157349e-02 -2.103362232446670532e-02 -1.500976085662841797e-02
-3.420716524124145508e-01 5.984727293252944946e-03 4.921818524599075317e-02
-2.266699671745300293e-01 1.292716711759567261e-01 -3.408793359994888306e-02
-3.161988258361816406e-01 1.959967985749244690e-02 8.504344522953033447e-02
-1.471883654594421387e-01 1.409356147050857544e-01 -2.207793854176998138e-02
-2.974486351013183594e-02 6.375700235366821289e-03 9.493120014667510986e-02
6.893272995948791504e-01 -1.549962908029556274e-03 5.248263478279113770e-02
-5.990425944328308105e-01 9.133538603782653809e-02 1.411795616149902344e-02
2.307751774787902832e-01 -2.960022538900375366e-03 -6.030999869108200073e-02
7.570073008537292480e-01 8.792878687381744385e-02 -9.223567321896553040e-03
-4.742003083229064941e-01 1.304586678743362427e-01 1.743904501199722290e-02
-1.001345515251159668e-01 6.310716271400451660e-03 -3.799387067556381226e-02
7.234171032905578613e-03 1.430517882108688354e-01 -2.237630821764469147e-02
2.801995873451232910e-01 1.283607184886932373e-01 3.923021256923675537e-02
6.559987068176269531e-01 -1.741252839565277100e-02 4.365479201078414917e-02
-5.130404233932495117e-01 4.898114502429962158e-02 2.785542048513889313e-03
1.417955756187438965e-01 4.348625987768173218e-02 -8.181464672088623047e-02
6.449965238571166992e-01 9.959055483341217041e-02 -4.444427788257598877e-02
8.602944612503051758e-01 6.560251861810684204e-02 -2.873489074409008026e-02
2.407230734825134277e-01 -1.424468308687210083e-02 7.802206277847290039e-02
4.619115293025970459e-01 4.963090270757675171e-02 -8.894206583499908447e-02
-9.070360660552978516e-02 5.923870950937271118e-02 -6.966913491487503052e-02
6.091805696487426758e-01 8.974821120500564575e-02 4.127489030361175537e-02
8.726142644882202148e-01 9.350180625915527344e-03 -4.720467329025268555e-02
1.203308701515197754e-01 8.443202823400497437e-02 -8.123744279146194458e-02
6.370241641998291016e-01 5.963490530848503113e-02 -8.089396357536315918e-02
-1.902819275856018066e-01 1.860234141349792480e-02 -3.780990839004516602e-02
3.616038858890533447e-01 1.323139965534210205e-01 -1.208982430398464203e-03
7.792299985885620117e-01 -8.823119103908538818e-03 -4.691671580076217651e-02
-3.387834131717681885e-01 5.903515964746475220e-03 2.293235063552856445e-02
-2.729299664497375488e-01 1.405493915081024170e-01 -8.969811722636222839e-03
-5.955560207366943359e-01 1.060388088226318359e-01 4.885356128215789795e-02
8.173466920852661133e-01 2.695237286388874054e-02 -6.477471441030502319e-02
2.926654219627380371e-01 1.356452703475952148e-01 1.144257280975580215e-02
8.701571822166442871e-01 4.638625681400299072e-02 1.462908275425434113e-02
9.000908732414245605e-01 5.330873280763626099e-02 -1.580666564404964447e-02
8.813831955194473267e-02 1.439450085163116455e-01 2.241360768675804138e-02
4.404559731483459473e-01 5.958870053291320801e-02 8.528047055006027222e-02
-2.899145185947418213e-01 5.586075037717819214e-02 -4.713389277458190918e-02
5.474728345870971680e-01 5.529562011361122131e-02 7.489443570375442505e-02
8.004756569862365723e-01 -3.101613372564315796e-03 3.040484711527824402e-02
3.249374330043792725e-01 -3.159753978252410889e-02 -2.272327430546283722e-02
3.614298999309539795e-02 1.090451329946517944e-01 -6.779738515615463257e-02
4.222120344638824463e-01 9.884203970432281494e-02 -7.340474426746368408e-02
5.745569467544555664e-01 7.466387748718261719e-02 6.145357340574264526e-02
6.627246141433715820e-01 3.619740158319473267e-02 -8.107039332389831543e-02
-3.249249756336212158e-01 6.213296949863433838e-02 -4.419149458408355713e-02
3.251069188117980957e-01 1.343733966350555420e-01 4.711531568318605423e-03
3.578659147024154663e-02 1.387619972229003906e-01 4.620441049337387085e-02
1.636798083782196045e-01 6.021541357040405273e-02 1.048533245921134949e-01
3.380335569381713867e-01 1.010506749153137207e-01 -7.496117055416107178e-02
-2.048262953758239746e-01 6.550788879394531250e-03 -2.108231000602245331e-02
-2.153102457523345947e-01 1.061896458268165588e-01 9.439764171838760376e-02
-1.186224818229675293e-01 1.303322911262512207e-01 6.929349899291992188e-02
-3.935857415199279785e-01 3.123971819877624512e-02 -1.199444942176342010e-02
-1.364281177520751953e-01 3.743022680282592773e-03 -2.934714965522289276e-02
1.325015574693679810e-01 1.229109093546867371e-01 6.611535698175430298e-02
4.596488773822784424e-01 2.977634593844413757e-02 -8.584778755903244019e-02
-3.823164701461791992e-01 1.163308918476104736e-01 -2.686724998056888580e-02
-2.182877361774444580e-01 3.080839663743972778e-02 -4.387199878692626953e-02
3.683453798294067383e-01 1.245421767234802246e-01 3.142740577459335327e-02
-5.798507928848266602e-01 9.163545072078704834e-02 6.922209262847900391e-02
-1.118999421596527100e-01 1.453487426042556763e-01 3.561019524931907654e-02
-1.328749060630798340e-01 3.821489587426185608e-02 -5.877895653247833252e-02
7.031291127204895020e-01 -4.205308854579925537e-03 4.860993474721908569e-02
1.777635067701339722e-01 -3.201955556869506836e-02 4.327809065580368042e-02
4.043969511985778809e-01 1.215398013591766357e-01 3.080981224775314331e-02
7.439966797828674316e-01 9.014005959033966064e-02 -2.732936851680278778e-02
1.929807364940643311e-01 1.867617294192314148e-02 1.007994338870048523e-01
1.655682921409606934e-03 5.037235841155052185e-02 1.105133667588233948e-01
-5.394197702407836914e-01 4.014503955841064453e-02 4.390785843133926392e-02
-3.716275095939636230e-03 -2.574099600315093994e-02 3.518624231219291687e-02
-1.188413500785827637e-01 1.314871609210968018e-01 -4.005934298038482666e-02
3.576566576957702637e-01 -3.821720182895660400e-02 3.053835127502679825e-03
6.138896942138671875e-01 5.141150206327438354e-03 6.601006537675857544e-02
3.708394765853881836e-01 9.242284297943115234e-02 7.464402914047241211e-02
2.856780886650085449e-01 -3.629522025585174561e-02 3.234035149216651917e-02
-5.128672719001770020e-01 3.908045962452888489e-02 1.757165789604187012e-02
3.725200295448303223e-01 3.142884373664855957e-02 -8.586279302835464478e-02
-4.305518865585327148e-01 5.616386234760284424e-02 9.450808912515640259e-02
6.380354762077331543e-01 4.115324467420578003e-02 -8.286543935537338257e-02
-3.024095892906188965e-01 3.680080547928810120e-02 -3.531904518604278564e-02
-4.112059473991394043e-01 1.087649911642074585e-01 -2.721788175404071808e-02
-5.713899135589599609e-01 9.941220283508300781e-02 5.809492431581020355e-03
-4.979112744331359863e-02 6.433904916048049927e-02 -7.358761131763458252e-02
-2.748011052608489990e-02 1.319957971572875977e-01 -4.386502504348754883e-02
9.358054995536804199e-01 2.857644855976104736e-02 -1.320411637425422668e-02
-3.037174046039581299e-01 1.261954903602600098e-01 7.315671443939208984e-02
-2.048053443431854248e-01 8.987344801425933838e-02 -5.940239876508712769e-02
7.097626924514770508e-01 1.614324375987052917e-02 -7.285083085298538208e-02
-3.033730983734130859e-01 2.176500856876373291e-04 3.558254241943359375e-02
2.084969282150268555e-01 9.576709568500518799e-02 8.697321265935897827e-02
1.314459890127182007e-01 -5.162604153156280518e-03 8.779838681221008301e-02
6.888576149940490723e-01 -1.883482933044433594e-02 3.631452098488807678e-02
-4.322355985641479492e-02 -2.322614938020706177e-02 1.959743164479732513e-02
-1.190181970596313477e-01 1.473312675952911377e-01 -1.568866893649101257e-03
2.945156395435333252e-02 1.466811150312423706e-01 1.503103692084550858e-02
6.961129307746887207e-01 8.319642394781112671e-02 2.913179062306880951e-02
3.581910729408264160e-01 1.103448420763015747e-01 5.795762687921524048e-02
7.788246870040893555e-01 1.828388497233390808e-02 4.446852207183837891e-02
6.859578490257263184e-01 2.095146849751472473e-02 6.063468009233474731e-02
3.482207059860229492e-01 8.819447457790374756e-02 -8.235996961593627930e-02
-4.369572401046752930e-01 9.790445864200592041e-02 -2.740461938083171844e-02
-4.705946445465087891e-01 1.108775287866592407e-01 7.652410119771957397e-02
1.527438312768936157e-01 -3.251875191926956177e-02 3.743875026702880859e-02
5.894896984100341797e-01 4.763451218605041504e-02 -8.534489572048187256e-02
2.348068058490753174e-01 1.399695277214050293e-01 -1.583946868777275085e-03
3.733707368373870850e-01 1.924593746662139893e-02 9.223477542400360107e-02
-4.067718386650085449e-01 3.611159697175025940e-02 8.719291538000106812e-02
5.555824637413024902e-01 1.055860221385955811e-01 -5.259219557046890259e-02
9.144472479820251465e-01 3.276646137237548828e-02 -4.075661301612854004e-02
6.293072700500488281e-01 7.751460373401641846e-02 -7.359953224658966064e-02
-4.616926312446594238e-01 2.443706989288330078e-02 2.924484573304653168e-02
9.940774738788604736e-02 1.200699582695960999e-01 7.233229279518127441e-02
6.170096397399902344e-01 6.150580570101737976e-02 -8.178768306970596313e-02
-3.253433704376220703e-01 4.515469074249267578e-03 5.264357477426528931e-02
5.162689685821533203e-01 1.083750724792480469e-01 3.323893249034881592e-02
-6.801563501358032227e-02 5.564878135919570923e-02 -7.087688148021697998e-02
8.781710267066955566e-01 5.599517747759819031e-02 -3.857193514704704285e-04
7.950308918952941895e-01 -3.501903265714645386e-03 -5.078453570604324341e-02
8.398322463035583496e-01 -1.432144641876220703e-02 -9.207485243678092957e-03
-3.842009902000427246e-01 3.971967473626136780e-02 9.282462298870086670e-02
-5.344574153423309326e-02 4.389125853776931763e-03 -4.202219098806381226e-02
-2.020727396011352539e-01 7.202202081680297852e-02 -6.079311668872833252e-02
-3.997762799263000488e-01 1.377982497215270996e-01 3.491782397031784058e-02
2.009734064340591431e-01 3.232435137033462524e-02 1.038184836506843567e-01
-1.898227334022521973e-01 1.336655467748641968e-01 -3.172516077756881714e-02
-4.775789380073547363e-02 7.722675800323486328e-04 8.925964683294296265e-02
6.756704449653625488e-01 3.116985782980918884e-02 6.248211860656738281e-02
-3.163461387157440186e-02 1.177955046296119690e-02 -5.186273157596588135e-02
7.032020390033721924e-02 1.354341059923171997e-01 5.062462389469146729e-02
5.810281038284301758e-01 3.872625529766082764e-04 6.752126663923263550e-02
6.651892662048339844e-01 1.313191279768943787e-02 6.212858110666275024e-02
3.833512663841247559e-01 1.175790280103683472e-01 -5.491366982460021973e-02
-2.790108025074005127e-01 6.700877845287322998e-02 -5.146510899066925049e-02
3.897260427474975586e-01 4.709157347679138184e-02 -8.913047611713409424e-02
-4.689662158489227295e-02 2.460509538650512695e-02 1.052742078900337219e-01
1.124816164374351501e-01 -2.948812395334243774e-02 4.555061459541320801e-02
-2.637591958045959473e-01 7.988489419221878052e-02 1.055347397923469543e-01
-5.923437476158142090e-01 1.092006266117095947e-01 3.036394156515598297e-02
3.355779647827148438e-01 2.524676918983459473e-02 9.591234475374221802e-02
-4.003651738166809082e-01 1.393548399209976196e-02 2.909359708428382874e-02
3.967183828353881836e-01 7.628969848155975342e-02 8.255349099636077881e-02
-4.476681351661682129e-01 1.340501010417938232e-01 2.099288627505302429e-02
2.348012030124664307e-01 -3.449864685535430908e-02 -3.025409765541553497e-03
7.589993476867675781e-01 2.812171727418899536e-02 -7.220912724733352661e-02
8.971884846687316895e-01 -1.746755093336105347e-03 -1.556042768061161041e-02
4.702384173870086670e-01 1.158742755651473999e-01 2.858536876738071442e-02
1.808110624551773071e-01 7.806890457868576050e-02 9.864578396081924438e-02
5.103163719177246094e-01 -3.589819371700286865e-02 -1.282205246388912201e-02
7.831662148237228394e-02 9.331139922142028809e-02 -7.703010737895965576e-02
3.909389376640319824e-01 7.427524775266647339e-02 -8.686857670545578003e-02
-9.702861309051513672e-03 -1.250410825014114380e-02 7.470449060201644897e-02
3.351710438728332520e-01 8.813765645027160645e-02 8.146061748266220093e-02
-2.580985128879547119e-01 1.973745971918106079e-02 -2.778098545968532562e-02
1.584055572748184204e-01 1.888522505760192871e-02 -7.255757600069046021e-02
-1.488253772258758545e-01 1.459696441888809204e-01 3.326696157455444336e-02
-1.502379477024078369e-01 4.434740543365478516e-02 1.093121692538261414e-01
-2.077919542789459229e-01 6.731953471899032593e-03 8.365833014249801636e-02
5.493785440921783447e-02 1.359849572181701660e-01 -3.897105902433395386e-02
-1.024023294448852539e-01 1.480280160903930664e-01 1.900107786059379578e-02
-3.352767825126647949e-01 1.145719438791275024e-01 -3.494741767644882202e-02
4.446815550327301025e-01 1.259046494960784912e-01 -2.592355944216251373e-03
-3.228874504566192627e-02 1.479530632495880127e-01 1.211558002978563309e-02
-4.761015772819519043e-01 3.533655405044555664e-02 7.139083743095397949e-02
4.139232635498046875e-01 5.780911818146705627e-02 8.833735436201095581e-02
-3.710449934005737305e-01 6.362217664718627930e-02 1.015465632081031799e-01
7.818338274955749512e-01 -2.074142545461654663e-02 6.429695058614015579e-03
4.122319817543029785e-01 -2.919069677591323853e-02 5.125541985034942627e-02
4.596013724803924561e-01 -3.853234648704528809e-02 1.175040751695632935e-02
-8.125077188014984131e-02 1.478224694728851318e-01 3.780303522944450378e-04
-2.646470665931701660e-01 6.999672204256057739e-02 -5.366720259189605713e-02
-5.437700748443603516e-01 4.485489428043365479e-02 2.343743853271007538e-02
5.319144725799560547e-01 1.098156571388244629e-01 -4.891043156385421753e-02
5.399730205535888672e-01 7.589839398860931396e-02 6.567899882793426514e-02
6.194255948066711426e-01 8.047998696565628052e-02 4.921744763851165771e-02
-4.322674274444580078e-01 7.225316762924194336e-02 -2.924315445125102997e-02
-2.929253876209259033e-01 1.154201626777648926e-01 8.544985949993133545e-02
5.790721774101257324e-01 -2.344502508640289307e-02 -4.281076788902282715e-02
4.889457821846008301e-01 8.483108133077621460e-02 6.621546298265457153e-02
2.719150185585021973e-01 5.144605040550231934e-02 -8.796572685241699219e-02
2.561134099960327148e-01 2.529847808182239532e-02 1.001836061477661133e-01
-7.965773344039916992e-02 5.744691938161849976e-03 -4.014135152101516724e-02
1.299422830343246460e-01 1.084539294242858887e-01 8.236570656299591064e-02
-9.616667032241821289e-02 9.519061446189880371e-02 -6.706625223159790039e-02
-3.169642984867095947e-01 7.347218692302703857e-03 6.658644881099462509e-03
7.597022056579589844e-01 8.723554015159606934e-02 -2.886977978050708771e-02
-1.754834949970245361e-01 1.048373728990554810e-01 -5.728343129158020020e-02
-1.557136774063110352e-01 1.389624476432800293e-01 5.455074459314346313e-02
-1.290769875049591064e-02 -1.979795098304748535e-02 5.952283740043640137e-02
-5.302395224571228027e-01 7.301397621631622314e-02 -7.759306579828262329e-03
4.297403991222381592e-01 -2.971598505973815918e-02 -3.193628042936325073e-02
-2.220623493194580078e-01 1.820500940084457397e-03 7.453238219022750854e-02
2.714465558528900146e-01 1.101098731160163879e-01 -6.924983859062194824e-02
-8.831167221069335938e-02 1.235921904444694519e-01 -5.073391646146774292e-02
-5.403348803520202637e-02 1.374810934066772461e-01 5.487637221813201904e-02
1.323653757572174072e-01 1.920112222433090210e-02 -7.113045454025268555e-02
7.641762495040893555e-01 1.012937724590301514e-02 4.531808942556381226e-02
-3.465297222137451172e-01 1.012720167636871338e-02 1.083570718765258789e-02
-5.452303290367126465e-01 7.290986925363540649e-02 8.000835031270980835e-02
6.639084219932556152e-02 2.317273989319801331e-02 -6.886011362075805664e-02
7.193924188613891602e-01 -1.693079620599746704e-02 -4.316674172878265381e-02
6.388260722160339355e-01 -3.256877511739730835e-02 -1.163199357688426971e-02
7.810820937156677246e-01 1.711255311965942383e-02 -6.667156517505645752e-02
3.909457325935363770e-01 1.169539541006088257e-01 4.294970631599426270e-02
-2.005820274353027344e-01 -1.009414345026016235e-02 4.437360167503356934e-02
-2.599271833896636963e-01 1.265772879123687744e-01 7.418326288461685181e-02
-3.197347819805145264e-01 2.254627645015716553e-03 3.404209762811660767e-02
1.264587938785552979e-01 -2.477259188890457153e-02 6.057414412498474121e-02
-4.049403071403503418e-01 5.697514861822128296e-02 9.754716604948043823e-02
-2.686329185962677002e-01 4.654077067971229553e-02 -4.620131105184555054e-02
2.826518714427947998e-01 -3.765326738357543945e-02 1.416185684502124786e-02
-2.856602370738983154e-01 1.267599165439605713e-01 7.313527166843414307e-02
-2.379793822765350342e-01 1.462932527065277100e-01 2.248350717127323151e-02
2.225216329097747803e-01 -2.743853628635406494e-02 -2.415622584521770477e-02
1.869119405746459961e-01 -3.473834693431854248e-02 1.040851045399904251e-02
7.531115412712097168e-01 -2.528224140405654907e-02 -5.239795893430709839e-03
-1.616146266460418701e-01 -1.358430087566375732e-02 4.397387057542800903e-02
-4.324014782905578613e-01 3.972879052162170410e-02 8.585392683744430542e-02
5.783690214157104492e-01 2.818997576832771301e-02 7.523316144943237305e-02
1.016682088375091553e-01 8.042744547128677368e-02 1.017434000968933105e-01
2.869079709053039551e-01 -2.954197674989700317e-02 5.433894693851470947e-02
-3.554370999336242676e-02 1.320030093193054199e-01 6.392861157655715942e-02
4.914449453353881836e-01 3.541720658540725708e-02 8.447802811861038208e-02
-4.949111342430114746e-01 1.288403272628784180e-01 3.427403420209884644e-02
1.267862915992736816e-01 1.413348615169525146e-01 -2.286707051098346710e-02
4.738997519016265869e-01 -3.744196146726608276e-02 -5.941014736890792847e-03
5.037061572074890137e-01 5.842466279864311218e-02 -8.766090124845504761e-02
2.489133626222610474e-01 4.699459299445152283e-02 -8.678117394447326660e-02
3.301958739757537842e-01 -3.049041330814361572e-02 5.173005163669586182e-02
3.766266107559204102e-01 1.313867717981338501e-01 -9.058978408575057983e-03
7.718747258186340332e-01 -1.851325482130050659e-02 -3.125511109828948975e-02
1.964411139488220215e-01 3.350898623466491699e-05 9.127840399742126465e-02
6.400225758552551270e-01 1.034731566905975342e-01 4.588786046952009201e-03
-5.292673110961914062e-01 8.739762753248214722e-02 -9.836941957473754883e-03
8.940564990043640137e-01 1.599587872624397278e-02 -4.538355767726898193e-02
-3.022130429744720459e-01 1.004265248775482178e-02 -4.196082241833209991e-03
-2.731107175350189209e-01 1.349191665649414062e-01 6.062344461679458618e-02
-2.080602943897247314e-01 -4.779193550348281860e-03 2.265868708491325378e-03
4.161040782928466797e-01 -4.134144634008407593e-03 -6.648782640695571899e-02
-3.684073090553283691e-01 1.012151539325714111e-01 -3.722999989986419678e-02
-3.580302596092224121e-01 7.758736610412597656e-03 4.697412252426147461e-02
-3.538195490837097168e-01 1.161603331565856934e-01 -3.126003593206405640e-02
-5.595309734344482422e-01 5.136764794588088989e-02 2.011803165078163147e-02
2.569177150726318359e-01 -3.698074072599411011e-02 1.144065801054239273e-02
1.022213548421859741e-01 2.145357429981231689e-04 -5.404997617006301880e-02
4.884034395217895508e-01 1.095742881298065186e-01 3.721378743648529053e-02
4.254393875598907471e-01 7.282873988151550293e-02 8.139408379793167114e-02
-4.763163328170776367e-01 1.243928596377372742e-01 1.677258871495723724e-03
-3.096190392971038818e-01 1.784672215580940247e-02 -1.501239463686943054e-02
-5.053392648696899414e-01 4.765250533819198608e-02 7.724849879741668701e-02
-3.452739715576171875e-01 1.407643854618072510e-01 3.647680953145027161e-02
7.178650498390197754e-01 -8.029744029045104980e-03 4.318748414516448975e-02
6.055589914321899414e-01 -1.684229075908660889e-02 -5.173970013856887817e-02
1.497048586606979370e-01 8.079034090042114258e-02 9.921942651271820068e-02
-1.427323818206787109e-01 9.769250452518463135e-02 9.985107183456420898e-02
9.273872375488281250e-01 1.082390174269676208e-02 -1.798107661306858063e-02
4.062645435333251953e-01 1.211519166827201843e-01 -4.579583555459976196e-02
4.349702596664428711e-01 -2.276350557804107666e-02 -4.493705928325653076e-02
2.997635006904602051e-01 8.427105098962783813e-02 -8.434995263814926147e-02
-3.165699541568756104e-01 1.351837813854217529e-01 -1.415860652923583984e-02
3.875853866338729858e-02 4.540575295686721802e-02 1.097707897424697876e-01
2.681064009666442871e-01 7.356736809015274048e-03 -7.083186507225036621e-02
2.227085381746292114e-01 -2.406164258718490601e-02 6.479933112859725952e-02
-2.185775935649871826e-01 -8.391492068767547607e-03 4.442942887544631958e-02
-3.308933377265930176e-01 6.423493474721908569e-02 1.043129116296768188e-01
3.287718594074249268e-01 -1.217634230852127075e-02 -5.567734688520431519e-02
2.352216839790344238e-02 1.449661850929260254e-01 -1.492819562554359436e-02
3.816708922386169434e-03 7.941783964633941650e-02 -7.683961838483810425e-02
2.456977367401123047e-01 2.196438238024711609e-02 -7.861148566007614136e-02
2.986062765121459961e-01 1.122152507305145264e-01 6.313075870275497437e-02
7.494263648986816406e-01 -2.174455672502517700e-03 -5.781631171703338623e-02
-5.861754417419433594e-01 9.587340056896209717e-02 9.912090376019477844e-03
-1.121976375579833984e-01 -1.837199926376342773e-02 2.499865740537643433e-02
1.135914027690887451e-02 -1.802148669958114624e-02 -1.648008078336715698e-02
-4.482935667037963867e-01 2.109094336628913879e-02 4.068151116371154785e-02
4.919644892215728760e-01 -3.816027194261550903e-02 5.189084913581609726e-03
1.914902329444885254e-01 1.177288591861724854e-02 -6.999795883893966675e-02
1.005378812551498413e-01 9.693864732980728149e-03 9.856387227773666382e-02
-1.872299611568450928e-02 1.424349546432495117e-01 -2.411110885441303253e-02
3.527855277061462402e-01 2.835481613874435425e-02 -8.453126996755599976e-02
1.074313223361968994e-01 1.030188202857971191e-01 -7.355592399835586548e-02
-4.951684474945068359e-01 6.162698939442634583e-02 8.699534833431243896e-02
-6.244653463363647461e-02 -2.191656082868576050e-02 3.649019449949264526e-02
-5.281414985656738281e-01 5.883286148309707642e-02 -1.125005073845386505e-03
1.645781248807907104e-01 -3.195346891880035400e-02 -1.950843259692192078e-03
8.603823781013488770e-01 -5.118787288665771484e-03 9.010878391563892365e-03
6.509271264076232910e-01 -1.447990536689758301e-03 -6.573417782783508301e-02
-2.794160544872283936e-01 1.449989378452301025e-01 2.338901907205581665e-02
5.395822525024414062e-01 -1.373750716447830200e-02 6.174007803201675415e-02
-5.553240180015563965e-01 1.026694923639297485e-01 2.073168754577636719e-03
2.155116200447082520e-01 1.390616595745086670e-02 -7.270480692386627197e-02
3.015493452548980713e-01 -3.450170159339904785e-02 4.082696884870529175e-02
-1.208008825778961182e-02 1.371495127677917480e-01 -3.605754673480987549e-02
-3.620738387107849121e-01 2.127354964613914490e-02 7.953935116529464722e-02
7.579484581947326660e-01 -1.760034263134002686e-02 -3.624780476093292236e-02
-3.618379235267639160e-01 2.735004946589469910e-02 -1.509216241538524628e-02
6.148509979248046875e-01 8.528114855289459229e-02 -6.933130323886871338e-02
6.475725769996643066e-01 3.638428449630737305e-02 6.609985232353210449e-02
-1.246097981929779053e-01 1.424704119563102722e-02 9.714420884847640991e-02
-8.839365839958190918e-02 1.763916015625000000e-02 1.008386462926864624e-01
-5.154681801795959473e-01 3.673041611909866333e-02 5.670800060033798218e-02
4.732222557067871094e-01 1.233277991414070129e-01 -1.862644776701927185e-02
4.530794322490692139e-01 -3.489112108945846558e-02 3.459178283810615540e-02
2.785258889198303223e-01 -1.504243165254592896e-02 -4.961758106946945190e-02
3.677330017089843750e-01 6.129572913050651550e-02 -8.923894166946411133e-02
-3.429364264011383057e-01 5.583742633461952209e-02 1.026639267802238464e-01
3.716965317726135254e-01 5.226203799247741699e-02 9.324438869953155518e-02
7.398142814636230469e-01 -3.670375794172286987e-03 4.269406199455261230e-02
1.851847022771835327e-01 6.794292479753494263e-02 -8.590270578861236572e-02
5.643501281738281250e-01 -2.820551395416259766e-02 3.970418870449066162e-02
-2.702528238296508789e-02 1.474845558404922485e-01 -1.740910112857818604e-03
4.616035819053649902e-01 5.437735468149185181e-02 8.469416201114654541e-02
-1.478999257087707520e-01 1.175936311483383179e-03 8.279906213283538818e-02
3.626062870025634766e-01 1.026620715856552124e-01 -7.293192297220230103e-02
7.907007932662963867e-01 -1.188670843839645386e-02 2.330779097974300385e-02
-1.632438898086547852e-01 1.466079652309417725e-01 -1.734552904963493347e-03
7.845375537872314453e-01 7.230184972286224365e-02 1.721274107694625854e-02
3.496711850166320801e-01 -2.096787095069885254e-02 6.703954935073852539e-02
5.174095630645751953e-01 4.728772491216659546e-02 -8.783498406410217285e-02
6.821555495262145996e-01 8.223314583301544189e-02 -6.304565817117691040e-02
-5.332259535789489746e-01 1.185046136379241943e-01 5.371905118227005005e-02
7.489433884620666504e-02 7.565408945083618164e-02 -8.098053932189941406e-02
1.665821373462677002e-01 3.384858369827270508e-02 -8.006100356578826904e-02
1.122257113456726074e-01 1.311579048633575439e-01 5.504130572080612183e-02
-2.339272499084472656e-01 -6.029974669218063354e-03 5.002485215663909912e-02
5.171641707420349121e-02 -1.542122662067413330e-02 -2.792838029563426971e-02
1.298252195119857788e-01 1.322348117828369141e-01 -4.491738229990005493e-02
4.285587072372436523e-01 1.131610870361328125e-01 4.276990890502929688e-02
1.949450522661209106e-01 4.351564496755599976e-02 -8.421530574560165405e-02
8.423879742622375488e-01 7.094989717006683350e-02 -2.343509532511234283e-02
-4.569023847579956055e-01 2.820587344467639923e-02 1.351001486182212830e-02
-8.860738575458526611e-02 1.368340700864791870e-01 5.754368752241134644e-02
7.294048666954040527e-01 9.314879775047302246e-02 -1.975263841450214386e-02
-2.499965131282806396e-01 6.426462531089782715e-02 1.080994382500648499e-01
1.195545345544815063e-01 -1.402194052934646606e-02 -3.827958554029464722e-02
-6.954176723957061768e-02 1.786875724792480469e-02 1.015268787741661072e-01
1.155087947845458984e-01 -2.764309942722320557e-02 -9.048083797097206116e-03
6.379645466804504395e-01 9.420040249824523926e-02 -5.601624399423599243e-02
6.819550395011901855e-01 1.002740859985351562e-01 -1.894930563867092133e-02
2.680782079696655273e-01 -3.261454403400421143e-02 -1.482213661074638367e-02
7.617142796516418457e-01 8.344761282205581665e-02 5.081105045974254608e-03
-1.995028555393218994e-02 -2.356319874525070190e-02 9.464579634368419647e-03
-2.328493893146514893e-01 5.768130347132682800e-02 -5.498497188091278076e-02
1.268431544303894043e-02 7.805095613002777100e-02 1.058648750185966492e-01
8.657090067863464355e-01 4.713794961571693420e-02 -5.243705213069915771e-02
1.423297226428985596e-01 3.741614520549774170e-03 -6.056533008813858032e-02
1.137159615755081177e-01 6.801844388246536255e-02 -8.325843513011932373e-02
5.427208542823791504e-02 1.465574204921722412e-01 3.195868805050849915e-03
4.365643858909606934e-01 -2.620840072631835938e-02 5.502074211835861206e-02
4.218207895755767822e-01 1.244818642735481262e-01 -3.401167690753936768e-02
7.855945825576782227e-01 5.037664994597434998e-02 -6.771093606948852539e-02
-9.582456946372985840e-02 1.180794835090637207e-01 8.363122493028640747e-02
6.973403692245483398e-02 -2.908805757761001587e-02 3.891927748918533325e-02
4.128313064575195312e-01 1.138334721326828003e-02 -7.767038047313690186e-02
8.474817276000976562e-01 2.456941083073616028e-02 -5.932284146547317505e-02
4.022364020347595215e-01 9.967624396085739136e-02 6.436122208833694458e-02
8.623825907707214355e-01 5.954377353191375732e-02 2.947230823338031769e-03
-4.298040270805358887e-02 -1.131917536258697510e-02 7.399321347475051880e-02
1.790722012519836426e-01 1.238556578755378723e-01 -5.638000369071960449e-02
2.944046854972839355e-01 -2.068619430065155029e-02 -4.252867400646209717e-02
-3.102129101753234863e-01 8.937796950340270996e-02 1.009902283549308777e-01
1.171743422746658325e-01 -3.324054181575775146e-03 8.938699215650558472e-02
5.451630055904388428e-02 1.027828156948089600e-01 9.133174270391464233e-02
8.011524677276611328e-01 1.760431006550788879e-02 3.976335003972053528e-02
-8.840465545654296875e-02 -1.709115505218505859e-02 4.152026027441024780e-03
1.712041497230529785e-01 -1.506544649600982666e-02 -4.171951115131378174e-02
2.533672749996185303e-02 2.850655280053615570e-02 -6.861165165901184082e-02
5.375808477401733398e-02 4.730449616909027100e-02 -7.780419290065765381e-02
3.216711878776550293e-01 1.088103055953979492e-01 6.446360796689987183e-02
-1.828002333641052246e-01 -7.253479212522506714e-03 1.421202905476093292e-03
-4.696997404098510742e-01 5.493256077170372009e-02 -1.450380682945251465e-02
1.868301481008529663e-01 5.607600882649421692e-02 1.044309884309768677e-01
-4.983727335929870605e-01 3.064654022455215454e-02 4.154605418443679810e-02
9.170719981193542480e-01 4.591343179345130920e-02 -2.345325239002704620e-02
7.963666319847106934e-01 6.821385025978088379e-02 -5.426712334156036377e-02
-5.801324844360351562e-01 7.959175109863281250e-02 6.273000501096248627e-03
7.367504239082336426e-01 5.578339844942092896e-02 -7.256832718849182129e-02
-2.615071833133697510e-01 1.069238483905792236e-01 -4.811234027147293091e-02
-1.826938688755035400e-01 2.172800898551940918e-02 9.917767345905303955e-02
5.565803647041320801e-01 7.872959971427917480e-02 -7.890278100967407227e-02
-3.805258870124816895e-01 1.298737376928329468e-01 -1.215475052595138550e-02
7.473080754280090332e-01 4.179703444242477417e-02 -7.419577240943908691e-02
5.692359209060668945e-01 3.624441847205162048e-02 -8.540356904268264771e-02
2.540985345840454102e-01 -2.135030925273895264e-02 6.897027045488357544e-02
4.118465483188629150e-01 7.905994355678558350e-02 7.943440228700637817e-02
2.451170533895492554e-01 5.607956647872924805e-02 1.013173609972000122e-01
4.571696519851684570e-01 1.250202953815460205e-01 -1.357346214354038239e-02
8.338980674743652344e-01 -7.479101419448852539e-03 -3.785414993762969971e-02
-4.101456403732299805e-01 7.418809086084365845e-02 -3.349169343709945679e-02
5.267798900604248047e-01 1.179769188165664673e-01 -2.318381331861019135e-02
3.631036877632141113e-01 3.875422477722167969e-02 9.521181136369705200e-02
-6.832294166088104248e-02 3.489739447832107544e-02 1.085121631622314453e-01
-3.151142299175262451e-01 1.114923581480979919e-01 8.803188800811767578e-02
6.344873905181884766e-01 6.293250620365142822e-02 5.939231812953948975e-02
4.159170687198638916e-01 1.272178739309310913e-01 7.142205722630023956e-03
-3.633465170860290527e-01 1.409449428319931030e-01 2.024188265204429626e-02
6.153905987739562988e-01 1.086216941475868225e-01 -6.881061941385269165e-03
1.703679263591766357e-01 1.390557289123535156e-01 -2.691360376775264740e-02
8.568937182426452637e-01 4.144232720136642456e-02 2.234887704253196716e-02
5.942597389221191406e-01 2.380742132663726807e-02 -8.165189623832702637e-02
7.439035177230834961e-02 -2.522992342710494995e-02 -9.022064507007598877e-03
9.308382868766784668e-02 1.394671797752380371e-01 3.853398561477661133e-02
3.864899873733520508e-01 -3.926243633031845093e-03 -6.602252274751663208e-02
-4.961071014404296875e-01 5.115246027708053589e-02 -4.703341983258724213e-03
5.856389999389648438e-01 1.117722764611244202e-01 -2.452211268246173859e-02
8.265019208192825317e-02 -8.415810763835906982e-03 -4.229125380516052246e-02
-3.004979491233825684e-01 3.343828022480010986e-03 5.947981029748916626e-02
2.694801688194274902e-01 -5.123868584632873535e-03 -6.036350876092910767e-02
3.395966887474060059e-01 1.231161952018737793e-01 4.026333987712860107e-02
8.378606438636779785e-01 -5.732938647270202637e-03 1.704989187419414520e-02
3.683537840843200684e-01 -1.358682662248611450e-02 7.439891993999481201e-02
5.024783611297607422e-01 -2.525287866592407227e-02 5.141790956258773804e-02
-4.013977646827697754e-01 1.339129358530044556e-01 5.028829723596572876e-02
-3.918225765228271484e-01 9.075806289911270142e-02 9.604978561401367188e-02
4.833135008811950684e-01 6.223293021321296692e-02 -8.767674118280410767e-02
5.563721060752868652e-03 1.066223457455635071e-01 9.056434035301208496e-02
1.681107133626937866e-01 1.394292414188385010e-01 2.736574038863182068e-02
6.684421300888061523e-01 -3.155023604631423950e-02 -7.284874096512794495e-03
-5.684667825698852539e-02 1.481709778308868408e-01 1.267049461603164673e-02
4.432320594787597656e-01 6.316158920526504517e-02 -8.840312808752059937e-02
5.058218240737915039e-01 7.507175207138061523e-02 7.081222534179687500e-02
4.401272535324096680e-01 -3.773394227027893066e-02 -4.780944436788558960e-03
-1.266155242919921875e-01 -1.243456453084945679e-02 6.034926325082778931e-02
