-6.654477119445800781e-01 7.731030136346817017e-02 -4.765366315841674805e-01
-7.907204031944274902e-01 1.892725527286529541e-01 4.429713785648345947e-01
-4.557607173919677734e-01 -1.955733448266983032e-02 -3.977487087249755859e-01
-1.153512120246887207e+00 3.227532804012298584e-01 1.774850785732269287e-01
-7.549113035202026367e-01 2.084498703479766846e-01 -3.713937401771545410e-01
-6.875533461570739746e-01 2.430161535739898682e-01 2.486191987991333008e-01
-8.020957708358764648e-01 2.839466631412506104e-01 -1.771810650825500488e-01
-4.070482552051544189e-01 9.974795579910278320e-02 6.189018115401268005e-02
-8.717872500419616699e-01 9.593049436807632446e-02 -4.295863509178161621e-01
-7.592545747756958008e-01 2.269984930753707886e-01 3.863660395145416260e-01
-8.484155535697937012e-01 3.173726499080657959e-01 -1.987896114587783813e-02
-8.840749263763427734e-01 2.260833531618118286e-01 -3.899373412132263184e-01
-1.104961872100830078e+00 1.566850841045379639e-01 -1.154644936323165894e-01
-4.601970314979553223e-01 1.164063960313796997e-01 -2.029481828212738037e-01
-3.792258799076080322e-01 -7.135603576898574829e-02 -3.067250251770019531e-01
-5.086471438407897949e-01 -1.135557070374488831e-01 2.700114995241165161e-02
-5.452412366867065430e-01 -1.122679486870765686e-01 -5.148490518331527710e-02
-1.063580513000488281e+00 1.259923726320266724e-01 -1.520732641220092773e-01
-4.712017178535461426e-01 -1.071341410279273987e-01 1.010598838329315186e-01
-8.642801642417907715e-01 2.873840183019638062e-02 2.050611376762390137e-01
-7.766401171684265137e-01 6.324574351310729980e-02 3.892170786857604980e-01
-7.138715386390686035e-01 -6.119865924119949341e-02 1.812047883868217468e-02
-5.475618243217468262e-01 1.919815540313720703e-01 -3.534345328807830811e-02
-7.581437826156616211e-01 2.434946000576019287e-01 3.502859473228454590e-01
-3.355204164981842041e-01 2.839002758264541626e-02 7.204455137252807617e-02
-4.924703240394592285e-01 1.153234317898750305e-01 2.863593697547912598e-01
-9.613116979598999023e-01 1.599519550800323486e-01 3.796456456184387207e-01
-5.829846858978271484e-01 -3.677231818437576294e-02 2.932587862014770508e-01
-6.347644925117492676e-01 2.021132111549377441e-01 -2.547429800033569336e-01
-4.435191154479980469e-01 -6.482056528329849243e-02 2.360068261623382568e-01
-4.575327932834625244e-01 2.444420009851455688e-02 -3.861980736255645752e-01
-1.099744319915771484e+00 2.076626271009445190e-01 -2.611637711524963379e-01
-1.071834206581115723e+00 3.086369931697845459e-01 -2.192347049713134766e-01
-1.010590076446533203e+00 3.526358604431152344e-01 1.528555620461702347e-02
-5.139093399047851562e-01 1.642100214958190918e-01 -1.269034147262573242e-01
-6.086925864219665527e-01 2.086395323276519775e-01 2.268982380628585815e-01
-8.105394840240478516e-01 3.063524365425109863e-01 1.183106452226638794e-01
-1.081367731094360352e+00 2.889742255210876465e-01 -2.514483034610748291e-01
-9.357048869132995605e-01 7.863931357860565186e-02 2.514872848987579346e-01
-1.071355581283569336e+00 1.234948560595512390e-01 -6.088602356612682343e-03
-8.587290644645690918e-01 7.867149263620376587e-02 3.532643914222717285e-01
-6.875815987586975098e-01 1.816190034151077271e-02 3.617750108242034912e-01
-1.000322103500366211e+00 3.456839323043823242e-01 1.724014282226562500e-01
-6.494855880737304688e-01 -6.527075916528701782e-02 1.442899703979492188e-01
-1.106875181198120117e+00 1.525362879037857056e-01 -1.655336469411849976e-03
-6.211776733398437500e-01 -4.874556511640548706e-02 2.410556077957153320e-01
-5.939288139343261719e-01 1.022962778806686401e-01 4.097955524921417236e-01
-4.611458480358123779e-01 1.205998063087463379e-01 -1.870738267898559570e-01
-6.050100922584533691e-01 2.232439219951629639e-01 -5.283571779727935791e-03
-8.780272006988525391e-01 2.868556082248687744e-01 -2.509176433086395264e-01
-3.754573464393615723e-01 7.201235741376876831e-02 -8.001192659139633179e-02
-9.896169900894165039e-01 3.479911386966705322e-01 1.362857073545455933e-01
-1.017660260200500488e+00 3.542328178882598877e-01 4.791945964097976685e-02
-3.783572316169738770e-01 6.860221922397613525e-02 -1.259636729955673218e-01
-7.380179762840270996e-01 -2.902113646268844604e-02 1.825280487537384033e-01
-7.500017881393432617e-01 2.354578822851181030e-01 3.616888821125030518e-01
-8.536642789840698242e-01 2.274574488401412964e-01 4.249930083751678467e-01
-8.198769688606262207e-01 7.106155157089233398e-02 -4.426478445529937744e-01
-5.121981501579284668e-01 1.508781611919403076e-01 2.260446250438690186e-01
-8.432896137237548828e-01 9.785244613885879517e-02 3.967507779598236084e-01
-5.622130036354064941e-01 -6.194623559713363647e-02 -3.724565207958221436e-01
-6.518860459327697754e-01 -6.303111463785171509e-02 -3.013496994972229004e-01
-7.182773947715759277e-01 2.037693262100219727e-01 3.956024348735809326e-01
-2.899743914604187012e-01 -5.100720375776290894e-02 7.002688013017177582e-03
-1.126847505569458008e+00 1.706762015819549561e-01 -2.522546797990798950e-02
-4.761933684349060059e-01 -5.336619168519973755e-02 -3.867590129375457764e-01
-4.556504189968109131e-01 -9.419925510883331299e-03 3.136909604072570801e-01
-9.815496206283569336e-01 3.266404867172241211e-01 -1.625269949436187744e-01
-9.314776659011840820e-01 3.337438404560089111e-02 -2.367171272635459900e-02
-1.019341230392456055e+00 8.743689954280853271e-02 1.210086885839700699e-02
-7.534755468368530273e-01 1.918570399284362793e-01 4.300836920738220215e-01
-8.415580987930297852e-01 2.999863624572753906e-01 -1.532632857561111450e-01
-4.641833305358886719e-01 1.425883322954177856e-01 4.485203325748443604e-02
-8.515278100967407227e-01 2.282705903053283691e-01 -3.802057206630706787e-01
-6.486056447029113770e-01 -6.987025588750839233e-02 -2.736349701881408691e-01
-9.059493541717529297e-01 3.327081799507141113e-01 1.295323371887207031e-01
-6.545595526695251465e-01 1.112540066242218018e-02 3.626722097396850586e-01
-1.001244783401489258e+00 3.437860012054443359e-01 -7.605726271867752075e-02
-5.542153120040893555e-01 1.479810774326324463e-01 3.183651864528656006e-01
-6.739146709442138672e-01 -3.027219325304031372e-02 -3.837248980998992920e-01
-8.818194866180419922e-01 7.222821563482284546e-02 -3.910391628742218018e-01
-9.762869477272033691e-01 3.177298009395599365e-01 -1.973482519388198853e-01
-1.020260453224182129e+00 3.042461574077606201e-01 -2.451456636190414429e-01
-8.731796741485595703e-01 2.899523079395294189e-01 -2.360513210296630859e-01
-7.177363038063049316e-01 -2.789535373449325562e-02 2.170536369085311890e-01
-6.309564709663391113e-01 1.366372108459472656e-01 4.125740528106689453e-01
-9.972590208053588867e-01 2.735681831836700439e-01 3.722087442874908447e-01
-9.506521224975585938e-01 1.509099006652832031e-01 -4.055182039737701416e-01
-7.228059172630310059e-01 1.057568937540054321e-02 3.259249627590179443e-01
-4.881610274314880371e-01 -1.224095597863197327e-01 -9.057155251502990723e-02
-1.095946311950683594e+00 1.511910855770111084e-01 -1.345298588275909424e-01
-5.011615157127380371e-01 1.635328531265258789e-01 -6.173422560095787048e-02
-3.045578598976135254e-01 -3.379083424806594849e-02 -1.607921421527862549e-01
-7.203210592269897461e-01 -1.227921992540359497e-02 2.677392065525054932e-01
-1.186291456222534180e+00 2.950800955295562744e-01 -7.083602249622344971e-02
-1.136745095252990723e+00 1.820164620876312256e-01 3.047778829932212830e-02
-6.729633212089538574e-01 2.556689679622650146e-01 4.063514620065689087e-02
-4.706100523471832275e-01 1.296227723360061646e-01 -1.738102287054061890e-01
-9.604505896568298340e-01 1.295550018548965454e-01 3.371864259243011475e-01
-8.779323101043701172e-01 1.256352812051773071e-01 4.073237478733062744e-01
-8.721221089363098145e-01 6.225928291678428650e-02 -3.847917914390563965e-01
-6.985096931457519531e-01 2.583529949188232422e-01 -9.889639914035797119e-02
-1.191037893295288086e+00 2.839261591434478760e-01 -5.570986121892929077e-02
-9.596531391143798828e-01 2.602471709251403809e-01 -3.398407697677612305e-01
-5.086054801940917969e-01 -7.429792732000350952e-02 2.168548703193664551e-01
-8.724540472030639648e-01 2.241745591163635254e-03 -7.274445146322250366e-02
-7.880854010581970215e-01 2.108678668737411499e-01 -3.859443366527557373e-01
-8.184325695037841797e-01 2.191533893346786499e-02 2.569847702980041504e-01
-4.383986294269561768e-01 1.052821800112724304e-01 -1.840156614780426025e-01
-6.623619794845581055e-01 5.841513723134994507e-02 -4.778715074062347412e-01
-1.126061916351318359e+00 3.177331387996673584e-01 -1.551289111375808716e-01
-8.116602301597595215e-01 2.514295876026153564e-01 -3.093631267547607422e-01
-7.636029720306396484e-01 2.828145027160644531e-01 1.967648267745971680e-01
-1.052935481071472168e+00 1.381324529647827148e-01 -2.402791976928710938e-01
-9.377238750457763672e-01 2.937959432601928711e-01 -2.622101306915283203e-01
-7.696561813354492188e-01 2.828169167041778564e-01 -1.179842874407768250e-01
-7.203329205513000488e-01 -4.531886428594589233e-02 -2.747507691383361816e-01
-3.976548314094543457e-01 9.363747388124465942e-02 -3.611669689416885376e-02
-4.913189411163330078e-01 -1.036197021603584290e-01 -2.693668007850646973e-01
-5.450418591499328613e-01 -8.733431249856948853e-02 1.530362665653228760e-01
-6.746522784233093262e-01 2.499930262565612793e-01 -8.396351337432861328e-02
-4.584749639034271240e-01 -1.021611765027046204e-01 -2.820838391780853271e-01
-6.611158847808837891e-01 2.273274511098861694e-01 -1.970150470733642578e-01
-8.226069808006286621e-01 -2.116907387971878052e-02 -6.486891210079193115e-02
-8.987944126129150391e-01 3.215849697589874268e-01 -1.087293401360511780e-01
-5.478698611259460449e-01 -1.099267676472663879e-01 -1.581307500600814819e-01
-8.403459787368774414e-01 2.089766263961791992e-01 -4.070133268833160400e-01
-5.248051881790161133e-01 -9.211484342813491821e-02 -3.004894554615020752e-01
-5.778788924217224121e-01 1.615617722272872925e-01 -2.959930300712585449e-01
-9.705821275711059570e-01 1.472687274217605591e-01 3.541021347045898438e-01
-1.026973605155944824e+00 9.425143152475357056e-02 -1.168609634041786194e-01
-5.889306664466857910e-01 -1.028949394822120667e-01 -9.537443518638610840e-02
-3.270694613456726074e-01 -1.006479784846305847e-01 3.987172245979309082e-02
-5.052365660667419434e-01 -7.575250416994094849e-02 -3.534580767154693604e-01
-9.727029800415039062e-01 2.526354491710662842e-01 3.964160978794097900e-01
-1.129117727279663086e+00 1.865501254796981812e-01 -1.404286026954650879e-01
-7.053718566894531250e-01 2.473173737525939941e-01 -1.891380846500396729e-01
-7.681434154510498047e-01 1.575791835784912109e-01 4.517593681812286377e-01
-7.284746170043945312e-01 1.716270148754119873e-01 -4.199890196323394775e-01
-5.405817031860351562e-01 7.383295893669128418e-02 3.851318061351776123e-01
-1.037572860717773438e+00 3.538541495800018311e-01 1.195238232612609863e-01
-8.178346753120422363e-01 1.118971109390258789e-01 -4.655470550060272217e-01
-8.045315146446228027e-01 -4.041783511638641357e-03 1.781418472528457642e-01
-4.428458511829376221e-01 8.646486699581146240e-02 -2.632659673690795898e-01
-8.010738492012023926e-01 -2.541541308164596558e-02 4.306636750698089600e-02
-7.964479923248291016e-01 3.008528649806976318e-01 1.317760348320007324e-01
-5.306499004364013672e-01 -1.155865415930747986e-01 -9.744434803724288940e-02
-7.979100346565246582e-01 -3.053840249776840210e-02 -1.310046017169952393e-01
-7.918474674224853516e-01 2.967002987861633301e-01 -6.129957363009452820e-02
-3.671728372573852539e-01 5.790024995803833008e-02 1.063817292451858521e-01
-6.868226528167724609e-01 7.345192134380340576e-03 3.418650329113006592e-01
-6.232875585556030273e-01 -9.078804403543472290e-02 -1.688620299100875854e-01
-5.406718850135803223e-01 -9.183827787637710571e-02 -2.920838892459869385e-01
-3.474075198173522949e-01 -9.061240404844284058e-02 -2.403415292501449585e-01
-1.090295076370239258e+00 3.555698394775390625e-01 2.088667824864387512e-02
-7.633277773857116699e-01 -4.381949454545974731e-02 -1.516010314226150513e-01
-6.369079351425170898e-01 -8.826091140508651733e-02 -1.889790594577789307e-02
-7.584609389305114746e-01 2.185769081115722656e-01 3.999580740928649902e-01
-9.919990301132202148e-01 1.574761867523193359e-01 3.444072008132934570e-01
-3.119824826717376709e-01 -2.364657074213027954e-02 -1.741281449794769287e-01
-5.038969516754150391e-01 6.161493435502052307e-02 3.605224192142486572e-01
-5.073943734169006348e-01 1.669939905405044556e-01 1.061923280358314514e-01
-8.938387036323547363e-01 3.263962268829345703e-01 1.699462383985519409e-01
-1.079819798469543457e+00 1.913577616214752197e-01 2.686713039875030518e-01
-8.641702532768249512e-01 9.325310587882995605e-03 -2.220965325832366943e-01
-8.286849260330200195e-01 3.129253983497619629e-01 1.009783670306205750e-01
-5.587018728256225586e-01 1.813230216503143311e-01 2.225601077079772949e-01
-6.170295476913452148e-01 -8.705558627843856812e-02 -2.229069322347640991e-01
-8.362591862678527832e-01 2.691017687320709229e-01 -2.765606939792633057e-01
-1.178003311157226562e+00 2.360768616199493408e-01 -5.108745396137237549e-02
-4.363206923007965088e-01 1.211890503764152527e-01 -6.187139078974723816e-02
-9.857229590415954590e-01 2.333849519491195679e-01 -3.673460483551025391e-01
-5.633795261383056641e-01 -8.454538136720657349e-02 -3.048487603664398193e-01
-9.108351469039916992e-01 2.542362362146377563e-02 3.398042917251586914e-02
-9.917713403701782227e-01 6.848865747451782227e-02 -2.353626489639282227e-02
-3.492614328861236572e-01 5.091612786054611206e-02 -4.967010580003261566e-03
-4.367918670177459717e-01 7.303357124328613281e-02 -2.856622040271759033e-01
-8.913022875785827637e-01 5.085164308547973633e-02 2.386368513107299805e-01
-7.711091041564941406e-01 3.190176934003829956e-02 3.357098102569580078e-01
-7.695016860961914062e-01 2.117991745471954346e-01 4.155537486076354980e-01
-7.101673483848571777e-01 2.596452832221984863e-02 3.646216988563537598e-01
-7.231292128562927246e-01 2.675447165966033936e-01 -1.038616225123405457e-01
-7.966413497924804688e-01 -2.665536850690841675e-02 -1.896285712718963623e-01
-9.768201112747192383e-01 8.302076160907745361e-02 -2.576138377189636230e-01
-6.995509862899780273e-01 -6.856415420770645142e-02 -1.380964070558547974e-01
-9.483168125152587891e-01 9.987257421016693115e-02 2.905476987361907959e-01
-6.484028100967407227e-01 -8.618084341287612915e-02 -1.123183295130729675e-01
-3.575536608695983887e-01 4.592397809028625488e-02 1.130629628896713257e-01
-2.939651906490325928e-01 -2.652584761381149292e-02 -6.258238106966018677e-02
-1.187186956405639648e+00 2.506374120712280273e-01 4.387288540601730347e-02
-2.913153469562530518e-01 -3.235716372728347778e-02 -4.851345345377922058e-02
-1.065552830696105957e+00 2.973092198371887207e-01 3.151937127113342285e-01
-7.073967456817626953e-01 2.569888532161712646e-01 2.200213968753814697e-01
-7.216740250587463379e-01 -1.679174602031707764e-03 2.966879010200500488e-01
-3.721726834774017334e-01 -1.156560704112052917e-01 -1.900197267532348633e-01
-9.081742763519287109e-01 2.885282933712005615e-01 -2.646405696868896484e-01
-8.469884395599365234e-01 1.659650355577468872e-02 -3.012948036193847656e-01
-9.505584836006164551e-01 4.671563953161239624e-02 3.048009797930717468e-02
-9.950317144393920898e-01 2.761836946010589600e-01 -3.086556494235992432e-01
-2.873075902462005615e-01 -6.539169698953628540e-02 -3.218270838260650635e-02
-4.884009659290313721e-01 1.376367509365081787e-01 2.123732268810272217e-01
-7.521188259124755859e-01 2.608946561813354492e-01 -2.085911482572555542e-01
-8.276128768920898438e-01 3.085137009620666504e-01 1.628729999065399170e-01
-9.073016643524169922e-01 2.761366367340087891e-01 -2.988657653331756592e-01
-5.609003305435180664e-01 1.354282498359680176e-01 -3.398401439189910889e-01
-6.025249958038330078e-01 2.193989008665084839e-01 1.223467886447906494e-01
-7.623767256736755371e-01 -4.526444524526596069e-02 -1.702508702874183655e-02
-1.171412587165832520e+00 2.234633862972259521e-01 -3.843990713357925415e-02
-6.688768863677978516e-01 -5.416711419820785522e-02 -3.158769011497497559e-01
-1.088775038719177246e+00 3.547330796718597412e-01 1.055276021361351013e-01
-6.781865358352661133e-01 -7.397503405809402466e-02 8.010064251720905304e-03
-5.923100709915161133e-01 1.917707026004791260e-01 -2.125407010316848755e-01
-1.105372190475463867e+00 2.410796582698822021e-01 2.867011725902557373e-01
-3.439139723777770996e-01 -1.073023602366447449e-01 4.357096552848815918e-02
-7.641186118125915527e-01 2.830773890018463135e-01 -1.006751433014869690e-01
-8.256078362464904785e-01 -1.971047371625900269e-02 -8.644376695156097412e-02
-9.706697463989257812e-01 2.647554576396942139e-01 3.876039683818817139e-01
-7.187342047691345215e-01 -2.740722149610519409e-02 -3.483851253986358643e-01
-6.478865742683410645e-01 -7.387287169694900513e-02 -2.522093355655670166e-01
-6.303749084472656250e-01 2.628430724143981934e-03 -4.531430900096893311e-01
-7.511101961135864258e-01 -5.097045749425888062e-02 -8.769555389881134033e-02
-6.318138241767883301e-01 -5.737414211034774780e-02 2.014451324939727783e-01
-3.199200034141540527e-01 -6.438841670751571655e-02 -2.201703786849975586e-01
-8.533361554145812988e-01 3.078795671463012695e-01 -1.244029253721237183e-01
-9.742127060890197754e-01 3.237609267234802246e-01 2.713838815689086914e-01
-5.514186620712280273e-01 1.696387976408004761e-01 -2.150869369506835938e-01
-1.166044235229492188e+00 3.206129670143127441e-01 -7.980286329984664917e-02
-5.663272738456726074e-01 -1.049269065260887146e-01 2.910236828029155731e-03
-1.012981772422790527e+00 8.200193196535110474e-02 -2.266187965869903564e-02
-6.678424477577209473e-01 -4.738805443048477173e-02 2.020168751478195190e-01
-7.957206964492797852e-01 -3.059387952089309692e-02 -1.468894183635711670e-01
-4.352724850177764893e-01 -1.268326342105865479e-01 -1.088045388460159302e-01
-7.725223898887634277e-01 2.947953343391418457e-01 8.058173209428787231e-02
-8.453713655471801758e-01 4.203155636787414551e-03 -2.483398467302322388e-01
-1.138540148735046387e+00 2.779327332973480225e-01 -2.016821056604385376e-01
-4.775597155094146729e-01 -1.182195171713829041e-01 -1.892610639333724976e-01
-9.015914201736450195e-01 3.324748873710632324e-01 -8.044298738241195679e-05
-6.370915174484252930e-01 1.884257793426513672e-01 3.447310626506805420e-01
-4.377627074718475342e-01 -1.256266236305236816e-01 -1.356086581945419312e-01
-1.015856027603149414e+00 3.286201357841491699e-01 -1.660472154617309570e-01
-1.003769636154174805e+00 3.525391221046447754e-01 8.074477314949035645e-02
-7.310785055160522461e-01 2.774282395839691162e-01 -2.737078815698623657e-02
-6.584553718566894531e-01 -1.739043742418289185e-02 3.034623265266418457e-01
-4.913246333599090576e-01 1.603478342294692993e-01 -3.232672810554504395e-03
-3.863480985164642334e-01 6.249369680881500244e-02 -1.889025568962097168e-01
-9.060270190238952637e-01 3.112673759460449219e-01 -1.770249009132385254e-01
-4.662213027477264404e-01 5.635181441903114319e-02 -3.623704910278320312e-01
-3.842485547065734863e-01 5.056076496839523315e-02 -2.225152105093002319e-01
-5.808991789817810059e-01 1.026701480150222778e-01 4.013255238533020020e-01
-4.176630973815917969e-01 1.077757179737091064e-01 -5.954211577773094177e-02
-9.152826666831970215e-01 3.232924938201904297e-01 -1.217005848884582520e-01
-7.369731664657592773e-01 2.757708728313446045e-01 -7.685045897960662842e-02
-7.233809232711791992e-01 -5.574377626180648804e-02 4.252121970057487488e-02
-7.282404303550720215e-01 -5.069943517446517944e-02 -2.227513641119003296e-01
-4.865200519561767578e-01 -7.313919812440872192e-02 -3.589019477367401123e-01
-3.784411847591400146e-01 -8.986387401819229126e-02 1.436504870653152466e-01
-3.456836044788360596e-01 -9.787752479314804077e-02 8.433638513088226318e-02
-3.079663217067718506e-01 -8.703506737947463989e-02 3.627266362309455872e-02
-7.167334556579589844e-01 3.297112137079238892e-02 -4.587033092975616455e-01
-6.730154752731323242e-01 -7.741490751504898071e-02 -2.219242602586746216e-02
-8.197842240333557129e-01 -7.390610873699188232e-03 1.242536753416061401e-01
-3.608096241950988770e-01 1.443067938089370728e-02 -2.482140809297561646e-01
-8.338432908058166504e-01 2.209879159927368164e-01 -3.870503902435302734e-01
-8.039352297782897949e-01 7.825481891632080078e-02 3.949696719646453857e-01
-8.580870628356933594e-01 1.143429130315780640e-01 4.075651764869689941e-01
-9.244296550750732422e-01 5.094812810420989990e-02 -2.651633024215698242e-01
-3.400855064392089844e-01 2.013789117336273193e-02 1.234890520572662354e-01
-1.000256180763244629e+00 1.358223706483840942e-01 -3.380342423915863037e-01
-1.014849901199340820e+00 1.355390399694442749e-01 2.686454653739929199e-01
-1.090322732925415039e+00 3.480541408061981201e-01 -6.135253235697746277e-02
-5.631073117256164551e-01 1.191689297556877136e-01 3.739125430583953857e-01
-6.947094798088073730e-01 2.401703894138336182e-01 -2.034158855676651001e-01
-8.118315935134887695e-01 8.749207854270935059e-02 -4.593399465084075928e-01
-1.159355640411376953e+00 2.189735472202301025e-01 1.087581515312194824e-01
-3.491514623165130615e-01 4.644214361906051636e-02 -8.863889425992965698e-02
-1.023322105407714844e+00 1.079321354627609253e-01 1.539721637964248657e-01
-5.303795337677001953e-01 -9.647294133901596069e-02 -2.793109118938446045e-01
-6.411090493202209473e-01 -8.175779134035110474e-02 4.825912043452262878e-02
-9.448356032371520996e-01 2.914847433567047119e-01 3.504492044448852539e-01
-7.707583904266357422e-01 8.987118303775787354e-02 4.245496690273284912e-01
-5.447056889533996582e-01 1.598519980907440186e-01 2.708897590637207031e-01
-7.460600733757019043e-01 -2.244734019041061401e-02 1.987218260765075684e-01
-8.355252146720886230e-01 1.631900072097778320e-01 4.480510354042053223e-01
-7.576321363449096680e-01 2.609201371669769287e-01 2.970239818096160889e-01
-1.108855247497558594e+00 1.547623574733734131e-01 -5.536743625998497009e-02
-1.006610512733459473e+00 1.505088806152343750e-01 3.139119744300842285e-01
-7.685331106185913086e-01 2.907066643238067627e-01 1.366266757249832153e-01
-1.177488446235656738e+00 2.360533475875854492e-01 6.484791636466979980e-02
-7.192210555076599121e-01 2.691971063613891602e-01 1.650998443365097046e-01
-7.806885242462158203e-01 2.790218591690063477e-01 -1.663976311683654785e-01
-8.564360141754150391e-01 1.072724387049674988e-01 -4.474452137947082520e-01
-3.513593673706054688e-01 4.186760634183883667e-02 9.976819157600402832e-02
-6.927007436752319336e-01 -6.602977961301803589e-02 4.562072455883026123e-02
-5.356358289718627930e-01 -1.140372231602668762e-01 -1.247055530548095703e-01
-5.518715381622314453e-01 1.528508812189102173e-01 -2.787323594093322754e-01
-3.149555027484893799e-01 -8.499719947576522827e-02 -1.861089617013931274e-01
-5.018021464347839355e-01 1.662920862436294556e-01 6.090077385306358337e-02
-3.316917419433593750e-01 -4.890637844800949097e-02 1.498516499996185303e-01
-8.331317305564880371e-01 3.019465506076812744e-01 2.270643115043640137e-01
-7.822989225387573242e-01 -3.408113867044448853e-02 3.284301608800888062e-02
-3.932893574237823486e-01 -1.538940519094467163e-02 -3.369430601596832275e-01
-6.241047382354736328e-01 1.135760769248008728e-01 -4.355813562870025635e-01
-3.114225864410400391e-01 -4.869399219751358032e-02 1.024894267320632935e-01
-7.890108227729797363e-01 6.018651649355888367e-02 3.766559362411499023e-01
-8.953962922096252441e-01 2.222331464290618896e-01 4.294700324535369873e-01
-5.218412280082702637e-01 -1.081904545426368713e-01 -2.220193296670913696e-01
-6.688946485519409180e-01 2.490622997283935547e-01 1.494924575090408325e-01
-1.011923193931579590e+00 3.484749495983123779e-01 1.585089117288589478e-01
-6.678436994552612305e-01 1.369018703699111938e-01 4.325040280818939209e-01
-8.999863862991333008e-01 1.766577214002609253e-01 -4.325265288352966309e-01
-9.410585165023803711e-01 1.051278486847877502e-01 3.134285807609558105e-01
-4.424996376037597656e-01 1.261998116970062256e-01 7.069026678800582886e-02
-9.180533885955810547e-01 1.454351693391799927e-01 4.000343978404998779e-01
-6.696109771728515625e-01 -4.003273695707321167e-02 2.279407382011413574e-01
-8.688293099403381348e-01 8.527450263500213623e-03 -1.992159783840179443e-01
-8.175524473190307617e-01 -1.399978995323181152e-03 -2.874321639537811279e-01
-9.326647520065307617e-01 9.359013289213180542e-02 2.981999218463897705e-01
-9.712934494018554688e-01 5.849767848849296570e-02 -1.260314583778381348e-01
-1.031097650527954102e+00 3.398270606994628906e-01 2.211097627878189087e-01
-6.381912827491760254e-01 2.330834269523620605e-01 1.650377660989761353e-01
-9.185601472854614258e-01 1.484176516532897949e-01 -4.269590675830841064e-01
-4.500389397144317627e-01 -1.261439621448516846e-01 -1.032211259007453918e-01
-8.946062326431274414e-01 1.656300574541091919e-02 2.705094590783119202e-02
-3.204363584518432617e-01 9.449765086174011230e-03 6.214413419365882874e-02
-7.980929017066955566e-01 2.501638531684875488e-01 -3.020012080669403076e-01
-5.322363376617431641e-01 -1.152002736926078796e-01 -6.870333105325698853e-02
-9.490818381309509277e-01 5.767260864377021790e-02 -2.258201241493225098e-01
-9.103745818138122559e-01 6.688964366912841797e-02 2.586781978607177734e-01
-3.752478063106536865e-01 6.832078844308853149e-02 9.323558211326599121e-02
-9.330385923385620117e-01 4.549714922904968262e-02 -2.117312848567962646e-01
-9.181072711944580078e-01 3.145424127578735352e-01 2.728662192821502686e-01
-1.125033855438232422e+00 2.439776360988616943e-01 2.559013366699218750e-01
-3.198771178722381592e-01 -1.861707121133804321e-02 -1.936062127351760864e-01
-5.845275521278381348e-01 1.936850547790527344e-01 -1.837519109249114990e-01
-7.317361235618591309e-01 -3.447122126817703247e-02 1.672765016555786133e-01
-4.582231342792510986e-01 8.880436420440673828e-03 -3.959193825721740723e-01
-3.075073957443237305e-01 -1.011657938361167908e-01 -5.155236646533012390e-02
-3.313351869583129883e-01 -8.190477639436721802e-02 1.048959270119667053e-01
-9.397660493850708008e-01 3.990940004587173462e-02 1.921723783016204834e-02
-2.971046566963195801e-01 -8.772956579923629761e-02 -2.070123329758644104e-02
-7.701596617698669434e-01 -2.189085632562637329e-02 -2.914893925189971924e-01
-1.048814892768859863e+00 3.550125956535339355e-01 4.446393810212612152e-03
-9.039375185966491699e-01 2.417003363370895386e-02 -1.752703934907913208e-01
-3.434874713420867920e-01 -1.153546199202537537e-01 -1.401083022356033325e-01
-3.851896524429321289e-01 -3.463112562894821167e-02 -3.313020169734954834e-01
-1.193509578704833984e+00 2.942264080047607422e-01 8.221293985843658447e-02
-6.184980273246765137e-01 -8.288408070802688599e-02 8.922617882490158081e-02
-7.068293690681457520e-01 5.382142961025238037e-03 -4.302479922771453857e-01
-4.576260447502136230e-01 1.350299865007400513e-01 9.538388252258300781e-02
-6.055778264999389648e-01 -8.728759735822677612e-02 8.147034794092178345e-02
-1.145415067672729492e+00 3.393706381320953369e-01 1.356424242258071899e-01
-6.727929711341857910e-01 2.424586117267608643e-01 2.152127027511596680e-01
-3.094614744186401367e-01 7.763952016830444336e-04 1.364245172590017319e-02
-1.075197219848632812e+00 1.589356064796447754e-01 -2.374576479196548462e-01
-1.000571250915527344e+00 3.111671805381774902e-01 -2.258003205060958862e-01
-6.651718616485595703e-01 2.166101932525634766e-01 -2.513993084430694580e-01
-3.477904796600341797e-01 9.829983115196228027e-03 1.670958399772644043e-01
-7.768083810806274414e-01 7.748977094888687134e-02 -4.681599140167236328e-01
-1.104573249816894531e+00 1.526380926370620728e-01 3.780508786439895630e-02
-5.755515098571777344e-01 -5.649857968091964722e-02 -3.798812329769134521e-01
-9.298014640808105469e-01 3.136044740676879883e-01 -1.872676312923431396e-01
-1.181116580963134766e+00 2.751528322696685791e-01 1.398902833461761475e-01
-8.205664157867431641e-01 2.139706611633300781e-01 -3.941671848297119141e-01
-5.785083770751953125e-01 2.077426463365554810e-01 -4.748095571994781494e-02
-7.712537646293640137e-01 1.178521364927291870e-01 4.448530375957489014e-01
-9.069738984107971191e-01 7.508815079927444458e-02 2.878296077251434326e-01
-8.011937141418457031e-01 2.245952337980270386e-01 4.135631918907165527e-01
-5.860896706581115723e-01 1.066464185714721680e-01 -4.167699515819549561e-01
-7.633537650108337402e-01 1.405958235263824463e-01 4.522440731525421143e-01
-1.112768888473510742e+00 2.942327260971069336e-01 -2.160865366458892822e-01
-4.656417667865753174e-01 1.160410046577453613e-01 2.276619523763656616e-01
-6.139051318168640137e-01 -4.088497906923294067e-02 2.691124081611633301e-01
-4.515786767005920410e-01 8.545400947332382202e-02 2.709490954875946045e-01
-8.099069595336914062e-01 1.594074070453643799e-02 -3.589515686035156250e-01
-1.179994583129882812e+00 3.261996507644653320e-01 4.894006066024303436e-03
-5.865674614906311035e-01 1.907536387443542480e-01 2.524183094501495361e-01
-3.816758990287780762e-01 -1.253527402877807617e-01 -5.037761107087135315e-02
-8.661202192306518555e-01 4.251524806022644043e-04 -1.203151941299438477e-01
-5.333414077758789062e-01 -9.832065552473068237e-02 1.078552901744842529e-01
-6.387869715690612793e-01 2.349606007337570190e-01 1.500792652368545532e-01
-6.237385272979736328e-01 -9.114814549684524536e-02 -4.519670270383358002e-03
-8.957237601280212402e-01 3.196302950382232666e-01 2.237721085548400879e-01
-7.209944725036621094e-01 1.994744390249252319e-01 -3.654545843601226807e-01
-4.079253971576690674e-01 1.024939417839050293e-01 1.564122363924980164e-02
-6.741831302642822266e-01 8.965291082859039307e-03 3.512522876262664795e-01
-6.419427394866943359e-01 -7.487160712480545044e-02 1.003181636333465576e-01
-4.413844645023345947e-01 -1.013493016362190247e-01 -2.836425006389617920e-01
-6.406066417694091797e-01 2.136700153350830078e-01 -2.183338403701782227e-01
-5.319369435310363770e-01 1.272597610950469971e-01 -3.179393112659454346e-01
-8.601484298706054688e-01 7.527850568294525146e-03 1.014220565557479858e-01
-4.975524842739105225e-01 4.495702683925628662e-03 3.462845087051391602e-01
-3.604551851749420166e-01 5.397726967930793762e-02 -1.148142442107200623e-01
-1.165149211883544922e+00 3.378196060657501221e-01 6.508348882198333740e-02
-5.163066983222961426e-01 7.695925235748291016e-02 -3.918659090995788574e-01
-5.206122994422912598e-01 1.646668165922164917e-01 1.877388954162597656e-01
-8.255812525749206543e-01 2.510897815227508545e-02 -3.620637059211730957e-01
-7.613280415534973145e-01 -4.187365621328353882e-02 3.923067077994346619e-02
-4.868576228618621826e-01 -1.153212040662765503e-02 3.283623158931732178e-01
-6.737296581268310547e-01 2.558594048023223877e-01 6.235239282250404358e-02
-6.475799083709716797e-01 1.983468532562255859e-01 3.350233435630798340e-01
-4.790271818637847900e-01 1.526401340961456299e-01 -3.576232120394706726e-04
-1.171518087387084961e+00 2.391411066055297852e-01 1.166094094514846802e-01
-9.990842342376708984e-01 2.322019636631011963e-01 3.906230628490447998e-01
-7.507580518722534180e-01 1.942019462585449219e-01 -3.958675861358642578e-01
-3.933727741241455078e-01 2.210572361946105957e-02 2.491479814052581787e-01
-6.876344680786132812e-01 2.607727348804473877e-01 -1.096533052623271942e-02
-1.155448675155639648e+00 2.303906083106994629e-01 -1.529320627450942993e-01
-7.474662661552429199e-01 2.829666435718536377e-01 1.351020187139511108e-01
-9.843981266021728516e-01 1.604808568954467773e-01 3.572147488594055176e-01
-1.048159360885620117e+00 3.453039228916168213e-01 -8.751095086336135864e-02
-8.018968701362609863e-01 9.906575083732604980e-03 2.399109601974487305e-01
-9.584914445877075195e-01 3.442517220973968506e-01 1.194452345371246338e-01
-7.422625422477722168e-01 2.821578085422515869e-01 1.165219247341156006e-01
-1.021212458610534668e+00 1.464973539113998413e-01 2.830647528171539307e-01
-4.295306503772735596e-01 1.665424555540084839e-02 -3.612670004367828369e-01
-8.252172470092773438e-01 -1.951243728399276733e-02 -1.039753928780555725e-01
-5.331633687019348145e-01 1.798370778560638428e-01 1.358674019575119019e-01
-9.692306518554687500e-01 7.440350949764251709e-02 -2.437742799520492554e-01
-3.761023879051208496e-01 -8.129075169563293457e-03 -3.075717687606811523e-01
-3.069351315498352051e-01 -2.852580696344375610e-02 8.215834200382232666e-02
-6.224571466445922852e-01 1.991434991359710693e-01 -2.439213395118713379e-01
-1.020054578781127930e+00 1.330214142799377441e-01 2.522113919258117676e-01
-6.717295050621032715e-01 2.486822903156280518e-01 1.658959090709686279e-01
-4.835902750492095947e-01 -1.168679073452949524e-01 2.721396833658218384e-02
-1.193945050239562988e+00 2.663962841033935547e-01 -1.034914515912532806e-03
-3.168385028839111328e-01 -1.077829226851463318e-01 -7.876838743686676025e-02
-9.369646310806274414e-01 1.765327453613281250e-01 4.121990799903869629e-01
-1.105396032333374023e+00 3.260768651962280273e-01 2.362879216670989990e-01
-1.122934103012084961e+00 2.557986378669738770e-01 2.675655186176300049e-01
-8.843758702278137207e-01 2.006846666336059570e-02 -2.234377115964889526e-01
-1.025086879730224609e+00 8.985623717308044434e-02 -4.345631226897239685e-02
-8.974431753158569336e-01 2.653748095035552979e-01 -3.212957382202148438e-01
-6.881499886512756348e-01 2.471653521060943604e-01 -1.501643210649490356e-01
-1.074231505393981934e+00 2.632154226303100586e-01 -2.883572280406951904e-01
-4.775893688201904297e-01 -1.154533401131629944e-01 4.480230435729026794e-02
-7.486839294433593750e-01 2.832181453704833984e-01 -4.042768478393554688e-02
-6.915457248687744141e-01 2.324753403663635254e-01 -2.321872562170028687e-01
-4.206577539443969727e-01 7.245965301990509033e-02 2.336825430393218994e-01
-7.411375641822814941e-01 2.068454027175903320e-01 -3.650660514831542969e-01
-5.621860623359680176e-01 -5.758788436651229858e-02 2.481426596641540527e-01
-5.071061849594116211e-01 -1.038140431046485901e-01 -2.602795958518981934e-01
-5.897846221923828125e-01 -9.809147566556930542e-02 -1.876339465379714966e-01
-9.559976458549499512e-01 4.694654047489166260e-02 -3.156930208206176758e-02
-7.013095021247863770e-01 -5.999999493360519409e-02 -2.270398437976837158e-01
-1.037992358207702637e+00 2.960396409034729004e-01 -2.604669034481048584e-01
-4.732406735420227051e-01 1.219020932912826538e-01 -2.167901545763015747e-01
-6.910893917083740234e-01 1.736329495906829834e-02 -4.525848329067230225e-01
-1.005636453628540039e+00 3.256677091121673584e-01 2.730492651462554932e-01
-1.100767016410827637e+00 3.084675967693328857e-01 -2.009551525115966797e-01
-7.682743668556213379e-01 2.539286315441131592e-01 3.327952325344085693e-01
-8.716048002243041992e-01 3.181193768978118896e-01 -8.367037773132324219e-02
-4.663614630699157715e-01 8.517491817474365234e-02 -3.115873634815216064e-01
-1.165762066841125488e+00 2.422529458999633789e-01 1.493403464555740356e-01
-6.589123010635375977e-01 -8.309686928987503052e-02 -5.978907272219657898e-02
-1.045624732971191406e+00 1.254214495420455933e-01 -2.197502404451370239e-01
-4.321876764297485352e-01 7.558299601078033447e-02 2.518512606620788574e-01
-9.429419040679931641e-01 5.698472633957862854e-02 -2.414747923612594604e-01
-4.900102019309997559e-01 1.227027922868728638e-02 -4.196805357933044434e-01
-9.284374713897705078e-01 2.966308891773223877e-01 -2.495700865983963013e-01
-4.442859888076782227e-01 3.089641779661178589e-02 3.128577172756195068e-01
-3.783140182495117188e-01 4.927221685647964478e-02 1.781060546636581421e-01
-7.197873592376708984e-01 2.301304340362548828e-01 -2.822140455245971680e-01
-8.041533231735229492e-01 1.045870482921600342e-01 4.256514310836791992e-01
-4.255823493003845215e-01 1.069072261452674866e-01 1.288223713636398315e-01
-8.990105390548706055e-01 3.031010031700134277e-01 -2.067452520132064819e-01
-1.119548916816711426e+00 3.314806222915649414e-01 -1.199900060892105103e-01
-5.152767896652221680e-01 -3.822407871484756470e-02 -4.127646088600158691e-01
-5.658333301544189453e-01 1.964535713195800781e-01 1.557061672210693359e-01
-3.034225404262542725e-01 -7.500730454921722412e-03 -5.835319310426712036e-02
-5.345234870910644531e-01 -1.065942868590354919e-01 5.092921480536460876e-02
-4.234372675418853760e-01 9.334453940391540527e-02 -1.875818818807601929e-01
-8.369525074958801270e-01 2.344270944595336914e-01 -3.637940287590026855e-01
-7.519566416740417480e-01 3.054311871528625488e-02 3.476867973804473877e-01
-1.179543852806091309e+00 3.071110844612121582e-01 1.376943886280059814e-01
-7.976059317588806152e-01 3.034052848815917969e-01 8.422299474477767944e-02
-7.083606123924255371e-01 2.559528052806854248e-01 -1.463167816400527954e-01
-8.506280779838562012e-01 2.005891501903533936e-01 -4.190778434276580811e-01
-9.189974069595336914e-01 2.048649191856384277e-01 4.288199841976165771e-01
-5.335289835929870605e-01 1.822683811187744141e-01 1.128339767456054688e-01
-8.214532136917114258e-01 -1.085003465414047241e-02 9.538275748491287231e-02
-1.186901569366455078e+00 2.497404217720031738e-01 -2.363882586359977722e-02
-3.630053400993347168e-01 2.620258182287216187e-02 -2.288444638252258301e-01
-4.390287399291992188e-01 5.419100075960159302e-02 2.925688028335571289e-01
-5.762140750885009766e-01 1.059956103563308716e-02 -4.566326737403869629e-01
-5.598400235176086426e-01 1.206363067030906677e-01 -3.693737983703613281e-01
-8.740772008895874023e-01 7.698993384838104248e-02 3.341357111930847168e-01
-7.324019670486450195e-01 2.411462366580963135e-02 3.481801748275756836e-01
-9.195529818534851074e-01 3.195227086544036865e-01 2.524666190147399902e-01
-5.916346311569213867e-01 -2.131735533475875854e-02 -4.334799647331237793e-01
-1.041392922401428223e+00 1.014283001422882080e-01 -1.236563455313444138e-02
-6.489981412887573242e-01 -8.581101149320602417e-02 -4.640394821763038635e-02
-9.720154404640197754e-01 1.104814037680625916e-01 2.797489464282989502e-01
-1.008271574974060059e+00 3.522925674915313721e-01 1.035531982779502869e-01
-3.962403237819671631e-01 -1.213189288973808289e-01 -1.759063303470611572e-01
-9.489220380783081055e-01 2.151422947645187378e-01 -3.952697217464447021e-01
-9.468585848808288574e-01 4.803692549467086792e-02 6.815447658300399780e-02
-6.838907003402709961e-01 -1.341360062360763550e-02 2.963254153728485107e-01
-9.859508275985717773e-01 1.171580851078033447e-01 2.733472287654876709e-01
-8.106693029403686523e-01 3.075085282325744629e-01 9.203331172466278076e-02
-7.768009901046752930e-01 8.077474683523178101e-02 4.124668836593627930e-01
-8.882627487182617188e-01 1.767598092555999756e-02 7.347715646028518677e-02
-6.140128374099731445e-01 -9.432416409254074097e-02 -1.545478254556655884e-01
-7.120435237884521484e-01 2.721246778964996338e-01 5.089222267270088196e-02
-1.058030366897583008e+00 3.208619654178619385e-01 2.788335680961608887e-01
-8.593602180480957031e-01 9.174436330795288086e-03 -2.364922016859054565e-01
-6.670576333999633789e-01 2.427863180637359619e-01 1.958488374948501587e-01
-1.057433366775512695e+00 3.567731976509094238e-01 6.244717910885810852e-02
-7.533656358718872070e-01 2.875670492649078369e-01 8.892890065908432007e-02
-6.598977446556091309e-01 -3.215796500444412231e-02 -3.895063996315002441e-01
-6.766356229782104492e-01 -6.203865259885787964e-02 1.165351569652557373e-01
-6.989318728446960449e-01 5.651651322841644287e-02 4.115248918533325195e-01
-5.676149129867553711e-01 1.473092734813690186e-01 3.387403786182403564e-01
-8.009815216064453125e-01 2.342022806406021118e-01 -3.453926444053649902e-01
-6.905078887939453125e-01 3.548166155815124512e-02 -4.681401848793029785e-01
-8.177515268325805664e-01 2.942280173301696777e-01 2.435033023357391357e-01
-9.605774879455566406e-01 8.584664016962051392e-02 -3.033946752548217773e-01
-1.006193876266479492e+00 7.938615977764129639e-02 2.029238641262054443e-02
-3.713700175285339355e-01 -7.205284386873245239e-02 1.768330186605453491e-01
-8.871051669120788574e-01 3.260719478130340576e-01 -4.341603443026542664e-02
-8.110345602035522461e-01 2.736662924289703369e-01 -2.358249574899673462e-01
-5.960515737533569336e-01 3.398797661066055298e-02 -4.658045470714569092e-01
-4.594280719757080078e-01 -1.246349886059761047e-01 -1.283011138439178467e-01
-6.043725609779357910e-01 2.166609466075897217e-01 1.605185568332672119e-01
-8.986436128616333008e-01 6.463395059108734131e-02 -3.552608788013458252e-01
-6.570742130279541016e-01 2.333210110664367676e-01 2.254915833473205566e-01
-1.149231314659118652e+00 3.453411161899566650e-01 5.839658901095390320e-02
-5.073637962341308594e-01 1.089722961187362671e-01 3.215036988258361816e-01
-5.002078413963317871e-01 8.940059691667556763e-02 3.375090956687927246e-01
-5.098321437835693359e-01 -1.000391617417335510e-01 -2.762753665447235107e-01
-8.826599717140197754e-01 3.033751845359802246e-01 2.858241796493530273e-01
-6.314305067062377930e-01 -8.303684741258621216e-02 6.128631904721260071e-02
-4.441135227680206299e-01 -9.549126774072647095e-02 1.543694585561752319e-01
-7.535183429718017578e-01 1.129402369260787964e-01 -4.753748476505279541e-01
-4.714658260345458984e-01 -1.228401437401771545e-01 -2.956569194793701172e-02
-9.495260715484619141e-01 4.757255315780639648e-02 4.816379025578498840e-02
-2.960263490676879883e-01 -8.232801407575607300e-02 -1.169094070792198181e-01
-6.393452882766723633e-01 1.592136919498443604e-01 -3.775916695594787598e-01
-4.505521953105926514e-01 1.233329996466636658e-01 -1.316851377487182617e-01
-1.005725383758544922e+00 3.166931569576263428e-01 2.992267012596130371e-01
-6.009792685508728027e-01 1.693575233221054077e-01 3.393703699111938477e-01
-7.083932161331176758e-01 2.687577605247497559e-01 -2.265865355730056763e-02
-7.789151668548583984e-01 2.568285167217254639e-01 -2.616526782512664795e-01
-4.384432435035705566e-01 -1.269780397415161133e-01 -7.884173095226287842e-02
-6.148912906646728516e-01 1.344806849956512451e-01 -4.000281095504760742e-01
-1.053364515304565430e+00 3.221467733383178711e-01 -1.888789981603622437e-01
-1.088395118713378906e+00 3.245221972465515137e-01 -1.676250547170639038e-01
-6.381301879882812500e-01 1.355934590101242065e-01 -4.167650043964385986e-01
-1.177019715309143066e+00 2.442045807838439941e-01 -8.754026144742965698e-02
-6.592025756835937500e-01 2.411888539791107178e-01 -1.033086106181144714e-01
-9.113055467605590820e-01 3.359558284282684326e-01 3.455168753862380981e-02
-6.531635522842407227e-01 -8.382094651460647583e-02 -2.674831077456474304e-02
-9.709517359733581543e-01 3.439358770847320557e-01 -3.664433583617210388e-02
-7.020529508590698242e-01 -6.522803753614425659e-02 -1.759403645992279053e-01
-5.291566848754882812e-01 -5.015926808118820190e-02 2.752963900566101074e-01
-8.505982756614685059e-01 3.190734684467315674e-01 1.112991273403167725e-01
-4.841812849044799805e-01 -6.417260318994522095e-02 2.452557086944580078e-01
-4.511136412620544434e-01 6.341612339019775391e-02 3.007339239120483398e-01
-4.815616011619567871e-01 -9.256631880998611450e-02 1.621087491512298584e-01
-9.562978148460388184e-01 3.423743546009063721e-01 -2.542042359709739685e-02
-5.258364081382751465e-01 1.805603802204132080e-01 -1.801948994398117065e-02
-5.502996444702148438e-01 -7.300543040037155151e-02 -3.495149612426757812e-01
-4.072561264038085938e-01 9.695692360401153564e-02 9.275241196155548096e-02
-6.175276041030883789e-01 1.368910819292068481e-01 4.029698371887207031e-01
-3.333239853382110596e-01 2.073278278112411499e-02 -1.387958079576492310e-01
-4.191233813762664795e-01 3.765845298767089844e-02 2.777027785778045654e-01
-8.654808402061462402e-01 2.569741606712341309e-01 -3.279177844524383545e-01
-1.055269718170166016e+00 2.378858327865600586e-01 -3.215329349040985107e-01
-5.587991476058959961e-01 1.772651076316833496e-01 2.405681014060974121e-01
-4.763037562370300293e-01 -2.317237108945846558e-02 3.119393289089202881e-01
-7.092300057411193848e-01 -5.167818814516067505e-02 1.148010045289993286e-01
-9.639642238616943359e-01 1.243819370865821838e-01 -3.709586262702941895e-01
-6.039880514144897461e-01 -5.917064100503921509e-02 2.191120237112045288e-01
-5.957332253456115723e-01 -1.799029856920242310e-02 3.284432888031005859e-01
-5.837673544883728027e-01 2.130922079086303711e-01 4.436298087239265442e-02
-7.798116207122802734e-01 6.026931107044219971e-03 2.572274506092071533e-01
-4.061231017112731934e-01 6.276734173297882080e-02 -2.449249029159545898e-01
-5.543431639671325684e-01 1.966754794120788574e-01 7.095669209957122803e-02
-3.341216444969177246e-01 -1.948424428701400757e-02 -2.354199141263961792e-01
-7.889211177825927734e-01 -5.897678434848785400e-03 -3.223365545272827148e-01
-3.568057119846343994e-01 -1.005695834755897522e-01 -2.299141287803649902e-01
-9.034192562103271484e-01 3.337876498699188232e-01 9.397700428962707520e-02
-9.495308399200439453e-01 3.060354888439178467e-01 3.178628683090209961e-01
-1.180709958076477051e+00 2.378005236387252808e-01 3.820880874991416931e-02
-4.339758157730102539e-01 2.418534457683563232e-02 3.032037615776062012e-01
-8.826407194137573242e-01 3.178431987762451172e-01 -1.079520732164382935e-01
-7.912587523460388184e-01 1.323084533214569092e-02 2.656917870044708252e-01
-7.053689956665039062e-01 -5.201719701290130615e-03 -4.135520756244659424e-01
-1.194627523422241211e+00 3.058754205703735352e-01 2.765560150146484375e-02
-8.196297287940979004e-01 3.750447928905487061e-02 -3.962036669254302979e-01
-5.874500274658203125e-01 2.088753581047058105e-01 1.506109088659286499e-01
-5.457528233528137207e-01 1.788274943828582764e-01 -1.507634222507476807e-01
-3.872779309749603271e-01 -1.212728992104530334e-01 9.545168839395046234e-03
-2.871114015579223633e-01 -6.645741313695907593e-02 -6.424067914485931396e-02
-6.822624206542968750e-01 1.961127668619155884e-01 -3.376246690750122070e-01
-1.036272048950195312e+00 1.297977417707443237e-01 -2.590383291244506836e-01
-6.522549390792846680e-01 -5.648454278707504272e-02 -3.267289996147155762e-01
-1.060990095138549805e+00 3.408400416374206543e-01 -1.128360852599143982e-01
-1.060948967933654785e+00 1.223290860652923584e-01 8.008137345314025879e-02
-8.338518738746643066e-01 3.580611944198608398e-02 -3.769022524356842041e-01
-7.127099037170410156e-01 -6.512533873319625854e-02 -1.011809110641479492e-01
-6.418083310127258301e-01 2.254517525434494019e-01 2.279059886932373047e-01
-3.365821242332458496e-01 2.567357569932937622e-02 9.036970138549804688e-02
-6.881143450736999512e-01 -5.257394164800643921e-02 1.499124169349670410e-01
-3.461676239967346191e-01 -4.191264510154724121e-03 -2.444576472043991089e-01
-1.072656273841857910e+00 1.991658806800842285e-01 -2.989975214004516602e-01
-4.000299274921417236e-01 -8.058201521635055542e-02 1.820153146982192993e-01
-1.136347055435180664e+00 2.027079463005065918e-01 1.514533758163452148e-01
-7.977498769760131836e-01 4.237771779298782349e-02 3.355408608913421631e-01
-4.161649644374847412e-01 8.220040798187255859e-02 1.983766704797744751e-01
-8.508926630020141602e-01 4.164565354585647583e-02 -3.687067627906799316e-01
-8.759927153587341309e-01 4.884243011474609375e-03 -1.102674081921577454e-01
-9.460468888282775879e-01 3.252692818641662598e-01 2.487860918045043945e-01
-8.003544807434082031e-01 2.523774504661560059e-01 3.655557036399841309e-01
-7.093337774276733398e-01 2.536092698574066162e-01 2.435127198696136475e-01
-4.896230995655059814e-01 2.825845777988433838e-02 -4.129411876201629639e-01
-7.826563119888305664e-01 -3.282255679368972778e-02 -1.882129460573196411e-01
-3.345365226268768311e-01 3.526503592729568481e-02 -2.338242903351783752e-02
-5.858577489852905273e-01 1.783493161201477051e-01 2.936667501926422119e-01
-9.523393511772155762e-01 2.669522166252136230e-01 -3.282050788402557373e-01
-7.975676655769348145e-01 1.976473033428192139e-01 -4.113877713680267334e-01
-6.942082047462463379e-01 2.639191150665283203e-01 9.117250144481658936e-02
-8.552991747856140137e-01 3.215580880641937256e-01 3.844131156802177429e-02
-8.401139974594116211e-01 3.162570297718048096e-01 5.947778932750225067e-03
-3.916988670825958252e-01 -6.384978443384170532e-02 2.089519351720809937e-01
-8.623908162117004395e-01 3.130688965320587158e-01 2.105291634798049927e-01
