4.787832498550415039e-01 -6.990928202867507935e-03 1.197032257914543152e-02
4.251633286476135254e-01 8.447961509227752686e-02 -4.805984348058700562e-02
6.303896903991699219e-01 -1.814302057027816772e-02 1.377339102327823639e-02
7.109508514404296875e-01 6.658412516117095947e-03 -4.170946776866912842e-02
-7.263273000717163086e-03 1.049646362662315369e-01 -5.753676593303680420e-02
1.384030729532241821e-01 1.532330736517906189e-02 8.151543885469436646e-02
6.292097568511962891e-01 5.367416888475418091e-03 -3.387893736362457275e-02
-1.389696896076202393e-01 5.910032987594604492e-02 1.488841511309146881e-02
3.049814999103546143e-01 4.738774150609970093e-03 2.042573317885398865e-02
5.243360400199890137e-01 6.496061384677886963e-02 -3.326356410980224609e-03
1.113069504499435425e-01 1.958629861474037170e-02 8.289898931980133057e-02
5.319997072219848633e-01 4.404530301690101624e-02 3.943557292222976685e-02
4.702880382537841797e-01 2.041344903409481049e-02 7.825054973363876343e-02
4.007577896118164062e-02 7.406556606292724609e-02 5.697171390056610107e-02
2.935672402381896973e-01 4.229810461401939392e-02 7.423531264066696167e-02
8.048385381698608398e-02 2.099255658686161041e-02 4.632616043090820312e-02
9.212895631790161133e-01 -5.396388471126556396e-03 2.703280933201313019e-02
8.172170519828796387e-01 2.797316759824752808e-03 -4.025872796773910522e-02
2.282057851552963257e-01 5.877030640840530396e-02 -5.898258090019226074e-02
3.330218791961669922e-02 6.200137734413146973e-02 7.147818058729171753e-02
7.151131629943847656e-01 1.593779772520065308e-03 6.362456828355789185e-02
7.183092832565307617e-01 -2.896539866924285889e-02 6.279640644788742065e-02
4.590012431144714355e-01 8.113394677639007568e-02 -5.543674528598785400e-02
2.715924680233001709e-01 4.210025444626808167e-02 -4.503642022609710693e-02
7.386002540588378906e-01 -4.584778100252151489e-03 -2.710582502186298370e-02
2.334150969982147217e-01 1.687722839415073395e-02 9.241140633821487427e-02
2.436432242393493652e-02 1.036938130855560303e-01 1.807345543056726456e-03
8.330218791961669922e-01 2.469652518630027771e-02 1.078315079212188721e-03
4.518976807594299316e-01 9.257659316062927246e-03 -1.904370263218879700e-02
5.626342892646789551e-01 6.955504417419433594e-02 -5.941010266542434692e-02
3.463602066040039062e-01 8.134344220161437988e-02 -1.156601123511791229e-03
-1.994161307811737061e-01 6.573727726936340332e-02 2.574273757636547089e-02
-1.559293568134307861e-01 1.088954582810401917e-01 -3.738921135663986206e-02
5.154916048049926758e-01 1.161622442305088043e-02 -3.165265172719955444e-02
6.094874143600463867e-01 -2.477927505970001221e-02 6.960654258728027344e-02
5.171242356300354004e-02 5.052208155393600464e-02 8.060837537050247192e-02
3.861307799816131592e-01 2.603478729724884033e-03 6.754854694008827209e-03
2.532950043678283691e-01 5.224527046084403992e-02 6.664895266294479370e-02
-5.275112390518188477e-02 8.414360880851745605e-02 4.865909367799758911e-02
4.229194819927215576e-01 7.844555377960205078e-02 -1.369961723685264587e-02
8.408955335617065430e-01 1.518072560429573059e-02 1.895125210285186768e-02
1.144031733274459839e-01 7.609118521213531494e-02 -6.118988245725631714e-02
6.018360257148742676e-01 -5.402781069278717041e-03 -1.196468435227870941e-02
4.657122492790222168e-02 6.669932603836059570e-02 -4.255229979753494263e-02
1.764937788248062134e-01 9.161058068275451660e-02 8.013250306248664856e-03
7.246468663215637207e-01 2.927047386765480042e-02 2.441084012389183044e-02
-5.737906694412231445e-02 6.909790635108947754e-02 6.682813912630081177e-02
-1.288585960865020752e-01 7.677101343870162964e-02 5.919308215379714966e-02
-2.068668901920318604e-01 8.743312954902648926e-02 4.501941800117492676e-02
1.408174186944961548e-01 1.559388637542724609e-02 3.964658081531524658e-02
1.646696925163269043e-01 4.604965075850486755e-02 -3.449331969022750854e-02
7.175585031509399414e-01 1.605594530701637268e-02 -5.278289318084716797e-02
8.068307042121887207e-01 -1.793286576867103577e-02 -7.391182705760002136e-03
3.633598685264587402e-01 8.989262580871582031e-02 -5.624219775199890137e-02
-2.093656361103057861e-01 9.852053225040435791e-02 2.938742749392986298e-02
9.377158880233764648e-01 -1.001410186290740967e-03 -2.917719818651676178e-02
-8.650505542755126953e-02 5.241113156080245972e-02 1.198904030025005341e-02
2.317478507757186890e-01 7.123096287250518799e-02 4.134054481983184814e-02
1.590228229761123657e-01 2.784477919340133667e-02 -9.017111733555793762e-04
-2.566713392734527588e-01 1.074458435177803040e-01 2.099761739373207092e-03
8.520975708961486816e-02 2.263322286307811737e-02 8.184168487787246704e-02
6.321581006050109863e-01 6.208478659391403198e-02 -5.123797059059143066e-02
9.251251220703125000e-01 -1.851492375135421753e-02 3.735079616308212280e-02
-2.402146160602569580e-01 1.014193892478942871e-01 2.203681319952011108e-02
6.882058382034301758e-01 -1.583414152264595032e-02 -6.247833371162414551e-04
-4.836720228195190430e-02 1.021192073822021484e-01 1.525265723466873169e-02
3.509623706340789795e-01 5.890037864446640015e-02 4.495257139205932617e-02
4.349035024642944336e-02 1.110869571566581726e-01 -3.973381966352462769e-02
-4.760670661926269531e-02 1.132802888751029968e-01 -4.221151769161224365e-02
5.422034859657287598e-01 6.409149616956710815e-02 -7.359931617975234985e-02
4.483313858509063721e-01 -1.419304311275482178e-02 4.587308317422866821e-02
6.554672718048095703e-01 -2.788988500833511353e-02 6.045662611722946167e-02
2.865086495876312256e-01 8.083445578813552856e-02 1.325006876140832901e-02
3.684699535369873047e-02 8.362762629985809326e-02 4.291421175003051758e-02
5.320394635200500488e-01 -2.160179615020751953e-02 6.343480199575424194e-02
-1.318092346191406250e-01 6.569856405258178711e-02 -2.108748070895671844e-03
9.023327827453613281e-01 3.963366150856018066e-03 1.940492168068885803e-02
6.348776817321777344e-01 3.710077702999114990e-02 3.093737736344337463e-02
-5.095541477203369141e-02 4.123274609446525574e-02 7.431150227785110474e-02
5.645635724067687988e-01 3.495412319898605347e-02 4.801650345325469971e-02
5.452463626861572266e-01 7.225495576858520508e-02 -5.261343717575073242e-02
6.084730029106140137e-01 9.049139916896820068e-03 7.215433567762374878e-02
-7.697042822837829590e-02 9.910544753074645996e-02 2.445957064628601074e-02
-1.193373203277587891e-01 4.791582375764846802e-02 5.646047741174697876e-02
4.643628001213073730e-01 4.808161780238151550e-02 4.462801665067672729e-02
2.792041003704071045e-01 3.366734459996223450e-02 8.355093002319335938e-02
8.997156620025634766e-01 2.003918401896953583e-02 -2.741525135934352875e-02
1.730429232120513916e-01 7.745468616485595703e-02 3.829532116651535034e-02
4.039112627506256104e-01 2.942190319299697876e-02 7.669708877801895142e-02
5.147044658660888672e-01 -5.705215036869049072e-03 8.799103647470474243e-02
6.318085193634033203e-01 2.947283163666725159e-02 4.411035031080245972e-02
6.950214505195617676e-02 7.313570380210876465e-02 5.601833015680313110e-02
6.153565645217895508e-01 6.415735930204391479e-02 -4.475627094507217407e-02
2.762943804264068604e-01 1.282473653554916382e-02 6.183974444866180420e-03
1.099405884742736816e-01 5.321159958839416504e-02 -3.561069071292877197e-02
5.686631798744201660e-01 3.151927888393402100e-02 -6.158102303743362427e-02
2.220476716756820679e-01 8.861805498600006104e-02 6.917616818100214005e-03
7.096655368804931641e-01 3.950783237814903259e-02 7.093210238963365555e-03
5.915858745574951172e-01 -1.018529385328292847e-02 8.371019363403320312e-02
6.464370489120483398e-01 -2.728042006492614746e-02 4.834663867950439453e-02
3.050841391086578369e-01 1.778441295027732849e-02 -1.065919175744056702e-02
6.163054704666137695e-02 1.092564761638641357e-01 -2.809953875839710236e-02
5.527094602584838867e-01 6.663967669010162354e-02 -1.827594265341758728e-02
2.150943130254745483e-01 7.002220302820205688e-02 4.556260257959365845e-02
4.125858247280120850e-01 2.465262450277805328e-02 -3.905951231718063354e-02
9.120228290557861328e-01 1.223622076213359833e-02 -3.786341100931167603e-02
-3.255963325500488281e-02 6.079769134521484375e-02 -1.921621151268482208e-02
8.040558099746704102e-01 -9.176731109619140625e-04 5.045165866613388062e-02
4.789116680622100830e-01 1.888850145041942596e-02 -3.856320679187774658e-02
4.952576160430908203e-01 -1.916364952921867371e-02 6.678410619497299194e-02
1.314511150121688843e-01 5.838593840599060059e-02 6.988030672073364258e-02
2.167733609676361084e-01 1.006750985980033875e-01 -5.765823274850845337e-02
3.712794780731201172e-01 -9.417224675416946411e-03 5.548431724309921265e-02
9.420302510261535645e-02 9.003896266222000122e-02 2.460044994950294495e-02
8.649997711181640625e-01 9.184930473566055298e-03 2.236603759229183197e-02
3.463793098926544189e-01 -5.967162549495697021e-03 8.101958036422729492e-02
-1.459366083145141602e-01 7.042624056339263916e-02 -6.555618718266487122e-03
9.511982202529907227e-01 -1.710594445466995239e-02 -7.871257141232490540e-03
1.540395170450210571e-01 9.861581027507781982e-02 -7.296353578567504883e-03
1.722417622804641724e-01 6.146483868360519409e-02 6.279660761356353760e-02
3.731472492218017578e-01 8.633544296026229858e-02 -2.657778374850749969e-02
3.607621788978576660e-02 1.095743477344512939e-01 -5.288700759410858154e-02
6.354002356529235840e-01 5.926217138767242432e-02 -2.623021416366100311e-02
9.557936191558837891e-01 -7.353350520133972168e-04 5.912747234106063843e-03
7.786419391632080078e-01 -2.949500083923339844e-02 2.832840383052825928e-02
1.499226987361907959e-01 2.922251075506210327e-02 9.013544768095016479e-02
8.179557323455810547e-01 1.185942627489566803e-02 3.090149722993373871e-02
8.266317844390869141e-02 1.082208678126335144e-01 -5.328997969627380371e-02
8.797580003738403320e-01 -4.596911370754241943e-03 3.766727820038795471e-02
7.262259721755981445e-01 -1.770215854048728943e-02 -7.820446044206619263e-04
2.816295027732849121e-01 3.516505286097526550e-02 -3.670965135097503662e-02
-2.704398334026336670e-01 9.816960990428924561e-02 2.239056676626205444e-02
9.725600481033325195e-02 4.369234293699264526e-02 8.432430028915405273e-02
-2.938389778137207031e-03 4.633206501603126526e-02 1.889197155833244324e-04
5.910506844520568848e-02 3.458367660641670227e-02 9.528119117021560669e-03
-9.137335419654846191e-02 4.488712549209594727e-02 3.857570514082908630e-02
1.874956637620925903e-01 9.916085004806518555e-02 -6.638723611831665039e-02
3.300819993019104004e-01 -1.165792346000671387e-03 3.212652355432510376e-02
2.535949349403381348e-01 2.778820134699344635e-02 -2.011533267796039581e-02
-2.939167618751525879e-02 3.925638645887374878e-02 2.709497511386871338e-02
-1.533715426921844482e-01 9.991984069347381592e-02 2.697420120239257812e-02
3.499802052974700928e-01 8.915057778358459473e-02 -3.039949573576450348e-02
3.185676038265228271e-01 1.005330681800842285e-02 3.320276271551847458e-03
2.217427641153335571e-01 9.003414958715438843e-02 -7.336745411157608032e-02
-1.489308774471282959e-01 8.911031484603881836e-02 4.457351565361022949e-02
-6.138896942138671875e-02 4.456805437803268433e-02 2.386189438402652740e-02
4.246761500835418701e-01 -1.227820292115211487e-02 4.548985511064529419e-02
1.877968460321426392e-01 1.040895283222198486e-02 4.053338617086410522e-02
1.099475175142288208e-01 1.615067012608051300e-02 5.681365728378295898e-02
7.031899690628051758e-02 2.956141531467437744e-02 1.920555159449577332e-02
1.051979660987854004e-01 2.242137119174003601e-02 2.881563827395439148e-02
4.741068482398986816e-01 2.831295132637023926e-03 -9.985469281673431396e-03
5.512995719909667969e-01 -1.846555992960929871e-02 8.033417165279388428e-02
2.687306106090545654e-01 4.413822665810585022e-02 7.452225685119628906e-02
4.263684749603271484e-01 7.064066827297210693e-02 7.566026877611875534e-03
9.154113531112670898e-01 -2.905149012804031372e-02 3.306522965431213379e-02
7.032101750373840332e-01 -2.503032982349395752e-02 2.277792245149612427e-02
4.433378577232360840e-01 6.134951859712600708e-02 2.454104460775852203e-02
5.064650177955627441e-01 7.555656135082244873e-02 -6.099246442317962646e-02
1.038732677698135376e-01 8.184635639190673828e-02 3.901514410972595215e-02
-1.490679383277893066e-02 1.053258776664733887e-01 2.931314520537853241e-03
1.984324604272842407e-01 5.659645423293113708e-02 6.654770672321319580e-02
1.391760259866714478e-01 1.024067550897598267e-01 -1.721987314522266388e-02
5.006227493286132812e-01 2.265445888042449951e-02 7.268910855054855347e-02
2.323639839887619019e-01 9.826830029487609863e-02 -2.831081114709377289e-02
6.591430902481079102e-01 3.532877564430236816e-02 2.877487614750862122e-02
6.458035707473754883e-01 -8.554395288228988647e-03 7.886410504579544067e-02
8.167231082916259766e-02 6.781014055013656616e-02 6.217458844184875488e-02
3.606914579868316650e-01 -9.077213704586029053e-03 6.925100088119506836e-02
4.471643269062042236e-01 4.640426486730575562e-02 -6.743346154689788818e-02
-1.732523143291473389e-01 9.212588518857955933e-02 -2.818501181900501251e-02
1.510995626449584961e-02 4.636686295270919800e-02 -4.608923569321632385e-03
5.075200200080871582e-01 3.806906938552856445e-02 -6.405453383922576904e-02
9.541183710098266602e-01 -4.327263683080673218e-03 -2.348994836211204529e-02
-1.458801925182342529e-01 1.089800372719764709e-01 5.592824891209602356e-03
2.366013675928115845e-01 5.165609717369079590e-02 6.898593157529830933e-02
3.693054020404815674e-01 1.795201748609542847e-02 -2.208421193063259125e-02
-1.897912919521331787e-01 8.982004225254058838e-02 4.304185509681701660e-02
2.146126031875610352e-01 1.273700967431068420e-02 9.017685800790786743e-02
4.861019849777221680e-01 7.326144725084304810e-02 -7.187090814113616943e-02
1.120240688323974609e-01 3.701397031545639038e-02 -9.078986942768096924e-03
4.231002628803253174e-01 3.480269759893417358e-02 -5.370131880044937134e-02
2.712790966033935547e-01 9.615890681743621826e-02 -6.207887083292007446e-02
3.222457766532897949e-01 7.163498550653457642e-02 2.653302624821662903e-02
9.260174036026000977e-01 5.491562187671661377e-03 7.515694946050643921e-03
8.481168746948242188e-01 2.266149967908859253e-02 1.969970762729644775e-04
2.463669180870056152e-01 7.638013362884521484e-02 2.977520227432250977e-02
2.415607571601867676e-01 1.678206026554107666e-03 6.664767116308212280e-02
2.483376115560531616e-01 3.515243530273437500e-03 4.432605206966400146e-02
3.907425403594970703e-01 8.404943346977233887e-02 -6.980022788047790527e-02
5.355873703956604004e-02 2.341498620808124542e-02 5.134824663400650024e-02
6.055957078933715820e-01 -1.727756857872009277e-02 1.570666953921318054e-02
9.035149812698364258e-01 -3.229960799217224121e-03 -3.120468370616436005e-02
-2.272341549396514893e-01 8.871667832136154175e-02 4.182624816894531250e-02
9.388043880462646484e-01 -3.859441727399826050e-03 1.893315091729164124e-02
-5.208939313888549805e-02 5.299441516399383545e-02 -1.258635893464088440e-04
1.624964028596878052e-01 1.045176200568675995e-02 7.403704524040222168e-02
7.856102585792541504e-01 1.371113024652004242e-02 -5.121358484029769897e-02
5.768994092941284180e-01 4.656894877552986145e-02 -7.232014089822769165e-02
1.846753060817718506e-01 1.002217382192611694e-01 -2.110701613128185272e-02
4.866161942481994629e-01 1.889350265264511108e-02 7.786221802234649658e-02
-2.976310253143310547e-02 1.079994812607765198e-01 -5.371197313070297241e-02
-1.127967834472656250e-01 9.838978946208953857e-02 -4.420250654220581055e-02
7.453658580780029297e-01 3.410341963171958923e-02 8.767372928559780121e-03
4.220536053180694580e-01 1.960806734859943390e-02 8.353761583566665649e-02
8.608219027519226074e-02 7.995411753654479980e-02 4.416145384311676025e-02
1.449882686138153076e-01 4.744279012084007263e-02 7.997324317693710327e-02
3.105119466781616211e-01 6.415420770645141602e-02 4.221738129854202271e-02
6.014771461486816406e-01 5.767517536878585815e-02 -6.527950987219810486e-03
2.317633330821990967e-01 1.333870925009250641e-02 1.599578745663166046e-02
3.416022062301635742e-01 4.973048344254493713e-02 5.995643138885498047e-02
2.686275839805603027e-01 3.126349300146102905e-02 -2.861694805324077606e-02
3.501074612140655518e-01 9.120763838291168213e-02 -4.820302128791809082e-02
2.226425558328628540e-01 3.640297800302505493e-03 6.275695562362670898e-02
7.391694188117980957e-02 1.097265928983688354e-01 -4.089891165494918823e-02
3.257485330104827881e-01 8.586183190345764160e-02 -9.252833202481269836e-03
3.948538005352020264e-01 8.712741732597351074e-02 -4.519055783748626709e-02
6.835210323333740234e-01 2.281726710498332977e-02 -5.827130377292633057e-02
6.658408641815185547e-01 -3.021158277988433838e-03 -2.367837168276309967e-02
3.501033484935760498e-01 7.537019252777099609e-02 1.315948925912380219e-02
7.011902332305908203e-01 5.202066153287887573e-02 -3.092656470835208893e-02
4.102798104286193848e-01 6.414202600717544556e-02 2.538597211241722107e-02
3.951259255409240723e-01 5.902748554944992065e-02 3.773187845945358276e-02
8.107815980911254883e-01 -3.080876916646957397e-02 5.265028774738311768e-02
5.981436371803283691e-01 6.415913999080657959e-02 -2.906715683639049530e-02
9.230327606201171875e-02 3.097975254058837891e-02 8.897007443010807037e-03
-1.864389479160308838e-01 7.073337584733963013e-02 5.889713019132614136e-02
-1.031942963600158691e-01 9.609875082969665527e-02 3.200133889913558960e-02
-1.819246113300323486e-01 6.042690947651863098e-02 3.459751605987548828e-02
3.548682928085327148e-01 -5.196459591388702393e-03 3.936900943517684937e-02
1.209531426429748535e-01 9.291645884513854980e-02 1.434555277228355408e-02
-1.118940114974975586e-01 8.486729115247726440e-02 -3.429895639419555664e-02
9.918192028999328613e-02 1.083540543913841248e-01 -3.866963088512420654e-02
7.774683833122253418e-01 -1.068149134516716003e-02 6.309263408184051514e-02
1.127464473247528076e-01 6.352043896913528442e-02 6.521135568618774414e-02
1.845686435699462891e-01 1.459859497845172882e-02 2.637628465890884399e-02
6.090602278709411621e-02 8.578106760978698730e-02 3.681501746177673340e-02
6.564992666244506836e-01 5.738792568445205688e-02 -2.952644042670726776e-02
2.480226755142211914e-02 1.117719486355781555e-01 -4.176527261734008789e-02
3.008848428726196289e-01 7.778631150722503662e-02 1.743638142943382263e-02
8.296346664428710938e-01 3.950569778680801392e-03 3.934215009212493896e-02
-2.282656729221343994e-01 1.103417947888374329e-01 -1.701841130852699280e-02
8.681440353393554688e-01 -2.721872180700302124e-02 1.266595907509326935e-02
1.871894598007202148e-01 4.151956364512443542e-02 -3.142774850130081177e-02
7.510458230972290039e-01 2.720400691032409668e-03 -3.851632028818130493e-02
2.195411473512649536e-01 1.019832491874694824e-02 2.909914776682853699e-02
6.438769698143005371e-01 -2.439244091510772705e-02 3.224984556436538696e-02
-2.993687987327575684e-02 7.064285874366760254e-02 -3.386788815259933472e-02
1.384351700544357300e-01 8.782520890235900879e-02 2.301646955311298370e-02
-9.517613053321838379e-02 7.668416947126388550e-02 5.946180224418640137e-02
6.252887248992919922e-01 -2.595435082912445068e-02 4.627787321805953979e-02
-2.876102924346923828e-03 1.126919910311698914e-01 -4.092106223106384277e-02
4.809501767158508301e-01 4.347677901387214661e-02 -6.712803244590759277e-02
1.824529021978378296e-01 5.171153321862220764e-02 7.349398732185363770e-02
4.637088179588317871e-01 2.580738998949527740e-02 -4.658289998769760132e-02
8.078048229217529297e-01 -3.135834634304046631e-02 3.494568169116973877e-02
-2.345698177814483643e-01 8.013498783111572266e-02 6.619475781917572021e-03
8.542023897171020508e-01 -1.884222403168678284e-02 -7.809885777533054352e-03
1.737949401140213013e-01 1.243313960731029510e-02 8.436521887779235840e-02
4.226282835006713867e-01 9.058870375156402588e-03 -1.408689841628074646e-02
6.128104925155639648e-01 1.152746379375457764e-03 -2.541561238467693329e-02
-2.355858981609344482e-01 1.097538322210311890e-01 -6.204657256603240967e-04
2.674098014831542969e-01 2.015388198196887970e-02 -8.138854056596755981e-03
7.827717065811157227e-01 3.073540329933166504e-02 4.545803181827068329e-03
3.217691183090209961e-02 5.055214464664459229e-02 8.072512596845626831e-02
2.557762265205383301e-01 8.101545274257659912e-03 9.026037901639938354e-02
8.586353063583374023e-01 -2.103623747825622559e-02 5.335422605276107788e-02
1.635953485965728760e-01 8.885367959737777710e-02 1.685929670929908752e-02
4.874361455440521240e-01 2.986490726470947266e-04 8.872056752443313599e-02
3.112803697586059570e-01 3.160205483436584473e-02 -3.570733964443206787e-02
3.143526911735534668e-01 8.746944367885589600e-02 -7.317559421062469482e-02
5.016510486602783203e-01 -1.393707096576690674e-02 8.439024537801742554e-02
3.468652665615081787e-01 3.584727644920349121e-03 9.208565205335617065e-02
6.583837270736694336e-01 -1.057227700948715210e-02 -8.522510528564453125e-03
4.505269229412078857e-01 5.211354419589042664e-02 4.029642045497894287e-02
-2.165468633174896240e-01 8.680361509323120117e-02 -1.081928052008152008e-02
8.169941902160644531e-01 2.371081151068210602e-02 9.230310097336769104e-03
2.929034531116485596e-01 7.146523892879486084e-02 3.181539475917816162e-02
2.535268664360046387e-01 2.818749845027923584e-02 8.879482001066207886e-02
4.387922883033752441e-01 2.834456413984298706e-02 -4.726582765579223633e-02
3.789460659027099609e-02 4.061043262481689453e-02 1.515537500381469727e-03
-2.538714706897735596e-01 1.030089035630226135e-01 1.681386306881904602e-02
-3.692999482154846191e-02 1.058189347386360168e-01 4.451454617083072662e-03
8.855061531066894531e-01 1.291494630277156830e-02 8.370018564164638519e-03
2.880150377750396729e-01 1.874318346381187439e-02 9.185716509819030762e-02
-9.925857186317443848e-02 1.092393994331359863e-01 -4.579522460699081421e-02
8.003988862037658691e-01 2.002282254397869110e-02 -5.507915467023849487e-02
2.306991219520568848e-01 8.246599882841110229e-02 1.980673521757125854e-02
4.471658170223236084e-01 -3.512669354677200317e-03 9.376364760100841522e-03
8.354948759078979492e-01 -2.514370530843734741e-02 5.688032507896423340e-02
3.038209378719329834e-01 6.980407238006591797e-02 -7.391257584095001221e-02
4.169664382934570312e-01 8.011451363563537598e-02 -7.225352525711059570e-02
5.887851715087890625e-01 -1.108025759458541870e-02 2.320532221347093582e-03
8.514082431793212891e-02 1.877385564148426056e-02 6.123766303062438965e-02
-7.709264755249023438e-02 1.054829284548759460e-01 -5.030997842550277710e-02
5.507926940917968750e-01 -2.130068093538284302e-02 4.488033801317214966e-02
-9.157389402389526367e-03 8.020973205566406250e-02 -4.792547971010208130e-02
7.970820665359497070e-01 1.695434190332889557e-02 2.796201407909393311e-02
8.859466314315795898e-01 -3.067638725042343140e-02 3.727184236049652100e-02
3.361308574676513672e-02 3.111789189279079437e-02 2.770479023456573486e-02
8.082145452499389648e-01 3.566409647464752197e-02 -2.320077642798423767e-02
2.653112411499023438e-01 1.159988343715667725e-03 8.067142963409423828e-02
3.905459344387054443e-01 -4.675053060054779053e-04 9.131081402301788330e-02
8.700704574584960938e-01 2.584777027368545532e-02 -2.611185051500797272e-02
6.707216501235961914e-01 5.691177770495414734e-02 -3.853873163461685181e-02
1.468358784914016724e-01 5.101344734430313110e-02 -3.865469247102737427e-02
6.872529387474060059e-01 -2.979036420583724976e-03 -2.572725154459476471e-02
4.171444773674011230e-01 3.295935690402984619e-03 -1.064298674464225769e-03
1.238178610801696777e-01 1.000085175037384033e-01 -5.212857387959957123e-03
7.880769968032836914e-01 3.360287100076675415e-02 -5.754999071359634399e-02
2.015926092863082886e-01 2.100409008562564850e-02 4.403329454362392426e-03
4.625740647315979004e-01 -4.750140011310577393e-03 9.407229721546173096e-03
8.978984355926513672e-01 -1.160854101181030273e-02 4.004153609275817871e-02
6.634916067123413086e-01 -2.691739052534103394e-02 3.948446363210678101e-02
9.437584877014160156e-01 7.374584674835205078e-03 -7.872073911130428314e-03
6.274630427360534668e-01 5.637749284505844116e-02 -6.884624063968658447e-02
5.509836673736572266e-01 1.194758899509906769e-02 7.668303698301315308e-02
-6.292092800140380859e-02 3.927807882428169250e-02 4.751119762659072876e-02
-1.429510116577148438e-01 8.374679088592529297e-02 -2.645892836153507233e-02
-2.062928378582000732e-01 7.210579514503479004e-02 1.138013787567615509e-02
7.306141853332519531e-01 2.822063677012920380e-02 -6.211150437593460083e-02
7.268324494361877441e-01 -3.057475388050079346e-02 4.965217411518096924e-02
6.163107156753540039e-01 6.054753810167312622e-02 -2.211074531078338623e-02
7.648930549621582031e-01 4.401640221476554871e-02 -3.818131238222122192e-02
5.900177955627441406e-01 -2.255678176879882812e-02 3.826351463794708252e-02
2.286717295646667480e-01 9.438951313495635986e-02 -1.132777519524097443e-02
3.756805360317230225e-01 6.868759542703628540e-02 -7.668130099773406982e-02
-8.366557955741882324e-02 6.948255747556686401e-02 6.648301333189010620e-02
8.013409376144409180e-01 2.461597323417663574e-03 -3.971932083368301392e-02
9.593771696090698242e-01 -2.287381887435913086e-02 7.336160633713006973e-03
7.324870824813842773e-01 4.488207399845123291e-02 -5.986572802066802979e-02
-2.755400538444519043e-02 9.439048171043395996e-02 2.966018207371234894e-02
3.297867774963378906e-01 -5.540266633033752441e-03 5.303092300891876221e-02
7.730007171630859375e-02 4.559636116027832031e-02 8.344479650259017944e-02
5.511289834976196289e-01 7.098902761936187744e-02 -3.918587416410446167e-02
2.930772006511688232e-01 -2.585377544164657593e-03 5.591786652803421021e-02
8.032847046852111816e-01 -2.357842028141021729e-02 6.042958702892065048e-03
1.265115439891815186e-01 4.003721475601196289e-02 -1.778655126690864563e-02
1.931072622537612915e-01 9.630478918552398682e-02 -8.836073800921440125e-03
2.667812705039978027e-01 6.628549844026565552e-02 4.488005489110946655e-02
2.206575572490692139e-01 1.841551065444946289e-02 5.918564740568399429e-03
7.151423692703247070e-01 4.767992720007896423e-02 -1.888606883585453033e-02
-2.525687515735626221e-01 7.944753766059875488e-02 4.089573770761489868e-02
3.088950514793395996e-01 -4.378061741590499878e-03 5.954675376415252686e-02
-7.711955904960632324e-02 8.030631393194198608e-02 -3.628209233283996582e-02
-1.803244054317474365e-01 1.137276664376258850e-01 -1.403798535466194153e-02
-2.951464056968688965e-02 3.377430886030197144e-02 5.988901853561401367e-02
4.708671867847442627e-01 -1.316350325942039490e-02 3.332397714257240295e-02
7.894966006278991699e-02 8.732958137989044189e-02 -6.419315189123153687e-02
1.886990666389465332e-01 6.602042168378829956e-02 5.485949665307998657e-02
8.048671483993530273e-01 -1.629034802317619324e-02 6.142728030681610107e-02
6.534258723258972168e-01 9.568355977535247803e-03 6.543807685375213623e-02
1.895514130592346191e-02 1.107878312468528748e-01 -2.426618151366710663e-02
1.723892092704772949e-01 9.161587804555892944e-03 5.793410539627075195e-02
9.080082178115844727e-03 2.860441803932189941e-02 5.548493564128875732e-02
6.598919630050659180e-01 -1.307732984423637390e-02 7.851807773113250732e-02
1.977652311325073242e-03 3.360895812511444092e-02 3.267630189657211304e-02
2.326437830924987793e-02 7.294529676437377930e-02 -4.582357406616210938e-02
6.477385759353637695e-03 3.915546834468841553e-02 1.413767039775848389e-02
7.681863307952880859e-01 2.314454317092895508e-02 2.460628189146518707e-02
8.364133238792419434e-01 -2.539523690938949585e-02 8.590796031057834625e-03
-1.769767105579376221e-01 8.027491718530654907e-02 -1.342522911727428436e-02
3.717094063758850098e-01 3.365440666675567627e-02 -4.661226272583007812e-02
2.620088160037994385e-01 8.973588049411773682e-02 -4.854221828281879425e-03
1.079070717096328735e-01 9.677223861217498779e-02 6.966031156480312347e-03
5.187459588050842285e-01 -2.056723088026046753e-02 5.620045959949493408e-02
6.848825216293334961e-01 4.811772331595420837e-02 -7.437845692038536072e-03
5.794339776039123535e-01 4.944435134530067444e-02 1.958084478974342346e-02
2.925069332122802734e-01 6.086273491382598877e-02 -6.734444200992584229e-02
-1.616359651088714600e-01 8.321972191333770752e-02 -2.139810658991336823e-02
5.160526037216186523e-01 5.294830352067947388e-02 2.644704468548297882e-02
3.228473365306854248e-01 9.276659786701202393e-02 -3.878208249807357788e-02
-1.243252754211425781e-01 5.775102227926254272e-02 1.257225871086120605e-02
8.762650489807128906e-01 -2.657013386487960815e-02 4.869320988655090332e-02
3.483585715293884277e-01 -7.338713854551315308e-03 5.438337475061416626e-02
1.418469846248626709e-01 6.035291403532028198e-02 -4.966314882040023804e-02
1.506928056478500366e-01 1.151330210268497467e-02 5.775666236877441406e-02
7.376531362533569336e-01 4.538049548864364624e-02 -2.162181958556175232e-02
-1.217766404151916504e-01 1.148915812373161316e-01 -2.643482945859432220e-02
8.223611116409301758e-01 3.251412510871887207e-02 -1.860176399350166321e-02
3.738827407360076904e-01 4.488196969032287598e-02 6.239248067140579224e-02
-6.127727031707763672e-02 5.740462988615036011e-02 7.514493167400360107e-02
6.068009138107299805e-01 -3.599695861339569092e-03 8.081565052270889282e-02
8.414579629898071289e-01 -5.197204649448394775e-03 4.711113125085830688e-02
5.922256708145141602e-01 5.319301038980484009e-02 -7.336918264627456665e-02
1.546507030725479126e-01 1.050337180495262146e-01 -5.264479666948318481e-02
5.273432135581970215e-01 3.407634422183036804e-02 5.537788569927215576e-02
9.439610242843627930e-01 -1.657135784626007080e-02 3.057947009801864624e-02
5.748402476310729980e-01 -2.344674617052078247e-02 4.932180792093276978e-02
-7.132503390312194824e-02 9.080734103918075562e-02 3.936206549406051636e-02
1.567991524934768677e-01 1.654611900448799133e-02 2.957482449710369110e-02
1.136947870254516602e-01 5.002715438604354858e-02 7.921081036329269409e-02
5.559592247009277344e-01 2.170152589678764343e-02 -5.000893771648406982e-02
2.007732838392257690e-01 1.011038273572921753e-01 -3.134167939424514771e-02
2.863931655883789062e-01 6.943892687559127808e-03 1.906838268041610718e-02
5.846453905105590820e-01 -4.964530467987060547e-03 -1.054902374744415283e-02
7.210837602615356445e-01 4.245140030980110168e-02 -4.284553229808807373e-03
-3.594982624053955078e-02 4.447446390986442566e-02 1.450928486883640289e-02
5.361146926879882812e-01 6.976346671581268311e-02 -2.358716540038585663e-02
4.651203155517578125e-01 3.982768207788467407e-02 5.683068931102752686e-02
8.938639163970947266e-01 -1.844688132405281067e-02 -9.052351117134094238e-03
-2.332654297351837158e-01 7.234008610248565674e-02 2.721431106328964233e-02
-5.426213145256042480e-02 1.117075905203819275e-01 -1.318566314876079559e-02
3.149449229240417480e-01 -2.164248377084732056e-03 4.162877798080444336e-02
4.941412508487701416e-01 6.364995986223220825e-02 8.226101286709308624e-03
7.770210504531860352e-02 5.419869348406791687e-02 -3.134620189666748047e-02
9.719800949096679688e-02 5.893477797508239746e-02 -4.119710624217987061e-02
9.164866209030151367e-01 1.619133166968822479e-02 -2.324231527745723724e-02
3.465244770050048828e-01 6.683833152055740356e-02 -7.486274838447570801e-02
8.466373682022094727e-01 7.153313606977462769e-03 3.071503713726997375e-02
6.986708641052246094e-01 -2.694938331842422485e-02 6.811672449111938477e-02
5.037572383880615234e-01 4.518216103315353394e-02 4.261913895606994629e-02
1.169382780790328979e-01 1.074083447456359863e-01 -3.931774944067001343e-02
6.896492838859558105e-01 2.288903482258319855e-02 4.276752471923828125e-02
3.453838229179382324e-01 3.408625721931457520e-03 1.385935954749584198e-02
6.827511787414550781e-01 -2.231737971305847168e-02 7.455598562955856323e-02
3.562035262584686279e-01 3.035583347082138062e-02 -4.009702801704406738e-02
5.057067871093750000e-01 -1.785163208842277527e-02 4.274336993694305420e-02
3.021365404129028320e-02 2.649630606174468994e-02 7.130003720521926880e-02
-2.025010883808135986e-01 8.206743001937866211e-02 -8.523084223270416260e-03
5.109196901321411133e-01 6.197180598974227905e-02 8.096506819128990173e-03
5.609959959983825684e-01 -2.318435162305831909e-02 5.554538220167160034e-02
5.368235111236572266e-01 -9.691391140222549438e-03 8.665255457162857056e-02
5.445014238357543945e-01 2.704048156738281250e-02 6.193587929010391235e-02
7.119487524032592773e-01 5.106705799698829651e-02 -5.264370888471603394e-02
5.061362385749816895e-01 7.303968071937561035e-02 -2.421871013939380646e-02
-1.610337793827056885e-01 5.526516959071159363e-02 5.027917772531509399e-02
3.315454125404357910e-01 2.272358909249305725e-02 8.803545683622360229e-02
2.688761353492736816e-01 9.492103755474090576e-02 -2.565655298531055450e-02
4.645436704158782959e-01 3.860017657279968262e-02 -6.153915822505950928e-02
1.915496587753295898e-01 7.131308317184448242e-02 -6.591174006462097168e-02
4.254806637763977051e-01 6.812618672847747803e-02 -7.733454555273056030e-02
3.874211311340332031e-01 7.737371325492858887e-02 -4.143025726079940796e-04
7.458466887474060059e-01 -3.029064834117889404e-02 3.874687105417251587e-02
2.163961678743362427e-01 9.934239089488983154e-02 -2.774260006844997406e-02
6.146649122238159180e-01 -2.226316928863525391e-02 3.046013601124286652e-02
9.038565158843994141e-01 1.159689761698246002e-02 3.739092964679002762e-03
6.218502521514892578e-01 -2.301737666130065918e-03 7.865303754806518555e-02
1.661182194948196411e-01 1.021940931677818298e-01 -2.421720884740352631e-02
8.509117364883422852e-01 -6.776299327611923218e-03 -2.825795672833919525e-02
3.152917623519897461e-01 4.033846780657768250e-02 -4.841618984937667847e-02
8.927181959152221680e-01 -2.706710994243621826e-02 1.212910842150449753e-02
7.317115068435668945e-01 -2.112028747797012329e-02 7.126735150814056396e-02
6.462423801422119141e-01 2.271222323179244995e-02 5.116361379623413086e-02
7.545786499977111816e-01 1.704932190477848053e-02 -5.420478433370590210e-02
7.790356874465942383e-01 -1.805253326892852783e-03 -3.351735323667526245e-02
1.041173934936523438e-03 5.880177021026611328e-02 -2.333618886768817902e-02
-1.116853058338165283e-01 5.228847265243530273e-02 2.222789078950881958e-02
-2.622288465499877930e-02 8.021004498004913330e-02 5.279295891523361206e-02
8.568301796913146973e-02 4.310606792569160461e-02 -1.480204984545707703e-02
-3.514483571052551270e-02 5.390342324972152710e-02 -6.517686881124973297e-03
9.582588672637939453e-01 -1.618104800581932068e-02 2.510238438844680786e-02
5.604505538940429688e-02 1.088831350207328796e-01 -5.377474427223205566e-02
5.707378983497619629e-01 6.479775160551071167e-02 -1.870816946029663086e-02
2.322416454553604126e-01 3.662962466478347778e-03 7.766403257846832275e-02
3.708846569061279297e-01 6.887128204107284546e-02 2.327127754688262939e-02
7.912976741790771484e-01 3.988152742385864258e-02 -4.210607707500457764e-02
6.706289649009704590e-01 -1.513092592358589172e-02 -7.429160177707672119e-06
1.963131725788116455e-01 8.209915459156036377e-02 2.617266587913036346e-02
2.245892584323883057e-01 7.255467772483825684e-02 -6.974533200263977051e-02
-9.232637286186218262e-02 6.220773607492446899e-02 -6.912822835147380829e-03
-1.236601471900939941e-01 1.091651991009712219e-01 -4.252135753631591797e-02
3.083610236644744873e-01 -4.151206463575363159e-03 7.423169165849685669e-02
5.708372592926025391e-02 2.890522032976150513e-02 2.577469497919082642e-02
8.219230175018310547e-01 -2.480834722518920898e-02 7.909415289759635925e-03
7.571489810943603516e-01 -2.478926628828048706e-02 6.710548698902130127e-02
8.681720495223999023e-01 1.750896498560905457e-02 4.789181984961032867e-03
5.790196657180786133e-01 6.442680954933166504e-02 -6.798356026411056519e-02
3.880920708179473877e-01 1.979764364659786224e-02 8.613112568855285645e-02
2.834477722644805908e-01 2.401756867766380310e-02 -1.861642301082611084e-02
4.173197746276855469e-01 8.359029889106750488e-02 -3.320733457803726196e-02
-1.694113314151763916e-01 6.464532762765884399e-02 6.226213276386260986e-02
1.895372569561004639e-01 -5.073596164584159851e-02 1.836047470569610596e-01
8.547065407037734985e-02 -3.403934836387634277e-02 2.803814411163330078e-01
8.406780660152435303e-02 -5.444856733083724976e-02 2.980370223522186279e-01
1.535241156816482544e-01 -4.354242607951164246e-02 1.895199716091156006e-01
8.803509175777435303e-02 -4.567327722907066345e-02 3.160319328308105469e-01
1.162625774741172791e-01 -8.779905736446380615e-02 1.511640995740890503e-01
3.787770867347717285e-02 -7.735805958509445190e-02 2.436860948801040649e-01
1.420103311538696289e-01 -7.859636843204498291e-02 1.547447741031646729e-01
1.552161276340484619e-01 -7.205170392990112305e-02 1.666387617588043213e-01
1.015972644090652466e-01 -9.189553558826446533e-02 1.436471045017242432e-01
1.068655699491500854e-01 -7.772234082221984863e-02 2.144648283720016479e-01
1.279100626707077026e-01 -1.583981886506080627e-02 2.965826690196990967e-01
1.105334013700485229e-01 -7.471781224012374878e-02 1.459596306085586548e-01
2.088958024978637695e-01 -2.373201027512550354e-02 2.574383318424224854e-01
1.131356954574584961e-01 -6.109290570020675659e-02 1.714811027050018311e-01
1.717683821916580200e-01 -1.499341428279876709e-02 2.611126303672790527e-01
5.160653591156005859e-02 -8.844243735074996948e-02 2.103157341480255127e-01
7.775527238845825195e-02 -8.801659196615219116e-02 1.996732354164123535e-01
6.184152141213417053e-02 -4.737634956836700439e-02 3.125640451908111572e-01
2.066264599561691284e-01 -3.198634833097457886e-02 2.180336415767669678e-01
1.149737089872360229e-01 -6.537827849388122559e-02 2.489926815032958984e-01
9.981188178062438965e-02 -3.126470744609832764e-02 2.704976797103881836e-01
1.249997615814208984e-01 -6.719274818897247314e-02 1.522069871425628662e-01
1.332467496395111084e-01 -2.799021825194358826e-02 2.464550435543060303e-01
5.676005035638809204e-02 -6.873040646314620972e-02 2.063106447458267212e-01
1.420249938964843750e-01 -3.636567294597625732e-02 2.146472334861755371e-01
1.733686476945877075e-01 -2.144165337085723877e-04 3.288263082504272461e-01
1.923474967479705811e-01 -5.525477230548858643e-03 2.874843776226043701e-01
5.686575174331665039e-02 -8.185167610645294189e-02 2.325853258371353149e-01
1.776695102453231812e-01 -5.843190103769302368e-02 1.890423893928527832e-01
7.055643200874328613e-02 -5.644499137997627258e-02 2.233533859252929688e-01
1.644781529903411865e-01 -3.085942938923835754e-02 3.013051748275756836e-01
7.125705480575561523e-02 -4.399782419204711914e-02 2.640986144542694092e-01
9.664499759674072266e-02 -9.178107976913452148e-02 1.613078117370605469e-01
9.907127916812896729e-02 -6.095926836133003235e-02 2.737249732017517090e-01
1.116941347718238831e-01 -6.091462075710296631e-02 2.651144266128540039e-01
1.550523340702056885e-01 -9.074889123439788818e-03 3.492402732372283936e-01
1.190927401185035706e-01 -1.472695916891098022e-02 3.148405253887176514e-01
1.201155409216880798e-01 -2.985896170139312744e-02 2.524697482585906982e-01
1.313264071941375732e-01 -7.377773523330688477e-02 1.401028335094451904e-01
1.269477158784866333e-01 -3.534413501620292664e-02 2.288882136344909668e-01
8.383279293775558472e-02 -7.713180035352706909e-02 1.589349806308746338e-01
1.140250116586685181e-01 -2.645200304687023163e-02 2.709588408470153809e-01
8.997811377048492432e-02 -8.752901107072830200e-02 1.915421932935714722e-01
1.343182772397994995e-01 -2.916357479989528656e-02 3.287543654441833496e-01
7.872019708156585693e-02 -7.204364240169525146e-02 1.739241480827331543e-01
1.615557521581649780e-01 -5.950473248958587646e-02 2.170461863279342651e-01
1.502594798803329468e-01 -6.822057068347930908e-02 1.988259106874465942e-01
1.661819517612457275e-01 -4.968807101249694824e-03 3.044100105762481689e-01
9.335858374834060669e-02 -2.250974252820014954e-02 3.275457024574279785e-01
1.371092945337295532e-01 -4.528906196355819702e-02 2.885592579841613770e-01
6.904986500740051270e-02 -8.427010476589202881e-02 2.193870395421981812e-01
1.260251998901367188e-01 -6.683599203824996948e-02 2.340680360794067383e-01
1.163359656929969788e-01 -3.937751799821853638e-02 3.174078762531280518e-01
1.293088644742965698e-01 -4.392572492361068726e-02 2.027498483657836914e-01
1.333695948123931885e-01 -4.858836159110069275e-02 1.880799531936645508e-01
1.260035037994384766e-01 -2.314329519867897034e-02 3.439876437187194824e-01
1.440190821886062622e-01 -5.455134809017181396e-02 2.555500864982604980e-01
1.490508615970611572e-01 -7.246448099613189697e-02 1.805894076824188232e-01
7.016843557357788086e-02 -8.724658936262130737e-02 1.531850695610046387e-01
1.055039912462234497e-01 -4.228926077485084534e-02 2.273197472095489502e-01
5.519617348909378052e-02 -6.062976643443107605e-02 2.321613430976867676e-01
1.871746182441711426e-01 -3.446063026785850525e-02 2.651634812355041504e-01
1.715560555458068848e-01 -3.904034197330474854e-02 2.718792855739593506e-01
2.112390697002410889e-01 -1.461331546306610107e-02 2.726885378360748291e-01
5.955473333597183228e-02 -5.377118289470672607e-02 2.478753775358200073e-01
8.669923245906829834e-02 -2.712673135101795197e-02 3.123767375946044922e-01
1.189115270972251892e-01 -8.486971259117126465e-02 1.680988222360610962e-01
1.856321245431900024e-01 -4.227232933044433594e-02 2.424456924200057983e-01
1.450230926275253296e-01 -1.014523580670356750e-02 3.015016913414001465e-01
1.621871739625930786e-01 -6.647981703281402588e-02 1.843768358230590820e-01
5.888272076845169067e-02 -9.145134687423706055e-02 1.958671212196350098e-01
9.009170532226562500e-02 -4.147259145975112915e-02 2.466372698545455933e-01
1.087804138660430908e-01 -4.760290682315826416e-02 2.088995873928070068e-01
1.549599617719650269e-01 -7.196107506752014160e-02 1.495633721351623535e-01
5.960784852504730225e-02 -6.806214153766632080e-02 2.716501355171203613e-01
1.733532696962356567e-01 -6.026924401521682739e-02 1.613194048404693604e-01
1.320224553346633911e-01 -1.872056350111961365e-02 2.801042199134826660e-01
4.133636504411697388e-02 -8.153024315834045410e-02 1.986272931098937988e-01
5.472572147846221924e-02 -9.389111399650573730e-02 1.645067632198333740e-01
7.896327227354049683e-02 -7.618726044893264771e-02 2.409105300903320312e-01
1.780743002891540527e-01 -4.820746555924415588e-02 1.745411753654479980e-01
1.166142746806144714e-01 -5.088898912072181702e-02 1.937396973371505737e-01
7.013112306594848633e-02 -3.620518743991851807e-02 3.038681745529174805e-01
1.654285788536071777e-01 -8.912850171327590942e-03 2.877421081066131592e-01
1.917111426591873169e-01 -3.777940571308135986e-02 1.952989101409912109e-01
9.754352271556854248e-02 -7.111530005931854248e-02 1.606042534112930298e-01
6.990726292133331299e-02 -6.141256913542747498e-02 2.097858488559722900e-01
1.718001067638397217e-01 -2.287105657160282135e-02 2.360917031764984131e-01
3.676133602857589722e-02 -6.796790659427642822e-02 2.593071162700653076e-01
1.070385351777076721e-01 -7.215677201747894287e-02 2.338182181119918823e-01
1.135881245136260986e-01 -8.187355101108551025e-02 1.906983703374862671e-01
1.384748965501785278e-01 -6.901432573795318604e-02 2.122764587402343750e-01
1.510522663593292236e-01 -5.176884308457374573e-02 1.719696372747421265e-01
1.132403016090393066e-01 -1.457766070961952209e-02 3.286234736442565918e-01
1.294092088937759399e-01 -4.183360189199447632e-02 3.033609688282012939e-01
1.937025487422943115e-01 -4.245135933160781860e-02 2.262758314609527588e-01
1.414812058210372925e-01 -2.215646952390670776e-02 2.587156593799591064e-01
8.791947364807128906e-02 -9.103143960237503052e-02 1.770794391632080078e-01
5.586741119623184204e-02 -4.687344282865524292e-02 2.858849763870239258e-01
2.056351900100708008e-01 -1.887250505387783051e-02 2.425546050071716309e-01
8.260929584503173828e-02 -6.351664662361145020e-02 2.758574485778808594e-01
9.062504023313522339e-02 -7.971945405006408691e-02 2.212652415037155151e-01
1.971793472766876221e-01 -9.600903838872909546e-03 2.706333994865417480e-01
1.410700380802154541e-01 -3.364782035350799561e-02 3.144323229789733887e-01
1.311089992523193359e-01 -9.467829018831253052e-03 3.245466947555541992e-01
4.502933472394943237e-02 -8.725263923406600952e-02 1.824444085359573364e-01
1.582918167114257812e-01 -5.266577377915382385e-02 2.456642389297485352e-01
1.758849620819091797e-01 -5.273910611867904663e-02 2.202714979648590088e-01
5.953872203826904297e-02 -7.993914186954498291e-02 1.763504445552825928e-01
1.076216995716094971e-01 -1.990149170160293579e-02 3.075780570507049561e-01
1.668239086866378784e-01 -2.122956328094005585e-02 3.212064206600189209e-01
1.974760890007019043e-01 -2.143716625869274139e-02 2.860999107360839844e-01
5.465807318687438965e-01 -1.122735142707824707e-01 3.575444221496582031e-02
2.643131017684936523e-01 -1.574230939149856567e-02 -6.628973409533500671e-03
-5.884796380996704102e-02 -4.250478744506835938e-02 8.641585707664489746e-03
9.113469719886779785e-01 -5.643505603075027466e-02 4.558751359581947327e-03
3.046843111515045166e-01 -2.600541710853576660e-02 1.336812227964401245e-02
2.079199701547622681e-01 -1.216187477111816406e-01 -2.069400623440742493e-03
9.189845323562622070e-01 -5.646337941288948059e-02 -5.832990631461143494e-02
1.222587227821350098e-01 -1.049019992351531982e-01 4.222746565937995911e-02
4.050248861312866211e-02 -8.905835449695587158e-02 -6.377154588699340820e-02
6.740734577178955078e-01 -1.110741198062896729e-01 -2.109322324395179749e-02
7.629144191741943359e-02 -8.871938288211822510e-02 -6.707844883203506470e-02
7.541671395301818848e-02 -9.741241484880447388e-02 4.332404211163520813e-02
2.869515717029571533e-01 -1.045969873666763306e-02 -1.928516291081905365e-02
-1.249861717224121094e-02 -4.810690879821777344e-02 -8.273670822381973267e-02
7.688742876052856445e-02 -5.947898328304290771e-02 3.776386380195617676e-02
-7.358732819557189941e-02 -2.724635601043701172e-02 -2.710739709436893463e-02
2.554097771644592285e-02 -1.032432317733764648e-01 -4.082051292061805725e-02
5.038344860076904297e-01 -1.147526130080223083e-01 -3.102114424109458923e-02
3.615905344486236572e-01 -8.034847676753997803e-03 -7.836119830608367920e-02
2.055687308311462402e-01 -8.399514853954315186e-02 5.259701237082481384e-02
3.299338817596435547e-01 -6.149357184767723083e-02 4.796427860856056213e-02
2.337009310722351074e-01 -1.122951060533523560e-01 -3.907355666160583496e-02
2.343911230564117432e-01 -6.171748042106628418e-03 -4.678063839673995972e-02
-4.765391349792480469e-04 -9.512928128242492676e-02 3.696178272366523743e-02
8.463755846023559570e-01 -2.965544536709785461e-02 -6.479540467262268066e-02
8.352155685424804688e-01 -9.971021115779876709e-02 -9.759693406522274017e-03
5.577577352523803711e-01 -7.725991308689117432e-03 -7.014428079128265381e-02
6.501215696334838867e-01 -2.847784757614135742e-02 8.415516465902328491e-03
9.452754855155944824e-01 -6.488833576440811157e-02 -4.615919664502143860e-02
2.682594656944274902e-01 -6.097325682640075684e-02 -9.636335074901580811e-02
8.128521442413330078e-01 -3.604513779282569885e-02 1.147290691733360291e-03
-1.494683027267456055e-01 -7.852115482091903687e-02 1.763294637203216553e-02
2.385798692703247070e-01 -7.290687412023544312e-03 -6.715434789657592773e-02
9.370470046997070312e-02 -1.134023964405059814e-01 2.802554890513420105e-02
7.158856987953186035e-01 -7.817438989877700806e-02 -7.324773073196411133e-02
1.141080558300018311e-01 -1.188880354166030884e-01 6.722155958414077759e-03
1.705136150121688843e-01 -3.500258177518844604e-02 -9.606443345546722412e-02
9.064478874206542969e-01 -4.007022082805633545e-02 -1.348527241498231888e-02
1.410621255636215210e-01 -9.690456092357635498e-02 -6.122286617755889893e-02
2.693218588829040527e-01 -1.223681420087814331e-01 1.706731691956520081e-02
5.995391607284545898e-01 -6.289090216159820557e-02 4.325048997998237610e-02
-8.844190835952758789e-02 -6.426994502544403076e-02 2.414854988455772400e-02
1.723206341266632080e-01 -5.307077616453170776e-02 3.858540207147598267e-02
6.689456105232238770e-02 -2.453907951712608337e-02 -4.018116742372512817e-03
3.274469077587127686e-01 -8.413046598434448242e-03 -7.824943214654922485e-02
9.059816598892211914e-02 -8.023394644260406494e-02 -7.648071646690368652e-02
-4.366409778594970703e-02 -6.007480993866920471e-02 2.735146880149841309e-02
