9.021974802017211914e-01 -6.822551041841506958e-02 -2.344337292015552521e-02
2.314043641090393066e-01 9.428317099809646606e-02 -1.864701882004737854e-02
-5.297297611832618713e-02 -3.034464642405509949e-02 -3.764136731624603271e-01
3.500212216749787331e-03 -9.045377373695373535e-02 -4.739934951066970825e-02
-5.599681138992309570e-01 -5.631199106574058533e-02 -6.552989128977060318e-03
-1.180074065923690796e-01 9.549514949321746826e-02 -4.025877919048070908e-03
2.198776304721832275e-01 -1.021094247698783875e-01 -2.333225011825561523e-01
1.840500906109809875e-02 -9.166575223207473755e-02 1.915649324655532837e-02
1.815325766801834106e-01 9.371586143970489502e-02 1.330288033932447433e-02
-3.901875317096710205e-01 1.689685508608818054e-02 -9.064388275146484375e-02
-6.604594588279724121e-01 1.800568774342536926e-02 -8.092225342988967896e-02
4.951779544353485107e-01 4.804736003279685974e-02 8.127700537443161011e-02
-5.444444417953491211e-01 1.014070119708776474e-02 -8.223737776279449463e-02
2.538904845714569092e-01 -5.489372834563255310e-02 3.032501637935638428e-01
-1.003787945955991745e-02 7.587136328220367432e-02 5.342721194028854370e-02
2.937827110290527344e-01 -8.715305477380752563e-02 -4.791508615016937256e-02
9.140079021453857422e-01 4.046602919697761536e-02 -4.995224624872207642e-02
2.239777296781539917e-01 -5.076782032847404480e-02 2.978864908218383789e-01
1.976751387119293213e-01 -1.285925209522247314e-01 2.748072743415832520e-01
-4.626839980483055115e-02 -1.716757193207740784e-02 -8.770418912172317505e-02
7.682864069938659668e-01 -9.231043606996536255e-02 -1.418589428067207336e-02
-8.600496649742126465e-01 2.824306674301624298e-02 6.288859993219375610e-03
8.312578797340393066e-01 -8.560585230588912964e-02 1.064683590084314346e-02
2.042507827281951904e-01 -1.219395250082015991e-01 -2.523789703845977783e-01
3.356767445802688599e-02 -5.342387780547142029e-02 1.793185919523239136e-01
2.042507827281951904e-01 -1.219395250082015991e-01 -2.523789703845977783e-01
-7.055348753929138184e-01 1.503437608480453491e-01 -1.348964963108301163e-02
6.701932549476623535e-01 -8.657913655042648315e-03 8.651173114776611328e-02
-7.717067375779151917e-03 -7.291208487004041672e-03 5.007000565528869629e-01
9.068553149700164795e-02 -6.894754618406295776e-02 1.046398803591728210e-01
5.632810592651367188e-01 9.497941285371780396e-02 -1.098832674324512482e-02
-1.250729858875274658e-01 -2.804294694215059280e-03 -5.135996937751770020e-01
-5.444444417953491211e-01 1.014070119708776474e-02 -8.223737776279449463e-02
1.840500906109809875e-02 -9.166575223207473755e-02 1.915649324655532837e-02
1.338527053594589233e-01 -5.350122973322868347e-02 -2.007021456956863403e-01
-7.654892802238464355e-01 2.452976070344448090e-02 6.013179197907447815e-02
-7.698730826377868652e-01 3.448348492383956909e-02 -1.061417758464813232e-01
-7.843136787414550781e-01 4.464349523186683655e-02 -2.599087357521057129e-01
1.969015449285507202e-01 -1.912737265229225159e-02 -2.631836533546447754e-01
2.526268959045410156e-01 -2.198970876634120941e-02 -1.241667866706848145e-01
-8.481619358062744141e-01 2.094538323581218719e-02 1.018267404288053513e-02
2.172473669052124023e-01 -9.450231492519378662e-02 -2.633641660213470459e-01
-1.436910927295684814e-01 -8.060319721698760986e-02 3.914129734039306641e-02
-2.670038044452667236e-01 5.447491072118282318e-03 8.287578821182250977e-02
-7.520027756690979004e-01 4.389568045735359192e-02 -2.531783580780029297e-01
7.312822937965393066e-01 4.077547043561935425e-02 -8.907088637351989746e-02
-7.058539241552352905e-02 -1.770909130573272705e-02 -8.791047334671020508e-02
2.046376019716262817e-01 -4.006629064679145813e-02 -2.904919385910034180e-01
6.371249258518218994e-02 -3.318120166659355164e-02 -3.230349421501159668e-01
7.360528111457824707e-01 2.574173733592033386e-02 -8.963819593191146851e-02
4.656424000859260559e-02 -7.204198092222213745e-02 1.292147487401962280e-01
1.882887184619903564e-01 -8.225356787443161011e-02 -2.402333617210388184e-01
8.589271903038024902e-01 -6.332602351903915405e-02 -5.314981564879417419e-02
4.563945531845092773e-01 -6.156583316624164581e-03 8.821365982294082642e-02
2.185109108686447144e-01 -7.436279952526092529e-02 -2.331677824258804321e-01
-7.091192603111267090e-01 1.957543939352035522e-01 5.308959633111953735e-03
5.658081173896789551e-01 8.298853039741516113e-02 -5.023590102791786194e-02
5.644930005073547363e-01 3.412246704101562500e-02 7.965243607759475708e-02
2.185624837875366211e-01 -2.725022099912166595e-02 -2.785784006118774414e-01
-4.667486548423767090e-01 -7.041739672422409058e-02 -3.618207573890686035e-02
-7.964335083961486816e-01 4.652593657374382019e-02 2.024751603603363037e-01
-7.537046670913696289e-01 1.602459102869033813e-01 8.478352683596313000e-04
1.111087128520011902e-01 -8.333660662174224854e-02 -7.491391152143478394e-02
6.635918617248535156e-01 9.317433089017868042e-02 1.562369707971811295e-02
-1.377343237400054932e-01 1.963025517761707306e-02 -6.512498855590820312e-01
6.547469496726989746e-01 8.273066580295562744e-02 -5.064849182963371277e-02
3.197500705718994141e-01 9.456682950258255005e-02 -1.642934978008270264e-02
-8.618643134832382202e-02 -9.457305073738098145e-03 4.789617061614990234e-01
5.171483755111694336e-01 9.350956231355667114e-02 1.425699517130851746e-02
-4.353499040007591248e-02 8.770751953125000000e-02 3.292666748166084290e-02
1.813520789146423340e-01 -1.236930266022682190e-01 -2.875780165195465088e-01
4.099782705307006836e-01 1.863122335635125637e-03 -9.255211055278778076e-02
-1.567650288343429565e-01 1.986233517527580261e-02 -7.430511116981506348e-01
-5.855744481086730957e-01 1.417825371026992798e-01 5.463680718094110489e-03
3.134322762489318848e-01 -1.182004287838935852e-01 -2.985116243362426758e-01
2.255507111549377441e-01 -1.255238801240921021e-01 -2.649629414081573486e-01
1.359414458274841309e-01 -7.342785131186246872e-03 -3.391516804695129395e-01
2.370258718729019165e-01 -4.780234023928642273e-02 -2.541840374469757080e-01
-7.044002413749694824e-01 -1.337690651416778564e-02 -4.167467355728149414e-02
-6.756221652030944824e-01 2.860408276319503784e-02 5.899716913700103760e-02
1.358286663889884949e-02 -3.586303442716598511e-02 -1.860036402940750122e-01
-2.109947502613067627e-01 7.383420318365097046e-02 8.037211894989013672e-01
5.798781290650367737e-02 -5.543523654341697693e-02 -1.827029138803482056e-01
3.640422597527503967e-02 -2.988047897815704346e-02 3.375724554061889648e-01
2.229720652103424072e-01 -2.784331701695919037e-02 -2.301507145166397095e-01
-8.373668044805526733e-02 -5.021968390792608261e-03 -5.294070243835449219e-01
9.492842555046081543e-01 8.877139538526535034e-03 4.107531160116195679e-02
-4.096823930740356445e-01 -5.486127920448780060e-03 -8.925139904022216797e-02
4.936307668685913086e-01 7.313796132802963257e-02 5.706315860152244568e-02
-7.228732854127883911e-02 -4.510180224315263331e-05 5.345839262008666992e-01
4.599789083003997803e-01 -8.952545374631881714e-02 -2.720825187861919403e-02
1.955606192350387573e-01 -6.894754618406295776e-02 -3.148604929447174072e-01
2.712965905666351318e-01 7.079135626554489136e-02 -6.800303608179092407e-02
2.126315236091613770e-01 -5.427482724189758301e-02 8.305629342794418335e-02
1.239667274057865143e-02 1.112059690058231354e-02 5.171520113945007324e-01
-4.791875928640365601e-02 1.576223038136959076e-02 5.414690375328063965e-01
5.396506562829017639e-02 -2.394950948655605316e-02 -2.873975038528442383e-01
5.435186624526977539e-02 -1.489166403189301491e-03 -3.477903008460998535e-01
1.184579581022262573e-01 -1.415050588548183441e-02 -3.818547129631042480e-01
-8.481619358062744141e-01 2.094538323581218719e-02 1.018267404288053513e-02
-2.578494548797607422e-01 1.279092133045196533e-01 -8.167241215705871582e-01
8.600102066993713379e-01 -1.315322369337081909e-01 -5.779383704066276550e-03
-1.765435487031936646e-01 2.579331398010253906e-02 7.766450047492980957e-01
-3.177619352936744690e-02 -3.706839866936206818e-03 -5.392060279846191406e-01
-5.417883992195129395e-01 2.857828885316848755e-02 7.472714781761169434e-02
8.423881232738494873e-02 -2.939053438603878021e-02 -3.411630690097808838e-01
-7.283046841621398926e-01 8.809433132410049438e-02 5.126061150804162025e-04
1.914347261190414429e-01 -6.770978868007659912e-02 3.053646981716156006e-01
-1.273422390222549438e-01 -6.626572459936141968e-02 -7.625482231378555298e-02
2.571654021739959717e-01 -5.020050704479217529e-02 -2.309243083000183105e-01
2.249060422182083130e-01 -2.229914814233779907e-02 2.079677730798721313e-01
-1.520976126194000244e-01 2.324041724205017090e-02 7.495946288108825684e-01
1.969788968563079834e-01 -5.546103790402412415e-02 -2.686504721641540527e-01
8.575862646102905273e-01 8.296274393796920776e-02 -1.898224651813507080e-02
-7.387999296188354492e-01 3.321992233395576477e-02 8.444877713918685913e-02
4.919450357556343079e-02 4.261299036443233490e-03 4.026584625244140625e-01
1.720430254936218262e-01 -9.806089103221893311e-02 -2.445139884948730469e-01
1.969788968563079834e-01 -5.546103790402412415e-02 -2.686504721641540527e-01
1.342137306928634644e-01 -7.678008172661066055e-03 8.163802325725555420e-02
-7.421005964279174805e-01 3.450926765799522400e-02 1.840633749961853027e-01
9.437658786773681641e-01 1.880507916212081909e-02 -4.536218941211700439e-02
-3.310325145721435547e-01 -8.968017995357513428e-02 1.554633490741252899e-02
7.789363265037536621e-01 1.400872599333524704e-02 8.233425766229629517e-02
-4.115390181541442871e-01 1.442131865769624710e-02 8.261791616678237915e-02
-5.552587285637855530e-02 -9.295509755611419678e-02 -6.140399258583784103e-03
1.606968194246292114e-01 -8.697254955768585205e-02 5.922925099730491638e-02
5.446629524230957031e-01 -1.350583322346210480e-02 8.099334686994552612e-02
-4.662844836711883545e-01 5.426198989152908325e-02 6.987921893596649170e-02
9.988872334361076355e-04 -1.157182641327381134e-02 -3.415756821632385254e-01
-8.163924813270568848e-01 4.884675145149230957e-02 -2.751745581626892090e-01
7.655434310436248779e-02 -6.363546848297119141e-02 -1.403351277112960815e-01
-8.595434576272964478e-02 -8.475488424301147461e-02 5.105482414364814758e-02
5.236628279089927673e-02 -7.817924767732620239e-02 -1.219749003648757935e-01
4.863331019878387451e-01 2.195107191801071167e-02 -9.043759107589721680e-02
1.418208330869674683e-01 -9.775145351886749268e-02 -3.100125789642333984e-01
7.338255643844604492e-02 -4.638405889272689819e-02 -2.335545718669891357e-01
-7.821217775344848633e-01 5.588656291365623474e-02 8.429167792201042175e-03
-7.266285419464111328e-01 2.077194899320602417e-01 -1.341228932142257690e-02
5.947925448417663574e-01 4.221953451633453369e-02 7.846623659133911133e-02
-7.520027756690979004e-01 4.389568045735359192e-02 -2.531783580780029297e-01
-3.737612962722778320e-01 -4.557799082249403000e-03 8.176695555448532104e-02
4.310880228877067566e-02 -5.386225506663322449e-02 -1.891754120588302612e-01
-7.698730826377868652e-01 3.448348492383956909e-02 -1.061417758464813232e-01
-3.738644719123840332e-01 -8.746251463890075684e-02 -2.266976609826087952e-02
-5.964049100875854492e-01 -4.842121899127960205e-02 1.260424847714602947e-03
-8.429787755012512207e-01 3.920247405767440796e-02 9.305919520556926727e-03
-3.392843008041381836e-01 9.126611053943634033e-02 2.392705902457237244e-02
-4.589610397815704346e-01 4.789264127612113953e-02 7.330887019634246826e-02
1.199020296335220337e-01 -6.265556067228317261e-02 -2.857213616371154785e-01
-9.665589034557342529e-02 2.267310395836830139e-02 -7.133961915969848633e-01
2.037092596292495728e-01 6.357104331254959106e-02 -7.398558408021926880e-02
-4.589610397815704346e-01 4.789264127612113953e-02 7.330887019634246826e-02
-1.298435628414154053e-01 -2.941631898283958435e-02 7.758948206901550293e-02
1.287211179733276367e-01 -5.167037621140480042e-02 2.023978233337402344e-01
2.162932604551315308e-01 2.620590664446353912e-02 8.168959617614746094e-02
1.255235522985458374e-01 -8.354291319847106934e-02 -2.641635537147521973e-01
-7.082425355911254883e-01 3.071860410273075104e-02 5.206050723791122437e-02
-4.328389763832092285e-01 7.917208224534988403e-02 4.777989536523818970e-02
8.382622897624969482e-02 5.026502907276153564e-02 7.421140372753143311e-02
1.284890472888946533e-01 -5.021968390792608261e-03 -3.044941723346710205e-01
-7.142508029937744141e-01 4.018237441778182983e-02 1.978851258754730225e-01
1.064412966370582581e-01 -5.017472431063652039e-02 -2.761028707027435303e-01
-6.968962550163269043e-01 1.589307785034179688e-01 -1.271604560315608978e-02
3.901481330394744873e-01 -6.404805928468704224e-02 -6.650739908218383789e-02
-3.659736812114715576e-01 9.497941285371780396e-02 -1.093675289303064346e-02
-5.417883992195129395e-01 2.857828885316848755e-02 7.472714781761169434e-02
-1.082083955407142639e-01 -8.057741075754165649e-02 5.110639706254005432e-02
-7.817607522010803223e-01 4.044024273753166199e-02 -2.207900881767272949e-01
5.102632641792297363e-01 -2.108055399730801582e-03 8.205061405897140503e-02
7.268631458282470703e-02 3.505079075694084167e-02 7.916248589754104614e-02
-6.495774388313293457e-01 2.006863057613372803e-02 8.834259957075119019e-02
-5.173166990280151367e-01 -3.336170315742492676e-02 5.940975621342658997e-02
-6.411289423704147339e-02 5.737775354646146297e-04 5.707628726959228516e-01
8.307421207427978516e-01 5.957407876849174500e-02 -7.083959132432937622e-02
4.863331019878387451e-01 2.195107191801071167e-02 -9.043759107589721680e-02
2.512602210044860840e-01 -2.526463754475116730e-02 1.536606699228286743e-01
-1.082083955407142639e-01 -8.057741075754165649e-02 5.110639706254005432e-02
-7.816060781478881836e-01 4.936248809099197388e-02 2.309438437223434448e-01
1.083237379789352417e-01 -8.790089190006256104e-02 -6.416080147027969360e-02
1.288500577211380005e-01 -1.065189912915229797e-01 -2.776500880718231201e-01
-2.295355051755905151e-01 7.027561962604522705e-02 8.051394820213317871e-01
-6.769725680351257324e-02 1.890822313725948334e-02 6.620482802391052246e-01
-6.471276879310607910e-01 -3.385165706276893616e-02 -2.176722884178161621e-02
2.645920217037200928e-01 -3.423845395445823669e-02 -1.648842245340347290e-01
-8.050978779792785645e-01 3.450926765799522400e-02 -1.160697191953659058e-01
2.955877780914306641e-01 1.870193518698215485e-02 -9.056652337312698364e-02
7.105496525764465332e-01 -7.941700518131256104e-02 4.107531160116195679e-02
-1.064291074872016907e-01 -3.165310947224497795e-03 5.283177495002746582e-01
2.990432381629943848e-01 2.940347418189048767e-02 8.034867793321609497e-02
-5.882304906845092773e-01 1.253305375576019287e-01 -1.555259805172681808e-02
-5.794630050659179688e-01 1.621025651693344116e-01 -6.269333884119987488e-03
-7.329978346824645996e-01 2.704330980777740479e-01 4.329059273004531860e-03
-1.308750361204147339e-01 7.355724927037954330e-03 6.198352575302124023e-01
1.856068968772888184e-01 -1.961731538176536560e-02 -1.030989289283752441e-01
-7.396766543388366699e-01 2.091960050165653229e-02 -6.196891143918037415e-02
-3.992644846439361572e-01 9.237495064735412598e-02 1.910492032766342163e-02
2.149007618427276611e-01 -6.288764625787734985e-02 2.338061928749084473e-01
-6.997586488723754883e-01 2.735791206359863281e-01 -2.220799215137958527e-03
-1.858525872230529785e-01 3.564388677477836609e-02 -8.682743459939956665e-02
5.597643926739692688e-02 -1.317061018198728561e-02 -2.661491632461547852e-01
2.832359075546264648e-01 -6.110834330320358276e-02 -2.861081659793853760e-01
1.927756518125534058e-01 -1.139456033706665039e-01 2.755035161972045898e-01
5.585104823112487793e-01 8.026180788874626160e-03 8.315944671630859375e-02
-1.741453707218170166e-01 3.412246704101562500e-02 8.031538724899291992e-01
-3.138842582702636719e-01 6.834160536527633667e-02 6.237524747848510742e-02
6.417665630578994751e-02 3.884145617485046387e-02 -8.587331324815750122e-02
2.223789244890213013e-01 -7.021110504865646362e-02 -3.208172619342803955e-01
-8.711475133895874023e-02 -5.608377978205680847e-04 5.602418184280395508e-01
-6.928735375404357910e-01 2.631354331970214844e-01 6.157536990940570831e-04
3.164751529693603516e-01 -7.124257832765579224e-02 2.332904487848281860e-01
-8.595434576272964478e-02 -8.475488424301147461e-02 5.105482414364814758e-02
-4.732565581798553467e-02 2.373036928474903107e-02 8.236005157232284546e-02
-6.930282115936279297e-01 8.332376182079315186e-02 2.988143358379602432e-03
9.934990853071212769e-02 -1.763173192739486694e-02 -9.043759107589721680e-02
-6.872520446777343750e-01 1.689685508608818054e-02 5.853300541639328003e-02
-1.888180673122406006e-01 1.898558251559734344e-02 -9.056652337312698364e-02
1.019285991787910461e-01 -6.611100584268569946e-02 2.723833024501800537e-01
4.320259690284729004e-01 8.837798237800598145e-02 3.125052526593208313e-02
5.290780588984489441e-02 -3.689450398087501526e-02 -2.806155681610107422e-01
4.272038638591766357e-01 -5.058731511235237122e-02 6.822886317968368530e-02
-5.467490479350090027e-02 -1.175232883542776108e-02 4.718187451362609863e-01
8.627952337265014648e-01 -1.375663429498672485e-01 1.234876830130815506e-02
6.321318745613098145e-01 9.521149098873138428e-02 7.423005445161834359e-05
2.817660570144653320e-01 -9.873135387897491455e-02 -2.408264577388763428e-01
-5.212620496749877930e-01 1.053457260131835938e-01 3.968043252825737000e-03
-6.651106476783752441e-02 1.547857373952865601e-02 -9.072124212980270386e-02
-6.212634444236755371e-01 1.573644764721393585e-02 -6.511490792036056519e-02
-2.237850278615951538e-01 2.685057930648326874e-02 -7.757487893104553223e-01
2.206512391567230225e-01 -5.063888430595397949e-02 -2.897956669330596924e-01
2.142045050859451294e-01 -2.877164632081985474e-02 2.839874029159545898e-01
7.901020646095275879e-01 8.964154124259948730e-02 -3.515059873461723328e-02
7.443982362747192383e-02 -4.689980298280715942e-02 2.017015665769577026e-01
-2.359822094440460205e-01 6.112129241228103638e-02 8.005236387252807617e-01
-2.182408571243286133e-01 -5.458428710699081421e-02 -7.352142035961151123e-02
8.880309015512466431e-02 -1.546563394367694855e-02 -2.155553698539733887e-01
-1.470691561698913574e-01 9.309697896242141724e-02 1.598471403121948242e-02
-5.073113441467285156e-01 8.505148440599441528e-02 2.823346294462680817e-02
-5.720105767250061035e-01 1.903715915977954865e-02 7.379882037639617920e-02
-6.604594588279724121e-01 1.800568774342536926e-02 -8.092225342988967896e-02
7.682864069938659668e-01 -9.231043606996536255e-02 -1.418589428067207336e-02
9.021974802017211914e-01 -6.822551041841506958e-02 -2.344337292015552521e-02
1.340847909450531006e-01 -6.270712614059448242e-02 1.453057378530502319e-01
-2.780501730740070343e-02 -5.303706973791122437e-02 2.050022929906845093e-01
2.750872671604156494e-01 -1.097681298851966858e-01 2.249613106250762939e-01
-1.219012066721916199e-01 -6.314550340175628662e-02 7.152957469224929810e-02
4.635891020298004150e-01 5.856839194893836975e-02 -7.756995409727096558e-02
2.158033102750778198e-01 -3.545043990015983582e-02 2.143371254205703735e-01
-8.144585490226745605e-01 3.811102509498596191e-01 -4.541615024209022522e-03
1.389327198266983032e-01 -9.174311906099319458e-02 1.650044880807399750e-02
-7.511518001556396484e-01 -6.259736604988574982e-03 2.346289716660976410e-02
-6.926929950714111328e-01 2.375615201890468597e-02 1.114991828799247742e-01
3.747534453868865967e-01 -8.707570284605026245e-02 -3.404176607728004456e-02
-2.107465080916881561e-02 -1.564614661037921906e-02 4.452325105667114258e-01
-1.070834044367074966e-02 4.711903631687164307e-02 -8.344935625791549683e-02
2.515438795089721680e-01 3.075107233598828316e-03 8.261791616678237915e-02
2.512602210044860840e-01 -2.526463754475116730e-02 1.536606699228286743e-01
-1.975082457065582275e-01 1.264202129095792770e-02 -9.082438796758651733e-02
2.000379376113414764e-02 -1.938523538410663605e-02 4.174601137638092041e-01
2.985790371894836426e-01 -5.087097361683845520e-02 2.904856801033020020e-01
8.243470191955566406e-01 -5.210874974727630615e-02 6.237524747848510742e-02
7.565180212259292603e-02 4.085282981395721436e-02 -8.528021723031997681e-02
3.663630411028862000e-02 -1.487320512533187866e-01 1.268939226865768433e-01
-6.065907478332519531e-01 1.066866442561149597e-01 8.661248721182346344e-03
5.247554779052734375e-01 -9.272302687168121338e-02 1.105703879147768021e-03
-7.957888841629028320e-01 2.290518395602703094e-02 2.985803596675395966e-02
-5.599681138992309570e-01 -5.631199106574058533e-02 -6.552989128977060318e-03
8.333466053009033203e-01 6.217855215072631836e-02 6.008021906018257141e-02
-6.888765692710876465e-01 3.004814684391021729e-02 -6.439287960529327393e-02
4.856884181499481201e-01 -2.464574947953224182e-02 -8.646642416715621948e-02
-2.739661931991577148e-01 5.062604323029518127e-02 -8.185057342052459717e-02
5.098996683955192566e-03 -3.676556795835494995e-02 -2.760255038738250732e-01
-7.478511333465576172e-01 3.917668387293815613e-02 1.399420648813247681e-01
3.882915079593658447e-01 9.265860915184020996e-02 -2.568682655692100525e-02
7.682864069938659668e-01 -9.231043606996536255e-02 -1.418589428067207336e-02
-1.436910927295684814e-01 -8.060319721698760986e-02 3.914129734039306641e-02
8.070440292358398438e-01 -9.089215099811553955e-02 -7.481315638870000839e-03
6.189032793045043945e-01 -9.047956019639968872e-02 1.559790875762701035e-02
7.170994877815246582e-01 1.932081580162048340e-02 -9.159799665212631226e-02
-9.616594016551971436e-02 -3.139527514576911926e-03 -8.974134922027587891e-02
2.851441204547882080e-01 -4.821493476629257202e-02 -2.976606786251068115e-01
2.660102546215057373e-01 -3.599195927381515503e-02 2.566275298595428467e-01
2.640247046947479248e-01 -3.529572114348411560e-02 -2.846383154392242432e-01
5.682579278945922852e-01 1.527227740734815598e-02 8.290157467126846313e-02
7.607566714286804199e-01 -9.125317633152008057e-02 -2.032316289842128754e-02
-6.514598727226257324e-01 7.759907841682434082e-02 -1.392802689224481583e-02
-9.583070874214172363e-02 -1.649710722267627716e-02 8.042603731155395508e-02
8.600102066993713379e-01 -1.315322369337081909e-01 -5.779383704066276550e-03
2.821270525455474854e-01 -1.033987700939178467e-01 -2.540035545825958252e-01
-6.664678454399108887e-01 2.145014554262161255e-01 -1.281919237226247787e-02
3.901481330394744873e-01 -6.404805928468704224e-02 -6.650739908218383789e-02
2.750872671604156494e-01 -1.097681298851966858e-01 2.249613106250762939e-01
-5.951671600341796875e-01 8.012619614601135254e-02 -1.655828393995761871e-02
-6.428212523460388184e-01 1.344332844018936157e-01 7.423480041325092316e-03
-3.004847466945648193e-02 7.997146993875503540e-02 4.767674580216407776e-02
-7.423069477081298828e-01 3.561810031533241272e-02 -1.995675116777420044e-01
-5.560742616653442383e-01 -5.866308347322046757e-04 -7.878194004297256470e-02
4.393236637115478516e-01 4.655172303318977356e-02 -9.061810374259948730e-02
-6.247962117195129395e-01 8.149290084838867188e-02 -1.176193077117204666e-02
1.696448326110839844e-01 -1.033405773341655731e-02 2.569369971752166748e-01
8.137485980987548828e-01 3.373565897345542908e-02 7.586175948381423950e-02
-1.255113631486892700e-01 -8.911286294460296631e-02 2.111629396677017212e-02
2.528847754001617432e-01 -4.855015501379966736e-02 1.386269479990005493e-01
2.878001630306243896e-01 -2.732758224010467529e-02 7.140064239501953125e-02
-6.967157721519470215e-01 3.278154879808425903e-02 -9.487292915582656860e-02
2.159064412117004395e-01 9.418001770973205566e-02 1.129150763154029846e-02
-6.876645684242248535e-01 3.445769101381301880e-02 1.214013397693634033e-01
2.327710390090942383e-01 -1.935945264995098114e-02 1.200604140758514404e-01
-1.377343237400054932e-01 1.963025517761707306e-02 -6.512498855590820312e-01
4.769466817378997803e-01 2.734052203595638275e-02 -9.268104285001754761e-02
-7.893679141998291016e-01 4.639700427651405334e-02 -2.094954550266265869e-01
7.338255643844604492e-02 -4.638405889272689819e-02 -2.335545718669891357e-01
-3.408572673797607422e-01 7.086871564388275146e-02 -6.787410378456115723e-02
1.184579581022262573e-01 -1.415050588548183441e-02 -3.818547129631042480e-01
7.900409400463104248e-02 -3.604353591799736023e-02 2.691341638565063477e-01
2.439109832048416138e-01 -3.839013725519180298e-02 -1.883244663476943970e-01
4.402777850627899170e-01 -4.323806613683700562e-02 7.232896983623504639e-02
-6.866331100463867188e-01 1.711795479059219360e-01 -1.382487919181585312e-02
-6.247962117195129395e-01 8.149290084838867188e-02 -1.176193077117204666e-02
-3.995062038302421570e-02 -9.290353208780288696e-02 -6.656136363744735718e-03
-1.039889547973871231e-02 -5.408767610788345337e-03 5.124588012695312500e-01
-2.563891932368278503e-02 -2.492940425872802734e-02 2.854830324649810791e-01
1.658541709184646606e-01 -6.324865669012069702e-02 2.801709175109863281e-01
-4.211671650409698486e-02 -3.204657509922981262e-02 -8.762682229280471802e-02
2.810955643653869629e-01 7.249328494071960449e-02 -8.497077971696853638e-02
4.209118485450744629e-01 -7.395020127296447754e-02 -5.642474442720413208e-02
2.026166208088397980e-02 -1.255754679441452026e-01 1.440937668085098267e-01
-6.725277304649353027e-01 3.216266632080078125e-02 -1.456730216741561890e-01
-5.581887960433959961e-01 -2.518727816641330719e-02 -6.689420342445373535e-02
2.535294592380523682e-01 -5.027787759900093079e-02 2.818728685379028320e-01
-8.520653098821640015e-02 5.637650936841964722e-02 7.093647867441177368e-02
7.284199595451354980e-01 6.016717478632926941e-02 6.887353211641311646e-02
1.339816451072692871e-01 -1.029861792922019958e-01 2.976028323173522949e-01
7.564244270324707031e-01 7.112658768892288208e-02 -6.877664476633071899e-02
-6.838738918304443359e-01 5.364310741424560547e-02 4.878557845950126648e-02
1.739770323038101196e-01 -3.710080310702323914e-02 -2.564790844917297363e-01
-3.352969884872436523e-02 -4.607461765408515930e-02 1.823614388704299927e-01
6.701932549476623535e-01 -8.657913655042648315e-03 8.651173114776611328e-02
3.577598929405212402e-01 4.962035641074180603e-02 7.457242161035537720e-02
1.311870478093624115e-02 -1.450445204973220825e-01 -1.259460747241973877e-01
-5.546044707298278809e-01 -5.378488451242446899e-02 -3.166937455534934998e-02
7.195750474929809570e-01 8.316904306411743164e-02 -4.992645606398582458e-02
-5.741089698858559132e-04 -9.200099110603332520e-02 -1.869859360158443451e-02
-7.051222920417785645e-01 2.793361805379390717e-02 -4.724463075399398804e-02
-6.247962117195129395e-01 8.149290084838867188e-02 -1.176193077117204666e-02
8.753953874111175537e-02 -1.688391529023647308e-02 1.989939361810684204e-01
8.560553193092346191e-02 -4.488842934370040894e-02 2.348634451627731323e-01
-1.121537759900093079e-01 1.648426242172718048e-02 6.899496912956237793e-01
-3.785576522350311279e-01 -8.885499089956283569e-02 6.082565058022737503e-03
3.977036774158477783e-01 9.526307135820388794e-02 -7.509489078074693680e-04
6.271292567253112793e-01 -8.163468539714813232e-02 3.746515512466430664e-02
-1.710347831249237061e-02 -3.338749706745147705e-02 2.906403839588165283e-01
4.058007597923278809e-01 -4.911746829748153687e-02 6.915718317031860352e-02
-1.455735266208648682e-01 9.095666557550430298e-02 -3.249455615878105164e-02
-7.796204686164855957e-01 4.417933523654937744e-02 1.822582781314849854e-01
7.329841852188110352e-01 8.412315696477890015e-02 4.040485620498657227e-02
8.643070608377456665e-02 -6.278450042009353638e-02 -1.452604234218597412e-01
1.060029193758964539e-01 -3.500543534755706787e-03 3.081238567829132080e-01
-6.669157743453979492e-02 2.107431925833225250e-02 -6.149420142173767090e-01
2.788005471229553223e-01 -1.012326776981353760e-01 -2.295833975076675415e-01
8.030470609664916992e-01 4.350887611508369446e-02 -8.239209651947021484e-02
8.795824050903320312e-01 -7.222248613834381104e-02 2.307609468698501587e-02
2.561855018138885498e-01 6.903784722089767456e-02 6.180793419480323792e-02
3.004873096942901611e-01 -6.355809420347213745e-02 2.276431322097778320e-01
6.051492318511009216e-02 -8.986067771911621094e-02 4.321562126278877258e-02
-5.546044707298278809e-01 -5.378488451242446899e-02 -3.166937455534934998e-02
6.994870901107788086e-01 -5.061310157179832458e-02 6.820306926965713501e-02
-9.675903618335723877e-02 -4.299935884773731232e-03 4.652689099311828613e-01
2.880322337150573730e-01 -1.323316097259521484e-01 -2.569948136806488037e-01
7.268631458282470703e-02 3.505079075694084167e-02 7.916248589754104614e-02
5.171483755111694336e-01 9.350956231355667114e-02 1.425699517130851746e-02
-3.107382655143737793e-01 2.334355935454368591e-02 8.243741095066070557e-02
6.340304762125015259e-02 -8.411022275686264038e-02 -7.344406098127365112e-02
8.998250961303710938e-01 -6.907647848129272461e-02 1.528846658766269684e-02
1.385974884033203125e-01 -5.863280594348907471e-02 -2.725442945957183838e-01
2.162932604551315308e-01 2.620590664446353912e-02 8.168959617614746094e-02
-2.628359198570251465e-02 -3.256231173872947693e-02 2.433988898992538452e-01
3.367436230182647705e-01 3.775840997695922852e-02 -9.157221764326095581e-02
-1.046498194336891174e-01 1.091430056840181351e-02 -5.676231384277343750e-01
-7.527248263359069824e-01 3.487028554081916809e-02 -1.894074976444244385e-01
1.714241206645965576e-01 -6.118571385741233826e-02 1.478328555822372437e-01
7.376000881195068359e-01 7.468517124652862549e-02 -6.596587598323822021e-02
-7.248750329017639160e-01 2.710844203829765320e-02 2.800138108432292938e-02
6.616224348545074463e-02 3.100890666246414185e-03 3.971658647060394287e-01
1.976751387119293213e-01 -1.285925209522247314e-01 2.748072743415832520e-01
-7.680002599954605103e-02 -1.445994526147842407e-02 -4.383794665336608887e-01
1.539664417505264282e-01 -7.652224507182836533e-03 2.686184346675872803e-01
3.648512363433837891e-01 5.756940227001905441e-03 -9.074702858924865723e-02
-5.741089698858559132e-04 -9.200099110603332520e-02 -1.869859360158443451e-02
-5.017671585083007812e-01 -4.421797022223472595e-02 -6.276830285787582397e-02
8.753953874111175537e-02 -1.688391529023647308e-02 1.989939361810684204e-01
1.480354815721511841e-01 -8.323347568511962891e-02 6.740368157625198364e-02
3.068050742149353027e-01 -1.055906489491462708e-01 2.991758286952972412e-01
1.799595952033996582e-01 -7.093314081430435181e-02 8.068390935659408569e-02
6.864647865295410156e-01 -7.420144975185394287e-03 8.148330450057983398e-02
-6.019490957260131836e-01 1.356968432664871216e-01 7.707136217504739761e-03
2.868460416793823242e-01 8.796539902687072754e-02 3.228199854493141174e-02
-7.493209838867187500e-01 3.120854683220386505e-02 -1.567613482475280762e-01
4.174821972846984863e-01 9.526307135820388794e-02 -7.249233778566122055e-03
-7.445503473281860352e-01 -1.033405773341655731e-02 1.485009118914604187e-02
-6.334605813026428223e-01 1.274517457932233810e-02 6.410296261310577393e-02
-6.609236598014831543e-01 1.274517457932233810e-02 3.857398405671119690e-02
2.281294018030166626e-01 -1.111864075064659119e-01 2.360754311084747314e-01
-1.767240315675735474e-01 -7.815346121788024902e-02 -5.093214660882949829e-02
-1.519524957984685898e-02 2.688298001885414124e-03 -5.636519789695739746e-01
-6.545542478561401367e-01 2.919717878103256226e-02 -1.148061528801918030e-01
-1.137009933590888977e-01 8.020355552434921265e-02 -5.508382618427276611e-02
-2.391024231910705566e-01 -8.756564557552337646e-02 -3.285557031631469727e-02
5.461843609809875488e-01 -6.807079166173934937e-02 5.543858557939529419e-02
2.645050361752510071e-02 -1.403255313634872437e-01 1.262492537498474121e-01
7.984569668769836426e-01 -1.961731538176536560e-02 7.800207287073135376e-02
2.676864266395568848e-01 -8.558007329702377319e-02 3.165819644927978516e-01
4.785358533263206482e-02 3.128591552376747131e-02 8.027131855487823486e-02
-2.027171850204467773e-01 2.452976070344448090e-02 7.350508570671081543e-01
-2.780501730740070343e-02 -5.303706973791122437e-02 2.050022929906845093e-01
7.268631458282470703e-02 3.505079075694084167e-02 7.916248589754104614e-02
2.706938609480857849e-02 -6.020580604672431946e-02 1.402772963047027588e-01
-5.725359544157981873e-02 4.147171229124069214e-02 -8.509971946477890015e-02
2.037608474493026733e-01 -8.405863493680953979e-02 2.288551181554794312e-01
-7.551487684249877930e-01 4.325100779533386230e-02 2.440693527460098267e-01
-6.872520446777343750e-01 1.689685508608818054e-02 5.853300541639328003e-02
-3.928016498684883118e-02 -1.069507375359535217e-02 4.827523827552795410e-01
-7.649478316307067871e-01 -5.847143940627574921e-03 1.469537056982517242e-02
1.093294247984886169e-01 -7.652887701988220215e-02 7.709953188896179199e-02
5.698212981224060059e-02 4.673891700804233551e-03 -4.537742137908935547e-01
8.904902338981628418e-01 3.113118559122085571e-02 -6.614638119935989380e-02
6.232000142335891724e-02 9.314855188131332397e-02 -2.359809167683124542e-02
-1.455735266208648682e-01 9.095666557550430298e-02 -3.249455615878105164e-02
-1.496316958218812943e-02 -9.138211607933044434e-02 2.565477788448333740e-02
-4.977540671825408936e-02 1.924345642328262329e-02 5.863123536109924316e-01
2.225078791379928589e-01 -7.286714762449264526e-02 8.073547482490539551e-02
-1.758214980363845825e-01 -2.077772468328475952e-02 7.949770987033843994e-02
-2.401338815689086914e-01 -4.212923347949981689e-02 -8.063859492540359497e-02
3.132517933845520020e-01 -5.373331904411315918e-02 -9.273262321949005127e-02
-1.280384808778762817e-01 -1.592319458723068237e-03 5.166878700256347656e-01
5.845197662711143494e-02 -1.519296169281005859e-01 -1.316965371370315552e-01
1.736160218715667725e-01 -5.339807644486427307e-02 -1.893817186355590820e-01
7.842484712600708008e-01 3.309098631143569946e-02 7.885304838418960571e-02
-7.147923707962036133e-01 1.458826512098312378e-01 -1.299969945102930069e-02
6.646204739809036255e-03 -1.413827836513519287e-01 1.540732681751251221e-01
-1.427369862794876099e-01 -5.399117246270179749e-02 -7.563593983650207520e-02
2.448392957448959351e-01 -4.955584555864334106e-02 -1.520423591136932373e-01
2.640247046947479248e-01 -3.529572114348411560e-02 -2.846383154392242432e-01
-2.628359198570251465e-02 -3.256231173872947693e-02 2.433988898992538452e-01
5.236628279089927673e-02 -7.817924767732620239e-02 -1.219749003648757935e-01
-6.065907478332519531e-01 1.066866442561149597e-01 8.661248721182346344e-03
9.217439293861389160e-01 5.758849158883094788e-02 1.301922649145126343e-02
-4.722928404808044434e-01 8.644396811723709106e-02 -3.620785847306251526e-02
5.491917952895164490e-02 7.569085806608200073e-02 5.368508026003837585e-02
-5.725359544157981873e-02 4.147171229124069214e-02 -8.509971946477890015e-02
2.155712097883224487e-01 -4.336700215935707092e-02 2.745236158370971680e-01
-1.968377977609634399e-01 4.804736003279685974e-02 8.044947385787963867e-01
-8.383887410163879395e-01 5.299843475222587585e-02 -2.743235826492309570e-01
-7.384130954742431641e-01 -6.381977582350373268e-04 3.666575998067855835e-02
7.184404134750366211e-01 6.509246677160263062e-02 -7.334091514348983765e-02
2.731274664402008057e-01 -4.285126551985740662e-02 1.380080580711364746e-01
5.877527594566345215e-01 4.013079777359962463e-02 -8.548651635646820068e-02
2.862529456615447998e-01 -7.137151807546615601e-02 -2.309758961200714111e-01
-8.435557037591934204e-02 1.359613332897424698e-02 -5.610733032226562500e-01
-7.911472320556640625e-01 7.819884456694126129e-03 -3.499587625265121460e-02
-7.848036885261535645e-01 1.569709926843643188e-01 -6.140399258583784103e-03
-5.086806137114763260e-03 -1.695462735369801521e-03 -5.390255451202392578e-01
-1.251341588795185089e-02 2.682478539645671844e-02 -8.935453742742538452e-02
9.465670585632324219e-02 3.989871591329574585e-02 7.774420082569122314e-02
2.866655290126800537e-01 -3.970527276396751404e-02 8.212797343730926514e-02
5.046159625053405762e-01 2.344671264290809631e-02 8.122542500495910645e-02
8.854522556066513062e-02 -2.082262421026825905e-03 3.251431882381439209e-01
8.382622897624969482e-02 5.026502907276153564e-02 7.421140372753143311e-02
7.342993021011352539e-01 -9.310981631278991699e-02 -3.613288747146725655e-03
-3.047814965248107910e-01 -8.741092681884765625e-02 2.542269788682460785e-02
1.807589828968048096e-01 -1.221649814397096634e-02 -2.233429849147796631e-01
-1.476880609989166260e-01 1.037278119474649429e-02 -6.062775850296020508e-01
-6.756221652030944824e-01 2.860408276319503784e-02 5.899716913700103760e-02
7.312822937965393066e-01 4.077547043561935425e-02 -8.907088637351989746e-02
-6.334605813026428223e-01 1.274517457932233810e-02 6.410296261310577393e-02
-7.416107058525085449e-01 2.367554754018783569e-01 -1.217452064156532288e-02
-2.088028937578201294e-01 5.392676219344139099e-02 7.225161045789718628e-02
-7.408370971679687500e-01 1.419888287782669067e-01 5.102664697915315628e-03
7.789363265037536621e-01 1.400872599333524704e-02 8.233425766229629517e-02
7.752746343612670898e-01 -6.685882061719894409e-02 5.613482743501663208e-02
1.568545699119567871e-01 -2.364007011055946350e-02 -2.850508987903594971e-01
2.037350535392761230e-01 -5.620885640382766724e-02 1.564972251653671265e-01
1.720430254936218262e-01 -9.806089103221893311e-02 -2.445139884948730469e-01
5.236628279089927673e-02 -7.817924767732620239e-02 -1.219749003648757935e-01
-1.496316958218812943e-02 -9.138211607933044434e-02 2.565477788448333740e-02
-5.660892277956008911e-02 5.279214307665824890e-02 7.287049293518066406e-02
-7.066694498062133789e-01 3.175007551908493042e-02 -8.347515016794204712e-02
8.769425749778747559e-02 -3.581145778298377991e-02 2.946115732192993164e-01
-4.198778048157691956e-02 6.324243266135454178e-03 -4.776012599468231201e-01
9.826686978340148926e-02 -9.070496074855327606e-03 2.517538368701934814e-01
-1.225458830595016479e-01 2.117747254669666290e-02 7.213064432144165039e-01
-2.148111909627914429e-01 7.504618167877197266e-02 -8.117730021476745605e-01
-5.417883992195129395e-01 2.857828885316848755e-02 7.472714781761169434e-02
-7.139155864715576172e-01 1.609746366739273071e-02 -3.858024999499320984e-02
-3.646939620375633240e-02 9.451525658369064331e-02 9.409068152308464050e-03
1.796243488788604736e-01 -8.369763195514678955e-02 -7.421766221523284912e-02
2.878001630306243896e-01 -2.732758224010467529e-02 7.140064239501953125e-02
-7.139155864715576172e-01 1.609746366739273071e-02 -3.858024999499320984e-02
7.275947928428649902e-01 5.266320705413818359e-02 -8.620855212211608887e-02
2.242098152637481689e-01 -9.512118995189666748e-02 -2.708165645599365234e-01
-4.879970252513885498e-01 8.071929216384887695e-02 4.241622984409332275e-02
-5.066409111022949219e-01 -6.644622236490249634e-02 -1.083360426127910614e-02
9.602952599525451660e-01 2.757260203361511230e-02 -2.081311307847499847e-02
2.116000503301620483e-01 -9.060849249362945557e-02 2.252449542284011841e-01
-6.302984058856964111e-02 8.226649463176727295e-02 4.367978498339653015e-02
-1.190130934119224548e-01 -2.933231182396411896e-03 5.433514714241027832e-01
2.158033102750778198e-01 -3.545043990015983582e-02 2.143371254205703735e-01
-7.778412103652954102e-01 3.370987623929977417e-02 -1.571997255086898804e-01
1.796243488788604736e-01 -8.369763195514678955e-02 -7.421766221523284912e-02
3.622371703386306763e-02 -3.191763907670974731e-02 -2.860823869705200195e-01
-7.142508029937744141e-01 2.535493671894073486e-02 1.193641796708106995e-01
1.083495169878005981e-01 -3.790019452571868896e-02 2.750909030437469482e-01
-8.167793750762939453e-01 2.455487996339797974e-01 -6.527202669531106949e-03
-1.250729858875274658e-01 -2.804294694215059280e-03 -5.135996937751770020e-01
-6.512793302536010742e-01 1.720304936170578003e-01 -1.521736755967140198e-02
2.201612740755081177e-01 -1.217332184314727783e-01 -3.106830418109893799e-01
2.951913699507713318e-02 -4.744131490588188171e-02 -1.013454273343086243e-01
-6.878709197044372559e-01 -2.856534905731678009e-02 -2.607601694762706757e-03
-7.248234748840332031e-01 2.272468060255050659e-02 8.550604432821273804e-02
4.669317603111267090e-02 -3.717816248536109924e-02 -2.898988425731658936e-01
-2.584521658718585968e-02 -5.917433649301528931e-02 1.144388839602470398e-01
2.198776304721832275e-01 -1.021094247698783875e-01 -2.333225011825561523e-01
7.105496525764465332e-01 -7.941700518131256104e-02 4.107531160116195679e-02
-3.004847466945648193e-02 7.997146993875503540e-02 4.767674580216407776e-02
-7.719102501869201660e-01 3.162113949656486511e-02 -8.350092917680740356e-02
1.849855994805693626e-03 9.521149098873138428e-02 2.547381445765495300e-04
9.492842555046081543e-01 8.877139538526535034e-03 4.107531160116195679e-02
-7.848036885261535645e-01 1.569709926843643188e-01 -6.140399258583784103e-03
4.305723309516906738e-02 -9.096952527761459351e-02 3.491225838661193848e-02
2.029098719358444214e-01 -7.273820787668228149e-02 7.991030067205429077e-02
8.243470191955566406e-01 -5.210874974727630615e-02 6.237524747848510742e-02
7.242844253778457642e-02 8.899686485528945923e-02 2.965173870325088501e-02
-2.088286727666854858e-01 2.409138530492782593e-02 -7.591678500175476074e-01
3.422361910343170166e-01 -1.669679302722215652e-03 8.488716930150985718e-02
-7.778669595718383789e-01 1.367025226354598999e-01 3.632814623415470123e-03
7.694113999605178833e-02 -1.465917378664016724e-01 1.182037666440010071e-01
-2.263121455907821655e-01 9.229758381843566895e-02 8.080791831016540527e-01
-2.851577103137969971e-01 1.449867896735668182e-02 8.292736858129501343e-02
-1.937271840870380402e-02 -2.278910018503665924e-02 3.868768811225891113e-01
-2.716034464538097382e-02 8.494833856821060181e-02 3.898657858371734619e-02
3.598228394985198975e-01 -9.040220826864242554e-02 -2.372702583670616150e-02
6.975272893905639648e-01 -8.333660662174224854e-02 -4.252563416957855225e-02
6.093363165855407715e-01 5.271477624773979187e-02 -8.071595430374145508e-02
5.247554779052734375e-01 -9.272302687168121338e-02 1.105703879147768021e-03
2.221468687057495117e-01 -4.579096287488937378e-02 -2.617138028144836426e-01
7.008184492588043213e-02 2.456218237057328224e-03 -3.968368768692016602e-01
-3.742350637912750244e-02 -1.760594733059406281e-02 -3.801012039184570312e-01
1.559778153896331787e-01 -2.186077274382114410e-02 -9.051495045423507690e-02
-7.708529233932495117e-01 4.943984746932983398e-02 2.350697368383407593e-01
-6.068744063377380371e-01 1.744802594184875488e-01 3.013930516317486763e-03
5.994341969490051270e-01 9.183342009782791138e-02 -2.927119843661785126e-02
-3.374276757240295410e-01 -8.766879886388778687e-02 -3.019952587783336639e-02
-7.778669595718383789e-01 1.367025226354598999e-01 3.632814623415470123e-03
-8.345206379890441895e-01 5.681488662958145142e-02 -3.032048344612121582e-01
3.725519031286239624e-02 -6.507953256368637085e-02 -1.284731775522232056e-01
-7.733027338981628418e-01 4.374095797538757324e-02 -1.869061738252639771e-01
-8.207247257232666016e-01 5.885204672813415527e-02 -3.248915672302246094e-01
2.143076658248901367e-01 -8.753986656665802002e-02 -6.655897200107574463e-02
-3.315224349498748779e-01 2.140955254435539246e-02 -9.046337008476257324e-02
3.042263984680175781e-01 -3.147926181554794312e-02 -9.100490063428878784e-02
1.516198366880416870e-01 -1.007618475705385208e-02 -2.358496040105819702e-01
-4.883580207824707031e-01 -6.440906226634979248e-02 -3.950857743620872498e-02
-8.373668044805526733e-02 -5.021968390792608261e-03 -5.294070243835449219e-01
2.241066396236419678e-01 -6.531160324811935425e-02 3.107283413410186768e-01
1.981908679008483887e-01 -7.389862090349197388e-02 -2.625389993190765381e-01
1.024675555527210236e-03 4.619070887565612793e-02 7.588755339384078979e-02
1.219649836421012878e-01 -5.128356441855430603e-02 -2.125125080347061157e-01
-1.219012066721916199e-01 -6.314550340175628662e-02 7.152957469224929810e-02
3.792918920516967773e-01 -7.560055702924728394e-02 -5.454230308532714844e-02
-6.083700060844421387e-01 1.188064590096473694e-01 8.661248721182346344e-03
-7.452466487884521484e-01 2.813991345465183258e-02 1.224843785166740417e-01
2.746230959892272949e-01 7.393734902143478394e-02 5.600589886307716370e-02
6.659383773803710938e-01 1.718051172792911530e-02 -9.064388275146484375e-02
5.682579278945922852e-01 1.527227740734815598e-02 8.290157467126846313e-02
1.051003858447074890e-01 -5.146406963467597961e-02 2.789847254753112793e-01
1.338784992694854736e-01 -9.161418676376342773e-02 -2.630571089684963226e-02
-2.238977886736392975e-02 -3.908638656139373779e-02 2.056211680173873901e-01
5.098996683955192566e-03 -3.676556795835494995e-02 -2.760255038738250732e-01
-7.940611243247985840e-01 3.760368749499320984e-02 1.304009407758712769e-01
-6.428212523460388184e-01 1.344332844018936157e-01 7.423480041325092316e-03
6.371249258518218994e-02 -3.318120166659355164e-02 -3.230349421501159668e-01
3.908605501055717468e-02 -5.066468566656112671e-02 -9.087596833705902100e-02
-7.129099369049072266e-01 -1.935945264995098114e-02 -2.334022521972656250e-02
4.455287009477615356e-02 7.089450210332870483e-02 6.000285968184471130e-02
2.546382844448089600e-01 -3.349063917994499207e-02 2.723575234413146973e-01
2.111358791589736938e-01 6.970831006765365601e-02 6.126641109585762024e-02
-5.017414093017578125e-01 -6.433171778917312622e-02 2.508746832609176636e-02
-1.858525872230529785e-01 3.564388677477836609e-02 -8.682743459939956665e-02
-2.489787936210632324e-01 7.298324257135391235e-02 5.726945400238037109e-02
6.872899532318115234e-01 -9.071164578199386597e-02 -2.248925715684890747e-02
-2.182408571243286133e-01 -5.458428710699081421e-02 -7.352142035961151123e-02
-7.550456523895263672e-01 2.264732122421264648e-02 -6.168526038527488708e-02
-2.860440872609615326e-02 -2.652818895876407623e-02 3.456695377826690674e-01
2.584031522274017334e-01 -1.166532039642333984e-01 -2.378867566585540771e-01
-7.670106887817382812e-01 8.407157659530639648e-02 -2.556028310209512711e-03
5.300417542457580566e-01 -1.453731488436460495e-02 -8.868408203125000000e-02
4.978759959340095520e-02 -4.316070675849914551e-02 -2.476084083318710327e-01
4.517529308795928955e-01 4.732532799243927002e-02 -8.337199687957763672e-02
-6.474113464355468750e-01 1.119213700294494629e-01 6.907744333148002625e-03
2.630447745323181152e-01 -1.143581941723823547e-01 2.280041575431823730e-01
5.943187698721885681e-02 -2.389793284237384796e-02 2.787526547908782959e-01
-2.378226816654205322e-02 -4.197451472282409668e-02 1.924698650836944580e-01
2.888832092285156250e-01 9.474733471870422363e-02 6.237285677343606949e-03
-1.220301389694213867e-01 5.860083736479282379e-03 6.099846363067626953e-01
-4.215701222419738770e-01 -7.219669967889785767e-02 3.994068875908851624e-02
8.818420767784118652e-02 -3.098931908607482910e-02 -2.742204368114471436e-01
5.306252837181091309e-02 -8.686941862106323242e-02 1.155219376087188721e-01
3.059799075126647949e-01 -9.140789508819580078e-02 -3.208688199520111084e-01
2.585321068763732910e-01 -4.416639357805252075e-02 2.569627761840820312e-01
4.531196355819702148e-01 1.609746366739273071e-02 8.287578821182250977e-02
1.338527053594589233e-01 -5.350122973322868347e-02 -2.007021456956863403e-01
-7.069273591041564941e-01 1.168208792805671692e-01 2.988143358379602432e-03
2.242871671915054321e-01 -3.640455380082130432e-02 -2.124609351158142090e-01
4.579063504934310913e-02 -2.714707888662815094e-02 -9.051495045423507690e-02
-6.396494507789611816e-01 1.725462377071380615e-01 -1.467584446072578430e-02
1.257718075066804886e-02 -1.218363717198371887e-01 -1.398709714412689209e-01
8.256267756223678589e-02 -1.189482435584068298e-01 -1.705573052167892456e-01
9.207898378372192383e-01 -4.646142944693565369e-02 -4.520746320486068726e-02
2.046118080615997314e-01 -7.397598773241043091e-02 2.309696376323699951e-01
1.480354815721511841e-01 -8.323347568511962891e-02 6.740368157625198364e-02
-6.305563449859619141e-02 -1.801853068172931671e-02 4.060880839824676514e-01
1.813520789146423340e-01 -1.236930266022682190e-01 -2.875780165195465088e-01
-6.182979345321655273e-01 1.047268435359001160e-01 8.197085000574588776e-03
4.788548946380615234e-01 -8.490961045026779175e-02 -3.914755955338478088e-02
1.064316555857658386e-02 -1.961731538176536560e-02 -2.734726071357727051e-01
7.069652676582336426e-01 2.896509878337383270e-02 -9.072124212980270386e-02
3.731288611888885498e-01 -4.354750737547874451e-02 -8.295941352844238281e-02
2.542257010936737061e-01 -7.265425287187099457e-03 8.158644288778305054e-02
