8.910673260688781738e-01 -9.162137657403945923e-02 1.753998361527919769e-02
-5.629614591598510742e-01 2.079541385173797607e-01 9.205246716737747192e-02
-3.953246772289276123e-01 1.294454652816057205e-02 -9.105777740478515625e-02
-3.684312701225280762e-01 9.427844732999801636e-02 -5.147205665707588196e-03
1.032054424285888672e-02 -7.769523561000823975e-02 2.031565010547637939e-01
3.661672472953796387e-01 1.505853142589330673e-02 -5.904290080070495605e-02
1.201823428273200989e-01 -1.080102100968360901e-01 -2.447817474603652954e-02
1.661233454942703247e-01 2.517078444361686707e-02 5.458918958902359009e-02
8.457583189010620117e-01 4.901303723454475403e-02 2.110079629346728325e-03
-1.527177691459655762e-01 3.238448128104209900e-02 -1.019546017050743103e-01
4.455833435058593750e-01 -8.074635267257690430e-02 -3.716207295656204224e-02
-3.440660238265991211e-01 -3.532838821411132812e-02 1.060875803232192993e-01
7.334777712821960449e-02 -5.614132061600685120e-02 5.870819091796875000e-02
-2.016445100307464600e-01 -1.074515189975500107e-02 6.945245712995529175e-02
7.957200407981872559e-01 2.377599105238914490e-02 -5.346372723579406738e-02
7.625501751899719238e-01 5.145392566919326782e-02 -2.476149052381515503e-02
-4.077470302581787109e-01 3.349595889449119568e-02 -2.626525424420833588e-02
-1.083240881562232971e-01 -2.619684673845767975e-02 6.672825664281845093e-02
-3.684312701225280762e-01 9.427844732999801636e-02 -5.147205665707588196e-03
-5.208125114440917969e-01 -1.253223046660423279e-02 2.314095012843608856e-02
4.930281341075897217e-01 5.646646395325660706e-02 -1.159812696278095245e-02
5.264381691813468933e-02 -8.490893989801406860e-02 1.084412932395935059e-01
1.620043516159057617e-01 -6.165511533617973328e-02 6.720770895481109619e-02
-3.677120804786682129e-01 -1.726145297288894653e-02 8.671303093433380127e-02
2.259469181299209595e-01 4.014302045106887817e-02 -4.104134812951087952e-02
-6.791215538978576660e-01 2.137512415647506714e-01 -4.820300731807947159e-03
1.001539751887321472e-01 -8.216294646263122559e-02 -1.351027488708496094e-01
-2.305646687746047974e-01 3.149094432592391968e-02 1.196080818772315979e-02
-5.788490176200866699e-01 2.101770937442779541e-01 -1.423600316047668457e-01
-6.001414060592651367e-01 2.084335833787918091e-01 9.237937629222869873e-02
7.492124438285827637e-01 -6.400882452726364136e-02 -5.230866000056266785e-02
-5.156474113464355469e-01 1.311097145080566406e-01 5.030428990721702576e-03
-3.169983029365539551e-01 -6.597025692462921143e-02 2.335888706147670746e-02
1.139711439609527588e-01 -1.276462823152542114e-01 -7.275111228227615356e-02
-1.644206233322620392e-02 -6.822293624281883240e-03 6.624878942966461182e-02
2.572425901889801025e-01 4.160319268703460693e-02 -3.940682485699653625e-02
8.149856925010681152e-01 -9.401868283748626709e-02 -9.527729824185371399e-03
3.667774796485900879e-01 2.990000508725643158e-02 5.142911151051521301e-02
5.251305550336837769e-02 -6.568694859743118286e-02 -3.503804206848144531e-01
-6.162033081054687500e-01 2.086079418659210205e-01 9.769702702760696411e-02
6.398954987525939941e-01 5.670619755983352661e-02 1.159031689167022705e-02
6.413556337356567383e-01 -1.935364305973052979e-02 6.751282513141632080e-02
5.388605222105979919e-02 -7.636584341526031494e-02 -9.075266867876052856e-02
8.402696810662746429e-03 -6.658048182725906372e-02 -3.447358608245849609e-01
3.403203934431076050e-02 -5.352608859539031982e-02 -3.568531572818756104e-01
6.081643700599670410e-02 -5.546571686863899231e-02 3.161129653453826904e-01
1.071933209896087646e-01 4.657214879989624023e-02 -3.387123718857765198e-02
-2.202123031020164490e-02 -5.714383348822593689e-02 -4.064990878105163574e-01
-1.799598038196563721e-01 2.919468097388744354e-03 -3.223671391606330872e-02
-2.209972441196441650e-01 -2.464949898421764374e-02 1.502197235822677612e-01
-1.644863039255142212e-01 -5.013419780880212784e-03 9.841621667146682739e-02
-2.114952355623245239e-01 -4.775077104568481445e-02 1.255711019039154053e-01
5.349376052618026733e-02 -7.719398289918899536e-02 -8.007378131151199341e-02
9.114661216735839844e-01 -9.502911940217018127e-03 4.569738358259201050e-02
-6.252912878990173340e-01 2.073003202676773071e-01 1.566488593816757202e-01
2.393500059843063354e-01 -1.080102100968360901e-01 5.845241248607635498e-04
8.999591469764709473e-01 -9.197007864713668823e-02 -1.303650718182325363e-02
7.399065494537353516e-01 -9.458531439304351807e-02 -6.672760937362909317e-03
-3.520638495683670044e-02 -4.624701291322708130e-02 -5.444310903549194336e-01
1.122930347919464111e-01 -1.676020026206970215e-02 -6.627839058637619019e-02
-3.114626705646514893e-01 1.795708574354648590e-02 -1.404639780521392822e-01
-2.139797061681747437e-01 -1.475518196821212769e-02 -6.906798481941223145e-02
8.781876415014266968e-02 -8.126939833164215088e-02 -1.551311016082763672e-01
-3.610650300979614258e-01 2.606432326138019562e-02 1.042569130659103394e-01
-3.458313047885894775e-01 1.372116385027766228e-03 -2.609090507030487061e-02
-2.195152789354324341e-01 -4.160495847463607788e-02 -1.352553069591522217e-01
-3.562047332525253296e-02 -4.977757856249809265e-02 -5.147045254707336426e-01
5.728586018085479736e-02 4.901303723454475403e-02 3.065976127982139587e-02
-6.350548267364501953e-01 2.040094733238220215e-01 -1.968877315521240234e-01
-5.349783897399902344e-01 2.122038900852203369e-01 -9.574341028928756714e-02
6.744170188903808594e-02 -8.205397427082061768e-02 1.463186591863632202e-01
8.206302523612976074e-01 -9.554423391819000244e-02 3.112587379291653633e-03
4.334006607532501221e-01 4.162498936057090759e-02 -3.938502818346023560e-02
-6.220875978469848633e-01 2.124654054641723633e-01 -3.197518736124038696e-02
2.312645763158798218e-01 -5.186976864933967590e-02 6.269642710685729980e-02
7.398629188537597656e-01 -1.551796030253171921e-02 6.727309525012969971e-02
7.232562303543090820e-01 4.855537042021751404e-02 -3.042784146964550018e-02
9.464449882507324219e-01 -7.418646663427352905e-02 3.048541024327278137e-02
6.046769618988037109e-01 4.264928773045539856e-02 3.937722370028495789e-02
-4.018191695213317871e-01 -2.855849452316761017e-03 8.191842585802078247e-02
-9.640295803546905518e-02 -8.384104818105697632e-02 3.482235223054885864e-02
1.412350088357925415e-01 4.094938561320304871e-02 4.127327352762222290e-02
-2.004022747278213501e-01 3.040125966072082520e-02 -1.419459432363510132e-01
-3.080628514289855957e-01 -1.743580400943756104e-02 -1.440163403749465942e-01
-7.964364439249038696e-02 -4.827381297945976257e-02 6.158495321869850159e-02
-3.958695232868194580e-01 -6.982789491303265095e-04 -8.159933239221572876e-02
-5.166063308715820312e-01 1.523287780582904816e-02 2.355503104627132416e-02
-7.554642856121063232e-02 -3.465278819203376770e-02 6.185435056686401367e-01
-1.598878651857376099e-01 4.179934039711952209e-02 9.959307312965393066e-02
8.642397075891494751e-02 -1.065718308091163635e-01 1.031672284007072449e-01
-3.099807202816009521e-01 -8.740137331187725067e-03 5.620191991329193115e-02
7.749943137168884277e-01 -7.213786244392395020e-02 -4.675127938389778137e-02
1.803110241889953613e-01 -8.809081465005874634e-02 -6.667067855596542358e-02
6.714091300964355469e-01 -5.616312101483345032e-02 -5.756093189120292664e-02
1.897912472486495972e-01 -8.425512164831161499e-02 1.118628978729248047e-01
-1.924257725477218628e-01 3.428052738308906555e-02 1.021731738001108170e-02
-3.012197017669677734e-01 -1.673840172588825226e-02 -5.479313805699348450e-02
8.415743708610534668e-02 -8.286033570766448975e-02 1.351167261600494385e-01
6.144187450408935547e-01 -8.100787550210952759e-02 -3.685696795582771301e-02
-9.727469831705093384e-02 5.677157640457153320e-02 -1.009436510503292084e-02
8.607959151268005371e-01 -9.295079112052917480e-02 -1.515049114823341370e-02
2.082950959447771311e-04 -4.827381297945976257e-02 -5.205234289169311523e-01
-2.499610185623168945e-01 -1.259761117398738861e-02 3.373266756534576416e-02
-6.058512926101684570e-01 2.090002298355102539e-01 8.427213877439498901e-02
1.032054424285888672e-02 -7.769523561000823975e-02 2.031565010547637939e-01
1.658836305141448975e-01 -8.560632914304733276e-02 -9.966627508401870728e-02
8.952080607414245605e-01 -4.343562945723533630e-02 5.764029920101165771e-02
-1.577956676483154297e-01 -3.898971900343894958e-02 -1.168178766965866089e-01
2.305453866720199585e-01 -5.136851593852043152e-02 7.474831491708755493e-02
1.122930347919464111e-01 2.283886447548866272e-02 5.615833401679992676e-02
-6.617084145545959473e-01 2.022006064653396606e-01 7.471317425370216370e-03
1.363750100135803223e-01 -8.092071115970611572e-02 -1.599039137363433838e-01
6.269064545631408691e-01 -8.508328348398208618e-02 -3.160469606518745422e-02
1.238436698913574219e-01 -6.993670016527175903e-02 2.957141101360321045e-01
-1.122251525521278381e-01 3.081533871591091156e-02 -4.969342425465583801e-02
-1.102855131030082703e-01 1.431754790246486664e-02 -5.930442363023757935e-02
7.679113745689392090e-01 1.682381518185138702e-02 -5.841088667511940002e-02
2.504647970199584961e-01 -8.098608255386352539e-02 -1.009956821799278259e-01
2.906086742877960205e-01 -3.467457741498947144e-02 -6.462207436561584473e-02
6.926579475402832031e-01 -6.860728561878204346e-02 -4.923575744032859802e-02
4.063765406608581543e-01 4.332489147782325745e-02 3.861444443464279175e-02
6.408326029777526855e-01 2.100819721817970276e-02 -5.625331401824951172e-02
-3.133587539196014404e-01 -3.120939061045646667e-02 -8.741823583841323853e-02
-7.855362258851528168e-03 3.565353155136108398e-02 -4.605388641357421875e-02
-2.704470455646514893e-01 5.114881321787834167e-02 -9.157237596809864044e-03
2.274292334914207458e-02 -6.237430870532989502e-02 -3.227024972438812256e-01
2.104952186346054077e-01 -7.231222093105316162e-02 -4.655513912439346313e-02
-1.704795807600021362e-01 -1.732683368027210236e-02 -1.170793920755386353e-01
-2.914779186248779297e-01 3.798545151948928833e-02 1.095963567495346069e-01
-6.264899373054504395e-01 2.098937630653381348e-01 9.229219704866409302e-02
5.498441457748413086e-01 -5.145568773150444031e-02 -5.930442363023757935e-02
-1.865414828062057495e-01 -3.563350066542625427e-02 8.048003911972045898e-02
9.639016985893249512e-01 -9.655467234551906586e-03 -7.675269152969121933e-03
7.547044157981872559e-01 5.021169036626815796e-02 -2.718058601021766663e-02
1.994022578001022339e-01 -9.153421223163604736e-02 -6.013258546590805054e-02
-2.356643825769424438e-01 -8.118223398923873901e-02 2.697663381695747375e-02
-2.132382802665233612e-02 -4.716233909130096436e-02 -5.357136130332946777e-01
3.392306715250015259e-02 -4.402405396103858948e-02 4.418405592441558838e-01
4.748522043228149414e-01 3.031408414244651794e-02 -5.004212632775306702e-02
9.586275815963745117e-01 -4.936349764466285706e-02 -3.931964933872222900e-02
-2.110593616962432861e-01 -3.465278819203376770e-02 8.010955154895782471e-02
-9.095454961061477661e-02 -7.261732220649719238e-02 -4.620644077658653259e-02
5.108335018157958984e-01 1.514570694416761398e-02 -5.902110785245895386e-02
8.997633308172225952e-02 -4.918914660811424255e-02 3.374489545822143555e-01
1.875465065240859985e-01 -6.705994158983230591e-02 -2.331959754228591919e-01
-6.739560514688491821e-02 -7.008925080299377441e-02 4.938050732016563416e-02
-1.722884476184844971e-01 3.279856219887733459e-02 1.053030118346214294e-01
2.436433583498001099e-01 2.523616515100002289e-02 -5.344193056225776672e-02
9.888772368431091309e-01 -2.554304152727127075e-02 -6.324063055217266083e-03
-2.702291309833526611e-01 2.588997408747673035e-02 -4.648975655436515808e-02
8.076194524765014648e-01 -7.000208646059036255e-02 4.901001602411270142e-02
-1.759061962366104126e-01 2.891929075121879578e-02 8.017493039369583130e-02
-3.800691068172454834e-01 -1.538719888776540756e-02 4.541406407952308655e-02
6.458673626184463501e-02 -1.080102100968360901e-01 2.412166632711887360e-02
7.251962274312973022e-02 -1.150931417942047119e-01 7.585979253053665161e-02
-1.895489990711212158e-01 -4.546243697404861450e-02 -9.175517410039901733e-02
-4.991710558533668518e-02 -5.805916711688041687e-02 5.742236599326133728e-02
3.301205635070800781e-01 -9.526092559099197388e-02 -3.338332753628492355e-03
1.729883402585983276e-01 -8.081173896789550781e-02 -1.574194431304931641e-01
8.775551915168762207e-01 -8.403719961643218994e-02 2.785682678222656250e-03
3.300115764141082764e-01 -9.360459446907043457e-02 -1.153274532407522202e-02
7.457254528999328613e-01 -5.655540153384208679e-02 -5.729940906167030334e-02
-3.708285987377166748e-01 3.700473532080650330e-02 -7.936792448163032532e-03
-6.406121850013732910e-01 2.066900879144668579e-01 1.488031446933746338e-01
-2.707739472389221191e-01 4.488610662519931793e-03 -6.531947106122970581e-02
8.023889660835266113e-01 -8.883179724216461182e-02 -2.410768158733844757e-02
2.490699738264083862e-01 -5.047497153282165527e-02 -6.610403954982757568e-02
1.476859152317047119e-01 5.749076604843139648e-02 7.667460478842258453e-03
-4.738907516002655029e-01 1.609452217817306519e-01 -5.299761425703763962e-03
-4.348798096179962158e-02 -3.846667334437370300e-02 6.145116686820983887e-01
-3.290719687938690186e-01 -7.519691716879606247e-03 -7.649961858987808228e-02
9.618752449750900269e-02 -1.006003618240356445e-01 7.995700091123580933e-02
7.943906784057617188e-01 2.050694264471530914e-02 5.687752366065979004e-02
2.627350017428398132e-02 -5.128133669495582581e-02 3.844360709190368652e-01
1.476859152317047119e-01 5.749076604843139648e-02 7.667460478842258453e-03
-3.948670327663421631e-01 -6.546933436766266823e-04 1.115444488823413849e-02
4.213705956935882568e-01 -1.924467273056507111e-02 6.753461807966232300e-02
-3.745117187500000000e-01 4.417484626173973083e-02 1.540420576930046082e-02
-3.436301350593566895e-01 2.196711674332618713e-02 1.014891192317008972e-01
1.783935166895389557e-02 -8.922408521175384521e-02 2.457933314144611359e-02
-3.181751370429992676e-01 4.883868992328643799e-02 -1.246987283229827881e-02
-1.121157966554164886e-02 -4.271643608808517456e-02 4.910942018032073975e-01
1.925593800842761993e-02 -6.854191422462463379e-02 6.465785950422286987e-02
-5.437176227569580078e-01 -1.316424831748008728e-02 -1.382107846438884735e-02
2.348390780389308929e-02 -3.962174057960510254e-02 5.216706991195678711e-01
-5.841662362217903137e-02 4.903483018279075623e-02 3.063796646893024445e-02
-2.104491144418716431e-01 -4.679184406995773315e-02 -1.266032159328460693e-01
-8.371905237436294556e-02 -7.808753848075866699e-02 4.125147685408592224e-02
1.389470230787992477e-02 -8.076814562082290649e-02 -1.597513556480407715e-01
1.065830960869789124e-01 -5.356967821717262268e-02 -2.815560698509216309e-01
6.042414531111717224e-02 -7.882852107286453247e-02 -1.900663375854492188e-01
-2.104051597416400909e-02 -4.947246611118316650e-02 4.540885984897613525e-01
-3.206810727715492249e-02 -1.192200835794210434e-02 6.683722138404846191e-02
1.681501567363739014e-01 -5.348249897360801697e-02 6.720770895481109619e-02
-2.624487876892089844e-01 2.070308662950992584e-02 1.463186591863632202e-01
-5.909008979797363281e-01 2.031079865992069244e-02 2.502365503460168839e-03
-5.059056282043457031e-01 5.709848180413246155e-02 -2.161475596949458122e-03
2.586591839790344238e-01 -5.269792303442955017e-02 1.049761101603507996e-01
7.457254528999328613e-01 -5.655540153384208679e-02 -5.729940906167030334e-02
4.455833435058593750e-01 -8.074635267257690430e-02 -3.716207295656204224e-02
-2.646669512614607811e-03 -5.564006790518760681e-02 4.553308486938476562e-01
1.390338391065597534e-01 -8.754596859216690063e-02 -7.989943027496337891e-02
-5.367218852043151855e-01 2.104603946208953857e-01 -3.343536332249641418e-02
-2.435315214097499847e-02 3.955459222197532654e-02 4.282062128186225891e-02
-9.714394062757492065e-02 -3.907689824700355530e-02 -6.023368239402770996e-01
-2.882084436714649200e-02 -6.167691573500633240e-02 -3.998084068298339844e-01
3.860870003700256348e-02 -7.250835001468658447e-02 -4.633720219135284424e-02
-4.088149368762969971e-01 4.116732254624366760e-02 -1.525945961475372314e-02
9.394274353981018066e-01 -8.512688428163528442e-02 -1.331982482224702835e-02
-1.969370543956756592e-01 2.098640240728855133e-02 -5.466237664222717285e-02
-5.961967110633850098e-01 2.076272219419479370e-01 -1.052890270948410034e-01
-2.119092941284179688e-01 -1.503850240260362625e-02 3.201096877455711365e-02
-4.167042374610900879e-01 -1.548232743516564369e-03 -9.963602758944034576e-03
-4.913257062435150146e-01 1.349889934062957764e-01 -4.754920024424791336e-03
1.745357066392898560e-01 -1.351294573396444321e-02 6.703336536884307861e-02
2.934200465679168701e-01 -1.025182083249092102e-01 1.958858594298362732e-02
-1.776932626962661743e-01 -3.182755783200263977e-03 -3.953758627176284790e-02
2.795160934329032898e-02 -5.014806985855102539e-02 3.935240209102630615e-01
-1.883939653635025024e-01 9.196038357913494110e-03 -6.878466159105300903e-02
-3.463107645511627197e-01 -2.807110548019409180e-02 1.171587556600570679e-01
4.748522043228149414e-01 3.031408414244651794e-02 -5.004212632775306702e-02
-5.188074707984924316e-01 1.847656816244125366e-01 5.880380980670452118e-03
-3.715913593769073486e-01 4.314260091632604599e-03 -1.298068910837173462e-01
6.031078100204467773e-01 -8.410257101058959961e-02 -3.341357037425041199e-02
8.882158435881137848e-03 -7.340189069509506226e-02 2.620865106582641602e-01
3.385111391544342041e-01 -9.393945336341857910e-03 -6.542843580245971680e-02
7.391219735145568848e-01 -9.443275630474090576e-02 8.560999296605587006e-03
-3.368083760142326355e-02 -3.781286254525184631e-02 6.145988106727600098e-01
2.825450301170349121e-01 -6.420497596263885498e-02 8.531823754310607910e-02
4.608392715454101562e-02 -6.540362536907196045e-02 -5.137153714895248413e-02
-6.220875978469848633e-01 2.124654054641723633e-01 -3.197518736124038696e-02
4.632365703582763672e-02 -8.203218877315521240e-02 1.481929123401641846e-01
-6.176417469978332520e-01 1.650642156600952148e-01 3.230003349017351866e-04
4.390887916088104248e-01 5.670619755983352661e-02 -1.042126957327127457e-02
-1.722884476184844971e-01 -5.689023062586784363e-03 -1.541503965854644775e-01
3.549217283725738525e-01 5.069114640355110168e-02 -2.622166648507118225e-02
5.277454257011413574e-01 -9.382253885269165039e-02 1.163390465080738068e-02
-4.664805158972740173e-02 -5.376581847667694092e-02 4.562243521213531494e-01
-1.659682691097259521e-01 -9.225338697433471680e-02 -1.743882335722446442e-02
5.630511045455932617e-01 5.040783062577247620e-02 -2.681009471416473389e-02
6.175134181976318359e-01 -7.577740401029586792e-02 -4.269766435027122498e-02
-5.711122751235961914e-01 2.054914534091949463e-01 -1.536055505275726318e-01
6.410070061683654785e-01 3.327802196145057678e-02 4.918436333537101746e-02
4.946190118789672852e-01 9.675499983131885529e-03 -6.100432947278022766e-02
-2.472803890705108643e-01 -1.896929694339632988e-03 -6.019796431064605713e-02
2.003393769264221191e-01 -7.357624918222427368e-02 6.698977202177047729e-02
1.068446189165115356e-01 -8.809081465005874634e-02 -7.412411272525787354e-02
-4.077470302581787109e-01 3.349595889449119568e-02 -2.626525424420833588e-02
-3.006530106067657471e-01 3.246370237320661545e-03 -2.247315831482410431e-02
2.515326738357543945e-01 -1.049373075366020203e-01 4.571917280554771423e-02
-9.714394062757492065e-02 -3.907689824700355530e-02 -6.023368239402770996e-01
-4.566737711429595947e-01 -2.238295786082744598e-02 -2.835744433104991913e-02
-1.682566255331039429e-01 4.325951263308525085e-02 1.193381175398826599e-01
1.128160879015922546e-01 -6.804065406322479248e-02 3.171590864658355713e-01
4.748522043228149414e-01 3.031408414244651794e-02 -5.004212632775306702e-02
-5.349783897399902344e-01 2.122038900852203369e-01 -9.574341028928756714e-02
6.053311377763748169e-02 -8.020152151584625244e-02 1.724710315465927124e-01
7.079792767763137817e-02 -1.081627681851387024e-01 9.989818185567855835e-02
-3.236017823219299316e-01 -7.868388667702674866e-03 5.509889218956232071e-03
-4.818237125873565674e-01 3.517406806349754333e-02 9.323776699602603912e-03
5.907293781638145447e-02 -7.403391599655151367e-02 2.570957839488983154e-01
-6.214337944984436035e-01 2.068862468004226685e-01 -1.694277524948120117e-01
8.773159235715866089e-02 -8.410257101058959961e-02 1.188804581761360168e-01
8.571781516075134277e-01 -1.206505149602890015e-01 1.067498326301574707e-02
-1.448720395565032959e-01 3.824697434902191162e-02 -4.315532743930816650e-02
-2.106234729290008545e-01 6.973087321966886520e-03 -1.916052401065826416e-02
1.044473275542259216e-01 -1.079448238015174866e-01 -3.369688987731933594e-02
5.315811038017272949e-01 1.187665667384862900e-02 6.132342666387557983e-02
1.317765563726425171e-01 5.507167428731918335e-02 1.873863488435745239e-02
6.661354750394821167e-02 -7.627865672111511230e-02 -5.758272483944892883e-02
-4.165731370449066162e-02 2.959489449858665466e-02 -5.049978941679000854e-02
4.261433780193328857e-01 -4.855713248252868652e-02 -6.037231534719467163e-02
-5.657292008399963379e-01 2.071259766817092896e-01 1.095963567495346069e-01
-3.037913441658020020e-01 3.593684732913970947e-02 -1.164473816752433777e-01
1.919270306825637817e-01 2.804754674434661865e-02 5.267135053873062134e-02
-4.482832551002502441e-01 5.825354531407356262e-02 -5.125412251800298691e-03
-3.634187579154968262e-01 4.049171879887580872e-02 9.280190803110599518e-03
5.633997917175292969e-01 5.487552657723426819e-02 -1.802725344896316528e-02
1.738168857991695404e-02 -3.927303850650787354e-02 5.331559181213378906e-01
-5.946058034896850586e-01 2.052299231290817261e-01 -1.540632247924804688e-01
9.281383156776428223e-01 3.180989762768149376e-03 1.178645994514226913e-02
-5.669496655464172363e-01 2.103950083255767822e-01 -1.481353491544723511e-01
8.780782818794250488e-01 -5.317738652229309082e-02 5.628909543156623840e-02
3.549217283725738525e-01 5.069114640355110168e-02 -2.622166648507118225e-02
-5.851037502288818359e-01 2.318399697542190552e-01 -3.447301220148801804e-03
-2.353810667991638184e-01 1.619180105626583099e-02 -5.509825050830841064e-02
2.104952186346054077e-01 -7.231222093105316162e-02 -4.655513912439346313e-02
6.691643595695495605e-01 -8.763314783573150635e-02 -2.657036483287811279e-02
7.459433674812316895e-01 -3.537197783589363098e-02 6.566036492586135864e-02
-3.368083760142326355e-02 -3.781286254525184631e-02 6.145988106727600098e-01
7.957200407981872559e-01 2.377599105238914490e-02 -5.346372723579406738e-02
-4.458423554897308350e-01 3.725832328200340271e-03 -3.461221978068351746e-02
-5.667535662651062012e-01 2.117898166179656982e-01 1.192509457468986511e-01
-5.789579749107360840e-01 2.092617452144622803e-01 1.630779802799224854e-01
-2.790337204933166504e-01 -2.005899790674448013e-03 -5.664559826254844666e-02
1.483833193778991699e-01 -4.537525773048400879e-02 -6.608224660158157349e-02
-3.397508561611175537e-01 2.351446636021137238e-02 9.242296218872070312e-02
-1.780637800693511963e-01 -7.672247476875782013e-03 9.781444445252418518e-03
1.594980806112289429e-01 -5.827710032463073730e-02 1.079182550311088562e-01
1.576674133539199829e-01 -5.169541761279106140e-02 2.698450684547424316e-01
7.902280688285827637e-01 4.306337237358093262e-02 -3.703131154179573059e-02
6.516858339309692383e-01 -9.197804145514965057e-03 6.653211265802383423e-02
-3.616970479488372803e-01 1.008601263165473938e-01 2.742095617577433586e-03
1.056027505546808243e-02 -5.546571686863899231e-02 -4.546412229537963867e-01
6.583329439163208008e-01 -2.175094559788703918e-02 6.725130230188369751e-02
4.999149143695831299e-01 -3.639627620577812195e-02 6.555140018463134766e-02
-1.930796056985855103e-01 -3.816156461834907532e-02 -1.400934904813766479e-01
8.004929423332214355e-01 4.426202178001403809e-02 3.575947508215904236e-02
1.894643455743789673e-01 -8.684857934713363647e-02 7.976084947586059570e-02
-5.941912904381752014e-02 -3.308364003896713257e-02 -6.218857169151306152e-01
-1.723320186138153076e-01 -4.533167555928230286e-02 -1.300466209650039673e-01
3.269822895526885986e-01 -3.160960972309112549e-03 -6.470925360918045044e-02
6.785138249397277832e-01 -3.543736040592193604e-02 6.566036492586135864e-02
-4.597685337066650391e-01 8.250988274812698364e-02 -4.842094611376523972e-03
4.500292539596557617e-01 -2.092278935015201569e-02 -6.621301174163818359e-02
-3.028759956359863281e-01 3.159199142828583717e-03 1.347301877103745937e-03
2.202369868755340576e-01 -6.640613079071044922e-02 1.848062425851821899e-01
1.526984572410583496e-01 -9.454172849655151367e-02 -5.812756717205047607e-02
-3.285489082336425781e-01 2.963053761050105095e-03 5.155987292528152466e-02
-1.506037712097167969e-01 2.264272049069404602e-02 -7.588940113782882690e-02
9.732112288475036621e-03 8.280703797936439514e-03 6.265284121036529541e-02
-2.026688009500503540e-01 -2.637913450598716736e-03 -6.266064941883087158e-02
6.973217725753784180e-01 3.573276568204164505e-03 -6.322728097438812256e-02
7.924728393554687500e-01 1.524672028608620167e-03 -6.346701085567474365e-02
8.875589072704315186e-02 -8.732802420854568481e-02 8.163511008024215698e-02
2.075312733650207520e-01 -1.638970896601676941e-02 -6.623480468988418579e-02
5.269607901573181152e-01 3.031408414244651794e-02 5.116758868098258972e-02
-2.049353420734405518e-01 -2.207784727215766907e-02 -6.372853368520736694e-02
-2.899087667465209961e-01 3.953279927372932434e-02 1.093650702387094498e-02
4.646963477134704590e-01 4.816308617591857910e-02 3.233787044882774353e-02
1.469013541936874390e-01 -6.756912916898727417e-03 6.624878942966461182e-02
1.353071331977844238e-01 -6.267941743135452271e-02 -8.414918929338455200e-02
-4.643451571464538574e-01 -3.774748370051383972e-02 1.344277709722518921e-02
8.317013978958129883e-01 -2.358161285519599915e-02 -6.405544281005859375e-02
-5.493839979171752930e-01 2.127705365419387817e-01 1.138897091150283813e-01
-2.098824977874755859e-01 4.201727733016014099e-02 9.928796440362930298e-02
1.894643455743789673e-01 -8.684857934713363647e-02 7.976084947586059570e-02
9.629649668931961060e-02 -9.327770024538040161e-02 -1.312368176877498627e-02
2.906304597854614258e-01 3.146914765238761902e-02 5.038301646709442139e-02
-5.092619061470031738e-01 1.845259517431259155e-01 6.054730620235204697e-03
1.923629045486450195e-01 3.543559461832046509e-02 -4.627182334661483765e-02
-4.789028689265251160e-02 -4.705337435007095337e-02 -6.091715395450592041e-02
-1.485551744699478149e-01 4.223521053791046143e-02 -1.146603003144264221e-01
-3.534808754920959473e-01 -3.245162591338157654e-02 -1.189100667834281921e-01
9.894438385963439941e-01 -5.302483588457107544e-02 2.268328517675399780e-02
-5.266095995903015137e-01 2.490926161408424377e-02 1.485936436802148819e-02
5.269607901573181152e-01 3.031408414244651794e-02 5.116758868098258972e-02
-4.933743178844451904e-01 1.883834302425384521e-01 6.294460501521825790e-03
-4.916961789131164551e-01 2.181099653244018555e-01 1.161211077123880386e-02
-6.500270962715148926e-01 2.041184455156326294e-01 -2.056269943714141846e-01
-2.157232016324996948e-01 -1.479877158999443054e-02 -6.124405935406684875e-02
3.754077851772308350e-01 -1.150793023407459259e-02 -6.566817313432693481e-02
4.658949971199035645e-01 -8.972533792257308960e-02 -2.245136536657810211e-02
3.466404974460601807e-02 -6.716891378164291382e-02 -3.519277870655059814e-01
-5.435215234756469727e-01 1.868142783641815186e-01 -4.079316742718219757e-03
1.536573767662048340e-01 -5.670796334743499756e-02 1.473211646080017090e-01
7.786556482315063477e-01 3.824697434902191162e-02 4.428079351782798767e-02
2.334439307451248169e-01 -1.630252972245216370e-02 -6.623480468988418579e-02
2.515326738357543945e-01 -1.049373075366020203e-01 4.571917280554771423e-02
7.204016298055648804e-02 -1.122460979968309402e-02 -6.564637273550033569e-02
5.133983795531094074e-04 -4.238953441381454468e-02 -4.840408861637115479e-01
-1.735088825225830078e-01 -6.913034617900848389e-02 4.933692142367362976e-02
1.755164116621017456e-01 -1.080102100968360901e-01 -2.088222280144691467e-02
1.467487961053848267e-01 2.911543473601341248e-02 -5.082669481635093689e-02
2.266443222761154175e-01 -5.206590890884399414e-02 -1.530607193708419800e-01
-6.436197757720947266e-01 2.451122999191284180e-01 2.240841509774327278e-03
-4.165731370449066162e-02 2.959489449858665466e-02 -5.049978941679000854e-02
-2.298236787319183350e-01 -2.990177273750305176e-02 -1.455201059579849243e-01
4.459320008754730225e-01 -9.395329654216766357e-02 -9.876429103314876556e-03
8.023889660835266113e-01 -8.883179724216461182e-02 -2.410768158733844757e-02
-3.181751370429992676e-01 4.883868992328643799e-02 -1.246987283229827881e-02
9.349815249443054199e-01 -4.548422992229461670e-02 -4.755764827132225037e-02
1.960463821887969971e-02 1.035110373049974442e-02 -6.076459586620330811e-02
4.715395569801330566e-01 5.321921035647392273e-02 2.239996753633022308e-02
-6.355124711990356445e-01 2.266094833612442017e-01 6.490603554993867874e-03
-1.682348400354385376e-01 -9.580575674772262573e-02 6.281114183366298676e-04
2.129579037427902222e-01 -7.885031402111053467e-02 -3.927605971693992615e-02
7.188761234283447266e-02 -5.169541761279106140e-02 3.360323607921600342e-01
-2.345747202634811401e-01 -4.110370576381683350e-02 8.826037496328353882e-02
4.793638363480567932e-02 -5.498626455664634705e-02 -4.456840455532073975e-01
-1.562701165676116943e-01 5.147572234272956848e-02 -2.469611167907714844e-02
6.136164534837007523e-03 5.321921035647392273e-02 2.237817458808422089e-02
-6.020592451095581055e-01 2.076272219419479370e-01 1.090297251939773560e-01
-3.110486268997192383e-01 2.473491057753562927e-02 -4.326429963111877441e-02
-5.054261684417724609e-01 2.150588482618331909e-01 3.891955688595771790e-02
2.421396076679229736e-01 4.644138738512992859e-02 -3.402379155158996582e-02
-1.965447813272476196e-01 -1.604100689291954041e-02 4.258088767528533936e-02
6.060063838958740234e-01 7.278198841959238052e-03 -6.187607720494270325e-02
7.716380953788757324e-01 -9.162137657403945923e-02 -1.874644495546817780e-02
9.848889708518981934e-01 -3.001073561608791351e-02 -1.911693625152111053e-02
-6.389777064323425293e-01 2.032249122858047485e-01 -2.143444567918777466e-01
5.695895850658416748e-02 -6.738684326410293579e-02 2.132469564676284790e-01
4.632365703582763672e-02 -8.203218877315521240e-02 1.481929123401641846e-01
5.095912814140319824e-01 5.223849415779113770e-02 2.433960139751434326e-02
-5.667535662651062012e-01 2.117898166179656982e-01 1.192509457468986511e-01
-3.140125572681427002e-01 -4.877507314085960388e-02 -4.171695187687873840e-02
7.979869842529296875e-02 -1.214350983500480652e-01 -9.881632030010223389e-02
8.149856925010681152e-01 -9.401868283748626709e-02 -9.527729824185371399e-03
6.142443418502807617e-01 -9.199187159538269043e-02 1.913091912865638733e-02
2.033904790878295898e-01 -5.417989939451217651e-02 8.274658024311065674e-02
-5.795899629592895508e-01 2.085425555706024170e-01 -8.264543116092681885e-02
7.372259497642517090e-01 4.805411398410797119e-02 3.253401443362236023e-02
-4.439899325370788574e-01 3.332160785794258118e-02 -1.963998377323150635e-02
-2.521403729915618896e-01 -2.081381902098655701e-02 -7.318698614835739136e-02
2.382385432720184326e-01 -7.065589725971221924e-02 -4.788454994559288025e-02
-7.554642856121063232e-02 -3.962174057960510254e-02 -6.057801842689514160e-01
-5.396640300750732422e-01 2.143832594156265259e-01 8.843472599983215332e-02
-4.088149368762969971e-01 4.116732254624366760e-02 -1.525945961475372314e-02
2.468470335006713867e-01 -2.438797801733016968e-02 6.694619357585906982e-02
-3.659467995166778564e-01 1.032930891960859299e-02 1.332860589027404785e-01
8.662012219429016113e-02 -1.076615154743194580e-01 6.487579643726348877e-02
2.509663626551628113e-02 -8.649987727403640747e-02 8.307348191738128662e-02
2.645652592182159424e-01 -1.061359494924545288e-01 -3.171366453170776367e-02
-3.290719687938690186e-01 -7.519691716879606247e-03 -7.649961858987808228e-02
-6.985829025506973267e-02 -3.912048786878585815e-02 6.112644076347351074e-01
5.438730493187904358e-02 -4.686517640948295593e-03 -6.488359719514846802e-02
1.061472222208976746e-01 -1.063756793737411499e-01 -8.661186695098876953e-02
1.802238374948501587e-01 -5.324276536703109741e-02 1.488467156887054443e-01
-3.977873921394348145e-01 4.792335256934165955e-02 8.125127293169498444e-03
1.605877578258514404e-01 -7.324934005737304688e-02 -2.391456365585327148e-01
1.482961326837539673e-01 -8.843950182199478149e-02 -2.497942745685577393e-02
-4.360570311546325684e-01 -1.896136067807674408e-02 3.580306470394134521e-02
-1.751216351985931396e-01 -4.565858095884323120e-02 -1.008867099881172180e-01
-7.554642856121063232e-02 -3.962174057960510254e-02 -6.057801842689514160e-01
1.535487826913595200e-02 -5.919243395328521729e-02 4.182380437850952148e-01
-3.700876533985137939e-01 1.333683263510465622e-02 9.196529537439346313e-02
1.363750100135803223e-01 -8.092071115970611572e-02 -1.599039137363433838e-01
-3.822484612464904785e-01 -4.098089877516031265e-03 -5.817115306854248047e-02
-4.564517177641391754e-03 -6.745222210884094238e-02 -3.204795420169830322e-01
-6.073768734931945801e-01 2.074964642524719238e-01 1.735171377658843994e-01
3.466404974460601807e-02 -6.716891378164291382e-02 -3.519277870655059814e-01
8.952080607414245605e-01 -4.343562945723533630e-02 5.764029920101165771e-02
8.232676982879638672e-02 -7.274808734655380249e-02 2.721987962722778320e-01
5.630511045455932617e-01 5.040783062577247620e-02 -2.681009471416473389e-02
-3.085205554962158203e-01 -2.011641860008239746e-02 5.456739664077758789e-02
-5.611525774002075195e-01 -2.201246656477451324e-02 8.386651054024696350e-03
-5.418434143066406250e-01 2.169331163167953491e-01 2.375117316842079163e-02
-3.181533217430114746e-01 1.418678276240825653e-02 4.918436333537101746e-02
6.837882846593856812e-02 -1.091950293630361557e-02 6.672825664281845093e-02
1.342174410820007324e-01 -5.559648573398590088e-02 2.087356597185134888e-01
-3.700876533985137939e-01 1.333683263510465622e-02 9.196529537439346313e-02
1.756907552480697632e-01 -5.500805377960205078e-02 -1.274531781673431396e-01
-3.464633226394653320e-01 2.874494157731533051e-02 -1.029353141784667969e-01
8.210882544517517090e-02 -5.640285089612007141e-02 4.092590510845184326e-01
1.594544947147369385e-01 -8.599862456321716309e-02 -2.981761842966079712e-02
-2.560632526874542236e-01 3.787647932767868042e-02 1.284914463758468628e-01
-1.722884476184844971e-01 -5.689023062586784363e-03 -1.541503965854644775e-01
2.011021524667739868e-01 -1.030412539839744568e-01 5.031763389706611633e-02
-2.707739472389221191e-01 4.488610662519931793e-03 -6.531947106122970581e-02
1.624838113784790039e-01 5.879838764667510986e-02 -1.346663048025220633e-04
1.644670367240905762e-01 -3.208113461732864380e-02 6.605265289545059204e-02
1.832967400550842285e-01 -7.364162057638168335e-02 2.191530317068099976e-01
1.101794652640819550e-02 -7.645300030708312988e-02 2.170826345682144165e-01
-2.573926448822021484e-01 -4.234594479203224182e-02 -9.138467907905578613e-02
-3.246039152145385742e-02 -5.675154179334640503e-02 -4.196842312812805176e-01
7.905549407005310059e-01 -7.318396121263504028e-02 4.663450643420219421e-02
-2.435315214097499847e-02 3.955459222197532654e-02 4.282062128186225891e-02
-5.554208755493164062e-01 2.100463211536407471e-01 -4.631540924310684204e-02
1.896168887615203857e-01 -3.630910441279411316e-02 -6.551561504602432251e-02
-4.901270568370819092e-01 1.624707728624343872e-01 6.207285914570093155e-03
-1.400338411331176758e-01 3.613298758864402771e-02 -1.106066852807998657e-01
-3.380945622920989990e-01 -2.199067547917366028e-02 -1.363231837749481201e-01
-2.106234729290008545e-01 6.973087321966886520e-03 -1.916052401065826416e-02
1.393825411796569824e-01 -7.035078853368759155e-02 -2.800305187702178955e-01
6.046769618988037109e-01 4.264928773045539856e-02 3.937722370028495789e-02
2.003393769264221191e-01 -7.357624918222427368e-02 6.698977202177047729e-02
-1.811584532260894775e-01 -1.301169302314519882e-02 3.785166516900062561e-02
-6.515086442232131958e-02 -5.302483588457107544e-02 4.879776835441589355e-01
8.371062278747558594e-01 -2.020359784364700317e-02 6.476682424545288086e-02
-1.541774999350309372e-02 3.003076836466789246e-02 -5.021646991372108459e-02
9.396457672119140625e-02 -6.407421827316284180e-02 -5.932622030377388000e-02
-5.520863533020019531e-01 1.094686165452003479e-01 -1.529459841549396515e-03
2.740676701068878174e-02 -6.165511533617973328e-02 -3.919626772403717041e-01
-3.091961741447448730e-01 -4.197545349597930908e-02 1.122769713401794434e-01
1.069971770048141479e-01 -4.990833997726440430e-02 3.767865002155303955e-01
-3.181533217430114746e-01 1.418678276240825653e-02 4.918436333537101746e-02
1.219040378928184509e-01 -4.818664118647575378e-02 3.317826092243194580e-01
-3.531539738178253174e-01 1.568261650390923023e-03 8.235429972410202026e-02
-3.359805643558502197e-01 -1.512567326426506042e-02 8.924109488725662231e-02
4.350787699222564697e-01 5.415633693337440491e-02 -1.942204870283603668e-02
-3.634187579154968262e-01 4.049171879887580872e-02 9.280190803110599518e-03
-2.437062561511993408e-01 5.687261465936899185e-03 1.531182825565338135e-01
-9.714394062757492065e-02 -3.907689824700355530e-02 -6.023368239402770996e-01
2.618192732334136963e-01 -7.819648832082748413e-02 6.507193297147750854e-02
2.266661077737808228e-01 -6.185125932097434998e-02 -1.754209995269775391e-01
-1.755793094635009766e-01 3.877002000808715820e-02 -9.073086827993392944e-02
8.832001686096191406e-02 -7.004567235708236694e-02 8.884879946708679199e-02
-2.790337204933166504e-01 -2.005899790674448013e-03 -5.664559826254844666e-02
7.110953330993652344e-01 2.480029128491878510e-02 5.485071241855621338e-02
3.649472072720527649e-02 -7.682349532842636108e-02 -2.188993245363235474e-01
-1.572072505950927734e-01 -4.435096308588981628e-02 9.203067421913146973e-02
-4.564517177641391754e-03 -6.745222210884094238e-02 -3.204795420169830322e-01
4.946190118789672852e-01 9.675499983131885529e-03 -6.100432947278022766e-02
-5.608038306236267090e-01 2.138384133577346802e-01 7.614310830831527710e-02
-4.482832551002502441e-01 5.825354531407356262e-02 -5.125412251800298691e-03
-3.938426971435546875e-01 -1.453724596649408340e-02 1.272056251764297485e-01
-1.811584532260894775e-01 -1.301169302314519882e-02 3.785166516900062561e-02
-3.219236731529235840e-01 -7.977358996868133545e-03 -7.065892219543457031e-02
5.854113698005676270e-01 5.814457684755325317e-02 4.485587589442729950e-03
-4.390209913253784180e-01 9.458355605602264404e-02 -5.539491306990385056e-03
7.716380953788757324e-01 -9.162137657403945923e-02 -1.874644495546817780e-02
2.104952186346054077e-01 -7.231222093105316162e-02 -4.655513912439346313e-02
-3.708285987377166748e-01 3.700473532080650330e-02 -7.936792448163032532e-03
-3.543526232242584229e-01 -9.481120854616165161e-03 -8.593627065420150757e-02
7.070853114128112793e-01 -3.907689824700355530e-02 -6.381571292877197266e-02
8.571781516075134277e-01 -1.206505149602890015e-01 1.067498326301574707e-02
8.825678229331970215e-01 3.343057632446289062e-02 2.698508324101567268e-03
-2.238740175962448120e-01 -3.471816703677177429e-02 1.435944437980651855e-01
3.736860752105712891e-01 -4.316025879234075546e-03 6.596547365188598633e-02
-6.255745887756347656e-01 1.777481287717819214e-01 3.012066881638020277e-04
4.379559308290481567e-02 -8.327442407608032227e-02 -2.057141661643981934e-01
-5.280698537826538086e-01 2.112231701612472534e-01 1.736563444137573242e-02
9.132754057645797729e-02 -6.838936358690261841e-02 -4.938831180334091187e-02
-1.527177691459655762e-01 3.238448128104209900e-02 -1.019546017050743103e-01
1.945422589778900146e-01 -7.891568541526794434e-02 -1.626281142234802246e-01
4.189296960830688477e-01 5.657543614506721497e-02 -1.109687332063913345e-02
1.453975886106491089e-01 -3.931662812829017639e-02 6.705515831708908081e-02
-2.812131345272064209e-01 3.362672030925750732e-02 -1.018153876066207886e-02
-4.930688068270683289e-02 -3.933842107653617859e-02 -6.077852249145507812e-01
-4.169657826423645020e-01 4.648497328162193298e-02 -6.280475296080112457e-03
4.615145027637481689e-01 5.757794156670570374e-02 7.296968251466751099e-03
2.850948572158813477e-01 -1.039129942655563354e-01 2.303198352456092834e-02
8.210882544517517090e-02 -5.640285089612007141e-02 4.092590510845184326e-01
-1.005652174353599548e-02 -4.360998049378395081e-02 5.612261295318603516e-01
-6.419416666030883789e-01 2.053606808185577393e-01 1.755221486091613770e-01
5.201829671859741211e-01 -2.180246170610189438e-03 6.570395082235336304e-02
8.998719453811645508e-01 -9.316873550415039062e-02 7.100825663655996323e-03
6.847904324531555176e-01 -2.447514794766902924e-02 6.692439317703247070e-02
8.821105957031250000e-02 -8.959457278251647949e-02 -9.912142902612686157e-02
-1.313817799091339111e-01 -7.915541529655456543e-02 -3.892736136913299561e-02
-3.198092803359031677e-02 -4.459069296717643738e-02 -4.951774179935455322e-01
-5.657292008399963379e-01 2.071259766817092896e-01 1.095963567495346069e-01
6.027373671531677246e-01 4.177754372358322144e-02 -3.921067714691162109e-02
2.367783635854721069e-01 -6.067440286278724670e-02 6.720770895481109619e-02
-3.297258019447326660e-01 6.745046377182006836e-02 -7.718856446444988251e-03
6.308297067880630493e-02 -5.733997374773025513e-02 -2.970295548439025879e-01
-9.747084975242614746e-02 3.722267225384712219e-02 -4.431039467453956604e-02
-2.387808859348297119e-01 5.583444982767105103e-02 -1.137174200266599655e-03
3.222316130995750427e-02 -8.414616435766220093e-02 1.352910697460174561e-01
-6.620571613311767578e-01 2.230353355407714844e-01 3.012066881638020277e-04
-7.273506373167037964e-02 -4.182289913296699524e-02 5.621414780616760254e-01
-3.655327558517456055e-01 -5.187770351767539978e-03 6.208620592951774597e-02
1.045998781919479370e-01 -1.352304816246032715e-01 8.802064508199691772e-02
-3.237107098102569580e-01 4.663752764463424683e-02 1.010834798216819763e-02
9.132754057645797729e-02 -2.724294178187847137e-02 6.659749150276184082e-02
1.483833193778991699e-01 -4.537525773048400879e-02 -6.608224660158157349e-02
-5.265660285949707031e-01 2.099809348583221436e-01 -4.117210954427719116e-02
-5.935814976692199707e-01 -5.231356248259544373e-03 5.379127338528633118e-03
-5.411677956581115723e-01 1.538186967372894287e-01 4.572762176394462585e-03
-4.943986237049102783e-01 1.926985681056976318e-01 -5.168999545276165009e-03
-5.643126368522644043e-01 2.027672380208969116e-01 4.899667110294103622e-03
6.210004091262817383e-01 -2.286241948604583740e-02 -6.599507480859756470e-02
7.330419868230819702e-02 5.842789262533187866e-02 3.090793965384364128e-03
-4.535573422908782959e-01 2.931157685816287994e-02 -4.231872502714395523e-03
-6.558023691177368164e-01 2.303144037723541260e-01 1.412682817317545414e-03
-1.536112874746322632e-01 2.669633924961090088e-02 -9.155903011560440063e-02
1.100700795650482178e-01 -8.318724483251571655e-02 -1.297197192907333374e-01
-3.719400763511657715e-01 -3.776928037405014038e-02 -3.631212562322616577e-02
2.948366403579711914e-01 -6.710353493690490723e-02 -6.531947106122970581e-02
-4.379308596253395081e-02 -5.540033802390098572e-02 -4.633804857730865479e-01
-2.711444497108459473e-01 3.024870343506336212e-02 4.462949186563491821e-02
-5.711122751235961914e-01 2.054914534091949463e-01 -1.536055505275726318e-01
-5.637896060943603516e-01 2.103078514337539673e-01 -4.298098012804985046e-02
-5.851691961288452148e-01 2.061452567577362061e-01 1.342013925313949585e-01
2.469559907913208008e-01 -7.810933142900466919e-02 -1.177767887711524963e-01
-3.356536626815795898e-01 3.968535363674163818e-02 -8.917507715523242950e-03
5.515658855438232422e-01 -7.854519039392471313e-02 -3.962476179003715515e-02
2.001868188381195068e-01 -6.507672369480133057e-02 -2.169378995895385742e-01
2.033904790878295898e-01 -5.417989939451217651e-02 8.274658024311065674e-02
8.106273412704467773e-02 -6.113207340240478516e-02 -3.817850649356842041e-01
4.261433780193328857e-01 -4.855713248252868652e-02 -6.037231534719467163e-02
4.500292539596557617e-01 -2.092278935015201569e-02 -6.621301174163818359e-02
-5.934943556785583496e-01 2.083246260881423950e-01 -1.690136492252349854e-01
-5.961967110633850098e-01 2.076272219419479370e-01 -1.052890270948410034e-01
-6.286256909370422363e-01 2.074092924594879150e-01 -1.268429458141326904e-01
3.262848854064941406e-01 -3.266956657171249390e-02 -6.484001129865646362e-02
2.216753810644149780e-01 -7.852340489625930786e-02 -1.450624465942382812e-01
-1.764510273933410645e-01 8.411465212702751160e-03 -1.169922128319740295e-01
-2.812345884740352631e-02 -3.367207199335098267e-02 -6.087223887443542480e-01
-6.269475817680358887e-01 2.059491127729415894e-01 -1.542811691761016846e-01
2.177525162696838379e-01 -5.160824581980705261e-02 -9.463194012641906738e-02
2.618192732334136963e-01 -7.819648832082748413e-02 6.507193297147750854e-02
-3.298783004283905029e-01 -1.501670759171247482e-02 1.139332950115203857e-01
6.142225861549377441e-01 -4.469965398311614990e-02 6.289257109165191650e-02
7.330419868230819702e-02 5.842789262533187866e-02 3.090793965384364128e-03
-6.431838870048522949e-01 2.025711089372634888e-01 -2.292295098304748535e-01
1.362224519252777100e-01 -5.688231065869331360e-02 1.823217719793319702e-01
2.795160934329032898e-02 -5.014806985855102539e-02 3.935240209102630615e-01
5.215995311737060547e-01 1.237791310995817184e-02 6.114907935261726379e-02
-1.519767791032791138e-01 -2.205605618655681610e-02 -1.397665888071060181e-01
6.847904324531555176e-01 -2.447514794766902924e-02 6.692439317703247070e-02
8.446294814348220825e-03 2.292603626847267151e-02 -5.496748909354209900e-02
-5.031160712242126465e-01 2.094281464815139771e-02 -2.051172778010368347e-02
1.841684877872467041e-01 -8.418975025415420532e-02 -1.130257770419120789e-01
1.803110241889953613e-01 -8.809081465005874634e-02 -6.667067855596542358e-02
3.392306715250015259e-02 -4.402405396103858948e-02 4.418405592441558838e-01
-6.252912878990173340e-01 2.073003202676773071e-01 1.566488593816757202e-01
-1.776496917009353638e-01 -3.596833208575844765e-03 3.809139877557754517e-02
-2.019056305289268494e-02 -2.637913450598716736e-03 -6.464386731386184692e-02
3.039249964058399200e-02 -7.595174759626388550e-02 -2.301448583602905273e-01
-6.016234159469604492e-01 2.111577987670898438e-01 -8.937966078519821167e-02
-9.629398584365844727e-02 -5.340326111763715744e-03 -6.494898349046707153e-02
1.620483212172985077e-02 -7.477489858865737915e-02 -2.274424433708190918e-01
-6.303688883781433105e-02 -4.602907225489616394e-02 5.230436921119689941e-01
3.997730612754821777e-01 -1.285913679748773575e-02 6.694619357585906982e-02
-4.734767079353332520e-01 1.386939138174057007e-01 6.316254381090402603e-03
1.000450029969215393e-01 9.849846363067626953e-03 6.206441298127174377e-02
1.141237020492553711e-01 -6.237430870532989502e-02 -1.357783526182174683e-01
-5.854306817054748535e-01 2.044453471899032593e-01 1.919109821319580078e-01
-3.464633226394653320e-01 2.874494157731533051e-02 -1.029353141784667969e-01
-5.727903842926025391e-01 1.889421232044696808e-02 -2.728110644966363907e-03
-9.095454961061477661e-02 -7.261732220649719238e-02 -4.620644077658653259e-02
2.388051599264144897e-01 -5.030062422156333923e-02 -9.702923893928527832e-02
-3.493400216102600098e-01 3.604581579566001892e-02 3.087769821286201477e-02
2.017127163708209991e-02 -6.095772236585617065e-02 -3.341005444526672363e-01
2.010585814714431763e-01 -8.096428960561752319e-02 -1.395486593246459961e-01
1.156056672334671021e-01 -4.772897809743881226e-02 3.512443304061889648e-01
-1.448720395565032959e-01 3.824697434902191162e-02 -4.315532743930816650e-02
-4.373210370540618896e-01 2.630405314266681671e-02 2.887267991900444031e-02
-3.683876991271972656e-01 -3.155809268355369568e-02 1.079182550311088562e-01
-3.368083760142326355e-02 -3.781286254525184631e-02 6.145988106727600098e-01
-1.382681261748075485e-02 -7.754268497228622437e-02 4.183990508317947388e-02
-4.232205450534820557e-01 3.327802196145057678e-02 2.479726821184158325e-02
-3.298783004283905029e-01 1.277019549161195755e-02 -1.160333007574081421e-01
-2.095120102167129517e-01 4.402229189872741699e-02 -1.133526787161827087e-01
-1.256278529763221741e-02 -9.706979990005493164e-02 -1.761317439377307892e-02
