1.385070681571960449e-01 -5.772492662072181702e-02 2.317677289247512817e-01
-7.716059684753417969e-01 3.507752902805805206e-03 -2.822555415332317352e-02
2.557332515716552734e-01 -1.294359117746353149e-01 -2.734837234020233154e-01
4.994905889034271240e-01 9.014490246772766113e-02 -6.743738800287246704e-02
-5.030717253684997559e-01 -3.641354292631149292e-02 -6.765569001436233521e-02
4.690379798412322998e-01 -8.184687793254852295e-02 -6.367174535989761353e-02
8.004148602485656738e-01 1.011962518095970154e-01 -1.095269899815320969e-02
-1.375601440668106079e-02 -5.567836761474609375e-02 -1.671997159719467163e-01
7.902076840400695801e-02 1.111288294196128845e-01 -1.651930622756481171e-02
7.227552533149719238e-01 -8.875056356191635132e-02 -5.395746603608131409e-02
4.489545524120330811e-01 1.736970432102680206e-02 9.789629280567169189e-02
2.286352962255477905e-02 -3.670387668535113335e-04 4.219055473804473877e-01
3.478807583451271057e-02 5.251572653651237488e-02 9.058329463005065918e-02
-1.328923106193542480e-01 1.507757045328617096e-02 6.616244316101074219e-01
3.632724583148956299e-01 -2.025946788489818573e-02 9.519485384225845337e-02
-2.887317351996898651e-02 -6.700260192155838013e-02 -1.283153295516967773e-01
-2.117525786161422729e-01 2.913051843643188477e-02 -8.249052762985229492e-01
1.871603131294250488e-01 -1.946813985705375671e-02 1.332060396671295166e-01
-1.995190745219588280e-03 1.114289909601211548e-01 -1.258993614464998245e-02
-3.839643299579620361e-02 -1.804920472204685211e-02 3.865685462951660156e-01
-2.055310755968093872e-01 1.968912221491336823e-02 -7.697030901908874512e-01
1.449468582868576050e-01 -1.955000124871730804e-02 4.101993143558502197e-01
3.096785396337509155e-02 -2.907326631247997284e-02 2.436922788619995117e-01
2.335470169782638550e-02 1.436810288578271866e-02 5.586695075035095215e-01
-6.436285376548767090e-01 3.254143521189689636e-02 1.507244855165481567e-01
-2.164732664823532104e-01 9.088165313005447388e-02 -6.642775982618331909e-02
1.258730441331863403e-01 -2.683570981025695801e-02 1.438753753900527954e-01
2.628825306892395020e-01 -8.962376415729522705e-02 3.195236623287200928e-01
1.519579999148845673e-02 -7.652748376131057739e-03 -3.960036635398864746e-01
2.468648999929428101e-01 -8.405715972185134888e-02 -8.670221269130706787e-02
7.214437425136566162e-02 -2.555320411920547485e-02 -3.311690390110015869e-01
4.091696739196777344e-01 -2.459815330803394318e-02 9.320287406444549561e-02
-5.054730176925659180e-01 1.333952546119689941e-01 -1.436361111700534821e-02
-6.747087836265563965e-01 3.404223173856735229e-02 1.602750420570373535e-01
-6.809029579162597656e-01 3.581590577960014343e-02 5.969408899545669556e-02
3.049049675464630127e-01 -3.785978257656097412e-02 -3.288496136665344238e-01
-4.227123036980628967e-02 4.872119985520839691e-03 -6.638829708099365234e-01
-9.717495180666446686e-03 -4.009732976555824280e-02 2.934097349643707275e-01
-1.277366932481527328e-02 -5.745204910635948181e-02 1.902910619974136353e-01
9.105446189641952515e-02 -2.961901202797889709e-02 4.012490808963775635e-01
1.611282080411911011e-01 -2.506203763186931610e-02 -3.110855817794799805e-01
-7.801757752895355225e-02 1.895236223936080933e-02 -7.552953362464904785e-01
7.964837551116943359e-02 8.965211920440196991e-03 -1.020376682281494141e-01
-8.188948035240173340e-01 4.307994246482849121e-01 4.328182898461818695e-03
-5.326800420880317688e-02 -2.713587135076522827e-02 3.523229658603668213e-01
1.635840684175491333e-01 -4.361739382147789001e-02 2.925911247730255127e-01
1.919628679752349854e-01 -6.048094481229782104e-02 3.046793639659881592e-01
-7.992751598358154297e-01 4.621236026287078857e-02 1.645591408014297485e-01
-7.243716120719909668e-01 5.011444538831710815e-02 -1.929589211940765381e-01
1.126932874321937561e-01 -3.532205522060394287e-02 -3.639956712722778320e-01
-2.993175089359283447e-01 1.111833974719047546e-01 -1.580983772873878479e-02
2.855309844017028809e-01 -6.610211730003356934e-02 -3.598206937313079834e-01
5.817328020930290222e-02 -6.921286135911941528e-02 9.762342274188995361e-02
8.064453005790710449e-01 -9.382600337266921997e-02 -1.848399080336093903e-02
2.507123947143554688e-01 -9.082441031932830811e-02 3.153214156627655029e-01
-6.554728746414184570e-02 -1.291919127106666565e-02 4.414705634117126465e-01
2.554604113101959229e-01 -8.329311758279800415e-02 8.498941361904144287e-02
-1.537398099899291992e-01 -4.972974956035614014e-02 8.490754663944244385e-02
-8.338209986686706543e-01 3.996357321739196777e-02 1.505208667367696762e-02
-3.703463375568389893e-01 1.106473384425044060e-03 -9.827201813459396362e-02
8.327229619026184082e-01 -6.487418711185455322e-02 5.399104952812194824e-02
-3.212035819888114929e-02 -1.152754016220569611e-02 -5.509681701660156250e-01
-4.659064114093780518e-01 1.535043772310018539e-02 -9.346946328878402710e-02
3.736416101455688477e-01 -4.792878404259681702e-02 9.505841881036758423e-02
-6.546798944473266602e-01 1.944353990256786346e-02 -4.904575645923614502e-02
3.031295910477638245e-02 -8.635083213448524475e-03 5.482457280158996582e-01
3.530653193593025208e-02 -3.818722814321517944e-02 1.900181770324707031e-01
-1.208040490746498108e-01 8.015775680541992188e-02 -7.900720089673995972e-02
1.236082091927528381e-01 -6.861253827810287476e-02 3.137660324573516846e-01
5.245403051376342773e-01 -1.010025665163993835e-01 2.359300851821899414e-02
-1.168217975646257401e-02 -4.203473404049873352e-02 -2.351450771093368530e-01
7.902639508247375488e-01 9.603895992040634155e-02 -4.437962919473648071e-02
-7.876781225204467773e-01 5.628137290477752686e-02 2.976938188076019287e-01
4.690379798412322998e-01 -8.184687793254852295e-02 -6.367174535989761353e-02
2.239162921905517578e-01 -7.737176120281219482e-02 2.750726640224456787e-01
2.279002368450164795e-01 -7.682602852582931519e-02 -1.301435828208923340e-01
1.611282080411911011e-01 -2.506203763186931610e-02 -3.110855817794799805e-01
-6.884904950857162476e-02 -4.323691595345735550e-03 4.893324375152587891e-01
-5.167153477668762207e-01 7.576449960470199585e-02 -7.524155080318450928e-02
2.787637412548065186e-01 -7.194159924983978271e-02 -3.638319373130798340e-01
-7.314663529396057129e-01 2.631993219256401062e-02 3.641803562641143799e-02
1.408537775278091431e-01 -1.032128259539604187e-01 2.310183458030223846e-02
5.699992924928665161e-02 -1.447456423193216324e-02 -5.068446397781372070e-01
-3.419419378042221069e-02 -3.513104841113090515e-02 -3.308961689472198486e-01
9.888591617345809937e-02 -7.780836522579193115e-02 1.177614480257034302e-01
-2.611715532839298248e-02 -2.274261787533760071e-02 -4.310951232910156250e-01
3.434618711471557617e-01 -4.803793877363204956e-02 9.653193503618240356e-02
-5.061005949974060059e-01 1.701785176992416382e-01 -4.540186375379562378e-03
2.036145478487014771e-01 -1.163668464869260788e-02 3.077901303768157959e-01
-3.873463273048400879e-01 1.611448265612125397e-02 9.459453821182250977e-02
6.220650672912597656e-01 -1.001566499471664429e-01 -3.119987063109874725e-02
2.072437405586242676e-01 -1.515674777328968048e-02 -1.802157610654830933e-01
6.817696690559387207e-01 6.353979557752609253e-02 8.597175776958465576e-02
2.514764368534088135e-01 -1.451261043548583984e-01 -2.970326542854309082e-01
3.447444140911102295e-01 -1.195033416152000427e-01 3.469746708869934082e-01
2.721329331398010254e-01 -5.625140666961669922e-02 2.978302836418151855e-01
-8.584903180599212646e-02 -7.707315962761640549e-03 -6.296101212501525879e-01
6.379736065864562988e-01 1.060533896088600159e-01 3.308898583054542542e-02
2.276819199323654175e-01 -1.205675527453422546e-01 3.585171699523925781e-01
3.338840603828430176e-01 -1.475273817777633667e-01 3.345862329006195068e-01
-7.365962862968444824e-01 3.843548521399497986e-02 -8.858504146337509155e-02
-1.546675711870193481e-01 3.095876984298229218e-02 -7.823097705841064453e-01
1.347959786653518677e-01 -7.349697500467300415e-02 3.201785683631896973e-01
1.089276298880577087e-01 -2.252431958913803101e-02 -4.361705183982849121e-01
2.673576474189758301e-01 -5.851625651121139526e-02 2.899442315101623535e-01
-2.566401660442352295e-01 -7.780836522579193115e-02 6.280484050512313843e-02
6.829157471656799316e-01 3.428781405091285706e-02 9.593161195516586304e-02
-6.762641668319702148e-01 6.471314281225204468e-02 -5.540369451045989990e-02
-3.468702780082821846e-03 -9.019680321216583252e-02 8.406164497137069702e-02
-6.779832243919372559e-01 2.571158409118652344e-01 8.639574982225894928e-03
6.789863705635070801e-01 -4.225302487611770630e-02 8.793643862009048462e-02
-2.159002572298049927e-01 2.861206792294979095e-02 -8.673369884490966797e-01
1.065263599157333374e-01 4.288331419229507446e-02 -9.764441847801208496e-02
3.421520888805389404e-01 -1.041405946016311646e-01 3.044064939022064209e-01
5.356173217296600342e-02 -2.361580915749073029e-02 -4.555990695953369141e-01
-7.136204242706298828e-01 4.667624458670616150e-02 1.579283326864242554e-01
4.550668895244598389e-01 -1.040587425231933594e-01 7.957391440868377686e-03
1.579356193542480469e-01 -1.002658009529113770e-01 5.737467110157012939e-02
1.222148723900318146e-02 -6.866712868213653564e-02 -1.457519084215164185e-01
5.568484663963317871e-01 1.074177622795104980e-01 2.951434999704360962e-02
3.536110743880271912e-02 -8.116470277309417725e-02 -9.865404665470123291e-02
9.981368482112884521e-02 -1.385498791933059692e-01 -1.577856093645095825e-01
9.544772654771804810e-02 1.102010607719421387e-01 -2.164931781589984894e-02
-5.086110234260559082e-01 9.309193491935729980e-02 -5.474879965186119080e-02
7.773827016353607178e-02 -7.638943195343017578e-02 -1.282334774732589722e-01
5.568484663963317871e-01 1.074177622795104980e-01 2.951434999704360962e-02
9.149105846881866455e-02 -1.029961183667182922e-02 2.968206405639648438e-01
-9.870135039091110229e-02 -9.767350554466247559e-02 3.988352045416831970e-02
-8.011034727096557617e-01 3.011029362678527832e-01 1.463016960769891739e-03
-1.826916188001632690e-01 8.875324577093124390e-02 6.501510739326477051e-02
-6.001052856445312500e-01 -1.428355835378170013e-02 5.963951721787452698e-02
-5.831326246261596680e-01 1.794273406267166138e-02 7.721252739429473877e-02
2.692933566868305206e-02 -1.782801747322082520e-01 -1.991258412599563599e-01
-1.428521722555160522e-01 1.570517569780349731e-02 7.621507644653320312e-01
-6.045258045196533203e-01 3.314174711704254150e-02 -1.328723132610321045e-01
-8.718611299991607666e-02 1.067355722188949585e-01 3.142445906996726990e-02
7.788851261138916016e-01 7.876610010862350464e-02 -7.357703149318695068e-02
7.731002569198608398e-01 -1.007842570543289185e-01 -5.289551336318254471e-04
2.278166823089122772e-02 -2.533490397036075592e-02 -3.252750039100646973e-01
3.308005928993225098e-01 -7.453389465808868408e-02 -8.435551077127456665e-02
-8.718611299991607666e-02 1.067355722188949585e-01 3.142445906996726990e-02
6.185706332325935364e-02 -1.216044723987579346e-01 -1.792607009410858154e-01
6.335803270339965820e-01 6.081106513738632202e-02 -9.166850894689559937e-02
2.591441869735717773e-01 -1.204038262367248535e-01 -3.661240339279174805e-01
1.027334257960319519e-01 -3.704115003347396851e-02 3.533053398132324219e-01
-4.176624715328216553e-01 -5.469603091478347778e-02 6.354159861803054810e-02
1.790832579135894775e-01 -1.354936957359313965e-01 -3.293135166168212891e-01
9.753808975219726562e-01 2.470840699970722198e-03 -1.965734548866748810e-02
9.308753609657287598e-01 -4.397211968898773193e-02 2.997823432087898254e-02
-1.249789968132972717e-01 6.754948291927576065e-03 6.059855818748474121e-01
-1.498394273221492767e-02 -7.789176888763904572e-03 5.723131299018859863e-01
-1.536306440830230713e-01 3.619792684912681580e-02 -9.960910677909851074e-02
6.534181833267211914e-01 2.151736430823802948e-02 -1.019285246729850769e-01
-7.587808966636657715e-01 1.409538239240646362e-01 -4.743804165627807379e-04
1.559982150793075562e-01 -8.738619834184646606e-02 3.189233541488647461e-01
-1.945070177316665649e-01 5.559919402003288269e-02 -9.390605986118316650e-02
3.419883847236633301e-01 -3.071050159633159637e-02 -1.018739491701126099e-01
-1.408345904201269150e-02 -3.313907608389854431e-02 3.615733683109283447e-01
-4.741744697093963623e-01 -6.749376654624938965e-02 8.994308300316333771e-03
-2.989354729652404785e-01 -4.386298730969429016e-02 -9.046786278486251831e-02
4.008181020617485046e-02 8.719627745449542999e-03 5.890674591064453125e-01
-1.912052482366561890e-01 3.401494771242141724e-02 -8.357656598091125488e-01
-1.277350187301635742e-01 -1.036767140030860901e-01 -1.679218001663684845e-02
2.538777291774749756e-01 -2.151468954980373383e-02 -2.534821331501007080e-01
-2.299804836511611938e-01 9.890411794185638428e-02 -5.349358171224594116e-02
-6.741902828216552734e-01 4.034559801220893860e-02 -1.078498661518096924e-01
6.534983962774276733e-02 -4.124340787529945374e-02 -3.265574872493743896e-01
-1.591170951724052429e-02 -2.615352720022201538e-02 -4.434289634227752686e-01
-6.801389455795288086e-01 2.994929850101470947e-01 -1.130743417888879776e-02
-3.362115845084190369e-02 -5.278592929244041443e-02 -9.944538027048110962e-02
-6.494680047035217285e-01 3.679824993014335632e-02 1.734275072813034058e-01
-4.618406295776367188e-01 1.453182566910982132e-02 8.943723887205123901e-02
-7.675400972366333008e-01 2.741976678371429443e-01 -7.650937885046005249e-03
-6.748179197311401367e-01 1.030229497700929642e-02 -6.337158381938934326e-02
6.665962934494018555e-02 -4.678430035710334778e-03 9.631363302469253540e-02
4.370026886463165283e-01 -9.780994802713394165e-02 -3.698477521538734436e-02
3.712403476238250732e-01 9.844023734331130981e-02 5.008896812796592712e-02
3.959899246692657471e-01 -8.539422601461410522e-02 7.838588207960128784e-02
8.428738713264465332e-01 6.405825167894363403e-02 5.764754489064216614e-02
-5.638132095336914062e-01 1.575975306332111359e-02 8.013226836919784546e-02
-5.077378153800964355e-01 -5.794321745634078979e-02 2.790439873933792114e-02
2.330302447080612183e-01 -3.349380195140838623e-02 3.288832008838653564e-01
3.348391056060791016e-01 -1.043316051363945007e-01 4.819354042410850525e-03
6.185706332325935364e-02 -1.216044723987579346e-01 -1.792607009410858154e-01
-2.819098904728889465e-02 -3.442157059907913208e-02 4.274721443653106689e-01
3.643912076950073242e-01 -8.956917375326156616e-02 2.686601579189300537e-01
1.550704389810562134e-01 -6.934930384159088135e-02 -1.762045174837112427e-01
-6.279127299785614014e-02 8.356866240501403809e-02 7.186421751976013184e-02
6.817696690559387207e-01 6.353979557752609253e-02 8.597175776958465576e-02
-4.137074947357177734e-02 2.334561385214328766e-02 -6.694495677947998047e-01
-5.592016577720642090e-01 9.808550029993057251e-02 1.314197760075330734e-02
-1.203691307455301285e-02 -1.441999711096286774e-02 -3.848431408405303955e-01
1.981025040149688721e-01 -2.386139146983623505e-02 -9.346946328878402710e-02
-6.905626654624938965e-01 3.159472346305847168e-01 6.456590723246335983e-03
-8.176395893096923828e-01 3.946437537670135498e-01 4.109884146600961685e-03
2.576433718204498291e-01 -6.045364215970039368e-02 -3.490422070026397705e-01
-1.646820008754730225e-01 7.546276785433292389e-03 6.618427038192749023e-01
-3.015567362308502197e-02 1.000213343650102615e-02 -6.781542301177978516e-01
2.747508324682712555e-02 -1.654839888215065002e-02 3.215429186820983887e-01
-1.699484437704086304e-01 4.119150340557098389e-02 -8.921684622764587402e-01
-6.747087836265563965e-01 3.404223173856735229e-02 1.602750420570373535e-01
2.201779186725616455e-01 -5.281321331858634949e-02 2.993856370449066162e-01
3.099513985216617584e-02 -9.068796783685684204e-02 -8.861232548952102661e-02
2.910703122615814209e-01 -6.315509229898452759e-02 2.702428102493286133e-01
-7.483298182487487793e-01 2.951254136860370636e-02 -5.237480625510215759e-02
-4.418390393257141113e-01 6.828778237104415894e-02 7.923179119825363159e-02
-1.328923106193542480e-01 1.507757045328617096e-02 6.616244316101074219e-01
3.852932751178741455e-01 8.509675413370132446e-02 -7.406820356845855713e-02
8.755094408988952637e-01 -7.298009470105171204e-03 6.938108056783676147e-02
2.400703579187393188e-01 -1.283989995718002319e-01 -2.796233594417572021e-01
1.085712295025587082e-02 -5.581480637192726135e-02 1.276121586561203003e-01
3.015758991241455078e-01 -6.973133236169815063e-02 1.156330332159996033e-01
-6.935915350914001465e-01 3.015941083431243896e-01 7.766381371766328812e-03
3.124072588980197906e-02 -2.724501676857471466e-02 2.530518174171447754e-01
-6.828949451446533203e-01 -2.118723466992378235e-02 -1.870229095220565796e-02
5.125339031219482422e-01 -1.048227921128273010e-01 -2.630076371133327484e-03
6.109133828431367874e-03 -1.498740911483764648e-01 1.532622128725051880e-01
-2.267895825207233429e-02 -5.483246967196464539e-02 -2.059749513864517212e-01
3.406513035297393799e-01 -7.950017601251602173e-02 3.608366250991821289e-01
3.358743339776992798e-02 -3.120167925953865051e-02 -4.008607566356658936e-01
2.701682448387145996e-01 -1.162015944719314575e-01 -2.665254473686218262e-01
4.853919148445129395e-03 5.854465067386627197e-03 9.745970368385314941e-02
-6.260026246309280396e-02 -1.867680996656417847e-02 -4.117211401462554932e-01
5.942593812942504883e-01 2.989456243813037872e-02 -1.013009175658226013e-01
4.994905889034271240e-01 9.014490246772766113e-02 -6.743738800287246704e-02
1.202245801687240601e-01 -1.035948619246482849e-01 1.472463924437761307e-02
-1.138185039162635803e-01 7.600854616612195969e-03 5.991092324256896973e-01
-4.982418417930603027e-01 1.410356909036636353e-01 -1.179860532283782959e-02
9.473824501037597656e-02 -1.717858016490936279e-01 -1.410584896802902222e-01
1.696691513061523438e-01 -7.349697500467300415e-02 9.726868569850921631e-02
3.413335084915161133e-01 -1.066783219575881958e-01 -3.681978881359100342e-01
2.193047404289245605e-01 -5.767033994197845459e-02 -2.934580147266387939e-01
3.391232192516326904e-01 -8.839583396911621094e-02 -2.613408565521240234e-01
1.563239842653274536e-02 -1.526589319109916687e-02 -5.199425220489501953e-01
6.644133478403091431e-02 -1.356574147939682007e-01 1.735366582870483398e-01
1.225167140364646912e-01 1.121657416224479675e-01 -1.647733966819941998e-03
8.703521490097045898e-01 -2.912784554064273834e-02 -7.060271501541137695e-02
-1.286354959011077881e-01 9.292666800320148468e-03 -6.277272701263427734e-01
5.939864516258239746e-01 1.068992987275123596e-01 3.098786249756813049e-02
3.038680255413055420e-01 -4.746489971876144409e-02 -1.794789880514144897e-01
-9.504485130310058594e-02 6.184798106551170349e-02 8.687222748994827271e-02
7.267118692398071289e-01 4.422038793563842773e-02 9.219324588775634766e-02
4.714921861886978149e-02 -1.461100298911333084e-02 -5.111287236213684082e-01
-2.611715532839298248e-02 -2.274261787533760071e-02 -4.310951232910156250e-01
2.365230172872543335e-01 -5.371369794011116028e-02 -3.018079102039337158e-01
5.698137683793902397e-04 -5.057564750313758850e-02 -1.759043633937835693e-01
-8.508498966693878174e-02 -1.875867135822772980e-02 4.300644695758819580e-01
5.773412585258483887e-01 9.980460256338119507e-02 -5.191092193126678467e-02
-8.321018218994140625e-01 1.144836191087961197e-02 -2.287948591401800513e-04
3.057781457901000977e-01 4.885923489928245544e-02 9.167479723691940308e-02
2.047060281038284302e-01 -9.570881724357604980e-02 7.562986761331558228e-02
3.490830957889556885e-01 -1.063781604170799255e-01 -3.550454080104827881e-01
-4.963879659771919250e-02 1.110469698905944824e-01 1.336027495563030243e-02
-3.864201903343200684e-02 1.996199041604995728e-02 7.094317674636840820e-01
6.180249154567718506e-02 -1.024760678410530090e-01 -4.476165026426315308e-02
3.312371969223022461e-01 -1.103075221180915833e-01 3.494850993156433105e-01
1.561073660850524902e-01 -2.271532453596591949e-02 1.371899992227554321e-01
2.441088855266571045e-01 -3.846008330583572388e-02 -2.595399022102355957e-01
-1.839195489883422852e-01 3.884480148553848267e-02 9.462182223796844482e-02
-6.426461935043334961e-01 1.543519049882888794e-01 8.503138087689876556e-03
3.626994192600250244e-01 -1.453444063663482666e-01 -3.354804217815399170e-01
2.668937742710113525e-01 -9.420803189277648926e-02 -3.233921527862548828e-01
-2.673095166683197021e-01 -9.516308456659317017e-02 3.412590175867080688e-02
2.759258747100830078e-01 -9.303466975688934326e-02 -8.492854237556457520e-02
-1.378313153982162476e-01 -2.045048400759696960e-02 -9.835389256477355957e-02
-7.290377020835876465e-01 5.679983273148536682e-02 3.017869293689727783e-01
8.027342557907104492e-01 5.824605748057365417e-02 7.773099094629287720e-02
-1.871121674776077271e-01 2.923967316746711731e-02 7.991250753402709961e-01
6.795048713684082031e-01 -5.797203630208969116e-03 9.617719799280166626e-02
-2.532582171261310577e-02 -3.357566520571708679e-02 -2.942220568656921387e-01
-2.355198115110397339e-01 9.639368951320648193e-02 5.366359651088714600e-02
7.503682374954223633e-02 -7.240547984838485718e-02 1.460583657026290894e-01
-4.409947618842124939e-02 2.353662997484207153e-02 6.986805200576782227e-01
-1.536306440830230713e-01 3.619792684912681580e-02 -9.960910677909851074e-02
2.584619820117950439e-01 -1.420426368713378906e-01 3.446825742721557617e-01
2.623913586139678955e-01 -7.769920676946640015e-02 -3.589747846126556396e-01
-4.233382642269134521e-01 1.165589913725852966e-01 -7.323490455746650696e-03
2.461554259061813354e-01 -8.615826815366744995e-02 2.635028660297393799e-01
2.125357836484909058e-02 -4.132685251533985138e-03 4.020677208900451660e-01
4.903203994035720825e-02 1.087532378733158112e-02 5.196486711502075195e-01
1.917445510625839233e-01 -8.989822119474411011e-03 -2.901835441589355469e-01
-6.923107802867889404e-02 -1.581164821982383728e-02 -4.337965250015258789e-01
3.648278415203094482e-01 4.626693949103355408e-02 9.241154789924621582e-02
5.222465470433235168e-02 -1.210041493177413940e-01 1.651321798563003540e-01
4.697474241256713867e-01 -2.337022498250007629e-02 -9.769899398088455200e-02
-5.951679125428199768e-02 -7.490611751563847065e-04 -6.350675821304321289e-01
-1.327285766601562500e-01 1.908880099654197693e-02 -6.919888257980346680e-01
-5.878806114196777344e-01 2.370323836803436279e-01 4.437332041561603546e-03
5.222465470433235168e-02 -1.210041493177413940e-01 1.651321798563003540e-01
-7.395433783531188965e-01 4.059118032455444336e-02 -1.067583784461021423e-01
1.022968217730522156e-01 1.049073264002799988e-01 -4.025924950838088989e-02
9.411063790321350098e-02 -1.652368456125259399e-01 -2.003810554742813110e-01
2.490478754043579102e-01 1.009233742952346802e-01 -5.000081285834312439e-02
-1.881490647792816162e-01 1.556873787194490433e-02 -7.296726107597351074e-01
7.541884481906890869e-02 -1.567777842283248901e-01 1.381996273994445801e-01
-3.419419378042221069e-02 -3.513104841113090515e-02 -3.308961689472198486e-01
1.559163630008697510e-01 -3.930599987506866455e-02 -3.217549324035644531e-01
-3.406577408313751221e-01 -4.167998582124710083e-02 -8.910349756479263306e-02
-3.064667582511901855e-01 -9.699133783578872681e-02 -2.394145168364048004e-02
4.095500335097312927e-02 -2.405240759253501892e-02 -2.621321976184844971e-01
1.504316031932830811e-01 -2.598980441689491272e-02 9.751427173614501953e-02
1.072068605571985245e-02 -6.883085519075393677e-02 1.394002586603164673e-01
3.320012390613555908e-01 -7.614383846521377563e-02 2.607468366622924805e-01
-1.540126800537109375e-01 1.840661652386188507e-02 7.845536470413208008e-01
2.867572195827960968e-02 -1.023669317364692688e-01 4.310341924428939819e-02
7.975223660469055176e-01 -5.979875102639198303e-02 -7.234910130500793457e-02
6.409294903278350830e-03 -2.825464494526386261e-02 -4.205349087715148926e-01
-6.806300878524780273e-01 1.272010505199432373e-01 -9.233600459992885590e-03
-6.956381201744079590e-01 3.284159675240516663e-02 2.864115498960018158e-02
-4.824714735150337219e-02 -3.125624731183052063e-02 -3.314419090747833252e-01
3.091327846050262451e-02 -1.776252835988998413e-01 1.402461677789688110e-01
3.050397150218486786e-02 7.510960847139358521e-02 -8.301843702793121338e-02
-7.515497207641601562e-01 4.523002728819847107e-02 1.435206383466720581e-01
1.785375177860260010e-01 -8.209247142076492310e-02 -3.537356257438659668e-01
-7.698050141334533691e-01 5.314333736896514893e-02 2.812668681144714355e-01
2.239708602428436279e-01 -1.287810206413269043e-01 2.795477807521820068e-01
-6.779832243919372559e-01 2.571158409118652344e-01 8.639574982225894928e-03
-2.629162371158599854e-01 3.587048128247261047e-02 -9.145166873931884766e-01
7.227552533149719238e-01 -8.875056356191635132e-02 -5.395746603608131409e-02
2.595261931419372559e-01 -7.035893946886062622e-02 2.672685086727142334e-01
3.879930451512336731e-02 -1.303909718990325928e-01 -1.736668199300765991e-01
2.117734402418136597e-01 -7.341512292623519897e-02 3.540966510772705078e-01
-8.138466477394104004e-01 2.585620582103729248e-01 -3.203109372407197952e-03
-7.990842461585998535e-01 4.285072684288024902e-01 3.618712769821286201e-03
6.565016508102416992e-01 1.119201555848121643e-01 1.954188337549567223e-03
1.197590120136737823e-02 -4.304435476660728455e-02 1.957758069038391113e-01
-8.770456165075302124e-02 -1.196413952857255936e-02 5.234961509704589844e-01
-2.818809151649475098e-01 -1.013027280569076538e-01 6.074569188058376312e-03
5.746381357312202454e-02 -1.952271722257137299e-02 -4.786568284034729004e-01
1.697783023118972778e-01 -9.311654418706893921e-02 3.406985998153686523e-01
5.359737277030944824e-01 -6.020806729793548584e-02 -8.239082247018814087e-02
-2.055310755968093872e-01 1.968912221491336823e-02 -7.697030901908874512e-01
1.996306031942367554e-01 -1.166654750704765320e-01 2.779651284217834473e-01
-4.761936962604522705e-01 1.158768162131309509e-01 -1.580983772873878479e-02
1.325311511754989624e-01 -1.990474015474319458e-02 -1.863553971052169800e-01
-1.327285766601562500e-01 1.908880099654197693e-02 -6.919888257980346680e-01
6.853989362716674805e-01 -6.288381293416023254e-03 -1.003731489181518555e-01
-5.206720232963562012e-01 9.361038357019424438e-02 -5.332986265420913696e-02
-5.518886446952819824e-01 8.608897333033382893e-04 7.781285047531127930e-02
8.330487459897994995e-02 -4.836538434028625488e-02 3.155124485492706299e-01
1.043433770537376404e-01 1.379350898787379265e-03 3.992298543453216553e-01
-8.710953593254089355e-01 4.410048723220825195e-01 -5.604390520602464676e-03
2.245711833238601685e-01 -4.007004573941230774e-02 2.998768091201782227e-01
-7.887968420982360840e-01 4.146438091993331909e-02 -1.272238492965698242e-01
-8.277904391288757324e-01 6.564091891050338745e-02 3.285557329654693604e-01
-8.994213491678237915e-02 4.855907335877418518e-02 -9.597989916801452637e-02
3.098439574241638184e-01 -4.536377266049385071e-02 9.789629280567169189e-02
3.128182590007781982e-01 -7.396085560321807861e-02 3.608093261718750000e-01
8.188883066177368164e-01 -9.813739359378814697e-02 -4.743804165627807379e-04
-7.316044718027114868e-02 -1.840393245220184326e-02 -4.664321243762969971e-01
1.724524497985839844e-01 -4.773777723312377930e-02 -3.080021142959594727e-01
2.788728773593902588e-01 -1.489190459251403809e-01 3.297836780548095703e-01
-7.747166752815246582e-01 2.057884335517883301e-01 3.442381275817751884e-04
3.626994192600250244e-01 -1.453444063663482666e-01 -3.354804217815399170e-01
6.534983962774276733e-02 -2.375224791467189789e-02 2.300213426351547241e-01
-1.646820008754730225e-01 7.546276785433292389e-03 6.618427038192749023e-01
-8.474918603897094727e-01 4.260787367820739746e-01 -7.077904883772134781e-03
-7.231163978576660156e-01 4.820433631539344788e-02 -1.748674362897872925e-01
3.848021030426025391e-01 5.860079824924468994e-02 -9.284185618162155151e-02
-1.966081261634826660e-01 3.540660068392753601e-02 8.448039889335632324e-01
3.359033167362213135e-01 -9.150658547878265381e-02 3.114466071128845215e-01
8.195977807044982910e-01 -7.693516463041305542e-02 -5.081943050026893616e-02
-3.636063635349273682e-01 -1.540389726869761944e-03 9.421251714229583740e-02
2.297284603118896484e-01 -1.417424678802490234e-01 2.868061959743499756e-01
6.524068862199783325e-02 -1.343749314546585083e-01 1.592654138803482056e-01
5.090684294700622559e-01 1.082074642181396484e-02 9.800544381141662598e-02
6.085578799247741699e-01 1.098736152052879333e-01 1.889959536492824554e-02
-2.533111274242401123e-01 5.322520062327384949e-02 9.036500751972198486e-02
1.935455203056335449e-01 -7.068638503551483154e-02 -3.101032674312591553e-01
3.311553299427032471e-01 -7.870884984731674194e-02 3.482844531536102295e-01
1.105921640992164612e-01 -1.632721424102783203e-01 1.443665474653244019e-01
5.515274405479431152e-01 -3.985173627734184265e-02 8.900064229965209961e-02
1.093915253877639771e-01 9.822193533182144165e-02 5.047098547220230103e-02
8.027342557907104492e-01 5.824605748057365417e-02 7.773099094629287720e-02
5.642689391970634460e-02 -8.730434626340866089e-02 1.317325383424758911e-01
-8.639478683471679688e-02 2.664737775921821594e-02 7.009453773498535156e-01
2.247349023818969727e-01 -1.314006000757217407e-01 3.507948815822601318e-01
1.104557216167449951e-01 -1.381967402994632721e-02 2.516874670982360840e-01
6.886188387870788574e-01 -1.009206920862197876e-01 2.397502958774566650e-02
2.294556051492691040e-01 -1.452625393867492676e-01 -3.360807597637176514e-01
1.170133589766919613e-03 -3.982445225119590759e-02 -2.301787883043289185e-01
-1.242968216538429260e-01 1.188495196402072906e-02 -6.381237506866455078e-01
-1.110914628952741623e-02 -2.146011218428611755e-02 4.692490100860595703e-01
3.091327846050262451e-02 -1.776252835988998413e-01 1.402461677789688110e-01
-1.960623860359191895e-01 2.825732901692390442e-02 -8.695200085639953613e-01
2.759258747100830078e-01 -9.303466975688934326e-02 -8.492854237556457520e-02
-3.812356293201446533e-02 -1.017666086554527283e-01 3.805527091026306152e-02
-1.034510135650634766e-02 -2.257889695465564728e-02 3.294289410114288330e-01
7.334791421890258789e-01 1.067901551723480225e-01 3.096057660877704620e-02
1.385070681571960449e-01 -5.772492662072181702e-02 2.317677289247512817e-01
4.638517275452613831e-02 -1.182770077139139175e-02 3.309297561645507812e-01
2.793640494346618652e-01 -4.356282576918601990e-02 -3.316329419612884521e-01
2.538777291774749756e-01 -2.151468954980373383e-02 -2.534821331501007080e-01
-4.372001886367797852e-01 1.122748926281929016e-01 -1.253536250442266464e-02
6.657247543334960938e-01 -7.628027349710464478e-02 -7.011154294013977051e-02
4.150074720382690430e-02 -2.661740966141223907e-02 -4.384899735450744629e-01
6.886188387870788574e-01 -1.009206920862197876e-01 2.397502958774566650e-02
4.683830738067626953e-01 1.111833974719047546e-01 -1.586441136896610260e-02
4.903203994035720825e-02 1.087532378733158112e-02 5.196486711502075195e-01
-7.231982946395874023e-01 4.146438091993331909e-02 2.045077234506607056e-01
-6.904262304306030273e-01 5.096035450696945190e-02 -2.300423532724380493e-01
-7.826572656631469727e-01 4.072777628898620605e-01 4.382757004350423813e-03
-1.611073762178421021e-01 7.770189642906188965e-02 7.672136276960372925e-02
-4.915291666984558105e-01 3.551574423909187317e-02 -9.213238954544067383e-02
2.373689115047454834e-01 5.401652678847312927e-02 -9.436994791030883789e-02
6.795048713684082031e-01 -5.797203630208969116e-03 9.617719799280166626e-02
1.197590120136737823e-02 -4.304435476660728455e-02 1.957758069038391113e-01
2.602902352809906006e-01 -2.961901202797889709e-02 -3.220551013946533203e-01
-6.093573570251464844e-02 -2.762703783810138702e-02 3.642747998237609863e-01
-1.209950521588325500e-01 4.899413790553808212e-03 6.709293723106384277e-01
5.870282053947448730e-01 -1.041678786277770996e-01 -1.103456225246191025e-02
-3.873463273048400879e-01 1.611448265612125397e-02 9.459453821182250977e-02
-7.532142996788024902e-01 3.865378350019454956e-02 -9.458824992179870605e-02
-7.534510456025600433e-03 -1.026397868990898132e-01 3.688191995024681091e-02
2.584619820117950439e-01 -1.420426368713378906e-01 3.446825742721557617e-01
-1.687205135822296143e-01 -1.011935696005821228e-01 -2.702491357922554016e-02
2.073256075382232666e-01 -5.971690267324447632e-02 -2.988336086273193359e-01
7.645576447248458862e-02 -3.758690506219863892e-02 -1.463249474763870239e-01
-1.611073762178421021e-01 7.770189642906188965e-02 7.672136276960372925e-02
-6.399174928665161133e-01 3.308718279004096985e-02 -4.386117309331893921e-02
1.785375177860260010e-01 -8.209247142076492310e-02 -3.537356257438659668e-01
-3.956962227821350098e-01 7.936642318964004517e-02 7.251911610364913940e-02
5.399303436279296875e-01 -1.041678786277770996e-01 6.756751332432031631e-03
-1.222502812743186951e-01 -6.048094481229782104e-02 8.845489472150802612e-02
2.712051570415496826e-01 -1.439254730939865112e-01 -2.965414822101593018e-01
-6.412818431854248047e-01 1.577628105878829956e-01 -1.286280993372201920e-02
1.413176506757736206e-01 -7.161570712924003601e-03 9.639549255371093750e-02
-4.645966291427612305e-01 9.822193533182144165e-02 3.955607116222381592e-02
-6.149768829345703125e-01 3.346920385956764221e-02 -6.405376642942428589e-02
1.743336021900177002e-02 -1.444439291954040527e-01 1.796762943267822266e-01
2.384604066610336304e-01 9.510956704616546631e-03 9.786900877952575684e-02
2.324844896793365479e-01 -1.372127979993820190e-01 3.135204613208770752e-01
-7.791917920112609863e-01 3.125730436295270920e-03 1.944533921778202057e-02
-1.687205135822296143e-01 -1.011935696005821228e-01 -2.702491357922554016e-02
-1.476001590490341187e-01 -6.588542368263006210e-03 9.612261503934860229e-02
-7.955095767974853516e-01 1.543073332868516445e-03 4.846641328185796738e-03
-8.800472319126129150e-02 -4.271690919995307922e-02 9.183852374553680420e-02
-6.123300194740295410e-01 2.651093900203704834e-02 -1.154903024435043335e-01
-1.595246940851211548e-01 9.920272976160049438e-03 -6.664206981658935547e-01
1.785375177860260010e-01 -8.209247142076492310e-02 -3.537356257438659668e-01
9.317485690116882324e-01 3.728941828012466431e-02 9.212607517838478088e-03
7.833858579397201538e-02 6.727654486894607544e-03 -4.997499287128448486e-01
-8.233972191810607910e-01 6.253016740083694458e-02 -3.264756202697753906e-01
4.994905889034271240e-01 9.014490246772766113e-02 -6.743738800287246704e-02
2.416530251502990723e-01 -1.510217040777206421e-02 -2.267951667308807373e-01
-1.699484437704086304e-01 4.119150340557098389e-02 -8.921684622764587402e-01
8.174967169761657715e-01 -1.712400466203689575e-01 7.930104620754718781e-03
-1.730336062610149384e-02 -6.607483327388763428e-02 -1.397487074136734009e-01
-7.166765928268432617e-01 5.412567779421806335e-02 -2.423762083053588867e-01
-5.797489881515502930e-01 8.755261451005935669e-02 1.084984466433525085e-02
-1.258434611372649670e-03 -6.143599748611450195e-02 1.099572777748107910e-01
-8.429894447326660156e-01 3.907144069671630859e-01 -5.931837949901819229e-03
-6.760731339454650879e-01 3.325090184807777405e-02 -3.946791961789131165e-02
-1.633176356554031372e-01 2.217226289212703705e-02 8.157975673675537109e-01
-5.959866195917129517e-02 -2.547134272754192352e-02 -3.968222439289093018e-01
1.773914396762847900e-01 -6.097364705055952072e-03 3.147756755352020264e-01
-7.206895202398300171e-02 1.630549877882003784e-02 6.093146800994873047e-01
6.987696290016174316e-01 -8.201059699058532715e-02 5.923020839691162109e-02
-8.188948035240173340e-01 4.307994246482849121e-01 4.328182898461818695e-03
3.848021030426025391e-01 5.860079824924468994e-02 -9.284185618162155151e-02
-3.609049320220947266e-01 -4.334451630711555481e-02 8.097817748785018921e-02
-5.061005949974060059e-01 -4.309894144535064697e-02 -6.127046048641204834e-02
1.706241965293884277e-01 -1.340474635362625122e-01 3.250356912612915039e-01
2.275438047945499420e-02 6.836809683591127396e-03 4.702040553092956543e-01
-1.916145533323287964e-01 2.601977065205574036e-02 7.821523547172546387e-01
-6.762112677097320557e-02 -3.455800935626029968e-02 -4.317499995231628418e-01
-6.580907702445983887e-01 -4.405552521347999573e-03 -5.966051295399665833e-02
-6.523059010505676270e-01 8.506946265697479248e-02 -1.832026802003383636e-02
2.081987857818603516e-01 -5.368639528751373291e-02 -2.363457083702087402e-01
1.438280791044235229e-01 -3.695929795503616333e-02 3.371785283088684082e-01
5.612417459487915039e-01 -9.303466975688934326e-02 4.326714202761650085e-02
-7.683860063552856445e-01 3.173934221267700195e-01 5.037651862949132919e-03
1.561073660850524902e-01 -2.271532453596591949e-02 1.371899992227554321e-01
2.264539897441864014e-01 -7.606198638677597046e-02 3.349955379962921143e-01
2.278166823089122772e-02 -2.533490397036075592e-02 -3.252750039100646973e-01
-7.868322134017944336e-01 5.516259372234344482e-02 -2.916024625301361084e-01
1.816209852695465088e-01 -8.288379758596420288e-02 1.033537536859512329e-01
-5.105942487716674805e-03 -4.863826185464859009e-02 -2.499620616436004639e-01
6.474952399730682373e-02 -8.724975585937500000e-02 1.255656033754348755e-01
3.460814654827117920e-01 -1.187938675284385681e-01 2.603920996189117432e-01
5.152387893758714199e-04 -6.337337940931320190e-02 -2.310246825218200684e-01
7.481596469879150391e-01 9.838566184043884277e-02 4.804241657257080078e-02
-1.327285766601562500e-01 1.908880099654197693e-02 -6.919888257980346680e-01
8.188883066177368164e-01 -9.813739359378814697e-02 -4.743804165627807379e-04
-4.967137575149536133e-01 -6.042635813355445862e-02 -3.038124926388263702e-02
-7.657390832901000977e-01 1.601367890834808350e-01 -3.925185883417725563e-04
9.119379520416259766e-01 5.527174472808837891e-02 1.117729209363460541e-02
-3.015567362308502197e-02 -4.514548182487487793e-02 -2.585848569869995117e-01
2.128103375434875488e-01 -1.193684618920087814e-02 -2.511899769306182861e-01
-7.526685595512390137e-01 5.464413762092590332e-02 3.003406822681427002e-01
-4.971230626106262207e-01 1.044434383511543274e-01 7.262602448463439941e-04
3.096802234649658203e-01 5.281588807702064514e-02 -9.472467750310897827e-02
-5.631037354469299316e-01 2.176295779645442963e-02 7.107289135456085205e-02
3.352211415767669678e-01 -4.953872412443161011e-02 -3.034178912639617920e-01
3.348391056060791016e-01 -1.043316051363945007e-01 4.819354042410850525e-03
7.138868570327758789e-01 6.326691806316375732e-02 -9.019499272108078003e-02
1.213160753250122070e-01 1.051906030625104904e-03 -4.278751909732818604e-01
-4.404746294021606445e-01 1.867949403822422028e-02 -9.557057917118072510e-02
-4.902193844318389893e-01 1.019057258963584900e-01 2.201034501194953918e-02
-1.494284123182296753e-01 -1.043861880898475647e-01 3.973447717726230621e-03
-5.161968469619750977e-01 -5.496890842914581299e-02 -4.080499336123466492e-02
2.133015394210815430e-01 -6.768477708101272583e-02 1.706987917423248291e-01
1.764636784791946411e-01 -8.790466934442520142e-02 -9.243255108594894409e-02
1.149035543203353882e-01 -2.871852926909923553e-02 -3.994418382644653320e-01
-3.809627518057823181e-02 2.149008028209209442e-02 6.357833147048950195e-01
1.932999491691589355e-01 4.602135717868804932e-02 -9.671664983034133911e-02
3.901760280132293701e-02 -8.790466934442520142e-02 8.818201720714569092e-02
7.252639532089233398e-02 -6.743919849395751953e-02 -1.764501184225082397e-01
5.356173217296600342e-02 -2.361580915749073029e-02 -4.555990695953369141e-01
-4.353992342948913574e-01 -6.441030651330947876e-02 -5.035554617643356323e-02
6.474952399730682373e-02 -8.724975585937500000e-02 1.255656033754348755e-01
8.281933069229125977e-01 8.692500740289688110e-02 -4.427047818899154663e-02
6.665962934494018555e-02 -4.678430035710334778e-03 9.631363302469253540e-02
1.519579999148845673e-02 -7.652748376131057739e-03 -3.960036635398864746e-01
-1.246242672204971313e-01 1.701496541500091553e-02 6.676821708679199219e-01
-4.372001886367797852e-01 1.122748926281929016e-01 -1.253536250442266464e-02
-7.039607167243957520e-01 3.108172118663787842e-01 7.575369905680418015e-03
5.999983754009008408e-03 -1.013027280569076538e-01 -5.485795065760612488e-02
-7.070168852806091309e-01 6.288489699363708496e-02 4.495895281434059143e-02
-1.716402620077133179e-01 6.214814260601997375e-02 -9.095902740955352783e-02
-3.932420164346694946e-02 3.344030352309346199e-03 9.718682616949081421e-02
6.812785267829895020e-01 2.031672932207584381e-02 9.775986522436141968e-02
1.108650416135787964e-01 -3.843279927968978882e-02 3.422267138957977295e-01
3.717315196990966797e-01 -2.645368687808513641e-02 9.486740827560424805e-02
2.324844896793365479e-01 -1.372127979993820190e-01 3.135204613208770752e-01
3.595341145992279053e-01 -9.404431283473968506e-02 6.455122679471969604e-02
-7.399784517474472523e-04 -1.624823734164237976e-02 -3.616762161254882812e-01
-6.494680047035217285e-01 3.679824993014335632e-02 1.734275072813034058e-01
-2.154909372329711914e-01 3.344190865755081177e-02 8.493609428405761719e-01
6.565016508102416992e-01 1.119201555848121643e-01 1.954188337549567223e-03
-1.232871860265731812e-01 1.322203595191240311e-02 7.427222728729248047e-01
-5.736093521118164062e-01 3.046760149300098419e-02 8.040513843297958374e-02
-2.321361750364303589e-01 -2.236059680581092834e-02 9.361219406127929688e-02
9.610005021095275879e-01 2.214498072862625122e-02 -1.250807568430900574e-02
-5.656976625323295593e-02 -1.043861880898475647e-01 3.973447717726230621e-03
-7.587808966636657715e-01 1.409538239240646362e-01 -4.743804165627807379e-04
2.269178777933120728e-01 -6.743919849395751953e-02 -1.717839837074279785e-01
1.679227650165557861e-01 -5.851780995726585388e-03 3.584626019001007080e-01
2.809467017650604248e-01 -4.902027547359466553e-02 -1.935046613216400146e-01
-5.270572304725646973e-01 -5.715342238545417786e-03 -8.372790366411209106e-02
1.832036375999450684e-01 -2.851775207091122866e-04 -1.010007560253143311e-01
7.985047698020935059e-01 -7.674415409564971924e-02 5.431849136948585510e-02
3.321104049682617188e-01 -1.005114018917083740e-01 3.950149938464164734e-02
1.047510001808404922e-02 -9.127836092375218868e-04 -1.009461805224418640e-01
2.861945657059550285e-03 1.745156571269035339e-02 6.182376146316528320e-01
3.724682927131652832e-01 -9.428988397121429443e-02 4.910662397742271423e-02
2.226320840418338776e-02 -3.215673193335533142e-02 2.402267903089523315e-01
-6.093556880950927734e-01 1.040887013077735901e-01 9.294469840824604034e-03
4.593783020973205566e-01 1.043070033192634583e-01 -4.181462526321411133e-02
3.313190340995788574e-01 -1.407874226570129395e-01 3.211608827114105225e-01
-5.878806114196777344e-01 2.370323836803436279e-01 4.437332041561603546e-03
8.367069363594055176e-01 4.602135717868804932e-02 7.030884921550750732e-02
-3.678648546338081360e-02 6.441298872232437134e-02 8.550786226987838745e-02
4.419689774513244629e-01 8.902611583471298218e-02 6.468766927719116211e-02
-7.761082649230957031e-01 6.132952496409416199e-02 -2.910294234752655029e-01
2.122629247605800629e-02 -1.729591339826583862e-01 -1.587406545877456665e-01
2.384587191045284271e-02 -5.818881094455718994e-02 -9.922708570957183838e-02
8.262269198894500732e-02 -4.509091377258300781e-02 2.951288223266601562e-01
7.437391281127929688e-01 6.173883378505706787e-02 8.523499220609664917e-02
7.435480952262878418e-01 9.014490246772766113e-02 -6.615488231182098389e-02
7.150329351425170898e-01 9.961358457803726196e-02 -5.210193246603012085e-02
-3.556112051010131836e-01 1.043342947959899902e-01 -3.837642818689346313e-02
-2.417958825826644897e-01 -9.475376456975936890e-02 -4.301526397466659546e-02
7.150329351425170898e-01 9.961358457803726196e-02 -5.210193246603012085e-02
-7.498306632041931152e-01 4.460240900516510010e-02 -2.182269543409347534e-01
2.241891473531723022e-01 -1.277986764907836914e-01 -3.579378724098205566e-01
1.293095760047435760e-02 -5.142313893884420395e-03 -5.801655650138854980e-01
2.445181906223297119e-01 -1.475546658039093018e-01 -3.363809287548065186e-01
3.259434700012207031e-01 -3.594966232776641846e-02 -1.544565558433532715e-01
-1.918618381023406982e-02 -6.574738770723342896e-02 2.290935814380645752e-01
9.823102504014968872e-02 -2.517118118703365326e-02 3.248992562294006348e-01
3.787989318370819092e-01 1.062989756464958191e-01 -3.671190142631530762e-02
4.841005504131317139e-01 -6.329153478145599365e-02 -8.045342564582824707e-02
3.852932751178741455e-01 8.509675413370132446e-02 -7.406820356845855713e-02
-5.795034170150756836e-01 1.562331523746252060e-02 -4.664447531104087830e-02
2.423663390800356865e-04 -4.488999838940799236e-04 -6.123918294906616211e-01
4.180090874433517456e-02 -1.732865720987319946e-01 -1.545111238956451416e-01
1.819740235805511475e-02 -5.354995653033256531e-02 -2.439861446619033813e-01
9.386505931615829468e-02 -6.803952157497406006e-02 3.195236623287200928e-01
1.696691513061523438e-01 -7.349697500467300415e-02 9.726868569850921631e-02
1.465005520731210709e-02 -1.974101737141609192e-02 -4.905541241168975830e-01
9.308753609657287598e-01 -4.397211968898773193e-02 2.997823432087898254e-02
8.127213716506958008e-01 -6.563823670148849487e-02 -6.446307152509689331e-02
-6.146494150161743164e-01 2.445909529924392700e-01 -1.158030796796083450e-02
-8.317487686872482300e-02 2.910323441028594971e-02 7.499260306358337402e-01
-7.865048050880432129e-01 6.575006246566772461e-02 3.267002105712890625e-01
2.713961601257324219e-01 5.518988519906997681e-02 8.979196846485137939e-02
-7.703779935836791992e-01 5.961042642593383789e-02 2.711705863475799561e-01
-1.561683714389801025e-01 3.218669816851615906e-02 -7.916420102119445801e-01
-2.052582055330276489e-01 1.110196709632873535e-01 1.385144609957933426e-02
1.635840684175491333e-01 -4.361739382147789001e-02 2.925911247730255127e-01
-4.227123036980628967e-02 4.872119985520839691e-03 -6.638829708099365234e-01
6.049270182847976685e-02 -7.180515676736831665e-02 -1.513730883598327637e-01
-4.118230044841766357e-01 1.078816428780555725e-01 -9.315461851656436920e-03
1.316852420568466187e-01 -1.357409078627824783e-02 2.337051331996917725e-01
-6.179512143135070801e-01 1.449104994535446167e-01 -1.406344957649707794e-02
5.432577058672904968e-02 -1.229158509522676468e-02 -5.201880931854248047e-01
5.311984419822692871e-01 8.144025504589080811e-02 7.374704629182815552e-02
7.771660685539245605e-01 -8.880515396595001221e-02 4.105687513947486877e-02
2.744796276092529297e-01 -2.852752245962619781e-02 -2.354179471731185913e-01
-3.643174842000007629e-02 1.314017456024885178e-02 -5.620195269584655762e-01
2.417348772287368774e-01 -1.479367017745971680e-01 -3.179619908332824707e-01
-7.142480015754699707e-01 1.500132083892822266e-01 3.182115964591503143e-03
-7.648659348487854004e-01 4.997801408171653748e-02 1.852429062128067017e-01
2.809740006923675537e-01 -9.595441073179244995e-02 7.030884921550750732e-02
-7.335145026445388794e-02 2.732956036925315857e-02 -7.520482540130615234e-01
3.215501904487609863e-01 7.461843639612197876e-02 -8.340045064687728882e-02
1.915808320045471191e-01 -1.542962528765201569e-02 1.779572069644927979e-01
-7.195980101823806763e-02 4.326375201344490051e-03 6.232584714889526367e-01
-2.913495898246765137e-01 -8.026421815156936646e-02 5.852073803544044495e-02
7.359076738357543945e-01 -3.038305602967739105e-02 -9.480653703212738037e-02
1.392165273427963257e-01 -3.545849397778511047e-02 -3.516617715358734131e-01
5.515274405479431152e-01 -3.985173627734184265e-02 8.900064229965209961e-02
-1.929533481597900391e-02 -8.902344107627868652e-02 8.474382758140563965e-02
-6.885706782341003418e-01 2.752345800399780273e-01 -1.258993614464998245e-02
-7.324230670928955078e-02 2.432795986533164978e-02 7.642246484756469727e-01
7.316508293151855469e-01 9.822193533182144165e-02 -5.409390479326248169e-02
1.806113421916961670e-01 -1.298452168703079224e-01 2.942283451557159424e-01
4.327442124485969543e-02 -1.588516235351562500e-01 -1.401852965354919434e-01
1.683303713798522949e-02 -1.018211767077445984e-01 4.831529036164283752e-02
2.538777291774749756e-01 -2.151468954980373383e-02 -2.534821331501007080e-01
-7.256268262863159180e-01 2.908974885940551758e-01 -1.125285960733890533e-02
1.028698608279228210e-01 -8.754991739988327026e-02 -9.289643168449401855e-02
-2.210592478513717651e-02 -7.123211771249771118e-02 1.019893959164619446e-01
-7.716605067253112793e-01 3.379664942622184753e-02 5.562828108668327332e-02
9.550228714942932129e-02 -4.585494101047515869e-02 -2.946586608886718750e-01
6.816878318786621094e-01 1.121930330991744995e-01 -1.811457565054297447e-03
