4.766204357147216797e-01 -7.288874685764312744e-02 1.233877148479223251e-02
4.690220355987548828e-01 1.042334437370300293e-01 2.622557245194911957e-02
3.174463212490081787e-01 -2.590945921838283539e-02 2.129637300968170166e-01
1.733118146657943726e-01 -7.322937995195388794e-02 3.575174212455749512e-01
9.195613116025924683e-02 -5.853032320737838745e-02 9.890855848789215088e-02
-7.560556530952453613e-01 3.605711087584495544e-02 -6.997941061854362488e-03
-7.916897535324096680e-01 4.144331216812133789e-01 -3.932364284992218018e-03
1.660277992486953735e-01 -4.956942051649093628e-02 1.876792609691619873e-01
-6.737522780895233154e-02 -1.810139603912830353e-02 6.061697006225585938e-01
2.006358932703733444e-03 -5.681882146745920181e-03 2.879524528980255127e-01
6.801275610923767090e-01 -4.008445516228675842e-02 -6.432683765888214111e-02
-4.489478170871734619e-01 6.500978022813796997e-02 5.585947260260581970e-02
4.192129671573638916e-01 -4.836413264274597168e-02 -1.102601760067045689e-03
2.833057343959808350e-01 -1.136320978403091431e-01 -3.666922748088836670e-01
-6.875952705740928650e-03 -1.006885617971420288e-01 7.299526035785675049e-02
1.110570356249809265e-01 -1.049069985747337341e-01 1.321058720350265503e-01
5.962785333395004272e-03 -3.979625925421714783e-02 -6.174668669700622559e-01
1.668138355016708374e-01 2.335774479433894157e-03 3.246345520019531250e-01
7.560639083385467529e-02 4.693910945206880569e-03 6.057243347167968750e-01
4.952235221862792969e-01 8.039006590843200684e-02 5.861063301563262939e-02
-4.641402885317802429e-02 -1.174837201833724976e-01 -6.503428518772125244e-02
4.052257537841796875e-02 1.864151097834110260e-03 -5.199972987174987793e-01
2.824148833751678467e-01 5.657289549708366394e-02 7.286425679922103882e-02
4.117455184459686279e-01 6.031971424818038940e-02 7.147557288408279419e-02
1.982556581497192383e-01 -7.773602753877639771e-02 -8.596233092248439789e-03
-3.140624165534973145e-01 4.965569451451301575e-02 7.564161717891693115e-02
4.838303104043006897e-02 -4.503655061125755310e-02 1.470669209957122803e-01
3.268832340836524963e-02 -4.029408097267150879e-02 -1.671939641237258911e-01
1.490230262279510498e-01 6.999642122536897659e-03 3.868893384933471680e-01
7.326616048812866211e-01 3.875587135553359985e-02 -6.115646287798881531e-02
3.278220891952514648e-01 -7.181449234485626221e-02 3.953261971473693848e-01
3.520366922020912170e-02 -2.811036817729473114e-02 -6.426465511322021484e-01
-2.585152387619018555e-01 3.587370738387107849e-02 -9.297626614570617676e-01
-4.329605028033256531e-02 -2.588324062526226044e-02 3.172981142997741699e-01
2.410688996315002441e-01 -1.100078877061605453e-02 -3.438445329666137695e-01
-7.415924668312072754e-01 3.269200623035430908e-01 -5.216238554567098618e-03
-5.541992783546447754e-01 1.903315782546997070e-01 -1.045654062181711197e-02
2.108323723077774048e-01 -6.586675345897674561e-02 3.268879055976867676e-01
8.611319959163665771e-02 9.462590329349040985e-03 3.886710405349731445e-01
1.707222498953342438e-02 -4.768290743231773376e-02 1.117210909724235535e-01
-4.182876646518707275e-02 7.471275050193071365e-03 6.007984280586242676e-01
-4.106892272830009460e-02 2.513109147548675537e-02 6.694464087486267090e-01
1.791547536849975586e-01 6.768234074115753174e-02 6.712612509727478027e-02
3.121536076068878174e-01 -8.874066919088363647e-02 3.125818669795989990e-01
2.362478375434875488e-01 -5.596258118748664856e-02 3.123198449611663818e-01
-6.790232658386230469e-01 5.424095690250396729e-02 -2.346890419721603394e-01
6.059293076395988464e-02 -4.584878683090209961e-02 4.653174057602882385e-02
-6.494417786598205566e-01 1.411775648593902588e-01 -5.714067257940769196e-03
3.960770368576049805e-01 -3.356028348207473755e-02 -3.642223402857780457e-02
3.454862907528877258e-02 -1.770837604999542236e-02 2.848344743251800537e-01
-2.283266931772232056e-02 -1.016234327107667923e-02 -3.151014745235443115e-01
6.213313937187194824e-01 7.085271924734115601e-02 5.874164029955863953e-02
-2.092826068401336670e-01 3.322735056281089783e-02 8.960894346237182617e-01
-5.758154988288879395e-01 -1.810139603912830353e-02 9.673173190094530582e-04
9.971615858376026154e-03 -1.155710071325302124e-01 -5.447507649660110474e-02
-3.483602106571197510e-01 1.941915601491928101e-02 -7.994294166564941406e-02
-1.975443214178085327e-01 3.186487779021263123e-02 -8.806610703468322754e-01
3.806443512439727783e-01 -8.648733049631118774e-02 -8.552385866641998291e-02
7.979863882064819336e-02 -1.309691555798053741e-02 3.172457218170166016e-01
-3.803522586822509766e-01 8.733347803354263306e-02 4.983312636613845825e-02
9.834930300712585449e-02 1.179451867938041687e-02 -4.578734934329986572e-01
3.318615257740020752e-02 -7.550889998674392700e-02 6.074011921882629395e-01
2.422741651535034180e-01 -6.099326908588409424e-02 -3.180884420871734619e-01
5.707100629806518555e-01 1.559374295175075531e-02 8.085571229457855225e-02
3.014677762985229492e-02 -3.576121479272842407e-02 -5.873351693153381348e-01
5.259054899215698242e-01 -6.612876802682876587e-02 4.695096239447593689e-02
-2.262611985206604004e-01 3.553308174014091492e-02 -8.062417805194854736e-02
-2.168810367584228516e-01 1.081636622548103333e-01 1.401566714048385620e-02
-2.181081473827362061e-02 -1.666031777858734131e-02 -2.660522460937500000e-01
-1.845745891332626343e-01 1.027483679354190826e-02 -6.206896901130676270e-01
1.110570356249809265e-01 -1.049069985747337341e-01 1.321058720350265503e-01
-3.278924524784088135e-02 -1.594449859112501144e-03 -4.338991343975067139e-01
-4.220126569271087646e-01 2.866828627884387970e-02 6.969387084245681763e-02
-3.129357993602752686e-01 -6.494970619678497314e-02 -3.126053512096405029e-02
-3.803522586822509766e-01 8.733347803354263306e-02 4.983312636613845825e-02
3.728887140750885010e-01 -8.693275600671768188e-02 -1.299808733165264130e-02
2.382653504610061646e-01 -1.092302426695823669e-01 -3.436349332332611084e-01
-5.393386259675025940e-02 2.046721428632736206e-02 5.468495488166809082e-01
4.076057076454162598e-01 -8.334315568208694458e-02 2.313379384577274323e-02
-4.120298922061920166e-01 -2.410154044628143311e-02 -5.560173839330673218e-02
-2.993741945829242468e-04 -3.869578614830970764e-02 -2.347938418388366699e-01
2.819170653820037842e-01 -5.302800983190536499e-02 -1.757094413042068481e-01
-1.222935989499092102e-01 8.047700859606266022e-03 4.982457160949707031e-01
-5.881826281547546387e-01 6.440714746713638306e-02 -7.967396639287471771e-03
1.904737949371337891e-01 -2.997068315744400024e-02 4.734398424625396729e-02
7.858244180679321289e-01 5.809258669614791870e-02 2.287177927792072296e-02
-7.514179944992065430e-01 4.944609105587005615e-02 1.323154866695404053e-01
4.862888157367706299e-01 -2.538541890680789948e-02 -7.619612663984298706e-02
-5.654135346412658691e-01 5.016672075726091862e-04 -3.327805176377296448e-02
-6.404326763004064560e-03 -1.126280799508094788e-02 4.189075529575347900e-01
-3.805574402213096619e-02 9.178772568702697754e-02 4.684615507721900940e-02
2.708600163459777832e-01 -2.043333463370800018e-02 -1.498223543167114258e-01
-5.709944367408752441e-01 3.867726773023605347e-02 9.581678360700607300e-02
8.430529385805130005e-02 5.008326843380928040e-03 -3.366915285587310791e-01
3.517702817916870117e-01 -8.722097426652908325e-02 -1.061374973505735397e-02
-2.459385246038436890e-01 9.370043873786926270e-02 4.511686041951179504e-02
3.771595358848571777e-01 -5.889715254306793213e-02 -1.163368299603462219e-01
6.237463280558586121e-02 -5.236456636339426041e-03 4.416504800319671631e-01
-7.526188343763351440e-02 -9.720375388860702515e-02 -5.355802178382873535e-02
-4.646643251180648804e-02 2.257170621305704117e-03 8.130113780498504639e-02
3.625915050506591797e-01 -3.002307936549186707e-02 1.135027930140495300e-01
-2.451262623071670532e-01 4.417958110570907593e-02 -9.159020781517028809e-01
-1.504340171813964844e-01 1.480769459158182144e-02 6.121960878372192383e-01
-4.395676553249359131e-01 1.013250797986984253e-01 1.611178740859031677e-02
2.293306440114974976e-01 -7.150007039308547974e-02 1.141840294003486633e-01
2.358548045158386230e-01 -2.051193825900554657e-02 1.340971887111663818e-01
-2.840921515598893166e-03 2.159388735890388489e-02 -6.017984151840209961e-01
-2.672403454780578613e-01 7.965642958879470825e-02 5.992070585489273071e-02
1.996967196464538574e-01 -2.878320170566439629e-03 2.854633033275604248e-01
6.691753268241882324e-01 9.466988593339920044e-02 -2.101574838161468506e-02
4.450520128011703491e-02 -4.951700195670127869e-02 -1.213413253426551819e-01
4.340429902076721191e-01 9.802368283271789551e-02 -4.035245999693870544e-02
-3.126955777406692505e-02 -9.987630695104598999e-02 -4.368005692958831787e-02
1.931987553834915161e-01 -6.101109553128480911e-03 3.397265970706939697e-01
2.652529180049896240e-01 -8.465322852134704590e-02 -1.024692878127098083e-02
-9.700913727283477783e-02 7.995304651558399200e-03 5.518540143966674805e-01
-4.182876646518707275e-02 7.471275050193071365e-03 6.007984280586242676e-01
-2.032824605703353882e-01 7.441612333059310913e-02 6.290768086910247803e-02
-3.325869143009185791e-01 1.087400987744331360e-01 -1.168801169842481613e-02
7.136175036430358887e-02 -4.419809579849243164e-02 -4.745307192206382751e-02
3.732598945498466492e-02 -4.823314398527145386e-02 1.214156523346900940e-01
-1.609449856914579868e-03 2.059822529554367065e-02 5.638805031776428223e-01
-1.895004659891128540e-01 1.868551224470138550e-02 -6.411530375480651855e-01
1.356122270226478577e-02 1.102073863148689270e-01 6.266977288760244846e-04
1.742288619279861450e-01 -5.201932508498430252e-04 2.994024753570556641e-01
-1.271408647298812866e-01 2.615294232964515686e-02 -6.424893736839294434e-01
-5.024774670600891113e-01 9.034664183855056763e-02 2.090666629374027252e-02
-4.379431903362274170e-01 1.255435962229967117e-02 6.489899754524230957e-02
3.579276502132415771e-01 -9.280189871788024902e-02 7.723990827798843384e-02
1.183410584926605225e-01 9.960412047803401947e-03 -4.330344796180725098e-01
-7.639161348342895508e-01 3.027098774909973145e-01 -2.307871123775839806e-03
-3.711817562580108643e-01 -5.428569391369819641e-02 3.028680384159088135e-02
-5.358058214187622070e-01 1.238059699535369873e-01 -1.247405633330345154e-02
-6.753026247024536133e-01 3.153389692306518555e-01 5.447775591164827347e-03
1.218782663345336914e-01 -1.125578433275222778e-01 -1.467567831277847290e-01
5.738280415534973145e-01 1.050456836819648743e-01 -2.080613560974597931e-02
5.341371893882751465e-02 -8.997213840484619141e-02 -6.131960749626159668e-01
2.612702846527099609e-01 -9.966669976711273193e-02 3.214711323380470276e-02
7.171503305435180664e-01 2.217032201588153839e-02 -6.875489652156829834e-02
-1.056032329797744751e-01 7.838096469640731812e-03 -5.231152772903442383e-01
-2.891972064971923828e-01 6.582202762365341187e-02 -6.990776211023330688e-02
-4.966083467006683350e-01 9.370043873786926270e-02 -1.328630372881889343e-02
5.441417694091796875e-01 3.305229125544428825e-03 -8.240588009357452393e-02
4.906426742672920227e-02 4.868623986840248108e-02 -7.669395208358764648e-02
4.458336830139160156e-01 -4.946460574865341187e-02 -1.967251533642411232e-03
2.500036358833312988e-01 -8.258330821990966797e-02 -3.909024596214294434e-01
-3.898372054100036621e-01 3.912269324064254761e-02 7.333587855100631714e-02
4.589388519525527954e-02 -5.685343220829963684e-02 -1.338415197096765041e-03
-5.862436890602111816e-01 4.048516973853111267e-02 4.097701981663703918e-02
-2.214139103889465332e-01 2.389961667358875275e-02 -7.050847411155700684e-01
-6.822198033332824707e-01 5.057275295257568359e-02 1.048562973737716675e-01
-1.348179131746292114e-01 -4.687064886093139648e-02 -7.787302136421203613e-02
9.578594006597995758e-03 -1.511442847549915314e-02 2.874546051025390625e-01
-7.895935773849487305e-01 6.045072153210639954e-02 2.348157763481140137e-01
-8.247035741806030273e-01 4.247040748596191406e-01 -2.833993858075700700e-05
2.742138206958770752e-01 -9.901165217161178589e-02 6.759774684906005859e-02
3.158786147832870483e-02 -1.223310008645057678e-01 3.067982941865921021e-02
3.790242597460746765e-02 6.056385114789009094e-03 -5.475350618362426758e-01
1.275901943445205688e-01 -2.902743592858314514e-02 -1.032622754573822021e-01
-7.193735241889953613e-01 5.452917516231536865e-02 2.381695657968521118e-01
2.066183090209960938e-02 -5.224196985363960266e-02 -5.890313163399696350e-02
-2.336238175630569458e-01 3.665975481271743774e-02 -8.143712282180786133e-01
-3.184598684310913086e-02 7.130651734769344330e-03 -5.989686250686645508e-01
-7.531473040580749512e-01 4.108697175979614258e-01 2.958632074296474457e-03
-2.214139103889465332e-01 2.389961667358875275e-02 -7.050847411155700684e-01
8.460093736648559570e-01 1.614397019147872925e-02 4.059095401316881180e-03
1.828753650188446045e-01 -3.225020691752433777e-02 2.505628764629364014e-01
1.645867079496383667e-01 -3.683546930551528931e-02 3.554213047027587891e-01
3.160052299499511719e-01 -3.935081511735916138e-02 -3.398881256580352783e-01
2.327106297016143799e-01 -9.772777557373046875e-02 -3.259750902652740479e-01
2.997340857982635498e-01 -1.079201623797416687e-01 3.765397369861602783e-01
1.045590639114379883e-01 -6.122909113764762878e-02 -7.944511622190475464e-02
1.622809767723083496e-01 1.050456836819648743e-01 2.470588311553001404e-02
7.677978277206420898e-01 7.355147600173950195e-02 -8.465224876999855042e-03
3.795438706874847412e-01 -2.216263115406036377e-02 7.603463530540466309e-02
-1.313811354339122772e-02 -7.699404843151569366e-03 3.369230628013610840e-01
-4.560178145766258240e-02 1.839729584753513336e-02 -8.264169096946716309e-02
1.122361049056053162e-01 -7.253979798406362534e-03 -2.393791079521179199e-01
2.652529180049896240e-01 -8.465322852134704590e-02 -1.024692878127098083e-02
-6.507256031036376953e-01 3.147184848785400391e-02 -3.165355697274208069e-02
-1.905747205018997192e-01 -8.664453774690628052e-02 -5.206453800201416016e-02
-3.430937230587005615e-01 5.324530601501464844e-02 7.391231507062911987e-02
2.727989256381988525e-01 -2.475658804178237915e-02 -2.511436045169830322e-01
-1.128610521554946899e-01 -8.321214467287063599e-02 8.528377115726470947e-02
-8.938449621200561523e-02 1.200413238257169724e-02 -4.810356497764587402e-01
8.082050085067749023e-02 -4.736848920583724976e-02 -9.545422345399856567e-02
2.217321842908859253e-01 -5.158692225813865662e-02 9.382546693086624146e-02
-6.079909801483154297e-01 3.005696833133697510e-02 -3.511215746402740479e-02
1.251534521579742432e-01 -9.245295077562332153e-03 2.208241820335388184e-01
2.145791798830032349e-01 -9.474080801010131836e-02 3.770113289356231689e-01
-5.269497036933898926e-01 1.774666607379913330e-01 7.596299052238464355e-03
2.710696458816528320e-01 -2.517581544816493988e-02 2.480999380350112915e-01
2.217321842908859253e-01 -5.158692225813865662e-02 9.382546693086624146e-02
-7.359852790832519531e-01 2.623154595494270325e-02 6.443432532250881195e-03
4.222567379474639893e-02 -1.018014736473560333e-03 -3.023151457309722900e-01
2.095004916191101074e-02 3.044999763369560242e-02 8.043649047613143921e-02
-4.352968335151672363e-01 -4.621561989188194275e-02 1.826031133532524109e-02
-7.191115617752075195e-01 5.455538257956504822e-02 -1.537787914276123047e-01
3.690676763653755188e-02 -9.096779674291610718e-02 -9.647608548402786255e-02
1.115810647606849670e-01 9.541193954646587372e-03 -4.074618220329284668e-01
-1.192280128598213196e-01 -5.711545050144195557e-02 8.407850563526153564e-02
1.322278529405593872e-01 -1.133438795804977417e-01 -1.480930596590042114e-01
1.115548685193061829e-01 1.088448986411094666e-01 9.404202923178672791e-03
2.408068925142288208e-01 -6.578813493251800537e-02 3.098044991493225098e-01
-3.115732967853546143e-01 8.518493920564651489e-02 5.528304353356361389e-02
4.071602523326873779e-01 -7.603294402360916138e-02 -5.188112705945968628e-02
-2.152827531099319458e-01 4.221447184681892395e-02 -8.953339457511901855e-01
-4.984642937779426575e-02 2.172488719224929810e-02 5.659766197204589844e-01
-6.685950160026550293e-01 5.031073465943336487e-02 9.744127094745635986e-02
2.907469570636749268e-01 -3.984865546226501465e-02 -2.061032056808471680e-01
3.113413751125335693e-01 -3.183100000023841858e-02 -1.023997203446924686e-03
-1.761639118194580078e-01 2.141047082841396332e-02 -7.709029316902160645e-01
3.151929676532745361e-01 -4.896678403019905090e-02 -1.757639576680958271e-03
4.347242712974548340e-01 9.050384908914566040e-02 -4.933958128094673157e-02
-7.070850729942321777e-01 4.022315889596939087e-02 -8.117441087961196899e-02
-1.261976212263107300e-01 1.462427899241447449e-02 5.340632200241088867e-01
-1.401630192995071411e-01 2.429263666272163391e-02 6.283099651336669922e-01
-2.607161700725555420e-01 3.113123588263988495e-02 7.992486357688903809e-01
2.505800724029541016e-01 -8.538687229156494141e-02 -3.164639472961425781e-01
1.875349204055964947e-03 -1.149683743715286255e-01 6.165000796318054199e-02
2.492437958717346191e-01 -1.951628550887107849e-02 -1.507132053375244141e-01
-2.486110776662826538e-01 3.456362709403038025e-02 -8.092881441116333008e-01
-3.645527362823486328e-01 4.161183908581733704e-02 7.579882442951202393e-02
-1.568009853363037109e-01 -6.232119165360927582e-03 -8.109580725431442261e-02
-7.224871218204498291e-02 1.305219158530235291e-02 4.735377132892608643e-01
1.451976001262664795e-01 -3.523719310760498047e-02 3.618214651942253113e-02
-8.042358607053756714e-02 1.407405175268650055e-02 6.834379434585571289e-01
6.400130391120910645e-01 1.007224321365356445e-01 -7.652978878468275070e-03
1.108474209904670715e-01 -1.122826477512717247e-03 2.852012813091278076e-01
3.459011316299438477e-01 -1.100078877061605453e-02 7.962424308061599731e-02
3.125466406345367432e-01 -7.590193301439285278e-02 -3.775658607482910156e-01
-8.247035741806030273e-01 4.247040748596191406e-01 -2.833993858075700700e-05
1.733423955738544464e-02 -8.040018379688262939e-03 3.697797358036041260e-01
1.109522357583045959e-01 -7.723820954561233521e-02 -6.464457511901855469e-01
1.281142234802246094e-01 -4.786631092429161072e-02 -1.875787377357482910e-01
8.572017401456832886e-02 6.312327086925506592e-02 -7.111303508281707764e-02
2.708338201045989990e-01 -2.412773855030536652e-02 -1.160224154591560364e-01
-1.899458914995193481e-01 3.571650013327598572e-02 7.769249677658081055e-01
2.715150713920593262e-01 7.994464784860610962e-02 5.902985855937004089e-02
8.679443597793579102e-02 -3.691408410668373108e-02 7.359789311885833740e-02
-5.801691208034753799e-03 -1.545505225658416748e-02 2.760045528411865234e-01
2.958300709724426270e-01 -1.138417199254035950e-01 3.601637780666351318e-01
-1.691943109035491943e-01 1.771605946123600006e-02 6.518389582633972168e-01
-6.838181614875793457e-01 6.039831787347793579e-02 2.024569064378738403e-01
2.716984748840332031e-01 -1.183924265205860138e-02 -2.444097995758056641e-01
-4.990188777446746826e-01 8.526355773210525513e-02 1.144792046397924423e-02
-3.893131613731384277e-01 2.146287634968757629e-02 7.467215508222579956e-02
-2.359251491725444794e-02 -1.280953288078308105e-01 5.971109867095947266e-02
-4.092262983322143555e-01 1.023469269275665283e-01 -2.337388321757316589e-02
3.223197758197784424e-01 1.074562296271324158e-01 -1.957466639578342438e-02
-6.410834789276123047e-01 2.770061790943145752e-01 6.443432532250881195e-03
4.720396175980567932e-02 -5.163933709263801575e-02 -5.967414975166320801e-01
3.077517449855804443e-01 -6.350861489772796631e-02 -3.440279662609100342e-01
7.015604376792907715e-01 8.227657526731491089e-02 -3.589820489287376404e-02
3.837623000144958496e-01 -3.261703625321388245e-02 -5.361042544245719910e-02
-1.069919168949127197e-01 1.637978293001651764e-02 7.122596502304077148e-01
-2.561309039592742920e-01 3.055479936301708221e-02 -8.120131492614746094e-01
5.579805374145507812e-02 -1.081738248467445374e-02 -2.395625114440917969e-01
-5.691341161727905273e-01 5.494840443134307861e-02 3.940492868423461914e-02
-1.022974681109189987e-02 -4.089671373367309570e-02 9.104809910058975220e-02
-1.054460257291793823e-01 5.375148262828588486e-03 -4.423098266124725342e-01
-7.039146423339843750e-01 2.179217785596847534e-01 2.198788337409496307e-03
2.625541687011718750e-01 4.941988363862037659e-02 -7.653674483299255371e-02
7.171503305435180664e-01 2.217032201588153839e-02 -6.875489652156829834e-02
-1.049176137894392014e-02 8.160925935953855515e-04 5.173466205596923828e-01
3.504645824432373047e-02 -5.260878428816795349e-02 -8.950648456811904907e-02
-7.779863476753234863e-01 6.574342399835586548e-02 -1.548027386888861656e-03
3.351585268974304199e-01 7.239860296249389648e-02 6.395573914051055908e-02
4.417200386524200439e-01 6.744652241468429565e-02 6.715232878923416138e-02
-1.662073284387588501e-01 2.206551097333431244e-02 -7.860736250877380371e-01
2.984502017498016357e-01 -5.504553392529487610e-02 -9.317470341920852661e-02
8.430529385805130005e-02 5.008326843380928040e-03 -3.366915285587310791e-01
3.150357604026794434e-01 -8.829524368047714233e-02 -3.555042147636413574e-01
1.392498612403869629e-01 2.833605743944644928e-03 -3.252414464950561523e-01
6.608695387840270996e-01 4.569927230477333069e-02 6.851480156183242798e-02
2.047798335552215576e-01 -8.635633438825607300e-02 -3.710941374301910400e-01
3.946883380413055420e-01 -3.699269518256187439e-02 -1.133498623967170715e-01
-7.725888490676879883e-01 5.397894978523254395e-02 -1.809497624635696411e-01
-1.031140908598899841e-01 7.523671258240938187e-03 4.554848670959472656e-01
2.176447659730911255e-01 -1.286110375076532364e-02 3.143635690212249756e-01
-9.142822027206420898e-02 -1.105319429188966751e-02 5.166130065917968750e-01
-4.237899184226989746e-02 -1.295364201068878174e-01 -4.328703135251998901e-02
4.347242712974548340e-01 9.050384908914566040e-02 -4.933958128094673157e-02
4.430825412273406982e-01 -7.370100170373916626e-02 3.395501524209976196e-02
1.118430867791175842e-01 5.846781190484762192e-03 -4.737778306007385254e-01
-1.265644282102584839e-01 3.189107775688171387e-02 7.957638502120971680e-01
1.680453121662139893e-01 -6.825108826160430908e-02 1.120879128575325012e-01
1.049520820379257202e-01 -6.143869459629058838e-02 7.312627136707305908e-02
-2.448642700910568237e-01 3.472083434462547302e-02 9.222647547721862793e-01
2.686328887939453125e-01 -6.694100797176361084e-02 -4.018808901309967041e-01
7.783351838588714600e-02 1.043204497545957565e-02 4.034486711025238037e-01
-7.326315641403198242e-01 3.368504345417022705e-01 -6.133291404694318771e-03
3.434382081031799316e-01 -1.045401841402053833e-01 -3.413292169570922852e-01
2.396802306175231934e-01 -3.007549419999122620e-02 2.355301752686500549e-02
1.910764276981353760e-01 -1.873023808002471924e-02 3.060838878154754639e-01
1.900545805692672729e-01 -7.425124198198318481e-02 8.279463648796081543e-02
3.064154684543609619e-01 -6.667898595333099365e-02 -1.328175812959671021e-01
-1.261976212263107300e-01 1.462427899241447449e-02 5.340632200241088867e-01
3.556219041347503662e-01 -8.457461744546890259e-02 2.947456017136573792e-02
2.085266411304473877e-01 -7.831246405839920044e-02 4.016477614641189575e-02
-1.845745891332626343e-01 1.027483679354190826e-02 -6.206896901130676270e-01
4.117455184459686279e-01 6.031971424818038940e-02 7.147557288408279419e-02
-7.651214003562927246e-01 6.511458754539489746e-02 3.256826102733612061e-01
3.169266879558563232e-02 1.810908690094947815e-02 5.709549188613891602e-01
1.767704039812088013e-01 -2.685270644724369049e-02 -8.429238200187683105e-02
5.285780429840087891e-01 -4.647763818502426147e-02 6.427016109228134155e-02
-1.064678803086280823e-01 1.027483679354190826e-02 6.128249168395996094e-01
6.486815400421619415e-03 1.962877064943313599e-02 -5.514128804206848145e-01
-2.166714370250701904e-01 1.098143681883811951e-01 3.377855755388736725e-03
3.617268502712249756e-01 -7.519448548555374146e-02 7.996486127376556396e-02
3.283985257148742676e-01 -3.010169230401515961e-02 -3.748933076858520508e-01
-3.313554525375366211e-01 6.194420531392097473e-02 9.414704442024230957e-01
1.967097520828247070e-01 -2.449456974864006042e-02 -1.028168499469757080e-01
4.414580762386322021e-01 1.049408838152885437e-01 -2.607263810932636261e-02
1.267037261277437210e-02 -9.623429179191589355e-02 -4.640500992536544800e-02
3.034546971321105957e-01 -8.061820268630981445e-02 3.970555067062377930e-01
2.292258292436599731e-01 -6.610255688428878784e-02 3.310277163982391357e-01
1.063931658864021301e-01 6.501810625195503235e-03 -3.514953851699829102e-01
-3.943176567554473877e-01 -4.181376099586486816e-02 4.262771084904670715e-02
-5.420941710472106934e-01 7.360387593507766724e-02 3.314277157187461853e-02
2.739561907947063446e-02 1.811745227314531803e-03 -5.291416049003601074e-01
4.838303104043006897e-02 -4.503655061125755310e-02 1.470669209957122803e-01
1.543419361114501953e-01 -6.754364073276519775e-02 -1.072711050510406494e-01
2.195312678813934326e-01 -7.556129992008209229e-02 -9.092136472463607788e-02
-1.307304799556732178e-01 -9.327352046966552734e-02 -3.317324817180633545e-02
4.061384201049804688e-01 -5.973558872938156128e-02 -1.914848573505878448e-03
-1.348179131746292114e-01 -4.687064886093139648e-02 -7.787302136421203613e-02
6.580702215433120728e-02 -4.071330651640892029e-02 -1.824694424867630005e-01
1.139130070805549622e-01 -1.293530017137527466e-01 1.350928395986557007e-01
-1.222935989499092102e-01 8.047700859606266022e-03 4.982457160949707031e-01
6.876735687255859375e-01 -5.944737046957015991e-02 -5.012562498450279236e-02
-4.117372632026672363e-02 -3.821576712653040886e-03 6.109122037887573242e-01
-1.966534703969955444e-01 3.948951512575149536e-02 8.902726769447326660e-01
-6.956088542938232422e-01 5.337631702423095703e-02 1.325774937868118286e-01
7.943923473358154297e-01 -6.992797553539276123e-02 2.224294282495975494e-02
2.113564014434814453e-01 -9.900324046611785889e-03 -3.424558639526367188e-01
2.709648311138153076e-01 -1.980449445545673370e-02 1.527002602815628052e-01
6.237463280558586121e-02 -5.236456636339426041e-03 4.416504800319671631e-01
-5.252727866172790527e-01 1.234129518270492554e-01 1.045226305723190308e-02
-7.585710287094116211e-01 4.266168177127838135e-01 -5.785715766251087189e-04
1.543419361114501953e-01 -6.754364073276519775e-02 -1.072711050510406494e-01
-5.660641565918922424e-02 4.353287629783153534e-03 -5.527491569519042969e-01
4.274140298366546631e-01 -3.777873516082763672e-02 -6.335738301277160645e-02
3.900769054889678955e-01 1.046526655554771423e-01 -2.664907090365886688e-02
2.005351781845092773e-01 -2.245084755122661591e-02 -2.897122204303741455e-01
1.281142234802246094e-01 -4.786631092429161072e-02 -1.875787377357482910e-01
1.126291230320930481e-01 -6.505449861288070679e-02 -2.025590464472770691e-02
2.829651236534118652e-01 -2.412773855030536652e-02 3.516744971275329590e-01
-5.174123048782348633e-01 7.596201449632644653e-02 1.168373320251703262e-02
-1.709454134106636047e-02 1.111328229308128357e-02 -4.247547984123229980e-01
3.019917942583560944e-02 -6.612876802682876587e-02 9.723166376352310181e-02
-3.456090390682220459e-01 -6.206752732396125793e-02 2.397224307060241699e-02
-2.052693814039230347e-02 -1.469520106911659241e-02 -7.973332703113555908e-02
4.274140298366546631e-01 -3.777873516082763672e-02 -6.335738301277160645e-02
1.426560580730438232e-01 -1.245581284165382385e-01 1.387086510658264160e-01
-6.710317730903625488e-01 3.508765622973442078e-02 -6.031801179051399231e-02
7.783351838588714600e-02 1.043204497545957565e-02 4.034486711025238037e-01
-5.329498648643493652e-01 7.368247956037521362e-02 3.461005166172981262e-02
-7.979474961757659912e-02 8.817190676927566528e-02 5.090738832950592041e-02
3.269836306571960449e-01 -6.570954620838165283e-02 -1.257431656122207642e-01
-1.683820486068725586e-01 1.876411773264408112e-02 -6.952067613601684570e-01
6.344845890998840332e-01 -8.357897400856018066e-02 4.373513162136077881e-03
3.900769054889678955e-01 1.046526655554771423e-01 -2.664907090365886688e-02
2.249811738729476929e-01 4.674733057618141174e-02 -7.745379954576492310e-02
1.875349204055964947e-03 -1.149683743715286255e-01 6.165000796318054199e-02
2.408068925142288208e-01 -6.578813493251800537e-02 3.098044991493225098e-01
3.160052299499511719e-01 -3.935081511735916138e-02 -3.398881256580352783e-01
1.275901943445205688e-01 -2.902743592858314514e-02 -1.032622754573822021e-01
3.159224288538098335e-03 5.624185723718255758e-05 3.199706971645355225e-01
-1.168698817491531372e-01 1.182071678340435028e-02 6.175935864448547363e-01
-1.733603477478027344e-01 1.983838342130184174e-02 7.214825749397277832e-01
3.113675713539123535e-01 1.078230440616607666e-01 -1.713792420923709869e-02
-1.505650281906127930e-01 4.976050555706024170e-02 7.551060616970062256e-02
7.890734672546386719e-01 -6.400643289089202881e-02 -3.165565140079706907e-04
-2.247677147388458252e-01 -8.389338850975036621e-02 7.177074905484914780e-03
5.136999860405921936e-02 -1.558605208992958069e-02 5.874880552291870117e-01
-1.974133402109146118e-01 5.977781489491462708e-03 6.160739064216613770e-01
-5.403124690055847168e-01 2.207515388727188110e-01 -5.059029441326856613e-03
3.975181281566619873e-01 -6.578813493251800537e-02 8.551958948373794556e-02
3.318615257740020752e-02 -6.867031008005142212e-02 6.350699663162231445e-01
2.501128241419792175e-02 -4.502813797444105148e-03 -2.864632308483123779e-01
2.474096715450286865e-01 -2.239845134317874908e-02 2.667030096054077148e-01
-2.612926065921783447e-01 4.208346456289291382e-02 -8.848794698715209961e-01
-8.642372488975524902e-02 2.631016075611114502e-02 6.349127888679504395e-01
-7.514179944992065430e-01 4.944609105587005615e-02 1.323154866695404053e-01
4.952235221862792969e-01 8.039006590843200684e-02 5.861063301563262939e-02
5.391372442245483398e-01 -1.969969272613525391e-02 -7.821363955736160278e-02
1.214590370655059814e-01 -9.366655349731445312e-02 6.032613515853881836e-01
9.722264111042022705e-02 -7.398921996355056763e-02 -5.717976689338684082e-01
4.563929140567779541e-01 -3.940322995185852051e-02 -3.008146770298480988e-02
8.197029829025268555e-01 -1.092218421399593353e-02 4.598150774836540222e-02
1.020961254835128784e-01 -7.594593334943056107e-03 6.312969923019409180e-01
1.927271187305450439e-01 -8.038238435983657837e-02 -3.649367690086364746e-01
-1.036381199955940247e-01 5.741969682276248932e-03 4.738521277904510498e-01
-4.461966156959533691e-01 4.507043212652206421e-02 6.306488811969757080e-02
1.183148548007011414e-01 -9.035681374371051788e-03 -2.252302914857864380e-01
-5.745053887367248535e-01 2.256250381469726562e-01 -8.727240376174449921e-03
2.332608550786972046e-01 -1.063742786645889282e-01 -3.533557057380676270e-01
-6.316247582435607910e-01 7.876557856798171997e-02 1.917736418545246124e-02
4.387854635715484619e-01 -7.975355535745620728e-02 -8.615269511938095093e-02
1.504117101430892944e-01 -9.036516398191452026e-02 6.086326837539672852e-01
3.216385543346405029e-01 -6.633837521076202393e-02 -1.155004720203578472e-03
-2.208374738693237305e-01 -1.354234106838703156e-02 -8.002154529094696045e-02
2.019762694835662842e-01 -2.404914423823356628e-02 2.800920009613037109e-01
-9.258108586072921753e-02 1.375963632017374039e-02 4.959399998188018799e-01
9.992139041423797607e-02 -1.532404217869043350e-02 -3.391806781291961670e-01
-7.686018198728561401e-02 -9.709894657135009766e-02 -1.469422830268740654e-03
9.795628488063812256e-02 -4.055609926581382751e-02 -2.070726454257965088e-01
6.887260824441909790e-02 -6.494970619678497314e-02 -6.463147401809692383e-01
-5.658589005470275879e-01 5.125398933887481689e-02 -4.108610376715660095e-02
4.552138447761535645e-01 -3.940322995185852051e-02 2.902913279831409454e-02
1.305247694253921509e-01 -3.379610553383827209e-02 -6.531271338462829590e-01
-6.266726255416870117e-01 7.281783223152160645e-02 2.801423193886876106e-03
-4.950580745935440063e-02 -3.452974930405616760e-02 2.249902188777923584e-01
-2.377636581659317017e-01 1.029495596885681152e-01 2.936975285410881042e-02
3.113675713539123535e-01 1.078230440616607666e-01 -1.713792420923709869e-02
4.906426742672920227e-02 4.868623986840248108e-02 -7.669395208358764648e-02
-7.610340118408203125e-01 5.494840443134307861e-02 -1.793776601552963257e-01
3.716878220438957214e-02 -4.011067375540733337e-02 1.677923202514648438e-01
-7.525970339775085449e-01 5.680871009826660156e-02 -2.482614219188690186e-01
-3.606443479657173157e-02 1.292118150740861893e-02 4.518690407276153564e-01
2.012950181961059570e-01 7.420650869607925415e-02 -6.388141214847564697e-02
2.095004916191101074e-02 3.044999763369560242e-02 8.043649047613143921e-02
1.303937584161758423e-01 -3.099254332482814789e-02 -8.573347330093383789e-02
-3.606443479657173157e-02 1.292118150740861893e-02 4.518690407276153564e-01
-7.610340118408203125e-01 5.494840443134307861e-02 -1.793776601552963257e-01
-7.203429937362670898e-01 3.745282292366027832e-01 3.901886288076639175e-03
3.855964541435241699e-01 -5.596258118748664856e-02 1.140530332922935486e-01
3.038215339183807373e-01 -2.394433133304119110e-02 -3.680809140205383301e-01
-6.601275503635406494e-02 -5.463912966661155224e-04 3.882255852222442627e-01
7.455833256244659424e-02 -5.858273804187774658e-02 5.795559659600257874e-02
4.076057076454162598e-01 -8.334315568208694458e-02 2.313379384577274323e-02
-3.278924524784088135e-02 -8.747463114559650421e-03 3.178745508193969727e-01
4.906426742672920227e-02 4.868623986840248108e-02 -7.669395208358764648e-02
6.445983648300170898e-01 -6.010241806507110596e-02 -5.253616347908973694e-02
-8.034498244524002075e-02 -6.310723256319761276e-03 -6.097898483276367188e-01
6.693369895219802856e-02 -4.026788100600242615e-02 1.833298206329345703e-01
-1.893956661224365234e-01 -7.456565648317337036e-02 -6.527009606361389160e-02
1.923865079879760742e-01 -2.148139290511608124e-02 -3.392854928970336914e-01
1.197559386491775513e-01 5.348950158804655075e-03 8.156315237283706665e-02
2.923190593719482422e-01 -2.507100440561771393e-02 1.117996945977210999e-01
3.625915050506591797e-01 -3.002307936549186707e-02 1.135027930140495300e-01
8.329347968101501465e-01 1.261517987586557865e-03 -3.796812146902084351e-02
5.773390531539916992e-01 9.404104948043823242e-02 4.092461615800857544e-02
7.783351838588714600e-02 1.043204497545957565e-02 4.034486711025238037e-01
-5.947853922843933105e-01 1.601296104490756989e-02 -3.681525588035583496e-02
5.259054899215698242e-01 -6.612876802682876587e-02 4.695096239447593689e-02
-7.143428921699523926e-01 5.217104032635688782e-02 -1.332630068063735962e-01
6.339649111032485962e-02 2.440586220473051071e-03 -5.072895288467407227e-01
-6.775297522544860840e-01 5.759475752711296082e-02 1.691547930240631104e-01
1.671544611454010010e-01 -1.029942855238914490e-01 -5.818873178213834763e-03
1.102185919880867004e-01 -2.389193512499332428e-02 -2.827163934707641602e-01
-6.396161317825317383e-01 4.548965767025947571e-02 -4.933958128094673157e-02
8.111309260129928589e-03 -2.292248047888278961e-02 2.423880249261856079e-01
-3.441374003887176514e-02 2.676398027688264847e-03 -5.375261306762695312e-01
3.771595358848571777e-01 -5.889715254306793213e-02 -1.163368299603462219e-01
-4.091171175241470337e-02 -1.212305277585983276e-01 -2.368830144405364990e-02
2.508158683776855469e-01 -8.198067545890808105e-02 -3.298983722925186157e-02
-1.569058001041412354e-01 5.665149912238121033e-02 7.304766774177551270e-02
2.566850185394287109e-01 -9.987630695104598999e-02 7.422672957181930542e-02
6.691753268241882324e-01 9.466988593339920044e-02 -2.101574838161468506e-02
-2.671049349009990692e-02 -9.394108201377093792e-04 -4.811404645442962646e-01
-6.079909801483154297e-01 3.005696833133697510e-02 -3.511215746402740479e-02
5.303597450256347656e-01 -8.355277776718139648e-02 -1.053514517843723297e-02
4.666638970375061035e-01 -8.465322852134704590e-02 3.191129863262176514e-02
-2.514932155609130859e-01 -7.957014441490173340e-02 1.820790953934192657e-02
5.469758808612823486e-02 -8.965772390365600586e-02 6.138205528259277344e-01
-1.661811172962188721e-01 2.442364767193794250e-02 8.132140040397644043e-01
3.951337933540344238e-01 3.765540942549705505e-02 7.944083213806152344e-02
4.019461870193481445e-01 -7.556129992008209229e-02 8.834934979677200317e-02
1.694121770560741425e-02 -1.376850903034210205e-01 -6.133987382054328918e-02
1.707222498953342438e-02 -4.768290743231773376e-02 1.117210909724235535e-01
-3.805574402213096619e-02 1.742784120142459869e-02 -6.050211787223815918e-01
3.079351782798767090e-01 -2.268666028976440430e-02 3.545828461647033691e-01
-3.041844666004180908e-01 -6.086226180195808411e-02 -4.234377667307853699e-02
7.467056512832641602e-01 2.397822216153144836e-02 6.123078614473342896e-02
3.636657595634460449e-01 -5.543854460120201111e-02 -1.315337121486663818e-01
8.897354826331138611e-03 2.028380893170833588e-02 -6.009861230850219727e-01
2.449205219745635986e-01 -8.308113366365432739e-02 1.299380883574485779e-02
-4.492054507136344910e-02 1.680735498666763306e-03 -5.145211815834045410e-01
5.739634856581687927e-02 9.357778355479240417e-03 -3.821511566638946533e-01
6.263664364814758301e-02 -6.205911282449960709e-03 2.611744999885559082e-01
-9.182123839855194092e-02 1.027483679354190826e-02 6.060125231742858887e-01
2.505538463592529297e-01 -6.885372102260589600e-02 -3.955663144588470459e-01
3.305514529347419739e-02 1.551513001322746277e-02 -6.043661236763000488e-01
7.551949024200439453e-01 -2.894882299005985260e-02 5.774598196148872375e-02
4.720396175980567932e-02 -5.163933709263801575e-02 -5.967414975166320801e-01
-4.311569929122924805e-01 -2.281766943633556366e-02 5.101219564676284790e-02
3.676483929157257080e-01 6.449414417147636414e-03 8.156315237283706665e-02
5.236259698867797852e-01 3.893927857279777527e-02 7.899540662765502930e-02
3.643513843417167664e-02 -5.288862623274326324e-03 -4.434364736080169678e-01
2.899391017854213715e-02 -4.692306369543075562e-02 -6.466029882431030273e-01
-6.607869863510131836e-01 4.674733057618141174e-02 -6.773304194211959839e-02
-1.167126744985580444e-01 1.213514246046543121e-02 6.457601785659790039e-01
-5.384783744812011719e-01 1.973274052143096924e-01 6.626843009144067764e-03
-1.036381199955940247e-01 5.741969682276248932e-03 4.738521277904510498e-01
7.474174350500106812e-02 -1.026536673307418823e-01 -3.906163387000560760e-03
-1.947145611047744751e-01 -8.596330881118774414e-02 -2.641534665599465370e-04
-7.531473040580749512e-01 4.108697175979614258e-01 2.958632074296474457e-03
5.688497424125671387e-01 -3.222400695085525513e-02 7.184239476919174194e-02
-1.847317963838577271e-01 3.922749683260917664e-02 -8.593592047691345215e-01
8.666343241930007935e-02 -3.891835222020745277e-04 2.912014126777648926e-01
-1.889240294694900513e-01 7.221519201993942261e-02 -6.500808149576187134e-02
3.052626252174377441e-01 -3.780493512749671936e-02 -3.517574071884155273e-01
-5.214473605155944824e-01 2.586473524570465088e-02 7.646613084943965077e-05
2.820786647498607635e-02 -1.018414124846458435e-01 -4.613603930920362473e-03
4.673975110054016113e-01 -3.948182240128517151e-02 -7.862590253353118896e-03
7.037047762423753738e-03 -1.312919259071350098e-01 2.444386854767799377e-02
1.683073192834854126e-01 -1.029680892825126648e-01 6.759774684906005859e-02
7.077439427375793457e-01 -3.664368996396660805e-03 -7.127024233341217041e-02
-4.875164031982421875e-01 4.750717058777809143e-02 5.475901439785957336e-02
-2.026536315679550171e-01 3.155045211315155029e-02 7.423389554023742676e-01
9.834930300712585449e-02 1.179451867938041687e-02 -4.578734934329986572e-01
2.314529567956924438e-01 -5.321141704916954041e-02 -3.906404376029968262e-01
-6.230568289756774902e-01 1.128799393773078918e-01 -6.893134675920009613e-03
3.033018857240676880e-02 -5.486210808157920837e-02 -2.845697477459907532e-02
1.197559386491775513e-01 5.348950158804655075e-03 8.156315237283706665e-02
-4.984686374664306641e-01 6.328048557043075562e-02 1.202435325831174850e-02
-1.941119283437728882e-01 1.926194876432418823e-02 6.395242214202880859e-01
5.338751524686813354e-02 -4.372647404670715332e-02 -1.579186320304870605e-01
1.341667622327804565e-01 -6.770084798336029053e-02 -6.062002182006835938e-01
1.303937584161758423e-01 -3.099254332482814789e-02 -8.573347330093383789e-02
-1.170532926917076111e-01 1.706101931631565094e-02 -7.233733534812927246e-01
-3.325869143009185791e-01 1.087400987744331360e-01 -1.168801169842481613e-02
-4.220126569271087646e-01 2.866828627884387970e-02 6.969387084245681763e-02
-1.759018898010253906e-01 3.825804218649864197e-02 8.551364541053771973e-01
-1.036381199955940247e-01 5.741969682276248932e-03 4.738521277904510498e-01
-6.535334046930074692e-03 4.772515036165714264e-03 -5.695181488990783691e-01
7.708109617233276367e-01 -1.401480138301849365e-01 -1.753094792366027832e-02
-1.051796227693557739e-02 1.195172686129808426e-02 6.168337464332580566e-01
2.708600163459777832e-01 -2.043333463370800018e-02 -1.498223543167114258e-01
-2.208374738693237305e-01 -1.354234106838703156e-02 -8.002154529094696045e-02
-8.998712897300720215e-02 3.063340485095977783e-02 -8.122681826353073120e-02
2.646240592002868652e-01 -2.432894660159945488e-03 -8.175084739923477173e-02
-4.857347011566162109e-01 1.760779768228530884e-01 -2.045856090262532234e-03
1.910240352153778076e-01 -1.160343177616596222e-02 2.040552049875259399e-01
-7.552958726882934570e-01 5.376933515071868896e-02 1.656700074672698975e-01
6.499478965997695923e-02 -6.149109080433845520e-02 6.434807181358337402e-01
-2.793192565441131592e-01 3.705277293920516968e-02 8.004346489906311035e-02
-1.075683459639549255e-01 1.910473965108394623e-02 7.364960312843322754e-01
-1.658929139375686646e-01 2.790844626724720001e-02 -8.151503652334213257e-02
3.368398174643516541e-02 9.960412047803401947e-03 3.885923922061920166e-01
-3.626965451985597610e-03 -3.057331591844558716e-02 5.945362448692321777e-01
-5.998641252517700195e-02 2.670317888259887695e-02 6.620051264762878418e-01
-4.177635908126831055e-02 -1.223226264119148254e-02 -2.830570340156555176e-01
-1.988544017076492310e-01 -9.847927838563919067e-03 -8.067658543586730957e-02
-5.259758606553077698e-02 7.549879141151905060e-03 4.091867804527282715e-01
3.579276502132415771e-01 -9.280189871788024902e-02 7.723990827798843384e-02
-7.039146423339843750e-01 2.179217785596847534e-01 2.198788337409496307e-03
-2.650088444352149963e-02 1.737544499337673187e-02 5.004466772079467773e-01
2.831267006695270538e-02 -9.979769587516784668e-02 8.386889100074768066e-02
-5.709944367408752441e-01 3.867726773023605347e-02 9.581678360700607300e-02
2.005351781845092773e-01 -2.245084755122661591e-02 -2.897122204303741455e-01
2.191950380802154541e-02 -1.312919259071350098e-01 -4.242238402366638184e-02
-7.660646438598632812e-01 5.971707776188850403e-02 -2.726288139820098877e-01
2.942579686641693115e-01 -6.243435665965080261e-02 1.453638225793838501e-01
-2.116145491600036621e-01 1.086090877652168274e-01 -1.176661625504493713e-02
4.514932036399841309e-01 -8.606812357902526855e-02 -4.142672196030616760e-02
3.844959735870361328e-01 -3.390091657638549805e-02 1.124023348093032837e-01
1.598704457283020020e-01 -5.391886085271835327e-02 3.488185405731201172e-01
-5.935801267623901367e-01 -1.380435004830360413e-02 -1.836244016885757446e-03
7.398189604282379150e-02 -1.220165863633155823e-01 -1.295161843299865723e-01
-1.941119283437728882e-01 1.926194876432418823e-02 6.395242214202880859e-01
-9.234526753425598145e-02 8.576137572526931763e-02 5.360614508390426636e-02
-1.562725752592086792e-02 -1.908865408040583134e-03 3.186344206333160400e-01
-1.372808516025543213e-01 1.506970450282096863e-02 6.053836941719055176e-01
1.063145622611045837e-01 -1.938527636229991913e-02 1.674517095088958740e-01
2.290424257516860962e-01 -1.011863872408866882e-01 2.120183780789375305e-03
-5.955976247787475586e-01 3.482564911246299744e-02 -7.771581411361694336e-02
1.383066028356552124e-01 -9.454898536205291748e-03 -2.220074981451034546e-01
-6.820626258850097656e-01 3.983012959361076355e-02 -1.039697229862213135e-01
8.671583235263824463e-02 -1.028108820319175720e-01 -4.823911562561988831e-02
1.927271187305450439e-01 -8.038238435983657837e-02 -3.649367690086364746e-01
7.228098511695861816e-01 -5.153452605009078979e-02 -5.285058170557022095e-02
3.520366922020912170e-02 -2.811036817729473114e-02 -6.426465511322021484e-01
-7.150765061378479004e-01 4.897445812821388245e-02 1.818101406097412109e-01
-2.761488556861877441e-01 3.529727086424827576e-02 -8.469135165214538574e-01
2.085266411304473877e-01 -7.831246405839920044e-02 4.016477614641189575e-02
1.864431425929069519e-02 9.170911461114883423e-02 -4.776748642325401306e-02
1.279570162296295166e-01 -8.197226561605930328e-03 3.894308507442474365e-01
4.961667954921722412e-01 -7.826006412506103516e-02 -5.135709419846534729e-02
1.141269877552986145e-02 -5.546475946903228760e-02 6.215237975120544434e-01
3.014677762985229492e-02 -3.576121479272842407e-02 -5.873351693153381348e-01
-4.514631330966949463e-01 1.143472269177436829e-01 7.727306336164474487e-03
3.429928123950958252e-01 3.734099119901657104e-02 -8.070278912782669067e-02
-1.307304799556732178e-01 -9.327352046966552734e-02 -3.317324817180633545e-02
9.473788551986217499e-03 -6.654799729585647583e-02 6.056981086730957031e-01
-2.672403454780578613e-01 7.965642958879470825e-02 5.992070585489273071e-02
3.630631268024444580e-01 -5.491452291607856750e-02 -9.094756841659545898e-02
2.137407362461090088e-01 -8.609431982040405273e-02 -3.880726993083953857e-01
1.512763500213623047e-01 6.685226224362850189e-03 -3.996275365352630615e-01
6.312879920005798340e-01 -5.976180732250213623e-02 5.187684670090675354e-02
-1.508532464504241943e-01 3.579510375857353210e-02 -8.059343099594116211e-01
1.438613235950469971e-01 -9.584128111600875854e-02 9.251538664102554321e-02
-4.738916456699371338e-01 1.577369123697280884e-01 -4.403991624712944031e-03
-7.521778941154479980e-01 4.941988363862037659e-02 1.437393277883529663e-01
4.766204357147216797e-01 -7.288874685764312744e-02 1.233877148479223251e-02
3.038215339183807373e-01 -2.394433133304119110e-02 -3.680809140205383301e-01
-5.403124690055847168e-01 2.207515388727188110e-01 -5.059029441326856613e-03
3.632465302944183350e-01 -7.949153333902359009e-02 -1.128803240135312080e-03
3.412373065948486328e-01 -4.131593927741050720e-02 1.725609898567199707e-01
6.196544766426086426e-01 9.501050412654876709e-02 -3.254440799355506897e-02
1.349528133869171143e-01 -1.186544075608253479e-02 -2.029590308666229248e-01
-4.738916456699371338e-01 1.577369123697280884e-01 -4.403991624712944031e-03
2.005351781845092773e-01 -2.245084755122661591e-02 -2.897122204303741455e-01
2.882316112518310547e-01 -9.833042323589324951e-02 -2.905961126089096069e-02
-1.684344708919525146e-01 2.468566596508026123e-02 -6.557996869087219238e-01
-5.566315725445747375e-02 6.797055900096893311e-02 -6.786404550075531006e-02
-3.489104211330413818e-01 1.680735498666763306e-03 7.726611196994781494e-02
2.505014538764953613e-01 -4.852135851979255676e-02 1.943082362413406372e-01
2.556631565093994141e-01 -7.713339477777481079e-02 -9.382972866296768188e-02
1.468745023012161255e-01 -6.083606183528900146e-02 -5.697015523910522461e-01
-7.903796434402465820e-01 6.545520573854446411e-02 -3.261846899986267090e-01
9.101288765668869019e-02 -5.984039977192878723e-02 6.812178343534469604e-02
-1.248307712376117706e-02 2.041481807827949524e-02 -6.430919766426086426e-01
-8.247035741806030273e-01 4.247040748596191406e-01 -2.833993858075700700e-05
3.861728310585021973e-01 -3.547299653291702271e-02 -1.128803240135312080e-03
2.731395661830902100e-01 -8.116842061281204224e-02 9.290841966867446899e-02
-1.562725752592086792e-02 -1.908865408040583134e-03 3.186344206333160400e-01
2.959654666483402252e-02 -3.754291310906410217e-02 -1.805043369531631470e-01
2.907469570636749268e-01 -3.984865546226501465e-02 -2.061032056808471680e-01
1.298916526138782501e-03 -3.348169103264808655e-02 -1.865830719470977783e-01
6.693369895219802856e-02 -4.026788100600242615e-02 1.833298206329345703e-01
2.332608550786972046e-01 -1.063742786645889282e-01 -3.533557057380676270e-01
3.728887140750885010e-01 -8.693275600671768188e-02 -1.299808733165264130e-02
-1.576394140720367432e-01 3.148021409288048744e-03 -6.214495301246643066e-01
-5.904097557067871094e-01 2.824907004833221436e-02 4.013857245445251465e-02
