2.586913406848907471e-01 -1.992047764360904694e-02 1.046479418873786926e-01
1.827836930751800537e-01 -1.213956624269485474e-01 2.846977710723876953e-01
3.472416698932647705e-01 -7.479965686798095703e-02 5.784677714109420776e-02
6.663102507591247559e-01 4.013888165354728699e-02 8.069600164890289307e-02
-4.527261480689048767e-02 -2.327989973127841949e-02 3.303706049919128418e-01
6.366510689258575439e-02 -4.815881140530109406e-03 2.894163727760314941e-01
9.996883869171142578e-01 -2.494679018855094910e-02 8.904033456929028034e-04
6.392154842615127563e-02 -1.091926265507936478e-02 -2.503997981548309326e-01
3.853750228881835938e-01 6.739895790815353394e-02 -7.081153988838195801e-02
4.915033653378486633e-02 -1.262424588203430176e-01 1.508336365222930908e-01
5.162131190299987793e-01 -1.550962869077920914e-02 -8.545453846454620361e-02
-5.224791541695594788e-02 -8.844250440597534180e-02 2.163678221404552460e-02
8.783387541770935059e-01 -2.158736810088157654e-02 -6.940110027790069580e-02
1.008239537477493286e-01 8.852623403072357178e-03 -8.837800472974777222e-02
9.006494879722595215e-01 3.411242738366127014e-02 5.600037798285484314e-02
5.632194280624389648e-01 6.096219271421432495e-02 -7.545319199562072754e-02
1.990150427445769310e-03 -1.471464987844228745e-02 -2.950211763381958008e-01
9.328844547271728516e-01 3.465096652507781982e-02 -4.016640037298202515e-02
-6.437633633613586426e-01 3.062478080391883850e-02 7.861880213022232056e-02
1.068504005670547485e-01 -4.123476333916187286e-03 8.377334475517272949e-02
-5.815755128860473633e-01 1.415724284015595913e-03 -7.399145513772964478e-02
2.045558393001556396e-01 7.437425106763839722e-02 6.133442744612693787e-02
3.811693489551544189e-01 -5.610859952867031097e-03 -8.683934062719345093e-02
1.119280010461807251e-01 -4.315437003970146179e-02 -2.364235669374465942e-01
7.324198726564645767e-03 -2.354012336581945419e-03 -3.625174164772033691e-01
5.560646653175354004e-01 -1.030379999428987503e-02 8.320916444063186646e-02
2.465614974498748779e-01 -5.220687761902809143e-02 3.054698109626770020e-01
2.127620726823806763e-01 -1.287299841642379761e-01 -2.637605667114257812e-01
-7.719857692718505859e-01 6.106477230787277222e-02 -9.341741912066936493e-03
7.418332099914550781e-01 8.119568228721618652e-02 5.233321711421012878e-02
2.127877175807952881e-01 -1.115738227963447571e-01 3.065981566905975342e-01
1.724489480257034302e-01 -7.970155216753482819e-03 2.543090879917144775e-01
-3.241323633119463921e-03 1.669982820749282837e-02 5.301154255867004395e-01
4.225197434425354004e-02 9.980984032154083252e-03 4.479248523712158203e-01
-6.953344345092773438e-01 3.744620829820632935e-02 1.750420033931732178e-01
-7.784224152565002441e-01 3.980550169944763184e-02 1.234453395009040833e-01
-2.174752503633499146e-01 -8.354441076517105103e-02 -3.306287899613380432e-02
8.395130038261413574e-01 5.441909655928611755e-03 -8.063337951898574829e-02
7.876970618963241577e-02 -1.213443800806999207e-01 -1.766462922096252441e-01
4.990569651126861572e-01 3.424065187573432922e-02 -8.568533509969711304e-02
-7.517521977424621582e-01 3.429194539785385132e-02 -7.460692524909973145e-02
-5.060524940490722656e-01 6.788619607686996460e-02 -6.668278574943542480e-02
-1.011404208838939667e-02 -2.779333293437957764e-02 3.190100789070129395e-01
7.284725308418273926e-01 3.883101418614387512e-02 -8.432617783546447754e-02
1.806552112102508545e-01 -8.841686695814132690e-02 2.356912046670913696e-01
8.555408716201782227e-01 -1.379619836807250977e-01 -4.687538021244108677e-04
5.519359111785888672e-01 6.955309212207794189e-02 -6.909336894750595093e-02
9.516563415527343750e-01 -1.709958538413047791e-02 -4.483369365334510803e-02
2.745511196553707123e-02 -5.084770545363426208e-02 1.965064406394958496e-01
2.146597653627395630e-01 -8.051835745573043823e-02 6.930986046791076660e-02
-1.729449629783630371e-02 -4.038476943969726562e-02 -1.833907961845397949e-01
2.318415641784667969e-01 -4.866793006658554077e-02 -3.040736913681030273e-01
-1.192312836647033691e-01 -5.072330590337514877e-03 -5.482347011566162109e-01
8.114836215972900391e-01 -8.782704174518585205e-02 -1.520177116617560387e-03
-6.050401926040649414e-01 2.057214826345443726e-02 -7.486336678266525269e-02
3.996590077877044678e-01 9.099187701940536499e-02 -3.716599568724632263e-02
5.400863941758871078e-03 -3.976929560303688049e-02 2.285107374191284180e-01
-7.987841367721557617e-01 5.270467326045036316e-02 -2.938671708106994629e-01
5.107367038726806641e-02 -6.867061555385589600e-02 -1.302810758352279663e-01
-6.850252747535705566e-01 2.064908109605312347e-02 -7.329905778169631958e-02
2.035159245133399963e-02 -4.553931578993797302e-02 -1.056367382407188416e-01
8.425647020339965820e-01 -1.402956396341323853e-01 1.017370261251926422e-02
-1.521844267845153809e-01 4.800796508789062500e-03 8.469653874635696411e-02
5.922746062278747559e-01 8.894031494855880737e-02 -4.232053086161613464e-02
-2.613272964954376221e-01 5.367916449904441833e-02 -7.935114949941635132e-02
-1.292343251407146454e-03 -5.028352513909339905e-02 8.469653874635696411e-02
2.203784883022308350e-01 -8.315975964069366455e-02 2.587968707084655762e-01
4.120196104049682617e-01 -7.082474976778030396e-02 -5.429650470614433289e-02
8.797606825828552246e-02 -1.330419909209012985e-02 -4.015996456146240234e-01
-6.127591729164123535e-01 3.842070326209068298e-02 6.933550536632537842e-02
-1.277965307235717773e-01 2.188001386821269989e-02 6.314623355865478516e-01
7.671186327934265137e-01 5.973125994205474854e-02 -7.609430700540542603e-02
-7.178900390863418579e-02 5.185460671782493591e-03 -4.839440286159515381e-01
-4.750368371605873108e-02 -2.310039289295673370e-02 -3.325390517711639404e-01
1.942467689514160156e-01 -3.576876223087310791e-02 -2.272428423166275024e-01
2.137878537178039551e-01 2.275192551314830780e-02 8.490169793367385864e-02
1.627412065863609314e-02 -4.459046199917793274e-02 -2.010342031717300415e-01
2.997994124889373779e-01 -9.764888137578964233e-02 -3.066124916076660156e-01
-3.606625273823738098e-02 -1.097055431455373764e-02 4.595674574375152588e-01
1.372134536504745483e-01 -1.078553721308708191e-01 2.556938827037811279e-01
6.666436195373535156e-01 -8.523695170879364014e-02 -2.903669700026512146e-02
-9.627947211265563965e-02 -8.954522758722305298e-02 6.121875718235969543e-03
8.293834328651428223e-01 5.696165561676025391e-02 6.813021749258041382e-02
9.649145007133483887e-01 -1.066282298415899277e-02 -4.014075174927711487e-02
-1.106147319078445435e-01 -5.436099320650100708e-02 -8.053079992532730103e-02
-4.141427278518676758e-01 -3.328497754409909248e-03 -8.640338480472564697e-02
-5.905767083168029785e-01 8.804275840520858765e-02 -1.659912802278995514e-02
8.938792943954467773e-01 6.209054961800575256e-02 3.892115876078605652e-02
1.090301796793937683e-01 -8.313409239053726196e-02 -6.717003136873245239e-02
2.923112213611602783e-01 -5.600225180387496948e-02 2.328959405422210693e-01
2.013502866029739380e-01 -5.505339801311492920e-02 3.021616637706756592e-01
3.191724792122840881e-02 -1.017557550221681595e-02 2.880572080612182617e-01
-2.095511108636856079e-01 8.960707485675811768e-02 3.740813583135604858e-02
-1.999087929725646973e-01 2.854757569730281830e-02 -7.427480816841125488e-01
7.243179678916931152e-01 -8.969908952713012695e-02 -7.444051094353199005e-03
-7.647539973258972168e-01 6.296246498823165894e-02 2.044404391199350357e-03
7.997640371322631836e-01 9.588996320962905884e-02 1.168672647327184677e-02
1.890409290790557861e-01 -2.130527794361114502e-02 2.729782462120056152e-01
-3.968070447444915771e-01 8.742728829383850098e-02 4.174204915761947632e-02
-6.300178766250610352e-01 1.080197989940643311e-01 -1.318841241300106049e-02
-3.668171539902687073e-02 -1.507741748355329037e-03 -5.341046452522277832e-01
2.286872863769531250e-01 -6.638827174901962280e-02 -8.683934062719345093e-02
4.600773751735687256e-01 8.399093151092529297e-02 4.776850342750549316e-02
2.946705222129821777e-01 -5.941295623779296875e-02 -8.065902441740036011e-02
1.573187261819839478e-01 -8.141593635082244873e-02 3.077778220176696777e-01
-2.138850241899490356e-01 2.716277539730072021e-02 7.462213635444641113e-01
-1.392596065998077393e-01 9.199200570583343506e-02 -3.460154682397842407e-02
4.361113160848617554e-02 -1.115225404500961304e-01 -1.478475481271743774e-01
1.901179999113082886e-01 -1.251910328865051270e-01 2.604124546051025391e-01
7.987382411956787109e-01 8.927369117736816406e-02 3.610026463866233826e-02
-5.446748342365026474e-03 -2.969102188944816589e-02 3.039567768573760986e-01
-6.267372984439134598e-03 -4.728313907980918884e-02 -1.339482367038726807e-01
-6.753573417663574219e-01 3.077864646911621094e-02 -4.975743219256401062e-02
-6.153492927551269531e-01 2.549588494002819061e-02 6.164215877652168274e-02
7.656427472829818726e-02 -5.779735743999481201e-02 1.498848050832748413e-01
-8.725119829177856445e-01 3.272287547588348389e-01 -8.021319517865777016e-04
9.130614399909973145e-01 -4.918082803487777710e-02 3.586946427822113037e-02
-3.577505052089691162e-01 2.046957425773143768e-02 8.500427752733230591e-02
4.990569651126861572e-01 3.424065187573432922e-02 -8.568533509969711304e-02
-7.565733194351196289e-01 -3.918328788131475449e-03 -2.242042124271392822e-02
6.163919344544410706e-02 -2.102318778634071350e-02 2.777481377124786377e-01
-4.819723665714263916e-01 8.034942299127578735e-02 4.974312335252761841e-02
1.747826039791107178e-01 -1.203442439436912537e-01 -2.668635547161102295e-01
-1.023572087287902832e-01 1.134013384580612183e-02 6.373862624168395996e-01
1.734491139650344849e-01 -6.228514015674591064e-02 3.021360337734222412e-01
-5.086682438850402832e-01 -6.056695803999900818e-02 -2.570291608572006226e-02
9.056757092475891113e-01 6.075703725218772888e-02 3.166377171874046326e-02
7.664120942354202271e-02 -4.777037724852561951e-02 2.043536454439163208e-01
-6.710234880447387695e-01 -2.115141227841377258e-02 3.038154914975166321e-02
-9.703732095658779144e-03 -4.959114268422126770e-02 -1.675425022840499878e-01
9.033536165952682495e-02 -3.769209980964660645e-02 2.632846534252166748e-01
1.481636464595794678e-01 -6.107985600829124451e-02 1.422170996665954590e-01
1.517025828361511230e-01 -5.895135924220085144e-02 -2.576315402984619141e-01
-7.918088436126708984e-01 3.344567492604255676e-02 7.505422085523605347e-02
9.500406980514526367e-01 4.057483747601509094e-02 1.060965843498706818e-02
-2.019232138991355896e-02 -3.764081001281738281e-02 -2.317049950361251831e-01
2.810020148754119873e-01 -5.079642683267593384e-02 -1.036108210682868958e-01
-6.690744757652282715e-01 3.026575781404972076e-02 -1.335122883319854736e-01
9.205354750156402588e-02 -1.411162465810775757e-01 1.227272972464561462e-01
9.466556310653686523e-01 4.926831647753715515e-02 -3.918203874491155148e-04
7.867110371589660645e-01 -1.071411464363336563e-02 -8.535196632146835327e-02
3.293162286281585693e-01 9.819796681404113770e-02 -6.226206314750015736e-04
-6.586627364158630371e-01 1.852059364318847656e-02 5.925722420215606689e-02
-2.955626547336578369e-01 -3.366591408848762512e-02 7.749044895172119141e-02
2.188398092985153198e-01 -1.304225027561187744e-01 -2.775829434394836426e-01
-3.696380555629730225e-02 2.090553008019924164e-02 -5.869578719139099121e-01
-2.398115843534469604e-01 -2.230541408061981201e-02 8.072164654731750488e-02
7.033665776252746582e-01 5.096084624528884888e-02 7.782382518053054810e-02
8.387295156717300415e-02 -7.685121148824691772e-02 -7.804328203201293945e-02
4.296630322933197021e-01 8.496541529893875122e-02 -4.929582774639129639e-02
1.901179999113082886e-01 -1.251910328865051270e-01 2.604124546051025391e-01
2.130954712629318237e-01 -4.294922202825546265e-02 1.870436221361160278e-01
-5.684455633163452148e-01 -5.177092179656028748e-02 -2.366444794461131096e-03
-2.834726311266422272e-02 -5.736140161752700806e-02 1.076226979494094849e-01
2.573693171143531799e-02 -1.702265255153179169e-02 2.480005472898483276e-01
-6.360841542482376099e-02 -3.202466666698455811e-02 3.784027099609375000e-01
2.040429562330245972e-01 -4.335951805114746094e-02 -2.686842978000640869e-01
5.566403269767761230e-02 -7.061960548162460327e-02 -8.496729284524917603e-02
4.082498848438262939e-01 -6.074648350477218628e-02 6.118056178092956543e-02
5.374069884419441223e-02 -4.194907471537590027e-02 -2.822245955467224121e-01
-6.940007805824279785e-01 1.189956367015838623e-01 -9.290453046560287476e-03
9.454105794429779053e-02 -3.928205743432044983e-02 2.518215775489807129e-01
4.679502546787261963e-01 -5.725883692502975464e-02 -6.719566881656646729e-02
2.654614746570587158e-01 -5.582274496555328369e-02 2.344346195459365845e-01
-7.782941460609436035e-01 4.311363771557807922e-02 2.155089974403381348e-01
3.457286655902862549e-01 -2.310039289295673370e-02 8.110632002353668213e-02
9.016734547913074493e-03 -1.386031061410903931e-01 -1.379744112491607666e-01
4.356638491153717041e-01 6.996340304613113403e-02 6.551447510719299316e-02
1.232885122299194336e-01 -8.041580021381378174e-02 2.922116219997406006e-01
-8.515861034393310547e-01 1.611000671982765198e-02 1.967471092939376831e-03
1.392137259244918823e-01 -7.910793274641036987e-02 2.951607406139373779e-01
1.746800392866134644e-01 -9.759757667779922485e-02 2.363066673278808594e-01
6.331775784492492676e-01 -6.974769383668899536e-02 5.228193104267120361e-02
-2.338877171277999878e-01 -1.251302193850278854e-03 -8.727529644966125488e-02
-7.819871306419372559e-01 5.947481468319892883e-02 4.788362886756658554e-03
-7.577787041664123535e-01 2.258818000555038452e-01 -8.085162378847599030e-03
-8.359174728393554688e-01 2.928908169269561768e-01 1.069914549589157104e-03
5.266362801194190979e-02 -1.285504549741744995e-01 1.293435692787170410e-01
5.197123065590858459e-02 9.596690535545349121e-02 -2.111255377531051636e-02
-1.120251789689064026e-01 2.526508644223213196e-02 6.367707848548889160e-01
9.251514077186584473e-02 -2.325425855815410614e-02 3.495270311832427979e-01
2.825919687747955322e-01 -1.004954054951667786e-01 -2.278326749801635742e-01
3.535360842943191528e-02 -5.566888302564620972e-02 1.542699933052062988e-01
7.671186327934265137e-01 5.973125994205474854e-02 -7.609430700540542603e-02
-6.963345408439636230e-01 1.438194811344146729e-01 -9.880275465548038483e-03
-2.091036736965179443e-02 -2.110012061893939972e-02 3.747611641883850098e-01
3.015176057815551758e-01 -7.102991640567779541e-02 3.011615276336669922e-01
2.652050256729125977e-01 -9.859771281480789185e-02 -3.199476301670074463e-01
5.902230739593505859e-01 -6.992720067501068115e-02 -5.534792691469192505e-02
-5.055395960807800293e-01 8.514493703842163086e-02 -4.396178200840950012e-02
-1.616216003894805908e-01 6.845037639141082764e-02 -6.996528059244155884e-02
-1.663658320903778076e-01 8.286257088184356689e-02 -5.298863351345062256e-02
1.889383494853973389e-01 -1.358628924936056137e-02 -1.363331824541091919e-01
-1.663658320903778076e-01 8.286257088184356689e-02 -5.298863351345062256e-02
9.987510740756988525e-02 -9.816552512347698212e-03 -2.254477292299270630e-01
-6.901939213275909424e-02 -3.020391054451465607e-02 8.041391521692276001e-02
-4.659701883792877197e-01 8.701698482036590576e-02 3.866471350193023682e-02
3.014406561851501465e-01 -1.386837940663099289e-02 8.302965015172958374e-02
2.227492630481719971e-02 -1.343204677104949951e-01 1.255481839179992676e-01
-2.786001935601234436e-02 -5.533927120268344879e-03 -5.065111517906188965e-01
2.319184988737106323e-01 -1.161385476589202881e-01 2.981098294258117676e-01
1.531386822462081909e-01 -1.158602628856897354e-02 1.690412163734436035e-01
6.035581827163696289e-01 -6.964510679244995117e-02 5.243579670786857605e-02
-7.275951504707336426e-01 3.224037960171699524e-02 -5.542486160993576050e-02
-2.537250518798828125e-02 -2.781897410750389099e-02 3.811210095882415771e-01
-7.572914361953735352e-01 2.959900349378585815e-02 -3.767888247966766357e-02
6.050968766212463379e-01 2.982980199158191681e-02 -8.694192022085189819e-02
-3.805228173732757568e-01 -7.688065059483051300e-03 -8.658289909362792969e-02
2.944910228252410889e-01 -6.036181002855300903e-02 3.092908263206481934e-01
-1.053063273429870605e-01 6.647575646638870239e-02 6.828407943248748779e-02
3.777073323726654053e-01 -7.082474976778030396e-02 -5.429650470614433289e-02
-7.819871306419372559e-01 5.947481468319892883e-02 4.788362886756658554e-03
6.135082840919494629e-01 6.911713629961013794e-02 -6.942674517631530762e-02
2.184551656246185303e-01 9.789023548364639282e-02 -6.879872176796197891e-03
6.230594962835311890e-02 -1.296788156032562256e-01 -1.751332581043243408e-01
-7.278516292572021484e-01 3.103509545326232910e-02 -1.411543339490890503e-01
-6.734853386878967285e-01 -2.482236828655004501e-03 -5.565565824508666992e-02
-3.103992901742458344e-02 1.964894495904445648e-02 -5.608261823654174805e-01
1.952981799840927124e-01 -2.666497230529785156e-02 -8.819849789142608643e-02
-2.298615425825119019e-01 4.755013436079025269e-02 -8.176173269748687744e-02
5.715795755386352539e-01 -2.687394153326749802e-03 -8.709578961133956909e-02
3.943108022212982178e-02 -6.638827174901962280e-02 9.321051090955734253e-02
2.137878537178039551e-01 2.275192551314830780e-02 8.490169793367385864e-02
9.969559311866760254e-02 9.801845997571945190e-02 -5.187336821109056473e-03
-8.342249393463134766e-01 3.145090937614440918e-01 -5.495070479810237885e-03
3.440617918968200684e-01 -7.615880668163299561e-02 -5.488632619380950928e-02
3.383943736553192139e-01 -7.282502204179763794e-02 6.938679516315460205e-02
8.295117020606994629e-01 -8.485227823257446289e-02 2.762449672445654869e-03
-5.446748342365026474e-03 -2.969102188944816589e-02 3.039567768573760986e-01
-6.153492927551269531e-01 2.549588494002819061e-02 6.164215877652168274e-02
-3.491339981555938721e-01 -6.787564605474472046e-02 5.305126309394836426e-02
5.422794073820114136e-02 -7.118378579616546631e-02 -1.105861291289329529e-01
2.519839815795421600e-02 -2.887040190398693085e-02 3.228824138641357422e-01
-1.798548102378845215e-01 7.893896847963333130e-02 5.530797690153121948e-02
8.130850642919540405e-02 -3.397364541888237000e-02 2.908780872821807861e-01
7.324198726564645767e-03 -2.354012336581945419e-03 -3.625174164772033691e-01
-6.300178766250610352e-01 2.752179838716983795e-02 -8.278751373291015625e-02
8.887504935264587402e-01 -3.253755345940589905e-02 -6.368237733840942383e-02
-1.244769152253866196e-02 -4.072194453328847885e-03 -5.096910595893859863e-01
3.176338225603103638e-02 1.159658282995223999e-02 4.769031107425689697e-01
1.555492579936981201e-01 -7.295324653387069702e-02 -8.340298384428024292e-02
-2.991529107093811035e-01 -6.756791472434997559e-02 -5.806624144315719604e-02
5.389456450939178467e-02 1.441374886780977249e-03 3.427055776119232178e-01
5.481405258178710938e-01 -7.592801749706268311e-02 4.415263235569000244e-02
-5.047446489334106445e-01 1.200689747929573059e-02 7.884960621595382690e-02
9.010084867477416992e-01 -5.474566668272018433e-02 -3.924319893121719360e-02
-7.278516292572021484e-01 3.103509545326232910e-02 -1.411543339490890503e-01
2.872336208820343018e-01 -1.241909042000770569e-01 -2.996115386486053467e-01
-1.206160709261894226e-01 7.878137752413749695e-03 -6.066271662712097168e-01
-3.084105551242828369e-01 -7.290196418762207031e-02 -5.188592150807380676e-02
1.299047917127609253e-01 -7.780006527900695801e-02 -2.800191640853881836e-01
4.345867633819580078e-01 -4.559432156383991241e-03 -8.691626787185668945e-02
1.900154352188110352e-01 -1.172925531864166260e-01 -2.986883521080017090e-01
-4.270418882369995117e-01 -2.097189612686634064e-02 7.823413610458374023e-02
-6.745623350143432617e-01 2.549588494002819061e-02 1.068277209997177124e-01
4.444342255592346191e-01 -9.457529522478580475e-03 8.328609913587570190e-02
-8.489333093166351318e-02 -1.027815882116556168e-02 -4.391944110393524170e-01
2.286872863769531250e-01 -2.009998448193073273e-02 -2.084967344999313354e-01
-7.593686580657958984e-01 3.621527180075645447e-02 8.903045952320098877e-02
9.036754965782165527e-01 1.444311533123254776e-02 6.202682852745056152e-02
-3.650220856070518494e-02 -1.792020536959171295e-02 3.968410491943359375e-01
7.476916164159774780e-02 -1.432703882455825806e-01 1.610144823789596558e-01
-7.076693773269653320e-01 2.441881597042083740e-02 -9.255805611610412598e-02
-8.119142055511474609e-01 1.732337027788162231e-01 -1.032932195812463760e-03
-7.868082523345947266e-01 2.095681056380271912e-02 3.358710929751396179e-02
1.714603230357170105e-02 2.893224917352199554e-02 -8.717271685600280762e-02
1.755775809288024902e-01 -6.118243932723999023e-02 1.357033997774124146e-01
-7.847054600715637207e-01 1.570520401000976562e-01 5.057361559011042118e-04
5.686932057142257690e-02 -2.212589792907238007e-02 1.818121522665023804e-01
3.126216530799865723e-01 1.628952287137508392e-02 8.515814691781997681e-02
-1.140510961413383484e-01 9.211646392941474915e-03 -5.448496341705322266e-01
-9.589661494828760624e-04 -5.510469898581504822e-02 -2.005725800991058350e-01
-7.101569175720214844e-01 2.072601392865180969e-02 -5.504019185900688171e-02
6.707581877708435059e-02 -2.943457290530204773e-02 -1.337943673133850098e-01
3.535360842943191528e-02 -5.566888302564620972e-02 1.542699933052062988e-01
-4.001151919364929199e-01 -7.621010392904281616e-02 -3.996124118566513062e-02
-1.736232042312622070e-01 2.780388854444026947e-02 -7.751113772392272949e-01
-2.288101017475128174e-01 -8.831427991390228271e-02 -1.788135059177875519e-02
3.440617918968200684e-01 -7.615880668163299561e-02 -5.488632619380950928e-02
3.156220614910125732e-01 -8.213395625352859497e-02 2.277414202690124512e-01
2.213529795408248901e-01 6.478322297334671021e-02 6.964323669672012329e-02
-8.155954629182815552e-02 -8.572418987751007080e-02 2.809919230639934540e-02
2.124914713203907013e-02 1.159658282995223999e-02 -4.631206989288330078e-01
-6.935277581214904785e-02 -1.563785225152969360e-02 -3.669283092021942139e-01
-4.956665039062500000e-01 -1.099619548767805099e-02 -7.694057375192642212e-02
2.224813252687454224e-01 -4.961678385734558105e-02 -1.656960994005203247e-01
-6.507898569107055664e-01 -2.943457290530204773e-02 -1.911228522658348083e-02
-6.335196644067764282e-02 1.623823121190071106e-02 -6.445810198783874512e-01
2.312119491398334503e-02 -5.731011927127838135e-02 8.510685712099075317e-02
-6.852560639381408691e-01 1.742851138114929199e-01 -1.154716592282056808e-02
-2.116283178329467773e-01 -9.692120365798473358e-04 8.405543863773345947e-02
9.350111708045005798e-03 1.459698099642992020e-02 -5.033568739891052246e-01
1.857327967882156372e-01 -1.078553721308708191e-01 -3.002783060073852539e-01
1.555492579936981201e-01 -7.295324653387069702e-02 -8.340298384428024292e-02
8.229979872703552246e-01 -4.418014734983444214e-02 6.825843453407287598e-02
3.383943736553192139e-01 -7.282502204179763794e-02 6.938679516315460205e-02
3.229564130306243896e-01 5.119165033102035522e-02 -8.068466186523437500e-02
2.429969012737274170e-01 9.776201099157333374e-02 -8.674985729157924652e-03
-7.131315469741821289e-01 -1.899727433919906616e-02 -8.110807277262210846e-03
7.115329056978225708e-02 -2.356198988854885101e-02 3.578101694583892822e-01
-3.419420495629310608e-02 2.026441693305969238e-02 -5.695452690124511719e-01
2.300720959901809692e-01 -8.751931041479110718e-02 -3.216401338577270508e-01
2.081319130957126617e-02 8.903915062546730042e-03 -4.299111068248748779e-01
-1.569029986858367920e-01 1.334040611982345581e-02 6.124854683876037598e-01
8.334609270095825195e-01 -8.149285614490509033e-02 -1.939437538385391235e-02
3.535360842943191528e-02 -5.566888302564620972e-02 1.542699933052062988e-01
4.426904022693634033e-01 5.301240459084510803e-02 -8.094111084938049316e-02
6.540893018245697021e-02 -1.404789555817842484e-02 -4.168580770492553711e-01
-7.712933421134948730e-01 2.359344512224197388e-01 4.480629228055477142e-03
7.212778180837631226e-02 -3.024578327313065529e-04 3.187792897224426270e-01
-7.076693773269653320e-01 2.441881597042083740e-02 -9.255805611610412598e-02
1.803474575281143188e-01 -3.661503270268440247e-02 8.515814691781997681e-02
8.556434512138366699e-01 -1.302430033683776855e-01 6.557832006365060806e-03
5.482174158096313477e-01 8.173421770334243774e-02 -5.483503639698028564e-02
-5.014877915382385254e-01 -3.723049536347389221e-02 6.010349467396736145e-02
-4.770884290337562561e-02 -2.310039289295673370e-02 3.020077943801879883e-01
4.869784116744995117e-01 4.019017145037651062e-02 -8.458262681961059570e-02
-1.631602644920349121e-01 1.508422847837209702e-02 8.520943671464920044e-02
-3.224522247910499573e-02 1.970023661851882935e-02 8.502992242574691772e-02
-2.834726311266422272e-02 -5.736140161752700806e-02 1.076226979494094849e-01
-3.419420495629310608e-02 2.026441693305969238e-02 -5.695452690124511719e-01
-7.250705361366271973e-02 6.698485463857650757e-03 -4.939453899860382080e-01
-1.193851456046104431e-01 -7.303018867969512939e-02 -6.370802223682403564e-02
-5.486562149599194527e-04 2.954390132799744606e-03 -3.994454741477966309e-01
-6.436863541603088379e-01 5.441909655928611755e-03 6.092412024736404419e-02
1.288789957761764526e-01 -1.304775942116975784e-02 -3.632611334323883057e-01
3.814885765314102173e-02 5.021715909242630005e-02 7.774689048528671265e-02
1.844249516725540161e-01 -9.675132483243942261e-02 -3.091256618499755859e-01
2.825919687747955322e-01 -1.224727183580398560e-01 -2.703512012958526611e-01
1.659865528345108032e-01 -1.173438355326652527e-01 -2.633502483367919922e-01
1.287251263856887817e-01 -8.457393385469913483e-03 8.418364822864532471e-02
6.713879108428955078e-01 -6.579844653606414795e-02 -6.011779978871345520e-02
-2.525056004524230957e-01 -2.053594030439853668e-02 -8.435183018445968628e-02
-6.098357439041137695e-01 1.054040640592575073e-01 1.071223616600036621e-02
8.665166497230529785e-01 -7.515867054462432861e-02 -2.167673222720623016e-02
-4.660613462328910828e-02 -5.623304098844528198e-02 2.024046629667282104e-01
-2.016526162624359131e-01 2.008490078151226044e-02 -8.824978768825531006e-02
-1.383364051580429077e-01 9.468468278646469116e-02 2.335496246814727783e-02
-1.711498573422431946e-02 -2.656239829957485199e-02 -2.543490529060363770e-01
7.212919592857360840e-01 8.683746308088302612e-02 -4.601333662867546082e-02
6.802608370780944824e-01 9.786459058523178101e-02 4.070317838340997696e-03
2.827458381652832031e-01 -1.031111553311347961e-01 -3.173318803310394287e-01
-5.868839025497436523e-01 -4.351340234279632568e-02 3.056105971336364746e-02
1.086968034505844116e-01 -4.925775155425071716e-02 2.004044055938720703e-01
7.656427472829818726e-02 -5.779735743999481201e-02 1.498848050832748413e-01
2.972606122493743896e-01 7.578469812870025635e-02 -6.270788609981536865e-02
-1.708279699087142944e-01 1.659725420176982880e-02 6.663901209831237793e-01
-7.926551699638366699e-01 3.667687997221946716e-02 -1.049186885356903076e-01
9.251514077186584473e-02 -2.325425855815410614e-02 3.495270311832427979e-01
-2.426581233739852905e-01 -6.043875217437744141e-02 6.143700703978538513e-02
-8.418412804603576660e-01 2.297797650098800659e-01 -1.648399629630148411e-03
2.946705222129821777e-01 -5.941295623779296875e-02 -8.065902441740036011e-02
4.130312800407409668e-02 -3.261448815464973450e-02 -1.488220244646072388e-01
-2.256558537483215332e-01 3.149669244885444641e-02 -7.848049998283386230e-01
-6.436863541603088379e-01 5.441909655928611755e-03 6.092412024736404419e-02
-1.479787379503250122e-01 -6.559327989816665649e-02 -6.034860014915466309e-02
1.476109772920608521e-02 -1.530922204256057739e-01 -1.272806674242019653e-01
-8.354558348655700684e-01 5.429463088512420654e-02 -2.588368356227874756e-01
-1.137433648109436035e-01 1.972587779164314270e-02 -8.827543258666992188e-02
1.977600753307342529e-01 -7.038879394531250000e-02 -3.148443698883056641e-01
2.020683437585830688e-01 -4.605219513177871704e-02 2.556682527065277100e-01
5.707447975873947144e-02 -6.023358553647994995e-02 1.353956609964370728e-01
1.613705605268478394e-01 -1.058589015156030655e-02 -1.817239075899124146e-01
2.887703245505690575e-03 -4.587268829345703125e-02 1.944548785686492920e-01
-1.883316226303577423e-02 -2.635724097490310669e-02 -3.302310407161712646e-01
9.469377994537353516e-01 3.685638681054115295e-02 -2.380522340536117554e-02
6.666436195373535156e-01 -8.523695170879364014e-02 -2.903669700026512146e-02
-1.865993142127990723e-01 3.044527396559715271e-02 -7.414145469665527344e-01
-1.446962356567382812e-01 9.160354733467102051e-03 -6.049090027809143066e-01
9.019829630851745605e-01 -1.227842178195714951e-02 6.230891868472099304e-02
1.050296425819396973e-01 -3.035777620971202850e-02 3.052133619785308838e-01
-6.091574206948280334e-02 -8.733978867530822754e-02 -3.206274285912513733e-02
-6.383523344993591309e-01 1.662289537489414215e-02 -5.198850110173225403e-02
8.185102343559265137e-01 -8.164671808481216431e-02 -2.626709267497062683e-02
7.621435523033142090e-01 9.776201099157333374e-02 5.224319174885749817e-03
-1.192312836647033691e-01 -5.072330590337514877e-03 -5.482347011566162109e-01
-7.335331290960311890e-02 -1.476594153791666031e-02 3.963025212287902832e-01
3.996590077877044678e-01 9.099187701940536499e-02 -3.716599568724632263e-02
1.701409518718719482e-01 -1.210622861981391907e-01 2.725166678428649902e-01
-6.773318648338317871e-01 5.906450003385543823e-02 -5.314250290393829346e-02
-8.582025170326232910e-01 2.973785996437072754e-01 -2.545956056565046310e-03
2.947987318038940430e-01 -8.087739348411560059e-02 -3.194859921932220459e-01
-2.061676234006881714e-03 -1.363758090883493423e-02 4.421292245388031006e-01
7.212919592857360840e-01 8.683746308088302612e-02 -4.601333662867546082e-02
7.417934387922286987e-02 -1.406546533107757568e-01 -1.316658854484558105e-01
2.127877175807952881e-01 -1.115738227963447571e-01 3.065981566905975342e-01
2.014643512666225433e-02 1.646522665396332741e-03 3.692732453346252441e-01
-4.157839715480804443e-01 -5.448921769857406616e-02 -6.429784744977951050e-02
-3.729064166545867920e-01 -3.343511745333671570e-02 -8.014613389968872070e-02
6.713879108428955078e-01 -6.579844653606414795e-02 -6.011779978871345520e-02
-1.009980589151382446e-01 7.057508453726768494e-03 -6.038062572479248047e-01
-1.321048140525817871e-01 1.752045750617980957e-02 -6.908180117607116699e-01
3.140321075916290283e-01 -5.764725618064403534e-03 -8.683934062719345093e-02
4.426391422748565674e-01 -5.574580281972885132e-02 6.515545397996902466e-02
3.649876713752746582e-01 9.614641219377517700e-02 -2.026628702878952026e-02
2.223787605762481689e-01 -1.533011160790920258e-02 -1.379744112491607666e-01
-6.547134518623352051e-01 2.934255450963973999e-02 1.174958273768424988e-01
-2.038836777210235596e-01 -5.841283872723579407e-02 6.302696466445922852e-02
-7.469053864479064941e-01 3.426629304885864258e-02 -1.575155109167098999e-01
-8.362508416175842285e-01 3.399997353553771973e-01 3.326628124341368675e-03
2.075819075107574463e-01 -8.695513010025024414e-02 -4.783409461379051208e-02
-4.163737893104553223e-01 4.634484648704528809e-02 7.836236059665679932e-02
4.708463791757822037e-03 -2.566483616828918457e-02 2.294852435588836670e-01
1.328538954257965088e-01 -3.097699256613850594e-03 3.265751898288726807e-01
-6.957446932792663574e-01 4.016452655196189880e-02 -1.678245961666107178e-01
-2.338877171277999878e-01 9.796717017889022827e-02 2.736805705353617668e-03
-7.782941460609436035e-01 4.311363771557807922e-02 2.155089974403381348e-01
4.189692735671997070e-01 -3.705098852515220642e-02 7.597742229700088501e-02
-4.856927320361137390e-03 -4.508150275796651840e-03 3.626826107501983643e-01
-6.925904154777526855e-01 2.185437455773353577e-02 -7.912035286426544189e-02
2.638715207576751709e-01 -6.864497065544128418e-02 -3.190244138240814209e-01
-3.234638571739196777e-01 -1.994611881673336029e-02 -8.445440232753753662e-02
7.305753231048583984e-01 8.832485228776931763e-02 4.020338505506515503e-02
6.652331948280334473e-01 8.565782010555267334e-02 -4.809053987264633179e-02
2.946705222129821777e-01 -5.941295623779296875e-02 -8.065902441740036011e-02
8.938792943954467773e-01 6.209054961800575256e-02 3.892115876078605652e-02
-8.205049633979797363e-01 1.932620257139205933e-01 -1.058576744981110096e-03
-1.024597957730293274e-01 -1.040637400001287460e-02 -8.645467460155487061e-02
4.021721482276916504e-01 -8.574982732534408569e-02 2.461154200136661530e-02
-2.109102755784988403e-01 7.704128324985504150e-02 5.782113596796989441e-02
1.086313650012016296e-02 -4.905260354280471802e-02 1.806068718433380127e-01
-2.017295509576797485e-01 9.632591903209686279e-02 1.627708785235881805e-02
2.471513152122497559e-01 -6.295190751552581787e-02 3.130862116813659668e-01
3.682681825011968613e-03 -8.808349072933197021e-02 3.597204387187957764e-02
6.161354854702949524e-02 -4.600874672178179026e-05 3.256520032882690430e-01
5.781958103179931641e-01 -8.398036658763885498e-02 2.874030172824859619e-02
3.126216530799865723e-01 1.628952287137508392e-02 8.515814691781997681e-02
8.378461599349975586e-01 7.883638888597488403e-02 -4.844956472516059875e-02
-7.075667977333068848e-01 3.254812210798263550e-02 -1.572847068309783936e-01
3.318806588649749756e-01 -1.053459849208593369e-02 -8.645467460155487061e-02
-5.286337807774543762e-02 1.369942910969257355e-02 6.213583946228027344e-01
-4.970000386238098145e-01 -6.400332599878311157e-02 -1.841988600790500641e-02
1.657301038503646851e-01 -7.536383718252182007e-02 7.684933394193649292e-02
-4.270418882369995117e-01 -2.097189612686634064e-02 7.823413610458374023e-02
4.913616459816694260e-03 -3.535844758152961731e-02 2.527447640895843506e-01
-1.193851456046104431e-01 -7.303018867969512939e-02 -6.370802223682403564e-02
2.887703245505690575e-03 -4.587268829345703125e-02 1.944548785686492920e-01
2.957476079463958740e-01 -1.303712278604507446e-01 2.833129763603210449e-01
2.333032935857772827e-01 -2.043336629867553711e-02 8.487605303525924683e-02
3.997872173786163330e-01 -2.079238928854465485e-02 8.105503022670745850e-02
-7.501109838485717773e-01 2.193424552679061890e-01 5.403830204159021378e-03
3.686663135886192322e-02 -5.610483512282371521e-02 -2.012393474578857422e-01
5.168914049863815308e-02 -3.202466666698455811e-02 -3.053815662860870361e-01
-7.781404256820678711e-01 3.736927360296249390e-02 -1.065855845808982849e-01
2.190706282854080200e-01 -1.574042625725269318e-02 -1.924945712089538574e-01
-5.368515253067016602e-01 8.524750918149948120e-02 3.640799969434738159e-02
2.369961142539978027e-01 -4.938597604632377625e-02 -2.870970368385314941e-01
-4.633544683456420898e-01 -6.569586694240570068e-02 3.476675227284431458e-02
-5.820114612579345703e-01 1.028652638196945190e-01 1.163543667644262314e-02
-3.850248083472251892e-02 -2.948586456477642059e-02 2.764658927917480469e-01
-5.047446489334106445e-01 1.200689747929573059e-02 7.884960621595382690e-02
-4.416990652680397034e-02 8.032003417611122131e-03 4.679531753063201904e-01
1.567801833152770996e-01 -6.423413008451461792e-02 1.265226900577545166e-01
9.357310533523559570e-01 -5.354038625955581665e-02 -1.957388781011104584e-02
1.647043377161026001e-01 -5.330957472324371338e-02 -2.922515869140625000e-01
-1.398237794637680054e-01 3.462531790137290955e-02 7.628902792930603027e-01
4.797068983316421509e-02 6.108663976192474365e-03 3.916864991188049316e-01
-6.925904154777526855e-01 2.185437455773353577e-02 -7.912035286426544189e-02
1.952981799840927124e-01 -2.666497230529785156e-02 -8.819849789142608643e-02
-7.074385881423950195e-01 3.224037960171699524e-02 1.518081277608871460e-01
2.026068717241287231e-01 9.488982707262039185e-02 2.253434062004089355e-02
1.803474575281143188e-01 -3.661503270268440247e-02 8.515814691781997681e-02
-7.382119894027709961e-01 7.050193846225738525e-02 1.352003775537014008e-03
2.434585094451904297e-01 -4.469304531812667847e-02 2.578993141651153564e-01
-7.170039415359497070e-01 3.224037960171699524e-02 1.515516936779022217e-01
-5.486562149599194527e-04 2.954390132799744606e-03 -3.994454741477966309e-01
-6.648430228233337402e-01 1.079941615462303162e-01 -1.098298747092485428e-02
-1.193595081567764282e-01 2.431624196469783783e-02 -6.399906873703002930e-01
1.820912808179855347e-01 -4.389805719256401062e-02 2.771326601505279541e-01
8.502694964408874512e-02 -5.792558193206787109e-02 -1.531046628952026367e-01
-1.091273576021194458e-01 2.544084796682000160e-03 -5.595952272415161133e-01
2.142751067876815796e-01 -2.379278838634490967e-02 2.777481377124786377e-01
2.806429862976074219e-01 -5.118110030889511108e-02 -2.402958869934082031e-01
2.213529795408248901e-01 6.478322297334671021e-02 6.964323669672012329e-02
3.602178394794464111e-01 -8.080045133829116821e-02 3.625413402915000916e-02
3.122484870254993439e-02 -4.518028348684310913e-02 8.992801606655120850e-02
-8.904772996902465820e-02 2.390219364315271378e-03 4.797753095626831055e-01
-1.517228186130523682e-01 1.169915683567523956e-02 6.262821555137634277e-01
-7.130803465843200684e-01 1.318435221910476685e-01 5.198674742132425308e-03
-4.917057603597640991e-02 -1.353500690311193466e-02 -8.553147315979003906e-02
5.162131190299987793e-01 -1.550962869077920914e-02 -8.545453846454620361e-02
7.743619382381439209e-02 -5.920780822634696960e-02 -2.793524265289306641e-01
-1.863172352313995361e-01 2.962464466691017151e-02 -7.897800207138061523e-01
1.662430018186569214e-01 -7.431616075336933136e-03 -2.773777842521667480e-01
2.278666794300079346e-01 -9.172500669956207275e-02 2.727474570274353027e-01
1.219549998641014099e-01 2.113632857799530029e-02 -8.822413533926010132e-02
-7.719857692718505859e-01 6.106477230787277222e-02 -9.341741912066936493e-03
2.732573747634887695e-01 -4.500077664852142334e-02 1.256764084100723267e-01
-4.538403451442718506e-01 2.210702979937195778e-03 -8.440311998128890991e-02
-1.875737905502319336e-01 1.005409518256783485e-03 -8.750609308481216431e-02
1.678701117634773254e-02 -3.946156427264213562e-02 -2.378340065479278564e-01
8.487450480461120605e-01 8.637586981058120728e-02 -2.293331176042556763e-02
4.777464270591735840e-01 3.757443279027938843e-02 -8.494164794683456421e-02
1.612025499343872070e-02 -1.438858509063720703e-01 -1.752358525991439819e-01
1.174415647983551025e-01 -3.779467567801475525e-02 2.573864161968231201e-01
-9.627947211265563965e-02 -8.954522758722305298e-02 6.121875718235969543e-03
7.389724999666213989e-02 -7.764618098735809326e-02 7.372070848941802979e-02
2.151470184326171875e-01 -3.397364541888237000e-02 -2.146257460117340088e-01
-1.023572087287902832e-01 1.134013384580612183e-02 6.373862624168395996e-01
7.763763070106506348e-01 7.488714158535003662e-02 6.028300523757934570e-02
8.799799084663391113e-01 2.395721897482872009e-02 -7.073461264371871948e-02
7.232152819633483887e-01 -4.777037724852561951e-02 -7.360678911209106445e-02
-7.789610624313354492e-01 4.972991347312927246e-02 -2.739157676696777344e-01
-7.593686580657958984e-01 3.621527180075645447e-02 8.903045952320098877e-02
-4.750368371605873108e-02 -2.310039289295673370e-02 -3.325390517711639404e-01
2.216094136238098145e-01 -3.361462429165840149e-02 2.080721110105514526e-01
-2.542379125952720642e-02 1.334040611982345581e-02 -4.886113107204437256e-01
1.516513079404830933e-01 -5.448921769857406616e-02 2.867749929428100586e-01
3.853750228881835938e-01 6.739895790815353394e-02 -7.081153988838195801e-02
-7.226457595825195312e-01 7.057508453726768494e-03 -4.921889677643775940e-02
-6.360841542482376099e-02 -3.202466666698455811e-02 3.784027099609375000e-01
1.573187261819839478e-01 -8.141593635082244873e-02 3.077778220176696777e-01
-8.101190924644470215e-01 1.613603085279464722e-01 -1.904844306409358978e-03
9.043793380260467529e-02 -1.237549483776092529e-01 -1.334609985351562500e-01
8.390770554542541504e-01 -3.805111348628997803e-02 -7.111927866935729980e-02
1.494202315807342529e-01 -8.890410512685775757e-02 1.622579805552959442e-02
-5.719729512929916382e-02 1.652032136917114258e-02 6.370272040367126465e-01
-7.027456760406494141e-01 3.739492595195770264e-02 -1.084576323628425598e-01
-7.050792574882507324e-01 2.985544316470623016e-02 3.258697316050529480e-02
-4.620978832244873047e-01 9.232538193464279175e-02 -2.524131350219249725e-02
2.075819075107574463e-01 -8.695513010025024414e-02 -4.783409461379051208e-02
-6.531748175621032715e-01 1.213036403059959412e-01 8.942767977714538574e-03
-6.925904154777526855e-01 2.185437455773353577e-02 -7.912035286426544189e-02
4.984415173530578613e-01 -5.041175335645675659e-02 -7.193990051746368408e-02
5.506023764610290527e-01 -6.715759634971618652e-02 5.530797690153121948e-02
1.613705605268478394e-01 -1.058589015156030655e-02 -1.817239075899124146e-01
2.177883982658386230e-01 5.116600543260574341e-02 -8.071031421422958374e-02
1.822964251041412354e-01 -8.603192120790481567e-02 -3.147930800914764404e-01
1.657557487487792969e-01 -1.094709709286689758e-01 -3.018682599067687988e-01
-7.174912691116333008e-01 1.461787819862365723e-01 -8.495474234223365784e-03
-2.586346566677093506e-01 8.552959561347961426e-02 -4.832134023308753967e-02
1.760648488998413086e-01 6.262529641389846802e-03 -8.809592574834823608e-02
2.058637291193008423e-01 -8.628837019205093384e-02 4.897379130125045776e-02
-1.325151175260543823e-01 2.559846825897693634e-02 -6.600703001022338867e-01
2.534342110157012939e-01 7.719514518976211548e-02 -6.083584204316139221e-02
-1.638526618480682373e-01 2.093117125332355499e-02 6.587224006652832031e-01
1.329936273396015167e-02 -1.202416568994522095e-01 1.567831635475158691e-01
1.555749028921127319e-01 -1.186517030000686646e-01 -2.775829434394836426e-01
-4.895118474960327148e-01 -5.025788769125938416e-02 4.994828253984451294e-02
-6.309667229652404785e-01 2.782952971756458282e-02 -5.409134924411773682e-02
-1.203339844942092896e-01 9.683881700038909912e-02 1.407166291028261185e-02
-8.042976856231689453e-01 5.680778995156288147e-02 2.732603549957275391e-01
2.810020148754119873e-01 -5.079642683267593384e-02 -1.036108210682868958e-01
3.126216530799865723e-01 1.628952287137508392e-02 8.515814691781997681e-02
-2.618401944637298584e-01 -2.610079199075698853e-02 -8.312088996171951294e-02
9.551554918289184570e-02 -8.546776324510574341e-02 -5.842526629567146301e-02
-2.768165767192840576e-01 -7.749231159687042236e-02 -4.488497972488403320e-02
3.943108022212982178e-02 -6.638827174901962280e-02 9.321051090955734253e-02
9.551554918289184570e-02 -8.546776324510574341e-02 -5.842526629567146301e-02
-4.570972323417663574e-01 -5.679722130298614502e-02 -5.288605764508247375e-02
1.005931571125984192e-01 -1.627895608544349670e-02 1.714517772197723389e-01
-5.215930938720703125e-01 -4.366726800799369812e-02 -5.373232439160346985e-02
-2.852023243904113770e-01 8.876080811023712158e-02 -4.267955571413040161e-02
-2.586346566677093506e-01 8.552959561347961426e-02 -4.832134023308753967e-02
4.156098663806915283e-01 -8.818605542182922363e-02 1.517437491565942764e-02
-1.097171753644943237e-01 1.454569958150386810e-02 6.610048413276672363e-01
-7.671274244785308838e-02 -1.191939879208803177e-02 -4.310394525527954102e-01
-6.394037604331970215e-01 1.495382040739059448e-01 9.917257353663444519e-03
2.107618153095245361e-01 -6.723452359437942505e-02 -1.014566868543624878e-01
-2.111552096903324127e-02 -7.995417714118957520e-02 -7.142700999975204468e-02
-1.585840620100498199e-02 -2.584435231983661652e-02 -8.671111613512039185e-02
-6.396744400262832642e-02 -1.046144869178533554e-03 -5.391822457313537598e-01
-1.148717254400253296e-01 3.147105127573013306e-02 7.089343070983886719e-01
-3.549059852957725525e-03 4.770400002598762512e-02 7.846494019031524658e-02
1.134923174977302551e-01 -6.605488061904907227e-02 -1.154842153191566467e-01
-4.376330375671386719e-01 6.927100569009780884e-02 6.469385325908660889e-02
-2.300154119729995728e-01 6.057372316718101501e-03 8.482476323843002319e-02
1.635503321886062622e-01 -5.459180101752281189e-02 2.640026807785034180e-01
2.420480698347091675e-01 -2.302346006035804749e-02 1.861717104911804199e-01
2.314825505018234253e-01 -4.866793006658554077e-02 -2.478866428136825562e-01
8.553869724273681641e-01 8.645280450582504272e-02 -1.308583468198776245e-02
-7.089771628379821777e-01 2.480348944664001465e-02 9.197957068681716919e-02
8.221755735576152802e-03 7.468198239803314209e-02 -6.419526785612106323e-02
2.110439091920852661e-01 1.487907115370035172e-02 -8.848058432340621948e-02
2.904391884803771973e-01 -1.292685121297836304e-01 -2.541951835155487061e-01
-5.429947003722190857e-02 -1.712899073027074337e-03 -5.348226428031921387e-01
-6.153492927551269531e-01 2.549588494002819061e-02 6.164215877652168274e-02
-5.713689923286437988e-01 9.009431302547454834e-02 4.480629228055477142e-03
3.318806588649749756e-01 -1.053459849208593369e-02 -8.645467460155487061e-02
2.314312458038330078e-01 -4.977064952254295349e-02 2.437435537576675415e-01
1.011829748749732971e-01 3.524078801274299622e-02 -8.537760376930236816e-02
-1.711498573422431946e-02 -2.656239829957485199e-02 -2.543490529060363770e-01
-1.148717254400253296e-01 3.147105127573013306e-02 7.089343070983886719e-01
-1.687507480382919312e-01 -2.138221077620983124e-02 8.092680573463439941e-02
-1.030239760875701904e-01 -7.127629942260682583e-04 -4.806871712207794189e-01
-4.568292945623397827e-02 -8.477535098791122437e-02 -5.542486160993576050e-02
-5.801791697740554810e-02 1.082351896911859512e-03 5.549905300140380859e-01
-1.193851456046104431e-01 -7.303018867969512939e-02 -6.370802223682403564e-02
7.176760435104370117e-01 -5.041175335645675659e-02 6.869439035654067993e-02
1.522924005985260010e-01 -2.938329055905342102e-02 2.815691530704498291e-01
7.987382411956787109e-01 8.927369117736816406e-02 3.610026463866233826e-02
-2.532121725380420685e-02 -1.963838748633861542e-02 2.989817559719085693e-01
4.991595745086669922e-01 9.819796681404113770e-02 -5.969761987216770649e-04
-5.653054267168045044e-02 -8.380460552871227264e-03 4.773903787136077881e-01
7.656427472829818726e-02 -5.779735743999481201e-02 1.498848050832748413e-01
1.755775809288024902e-01 -6.118243932723999023e-02 1.357033997774124146e-01
2.982607483863830566e-01 1.954637095332145691e-02 -8.827543258666992188e-02
-2.141927629709243774e-01 1.031060237437486649e-03 -8.753174543380737305e-02
2.447150945663452148e-01 -3.456346690654754639e-02 -8.837800472974777222e-02
2.825919687747955322e-01 -1.224727183580398560e-01 -2.703512012958526611e-01
6.483078598976135254e-01 9.696703404188156128e-02 -1.680428348481655121e-02
-7.194914817810058594e-01 4.113901779055595398e-02 -1.415133625268936157e-01
-5.691520497202873230e-02 1.790512166917324066e-02 -5.445419549942016602e-01
6.933907866477966309e-01 3.477918356657028198e-02 8.228596299886703491e-02
-5.684711933135986328e-01 7.852865755558013916e-02 4.823010414838790894e-02
1.963239759206771851e-01 -6.169531866908073425e-02 -2.378596514463424683e-01
4.502157121896743774e-02 -5.397633835673332214e-02 -1.706454753875732422e-01
1.008239537477493286e-01 8.852623403072357178e-03 -8.837800472974777222e-02
1.086968034505844116e-01 -4.925775155425071716e-02 2.004044055938720703e-01
4.453432932496070862e-02 -7.251729071140289307e-02 -1.100219488143920898e-01
5.640771985054016113e-02 -1.332434117794036865e-01 -1.224595159292221069e-01
6.580526828765869141e-01 -8.308281004428863525e-02 3.086879476904869080e-02
2.209683060646057129e-01 -1.643283106386661530e-02 9.951904416084289551e-02
-7.987841367721557617e-01 5.270467326045036316e-02 -2.938671708106994629e-01
2.184294909238815308e-01 -4.879615455865859985e-02 2.558990418910980225e-01
-7.277490496635437012e-01 2.267499268054962158e-02 5.687229335308074951e-02
1.603191196918487549e-01 -9.816552512347698212e-03 1.883258521556854248e-01
-3.916781842708587646e-01 1.698191836476325989e-02 -8.837800472974777222e-02
1.747826039791107178e-01 -1.203442439436912537e-01 -2.668635547161102295e-01
-7.312251627445220947e-02 -7.559840567409992218e-03 4.770826399326324463e-01
1.517140772193670273e-02 -1.146767958998680115e-01 -1.356664150953292847e-01
6.947242617607116699e-01 -8.626272529363632202e-02 2.291900664567947388e-02
9.224728941917419434e-01 -3.156306967139244080e-02 -5.178334563970565796e-02
3.558069467544555664e-01 -1.166295912116765976e-02 8.305530250072479248e-02
2.387399375438690186e-01 -1.190107166767120361e-01 -3.073818385601043701e-01
3.619872629642486572e-01 9.086365252733230591e-02 -3.747372701764106750e-02
1.435732841491699219e-01 -4.130797088146209717e-02 2.334344834089279175e-01
