2.446894049644470215e-01 -1.764744706451892853e-02 3.212785124778747559e-01
-2.264798246324062347e-02 7.432610727846622467e-04 4.074244499206542969e-01
-6.676937937736511230e-01 3.924543410539627075e-02 -3.704576054587960243e-03
2.528630495071411133e-01 -7.698704302310943604e-02 -7.457868754863739014e-02
-4.246891736984252930e-01 -5.625716596841812134e-02 -5.909177660942077637e-02
-7.548345327377319336e-01 6.218003854155540466e-02 -1.069650636054575443e-03
2.838353067636489868e-02 2.006943104788661003e-03 3.599151074886322021e-01
-7.637610435485839844e-01 2.913592197000980377e-02 -9.460949897766113281e-02
2.916325256228446960e-02 1.280999975278973579e-03 -3.943725824356079102e-01
-2.455680370330810547e-01 9.124487638473510742e-02 -2.105809107888489962e-05
3.212904334068298340e-01 5.443658679723739624e-02 7.426770776510238647e-02
2.731089293956756592e-01 7.172492146492004395e-02 5.824305489659309387e-02
-7.787102460861206055e-01 2.133118212223052979e-01 1.180921867489814758e-02
-2.388478629291057587e-02 2.639344893395900726e-02 -5.619860887527465820e-01
-4.344760775566101074e-01 4.991405643522739410e-03 -7.995608448982238770e-02
-4.846203029155731201e-01 -4.122734069824218750e-02 6.913229078054428101e-02
7.847683429718017578e-01 -4.663162305951118469e-02 -6.589418649673461914e-02
7.715131044387817383e-01 -5.461705848574638367e-02 7.018087804317474365e-02
7.236542701721191406e-01 8.433491736650466919e-02 3.342636302113533020e-02
9.536993503570556641e-01 -3.633390367031097412e-02 4.463823512196540833e-02
-7.219518423080444336e-01 2.720005810260772705e-02 6.668557226657867432e-02
-2.407821416854858398e-01 4.007893055677413940e-02 -7.291169464588165283e-02
3.419665098190307617e-01 -4.638964310288429260e-02 1.011009216308593750e-01
1.956475079059600830e-01 2.141380216926336288e-03 -2.770108580589294434e-01
-7.506940364837646484e-01 4.112752526998519897e-02 1.355700343847274780e-01
-7.159291505813598633e-01 1.668511033058166504e-01 -5.156474187970161438e-03
8.087785243988037109e-01 -6.698507070541381836e-02 -4.564828425645828247e-02
-8.135020136833190918e-01 2.970110177993774414e-01 8.986084721982479095e-03
-3.467975854873657227e-01 8.653964847326278687e-02 3.280796110630035400e-02
5.250116437673568726e-02 -1.084503438323736191e-02 2.657568752765655518e-01
2.401992678642272949e-01 -1.055679097771644592e-01 2.796305716037750244e-01
7.790414094924926758e-01 8.339387923479080200e-02 2.519894205033779144e-02
-9.295747429132461548e-02 2.408116869628429413e-02 -5.580068230628967285e-01
8.100690841674804688e-01 -4.442689195275306702e-02 7.284269481897354126e-02
-2.700367569923400879e-02 1.292306277900934219e-02 4.862033426761627197e-01
2.463295161724090576e-01 -4.096399527043104172e-03 -1.700006276369094849e-01
-8.566287159919738770e-01 3.894967585802078247e-02 -2.138264328241348267e-01
1.668768934905529022e-02 -2.501448057591915131e-02 2.217697650194168091e-01
-2.723474800586700439e-01 7.355323433876037598e-02 -8.743860721588134766e-01
-6.090264320373535156e-01 8.608257025480270386e-02 1.689086109399795532e-02
3.021200001239776611e-01 4.728464409708976746e-02 7.848896086215972900e-02
1.850002706050872803e-01 -9.043604135513305664e-03 -1.641123890876770020e-01
-2.680993378162384033e-01 -2.555222064256668091e-02 -7.713294774293899536e-02
7.850088179111480713e-02 -9.005411714315414429e-02 3.366702934727072716e-03
3.045398294925689697e-01 -8.841401338577270508e-02 5.904966965317726135e-02
8.788444101810455322e-02 -1.538893766701221466e-02 -2.064593881368637085e-01
2.781637012958526611e-01 -4.009808599948883057e-02 -1.287828683853149414e-01
1.017043665051460266e-01 -6.381792481988668442e-03 8.994282037019729614e-02
4.641410112380981445e-01 7.519333809614181519e-02 5.404868721961975098e-02
2.388280332088470459e-01 -2.783761359751224518e-02 2.013894021511077881e-01
1.339687407016754150e-01 -1.751300878822803497e-02 2.782324552536010742e-01
-5.668691545724868774e-02 2.937790751457214355e-02 -5.436760783195495605e-01
-7.673908472061157227e-01 5.102193728089332581e-02 -1.260417141020298004e-02
8.788444101810455322e-02 -1.538893766701221466e-02 -2.064593881368637085e-01
-6.210718154907226562e-01 3.924543410539627075e-02 1.406772620975971222e-02
-3.628491461277008057e-01 -7.652996480464935303e-02 -3.677557781338691711e-02
7.430666685104370117e-01 -5.709616467356681824e-03 -7.941834628582000732e-02
1.512839794158935547e-01 -1.221627090126276016e-02 -1.737916916608810425e-01
7.883981466293334961e-01 -8.419274538755416870e-02 -1.779335923492908478e-02
-5.707393288612365723e-01 4.677379131317138672e-02 -5.387570336461067200e-02
4.553743079304695129e-02 -8.174603432416915894e-02 -6.992723792791366577e-02
-5.052979663014411926e-02 1.818738994188606739e-03 -4.089184105396270752e-01
1.291559785604476929e-01 -2.600929886102676392e-02 -2.249307483434677124e-01
-8.349847197532653809e-01 3.053404577076435089e-02 1.553319841623306274e-01
-1.518937498331069946e-01 8.936278522014617920e-02 -1.346455514430999756e-02
6.172893047332763672e-01 -2.012104354798793793e-02 -7.836975157260894775e-02
-2.680993378162384033e-01 -2.555222064256668091e-02 -7.713294774293899536e-02
-8.160293698310852051e-01 2.123976647853851318e-01 1.108195399865508080e-03
-8.515740036964416504e-01 4.010581597685813904e-02 5.356340203434228897e-03
1.869361400604248047e-01 -3.931836411356925964e-02 -1.479801833629608154e-01
4.545677080750465393e-02 1.469204085879027843e-03 -3.933239877223968506e-01
-5.447664856910705566e-01 -5.832746252417564392e-02 3.530845046043395996e-02
5.024265125393867493e-02 -9.005411714315414429e-02 4.455757513642311096e-02
-6.280354857444763184e-01 6.731545925140380859e-02 -2.803730592131614685e-02
-7.706979513168334961e-01 1.233210563659667969e-01 1.041109487414360046e-02
-1.609546691179275513e-01 8.957788348197937012e-02 -1.255039684474468231e-02
-7.802158594131469727e-01 2.507598511874675751e-02 1.734793931245803833e-02
6.811190247535705566e-01 6.040549650788307190e-02 6.945493072271347046e-02
6.685090661048889160e-01 7.250463962554931641e-02 5.740955844521522522e-02
4.921841323375701904e-01 7.220888137817382812e-02 -4.841764271259307861e-02
-7.355566024780273438e-01 1.692978143692016602e-01 -5.075813271105289459e-03
2.314878851175308228e-01 -6.055909022688865662e-02 -7.885371893644332886e-02
3.325829803943634033e-01 -2.657392062246799469e-02 -2.597762942314147949e-01
2.311652451753616333e-01 -1.087191794067621231e-02 -2.846736609935760498e-01
2.641286849975585938e-01 -1.845405064523220062e-02 -2.949713766574859619e-01
2.148448377847671509e-01 -3.208575770258903503e-02 3.315762281417846680e-01
-4.144199192523956299e-02 1.830046623945236206e-02 -4.776415824890136719e-01
8.460268378257751465e-03 -4.641652479767799377e-02 1.499277055263519287e-01
2.448507249355316162e-01 -4.187262430787086487e-02 -1.285946518182754517e-01
-8.099260330200195312e-01 1.946253776550292969e-01 9.737607324495911598e-04
-3.157446160912513733e-02 -4.015186056494712830e-02 8.816828578710556030e-02
-1.318629384040832520e-01 5.567338317632675171e-02 7.759106755256652832e-01
1.267630457878112793e-01 -8.183223195374011993e-03 8.980838209390640259e-02
1.990352720022201538e-01 -9.820086508989334106e-02 2.927783131599426270e-01
8.587883114814758301e-01 7.161737233400344849e-02 -3.435706486925482750e-03
-6.626928448677062988e-01 -4.187262430787086487e-02 -6.473936140537261963e-03
7.858154922723770142e-02 -7.333041727542877197e-02 1.329082250595092773e-01
-5.867639780044555664e-01 -1.619555056095123291e-02 -5.465542525053024292e-02
-1.805030740797519684e-02 2.927035838365554810e-02 5.868682265281677246e-01
3.626142069697380066e-02 7.814537733793258667e-03 -3.760894238948822021e-01
5.769035220146179199e-02 -4.179196432232856750e-02 -1.524971872568130493e-01
2.201131358742713928e-02 6.228204350918531418e-03 -4.271747171878814697e-01
-2.088404148817062378e-01 6.201871857047080994e-02 -8.050176501274108887e-01
-1.617612689733505249e-01 -7.429833710193634033e-02 -4.027088731527328491e-02
1.891139745712280273e-01 -5.918785184621810913e-02 8.816828578710556030e-02
-1.787000894546508789e-01 6.653573364019393921e-02 8.297384977340698242e-01
-1.893757656216621399e-02 3.752466663718223572e-02 6.180033683776855469e-01
2.996986359357833862e-02 1.311127655208110809e-02 4.786749780178070068e-01
1.980505418032407761e-03 -5.494518671184778214e-03 -3.546335697174072266e-01
3.261032104492187500e-01 -3.929147124290466309e-02 3.076468110084533691e-01
3.334971368312835693e-01 -8.255264163017272949e-02 -3.199762701988220215e-01
-6.705438494682312012e-01 1.134266480803489685e-01 -7.414982188493013382e-03
-4.266250729560852051e-01 -8.556398749351501465e-02 1.191676687449216843e-02
1.690278388559818268e-02 1.945660449564456940e-02 -4.478777050971984863e-01
-1.602287143468856812e-01 7.360701262950897217e-02 -4.683130979537963867e-02
2.187687903642654419e-02 6.201320793479681015e-03 4.363817274570465088e-01
-7.084814310073852539e-01 5.295779928565025330e-02 1.412150077521800995e-02
6.101104617118835449e-01 -2.829469181597232819e-02 -7.608435302972793579e-02
2.472705543041229248e-01 -9.734049439430236816e-02 3.381366431713104248e-01
6.097071766853332520e-01 -5.988691374659538269e-02 -5.750544369220733643e-02
1.288602352142333984e-01 -1.369506027549505234e-02 1.928931176662445068e-01
9.657984972000122070e-01 -4.822352435439825058e-03 -2.585946023464202881e-02
-5.728902816772460938e-01 1.021609976887702942e-01 6.754464004188776016e-03
1.313607096672058105e-01 9.073401987552642822e-02 -6.420163437724113464e-03
-7.752587553113698959e-03 -7.499741017818450928e-02 8.572155982255935669e-02
-6.172269582748413086e-01 1.410609390586614609e-02 6.450773030519485474e-02
3.092181682586669922e-01 -3.437115252017974854e-02 2.966231405735015869e-01
2.948589622974395752e-02 -7.053968496620655060e-03 3.078618943691253662e-01
9.436420351266860962e-02 -3.182242158800363541e-03 2.833947539329528809e-01
-5.854211375117301941e-02 3.607276454567909241e-02 6.376039981842041016e-01
-4.441285133361816406e-01 3.924543410539627075e-02 3.716233884915709496e-03
-4.717414677143096924e-01 5.258138105273246765e-02 7.171344012022018433e-02
-2.139758318662643433e-01 7.688722014427185059e-02 5.141375958919525146e-02
4.580629989504814148e-02 -1.384238153696060181e-01 1.407054513692855835e-01
9.928468465805053711e-01 -1.286156289279460907e-02 1.554651092737913132e-02
-4.156551957130432129e-01 1.862310804426670074e-02 8.889422565698623657e-02
1.482457518577575684e-01 -3.361831605434417725e-02 -1.819653362035751343e-01
1.703199595212936401e-01 -3.058008477091789246e-02 -1.947904229164123535e-01
1.970456242561340332e-01 -7.440589368343353271e-02 3.379484713077545166e-01
-4.972318187355995178e-02 1.222400274127721786e-02 -4.756519496440887451e-01
2.770344316959381104e-01 -1.005938127636909485e-01 3.400187194347381592e-01
2.992700040340423584e-01 -4.520661011338233948e-02 1.148939505219459534e-01
-2.112333327531814575e-01 2.389295957982540131e-02 -7.836975157260894775e-02
9.178305417299270630e-02 -1.319709271192550659e-01 1.407054513692855835e-01
-9.779713302850723267e-02 -8.784937858581542969e-02 1.363753434270620346e-02
-7.506940364837646484e-01 4.112752526998519897e-02 1.355700343847274780e-01
-1.698004901409149170e-01 5.155967548489570618e-02 7.596158981323242188e-02
-9.930436499416828156e-03 3.739022836089134216e-02 -5.604266524314880371e-01
-3.516641557216644287e-01 -6.168834492564201355e-02 6.531433761119842529e-02
3.334971368312835693e-01 -7.964884489774703979e-02 3.092331290245056152e-01
-9.930436499416828156e-03 3.739022836089134216e-02 -5.604266524314880371e-01
-2.096470147371292114e-01 6.083568558096885681e-02 8.235006332397460938e-01
3.032492697238922119e-01 -4.453443363308906555e-02 -7.885371893644332886e-02
1.085336580872535706e-01 -1.076437439769506454e-02 -2.138801962137222290e-01
-7.538934946060180664e-01 3.959496319293975830e-02 7.803188264369964600e-02
-8.218370079994201660e-01 2.196302711963653564e-01 7.803056389093399048e-03
9.213259071111679077e-02 -8.048785850405693054e-03 2.524746954441070557e-01
-4.816627204418182373e-01 7.476314902305603027e-02 4.974676668643951416e-02
-8.696166425943374634e-02 1.171314716339111328e-02 -4.778835773468017578e-01
8.345631361007690430e-01 -1.197428908199071884e-02 -6.930883973836898804e-02
-1.006486918777227402e-02 -3.066074475646018982e-02 2.287603765726089478e-01
9.856828255578875542e-04 -5.854256078600883484e-02 8.816828578710556030e-02
4.787660017609596252e-02 -1.329174824059009552e-02 2.569917142391204834e-01
-7.364170551300048828e-01 3.970251232385635376e-02 -4.895538464188575745e-02
-7.629007101058959961e-01 3.580389544367790222e-02 3.361456841230392456e-02
1.840323358774185181e-01 3.620169823989272118e-03 2.769687473773956299e-01
-6.398926377296447754e-01 1.710723638534545898e-01 3.770007751882076263e-03
2.147372812032699585e-01 -4.335141181945800781e-02 -2.904543578624725342e-01
-7.949768304824829102e-01 1.324357390403747559e-01 7.265317253768444061e-03
-1.400097012519836426e-01 5.207052826881408691e-02 7.221636176109313965e-01
-7.021360993385314941e-01 2.908214926719665527e-02 9.287349879741668701e-02
-8.288545012474060059e-01 3.211824595928192139e-01 7.910604588687419891e-03
-7.483717985451221466e-03 -4.087780416011810303e-02 -1.509377509355545044e-01
-7.729833126068115234e-01 4.040157422423362732e-02 1.116406247019767761e-01
-5.147874951362609863e-01 -2.270219475030899048e-02 7.332666218280792236e-02
-5.372381210327148438e-01 3.456709906458854675e-02 -6.309793889522552490e-02
-7.709398865699768066e-01 4.085865616798400879e-02 -1.123549193143844604e-01
-8.152496814727783203e-01 2.668920718133449554e-02 -7.008855789899826050e-02
2.452540099620819092e-01 -7.080852054059505463e-03 3.003335595130920410e-01
-5.854211375117301941e-02 3.607276454567909241e-02 6.376039981842041016e-01
1.775368764356244355e-05 6.792836822569370270e-03 -4.301860630512237549e-01
-6.876171231269836426e-01 1.278380751609802246e-01 1.613802462816238403e-02
-3.587354123592376709e-01 -7.914348505437374115e-03 8.983526378870010376e-02
5.587832331657409668e-01 -8.637058734893798828e-02 1.968710869550704956e-02
5.199584364891052246e-01 7.293483614921569824e-02 -4.761103540658950806e-02
4.494876265525817871e-01 5.871161445975303650e-02 -6.151160597801208496e-02
1.690293997526168823e-01 -6.115059554576873779e-02 3.023500740528106689e-01
-7.168985903263092041e-02 -2.377768233418464661e-02 8.795318752527236938e-02
1.085336580872535706e-01 -1.076437439769506454e-02 -2.138801962137222290e-01
8.280295729637145996e-01 4.706954583525657654e-02 6.353979557752609253e-02
6.680504232645034790e-02 -9.005411714315414429e-02 3.649147599935531616e-02
-6.900369524955749512e-01 2.187429964542388916e-01 3.716233884915709496e-03
4.381950497627258301e-01 -4.203943070024251938e-03 9.010414034128189087e-02
-6.510239243507385254e-01 2.927035838365554810e-02 -5.245069041848182678e-02
-8.186643123626708984e-01 3.876146674156188965e-02 -1.572561860084533691e-01
-8.342856764793395996e-01 3.021140396595001221e-02 -1.420919299125671387e-01
2.467865943908691406e-01 -1.901868358254432678e-02 -2.666324675083160400e-01
1.034235768020153046e-02 -1.157098822295665741e-02 2.944453060626983643e-01
2.629994153976440430e-01 -6.005374249070882797e-03 -1.451032757759094238e-01
-2.407821416854858398e-01 4.007893055677413940e-02 -7.291169464588165283e-02
1.455570459365844727e-01 5.330733209848403931e-02 7.493988424539566040e-02
-1.175590679049491882e-01 5.508187413215637207e-02 7.225937247276306152e-01
1.885224580764770508e-01 1.146562746725976467e-03 -2.970954477787017822e-01
-8.342856764793395996e-01 3.021140396595001221e-02 -1.420919299125671387e-01
4.513428211212158203e-01 8.403915911912918091e-02 -2.930099330842494965e-02
9.856828255578875542e-04 -5.854256078600883484e-02 8.816828578710556030e-02
-5.114535093307495117e-01 3.924543410539627075e-02 2.237449400126934052e-03
-1.702860184013843536e-02 -9.005411714315414429e-02 3.995990008115768433e-02
-1.664664894342422485e-01 4.430018737912178040e-02 -6.906403303146362305e-01
-6.705438494682312012e-01 1.134266480803489685e-01 -7.414982188493013382e-03
-1.609546691179275513e-01 8.957788348197937012e-02 -1.255039684474468231e-02
-7.204730510711669922e-01 2.738826721906661987e-02 -6.008660048246383667e-02
5.255493521690368652e-02 -1.226949244737625122e-01 1.737764626741409302e-01
1.628991514444351196e-01 -3.722117468714714050e-02 -2.846467792987823486e-01
8.046363294124603271e-02 3.130658878944814205e-04 -3.083879649639129639e-01
1.549137234687805176e-01 -6.193588487803936005e-03 2.161234766244888306e-01
1.656685024499893188e-01 -1.428656559437513351e-02 3.058991432189941406e-01
3.145686686038970947e-01 -3.455936536192893982e-02 2.596804201602935791e-01
-3.439759835600852966e-02 3.209349140524864197e-02 -5.985524058341979980e-01
4.596762359142303467e-02 -2.084699645638465881e-02 -2.635135650634765625e-01
2.443114109337329865e-02 -8.591350913047790527e-02 -6.048990041017532349e-02
8.603477478027343750e-01 4.257941991090774536e-02 -4.986954107880592346e-02
-5.273453146219253540e-02 -6.867896020412445068e-02 -7.748247683048248291e-02
2.987591326236724854e-01 -3.910326957702636719e-02 -1.280031502246856689e-01
-5.644493550062179565e-02 4.198790341615676880e-02 -6.624627709388732910e-01
-5.652812719345092773e-01 -4.499151185154914856e-02 -3.895342350006103516e-02
8.949766308069229126e-02 -8.161159604787826538e-02 -1.401022970676422119e-01
8.466354012489318848e-01 -9.080695360898971558e-02 -1.908393576741218567e-02
-4.196613430976867676e-01 -8.483803272247314453e-02 -1.397540792822837830e-02
6.634796410799026489e-02 -9.005411714315414429e-02 -2.913967147469520569e-02
1.102813035249710083e-01 -4.553478211164474487e-03 -2.524630129337310791e-01
-2.196758538484573364e-01 3.249679878354072571e-02 -7.592303305864334106e-02
1.783322840929031372e-01 -5.916095897555351257e-02 3.233488202095031738e-01
-2.590285614132881165e-03 -8.467671275138854980e-02 -6.379700452089309692e-02
-2.142446786165237427e-01 -6.577515602111816406e-02 -5.142898485064506531e-02
2.032027542591094971e-01 -3.098339587450027466e-02 3.202567994594573975e-01
-2.418307363986968994e-01 1.273485831916332245e-02 8.975460380315780640e-02
-4.931018338538706303e-04 3.037272579967975616e-02 5.227158665657043457e-01
-2.805227041244506836e-02 4.123507440090179443e-02 6.004192829132080078e-01
-3.880861215293407440e-03 -1.708281412720680237e-02 2.977254986763000488e-01
-4.377293884754180908e-01 -8.292906731367111206e-02 1.931068859994411469e-02
-7.168985903263092041e-02 -2.377768233418464661e-02 8.795318752527236938e-02
2.240132838487625122e-01 -1.036107260733842850e-02 -1.282451301813125610e-01
8.226790428161621094e-01 -7.784741371870040894e-02 -2.798353135585784912e-02
4.009027779102325439e-01 7.930705696344375610e-02 4.762269556522369385e-02
1.817738264799118042e-01 4.212234169244766235e-02 8.141964673995971680e-02
2.809330523014068604e-01 -9.016720578074455261e-03 -2.846467792987823486e-01
7.562950849533081055e-01 -5.133684724569320679e-02 7.295024394989013672e-02
2.570842802524566650e-01 -3.066074475646018982e-02 -2.846467792987823486e-01
1.090445071458816528e-01 -9.575473086442798376e-06 2.933967113494873047e-01
9.301986545324325562e-02 -1.157849580049514771e-01 1.738033592700958252e-01
5.873909592628479004e-01 9.033071994781494141e-02 1.885361038148403168e-02
2.599074244499206543e-01 -1.140642017126083374e-01 -2.960468530654907227e-01
1.053609922528266907e-01 -1.310030072927474976e-01 1.231751441955566406e-01
3.370715305209159851e-02 8.245282620191574097e-02 4.227218404412269592e-02
7.729918956756591797e-01 -6.101616844534873962e-02 -5.559647083282470703e-02
4.784986674785614014e-01 -6.496855616569519043e-02 6.163081899285316467e-02
8.753491193056106567e-02 -2.985414117574691772e-02 2.201296538114547729e-01
2.549333274364471436e-01 -9.005411714315414429e-02 -8.276677690446376801e-04
1.669859737157821655e-01 -9.984654374420642853e-03 -2.846736609935760498e-01
3.013118542730808258e-02 8.605568856000900269e-02 3.396410122513771057e-02
-5.128263309597969055e-02 1.709055155515670776e-02 4.866066277027130127e-01
3.558924421668052673e-02 9.373988024890422821e-03 -4.455385208129882812e-01
-5.696907639503479004e-01 3.924543410539627075e-02 8.744101971387863159e-03
4.346713423728942871e-02 -1.912622712552547455e-02 -2.216774076223373413e-01
9.916100502014160156e-01 -5.026136711239814758e-02 1.979465596377849579e-02
7.070365548133850098e-02 -5.364912375807762146e-02 -1.555891931056976318e-01
8.258770406246185303e-02 3.915927838534116745e-03 -8.111222833395004272e-02
4.967803135514259338e-02 -1.271312683820724487e-01 -1.405055969953536987e-01
4.346713423728942871e-02 -1.912622712552547455e-02 -2.216774076223373413e-01
-1.480489224195480347e-01 5.411393940448760986e-02 -7.620790600776672363e-01
2.872246205806732178e-01 7.511267811059951782e-02 -4.489544779062271118e-02
9.536993503570556641e-01 -3.633390367031097412e-02 4.463823512196540833e-02
-6.481738686561584473e-01 3.429822996258735657e-02 4.630391485989093781e-03
1.804294735193252563e-01 -1.089881174266338348e-02 -2.934119105339050293e-01
-1.353482133708894253e-03 1.407921127974987030e-02 4.407643079757690430e-01
2.279387861490249634e-01 -1.423279941082000732e-02 1.108877882361412048e-01
2.101933807134628296e-01 -9.043604135513305664e-03 2.828570008277893066e-01
-5.999923944473266602e-01 -3.520464897155761719e-02 4.977365583181381226e-02
1.546986252069473267e-01 -6.561383605003356934e-02 8.730789273977279663e-02
9.745622426271438599e-02 -1.502003073692321777e-01 -1.292399466037750244e-01
-1.175590679049491882e-01 5.508187413215637207e-02 7.225937247276306152e-01
1.946795880794525146e-01 -1.017285883426666260e-02 -2.923633158206939697e-01
1.867748200893402100e-01 -9.005411714315414429e-02 1.836964488029479980e-02
2.768731117248535156e-01 -3.152113407850265503e-02 -2.473275959491729736e-01
6.557915210723876953e-01 -8.282151073217391968e-02 3.272730112075805664e-02
-7.427623271942138672e-01 4.067044332623481750e-02 -1.017076745629310608e-01
-4.503394067287445068e-01 -4.706181958317756653e-02 7.192853838205337524e-02
-3.497551381587982178e-01 -6.771102547645568848e-02 -4.925113916397094727e-02
-5.114535093307495117e-01 3.924543410539627075e-02 2.237449400126934052e-03
-6.919090636074542999e-03 -2.299795299768447876e-02 2.500011026859283447e-01
2.916325256228446960e-02 1.280999975278973579e-03 -3.943725824356079102e-01
5.618467926979064941e-02 -2.813337184488773346e-02 1.757929921150207520e-01
-8.615759015083312988e-01 4.319781810045242310e-02 2.933967113494873047e-01
-7.181607484817504883e-01 4.021336510777473450e-02 8.604420721530914307e-02
-2.497892975807189941e-01 6.024417653679847717e-02 -6.024792045354843140e-02
8.589480817317962646e-02 -3.700608015060424805e-02 -2.846736609935760498e-01
3.790974617004394531e-01 -8.715032786130905151e-02 1.350309886038303375e-02
1.125129312276840210e-01 -5.383733659982681274e-02 3.042859435081481934e-01
3.301900327205657959e-01 -1.829272881150245667e-02 1.108071282505989075e-01
-2.626412808895111084e-01 -9.850217029452323914e-03 -8.038627356290817261e-02
-6.754925847053527832e-02 2.171511575579643250e-02 -5.390784144401550293e-01
6.991333365440368652e-01 -1.813140884041786194e-02 8.800695091485977173e-02
4.266052693128585815e-02 -1.401445865631103516e-01 1.589617282152175903e-01
-5.838063955307006836e-01 1.442874036729335785e-02 6.988512724637985229e-02
9.916100502014160156e-01 -5.026136711239814758e-02 1.979465596377849579e-02
1.125398129224777222e-01 -1.025565639138221741e-01 1.795302927494049072e-01
2.860415875911712646e-01 -3.103716298937797546e-02 -2.846467792987823486e-01
-6.754925847053527832e-02 2.171511575579643250e-02 -5.390784144401550293e-01
2.914727628231048584e-01 -8.459606021642684937e-02 -2.417620122432708740e-01
-7.787102460861206055e-01 2.133118212223052979e-01 1.180921867489814758e-02
2.203028947114944458e-01 -9.005411714315414429e-02 -1.101783849298954010e-02
2.810406088829040527e-01 -2.006727643311023712e-02 3.337809741497039795e-01
-7.832810282707214355e-01 2.736138366162776947e-02 -7.436358928680419922e-02
2.556592822074890137e-01 -1.928754709661006927e-02 3.292370736598968506e-01
2.023154795169830322e-01 -1.286156289279460907e-02 1.393879950046539307e-01
1.099855452775955200e-01 -8.139651268720626831e-02 7.956444472074508667e-02
8.140468597412109375e-02 2.440381422638893127e-02 8.757676929235458374e-02
1.942762732505798340e-01 -2.783761359751224518e-02 2.916490435600280762e-01
1.584628075361251831e-01 -3.810844942927360535e-02 -7.885371893644332886e-02
8.942790627479553223e-01 -5.300384014844894409e-02 -4.338977485895156860e-02
3.673747181892395020e-01 4.220300167798995972e-02 8.139275759458541870e-02
2.381274290382862091e-02 -5.752085894346237183e-02 1.084141805768013000e-01
-7.244254350662231445e-01 1.348555684089660645e-01 1.538518909364938736e-02
7.164470106363296509e-02 -4.192639887332916260e-02 1.497663855552673340e-01
-9.478578716516494751e-02 6.075502559542655945e-02 6.915917247533798218e-02
1.496976464986801147e-01 -1.296910736709833145e-02 1.806326508522033691e-01
-4.840556681156158447e-01 -4.921277239918708801e-02 -5.366060510277748108e-02
1.537575870752334595e-01 -3.681787475943565369e-02 1.736151427030563354e-01
-2.776442170143127441e-01 -5.407931655645370483e-02 -6.223755702376365662e-02
-7.875022888183593750e-01 4.185347259044647217e-02 -1.670699417591094971e-01
-5.083615183830261230e-01 6.013662740588188171e-02 6.181902810931205750e-02
1.036402210593223572e-01 -4.571746662259101868e-02 1.427488774061203003e-01
-1.703016925603151321e-03 -4.509906470775604248e-02 -7.885371893644332886e-02
-3.971838057041168213e-01 -6.943179666996002197e-02 -4.731527715921401978e-02
3.334971368312835693e-01 -6.663554906845092773e-02 3.373300135135650635e-01
-7.787102460861206055e-01 2.133118212223052979e-01 1.180921867489814758e-02
-7.555605173110961914e-01 3.634163364768028259e-02 -4.892849549651145935e-02
-4.776043072342872620e-02 3.255056962370872498e-02 -7.589615136384963989e-02
2.056494802236557007e-01 -2.141162008047103882e-02 2.427147328853607178e-01
8.992785960435867310e-02 -1.502809822559356689e-01 1.390922367572784424e-01
6.336097717285156250e-01 6.650884449481964111e-02 6.410442292690277100e-02
2.367308437824249268e-01 -8.930128067731857300e-02 -3.295749127864837646e-01
5.642665922641754150e-02 2.305946312844753265e-02 4.561436474323272705e-01
-6.593857407569885254e-01 3.685249015688896179e-02 6.286761909723281860e-02
-8.349847197532653809e-01 3.053404577076435089e-02 1.553319841623306274e-01
-2.690941691398620605e-01 2.445758692920207977e-02 -7.823531329631805420e-02
1.547523885965347290e-01 -5.827368423342704773e-02 -2.846467792987823486e-01
-1.079335287213325500e-01 -2.794516645371913910e-02 8.556023985147476196e-02
9.370563030242919922e-01 -7.201294600963592529e-02 -5.290908273309469223e-03
6.526188254356384277e-01 7.852733135223388672e-02 4.883261024951934814e-02
2.456557564437389374e-02 -9.005411714315414429e-02 -1.554931368445977569e-04
-6.573423743247985840e-01 2.620523981750011444e-02 -3.064534254372119904e-02
7.893661260604858398e-01 1.762829162180423737e-02 -7.554661482572555542e-02
-2.010969519615173340e-01 -8.677390217781066895e-02 1.804700121283531189e-02
-8.087430000305175781e-01 3.513172641396522522e-02 -1.181625127792358398e-01
-6.883430480957031250e-01 2.709251455962657928e-02 -5.016529932618141174e-02
-2.684219777584075928e-01 8.532973378896713257e-02 3.563109412789344788e-02
-8.144982904195785522e-02 4.341291636228561401e-02 -7.143291085958480835e-02
2.186896651983261108e-01 -5.176704004406929016e-02 1.066396385431289673e-01
7.640369981527328491e-02 -4.025940597057342529e-02 -7.885371893644332886e-02
-7.832810282707214355e-01 2.736138366162776947e-02 -7.436358928680419922e-02
-6.321492791175842285e-01 1.300696879625320435e-01 -2.360226819291710854e-03
1.655340939760208130e-01 -1.936820708215236664e-02 -2.531620860099792480e-01
-2.088404148817062378e-01 6.201871857047080994e-02 -8.050176501274108887e-01
-2.196758538484573364e-01 3.249679878354072571e-02 -7.592303305864334106e-02
1.908616423606872559e-01 -6.677550263702869415e-03 2.996344864368438721e-01
1.443471312522888184e-01 -2.254087477922439575e-02 2.502161860466003418e-01
1.311187297105789185e-01 -5.295006185770034790e-02 1.132000610232353210e-01
-2.468048334121704102e-01 -8.416586369276046753e-02 -1.916459761559963226e-02
4.147749394178390503e-02 -1.501196622848510742e-01 -1.513141691684722900e-01
3.235220313072204590e-01 4.639737308025360107e-02 -6.968525797128677368e-02
-7.230810523033142090e-01 2.397361956536769867e-02 -6.420163437724113464e-03
4.708358645439147949e-01 -1.952953822910785675e-02 8.781874924898147583e-02
-9.502775967121124268e-02 3.437888994812965393e-02 -5.927178859710693359e-01
1.601566821336746216e-01 -6.677550263702869415e-03 2.087564468383789062e-01
4.016003385186195374e-02 7.150982320308685303e-02 -4.917047917842864990e-02
2.770344316959381104e-01 -1.005938127636909485e-01 3.400187194347381592e-01
9.734866768121719360e-02 -8.425204083323478699e-03 -2.364921569824218750e-01
-4.054112434387207031e-01 2.475334517657756805e-02 8.749610930681228638e-02
-3.157446160912513733e-02 -4.015186056494712830e-02 8.816828578710556030e-02
-1.318629384040832520e-01 5.567338317632675171e-02 7.759106755256652832e-01
-6.126561760902404785e-01 7.363389432430267334e-02 -9.700376540422439575e-03
1.120289713144302368e-01 -1.797008886933326721e-02 -1.749478280544281006e-01
-3.536268770694732666e-01 2.254861220717430115e-02 -7.869239896535873413e-02
2.182325869798660278e-01 -3.934524953365325928e-02 1.519711166620254517e-01
3.362395763397216797e-01 -8.486493676900863647e-02 3.430838882923126221e-01
-1.602287143468856812e-01 7.360701262950897217e-02 -4.683130979537963867e-02
1.610977202653884888e-01 -2.065878361463546753e-02 -1.217653602361679077e-01
-3.628222048282623291e-01 -8.559086918830871582e-02 2.288665995001792908e-02
3.147553279995918274e-02 6.484185159206390381e-02 -5.651062726974487305e-02
1.655325293540954590e-02 -8.749984949827194214e-02 6.488414108753204346e-02
-1.282600760459899902e-01 4.895163699984550476e-02 -7.256472110748291016e-01
8.062495291233062744e-02 -1.170541532337665558e-02 2.399453520774841309e-01
-1.101651415228843689e-01 4.524123296141624451e-02 -6.981148719787597656e-01
9.378091692924499512e-01 3.182462230324745178e-02 -1.591127179563045502e-02
2.832991182804107666e-01 7.491896394640207291e-03 -8.084335923194885254e-02
3.131705522537231445e-01 -1.743234880268573761e-02 8.830270916223526001e-02
-7.805923223495483398e-01 2.937790751457214355e-02 1.106726899743080139e-01
-3.239436149597167969e-01 9.143308550119400024e-02 7.050221320241689682e-03
8.161723613739013672e-01 5.763613432645797729e-02 5.765154585242271423e-02
9.148745536804199219e-01 4.938182607293128967e-02 1.971399411559104919e-02
-7.516618967056274414e-01 3.849259763956069946e-02 -1.682260781526565552e-01
1.650232225656509399e-01 -1.337240915745496750e-02 2.933429181575775146e-01
1.084261089563369751e-01 -1.213560998439788818e-02 -3.010747134685516357e-01
1.655340939760208130e-01 -1.936820708215236664e-02 -2.531620860099792480e-01
2.893755733966827393e-01 7.758628576993942261e-02 5.033828318119049072e-02
-2.727776765823364258e-01 7.535466551780700684e-02 5.380670353770256042e-02
-8.135557770729064941e-01 3.160739243030548096e-01 7.776169572025537491e-03
5.255493521690368652e-02 -1.226949244737625122e-01 1.737764626741409302e-01
1.977178156375885010e-01 -9.933012723922729492e-02 -2.892982065677642822e-01
8.992785960435867310e-02 -3.275793418288230896e-02 2.966500222682952881e-01
-2.702234089374542236e-01 -3.832353651523590088e-02 8.141964673995971680e-02
-6.573423743247985840e-01 2.620523981750011444e-02 -3.064534254372119904e-02
4.282737672328948975e-01 7.704854756593704224e-02 -4.188410565257072449e-02
-2.598197013139724731e-02 8.156555891036987305e-02 -3.478594124317169189e-02
2.147372812032699585e-01 -6.749592721462249756e-02 -2.481611073017120361e-01
7.593064308166503906e-01 2.765713632106781006e-02 -7.503576576709747314e-02
3.146762251853942871e-01 -1.008089184761047363e-01 2.681229114532470703e-01
3.081964552402496338e-01 -5.289629474282264709e-02 -3.410825729370117188e-01
2.416780591011047363e-01 -4.254480078816413879e-02 -2.947293817996978760e-01
2.526463754475116730e-02 2.147312834858894348e-02 5.297602415084838867e-01
-3.628491461277008057e-01 -7.652996480464935303e-02 -3.677557781338691711e-02
7.688766717910766602e-02 8.691606670618057251e-02 -2.265990711748600006e-02
2.276258310303092003e-03 6.604622583836317062e-03 -8.089713007211685181e-02
2.849107980728149414e-02 -1.525450032204389572e-02 3.035331070423126221e-01
-5.598232150077819824e-01 4.537566751241683960e-02 2.078947424888610840e-02
-1.957195401191711426e-01 8.592125028371810913e-02 -2.497218735516071320e-02
-2.559732794761657715e-01 7.562353461980819702e-02 8.840501308441162109e-01
-1.200073212385177612e-02 2.924346923828125000e-02 -7.713294774293899536e-02
4.085909575223922729e-02 -2.931640297174453735e-02 1.815468072891235352e-01
-9.158623963594436646e-02 3.225481510162353516e-02 -6.102750897407531738e-01
2.923600375652313232e-01 -5.690244957804679871e-02 -2.374331951141357422e-01
-6.504861712455749512e-01 2.703873813152313232e-02 5.205904692411422729e-02
3.238447010517120361e-01 -8.868288248777389526e-02 -4.812188446521759033e-02
1.099855452775955200e-01 -8.139651268720626831e-02 7.956444472074508667e-02
5.988717079162597656e-01 -8.115451782941818237e-02 3.659902513027191162e-02
1.375178396701812744e-01 -5.152504891157150269e-02 -2.846467792987823486e-01
-3.407495096325874329e-02 -8.900552242994308472e-02 -4.605158418416976929e-02
-5.978045053780078888e-03 3.206660598516464233e-02 -5.259575247764587402e-01
2.629994153976440430e-01 -6.005374249070882797e-03 -1.451032757759094238e-01
-6.181948781013488770e-01 1.501811593770980835e-01 3.743120701983571053e-03
-4.776043072342872620e-02 3.255056962370872498e-02 -7.589615136384963989e-02
3.255923390388488770e-01 -4.716936126351356506e-02 -9.256608784198760986e-02
-8.115123510360717773e-01 4.247187077999114990e-02 -2.008937746286392212e-01
1.745143383741378784e-01 -3.316679503768682480e-03 -2.118098884820938110e-01
7.403764128684997559e-02 -3.028432652354240417e-02 -2.106537669897079468e-01
6.527248769998550415e-02 -2.990790829062461853e-02 -1.505882143974304199e-01
7.850088179111480713e-02 -2.872488647699356079e-02 1.553051024675369263e-01
-7.452896833419799805e-01 3.964873775839805603e-02 -1.542179584503173828e-01
1.571453362703323364e-01 -2.587486244738101959e-02 1.059674620628356934e-01
-7.761828899383544922e-01 6.040549650788307190e-02 3.958216868340969086e-03
-5.469981431961059570e-01 5.564650148153305054e-02 1.767058297991752625e-02
-4.144199192523956299e-02 1.830046623945236206e-02 -4.776415824890136719e-01
-7.832810282707214355e-01 2.736138366162776947e-02 -7.436358928680419922e-02
-6.181948781013488770e-01 1.501811593770980835e-01 3.743120701983571053e-03
-5.910928249359130859e-01 1.060058400034904480e-01 9.604484774172306061e-03
7.890418916940689087e-02 -6.593649089336395264e-02 -1.184851527214050293e-01
-7.107667922973632812e-01 3.921854496002197266e-02 3.022680990397930145e-02
1.387546360492706299e-01 -1.600733585655689240e-02 -1.644081473350524902e-01
-5.424273610115051270e-01 8.215707540512084961e-02 2.648951672017574310e-02
1.097704619169235229e-01 -5.625716596841812134e-02 -9.420619904994964600e-02
1.885224580764770508e-01 1.146562746725976467e-03 -2.970954477787017822e-01
3.379334807395935059e-01 -4.902457073330879211e-02 8.690459281206130981e-02
-7.099870443344116211e-01 3.099112398922443390e-02 1.231482550501823425e-01
7.323103398084640503e-02 -2.090077474713325500e-02 -1.898163259029388428e-01
7.304127793759107590e-03 -5.367601662874221802e-02 -7.885371893644332886e-02
-6.313979625701904297e-02 2.526419423520565033e-02 5.364550948143005371e-01
-7.520383596420288086e-01 2.252172306180000305e-02 2.371884183958172798e-03
-7.474137544631958008e-01 5.852340906858444214e-02 1.748237386345863342e-02
-3.629566729068756104e-01 8.070517331361770630e-02 -3.615717589855194092e-02
5.309267714619636536e-02 8.621150627732276917e-03 9.007725119590759277e-02
-9.107536822557449341e-02 2.193020656704902649e-02 -5.265759229660034180e-01
4.292786587029695511e-03 -5.461705848574638367e-02 1.208090856671333313e-01
1.182936355471611023e-01 -4.757266491651535034e-02 -1.252875626087188721e-01
9.643294848501682281e-03 1.647214777767658234e-02 5.037067532539367676e-01
2.148448377847671509e-01 -9.005411714315414429e-02 7.157769054174423218e-03
-2.612700462341308594e-01 -6.489346269518136978e-03 8.994282037019729614e-02
-6.571809649467468262e-01 2.631278894841670990e-02 4.162689298391342163e-02
2.872246205806732178e-01 7.511267811059951782e-02 -4.489544779062271118e-02
-8.249842375516891479e-02 2.461890690028667450e-02 -5.570657849311828613e-01
1.684747403487563133e-03 1.549864420667290688e-03 -3.643397986888885498e-01
-1.549319773912429810e-01 4.690822586417198181e-02 7.061389088630676270e-01
1.947871148586273193e-01 2.490915125235915184e-03 -2.649923563003540039e-01
8.940102458000183105e-01 4.276762902736663818e-02 4.520286247134208679e-02
8.202860951423645020e-01 -3.388718888163566589e-02 -6.672768294811248779e-02
-2.116097658872604370e-01 -7.365305721759796143e-02 5.060715228319168091e-02
5.213296413421630859e-01 9.137931466102600098e-02 7.668621838092803955e-03
-8.308710455894470215e-01 2.275888025760650635e-01 6.915785837918519974e-03
7.688766717910766602e-02 8.691606670618057251e-02 -2.265990711748600006e-02
1.097704619169235229e-01 -5.625716596841812134e-02 -9.420619904994964600e-02
4.985294640064239502e-01 9.062647819519042969e-02 -7.603189907968044281e-03
-1.400097012519836426e-01 5.207052826881408691e-02 7.221636176109313965e-01
9.073446691036224365e-02 -2.038991823792457581e-02 -1.790346503257751465e-01
3.117977827787399292e-02 7.163676200434565544e-04 3.999498486518859863e-01
-8.760411143302917480e-01 3.607276454567909241e-02 -2.350940257310867310e-01
-4.899977147579193115e-01 -6.666243076324462891e-02 -3.048402257263660431e-02
-1.341752111911773682e-01 -3.386030718684196472e-02 -7.387962192296981812e-02
-9.322634339332580566e-02 -1.382948737591505051e-02 8.913620561361312866e-02
2.522177398204803467e-01 -9.653389453887939453e-02 -3.278541564941406250e-01
-6.030037403106689453e-01 -2.515564847271889448e-04 -5.648374184966087341e-02
3.198385238647460938e-01 -9.400650858879089355e-02 -3.292522728443145752e-01
-8.422979712486267090e-01 4.330536723136901855e-02 -2.463865578174591064e-01
-4.816627204418182373e-01 7.476314902305603027e-02 4.974676668643951416e-02
2.893755733966827393e-01 7.758628576993942261e-02 5.033828318119049072e-02
2.802877724170684814e-01 -6.781856715679168701e-02 8.693147450685501099e-02
-3.850040137767791748e-01 9.156752377748489380e-02 3.931330051273107529e-03
-2.275537550449371338e-01 -7.316907495260238647e-02 5.135998874902725220e-02
-1.944843120872974396e-02 -4.123283084481954575e-03 3.758322298526763916e-01
5.842989683151245117e-01 7.535466551780700684e-02 5.380670353770256042e-02
3.040021061897277832e-01 -4.606699943542480469e-02 2.966231405735015869e-01
1.723902672529220581e-01 -3.520464897155761719e-02 1.793689727783203125e-01
1.283224821090698242e-01 -2.608995884656906128e-02 3.054958581924438477e-01
-7.021629810333251953e-01 3.553502634167671204e-02 4.622457176446914673e-02
1.381362378597259521e-01 -9.005411714315414429e-02 -2.650474756956100464e-02
9.297430515289306641e-01 4.241809993982315063e-02 4.872374702244997025e-03
-9.107536822557449341e-02 2.193020656704902649e-02 -5.265759229660034180e-01
2.459246478974819183e-02 -2.966592833399772644e-02 2.299433946609497070e-01
6.578887104988098145e-01 2.327455952763557434e-02 8.781874924898147583e-02
-6.619400382041931152e-01 -1.514695584774017334e-02 4.856374114751815796e-02
1.596727222204208374e-01 -9.005411714315414429e-02 -2.093913778662681580e-02
-1.546915713697671890e-02 8.885193616151809692e-02 2.479563839733600616e-02
-5.093832612037658691e-01 6.422345340251922607e-02 1.178233139216899872e-02
5.025087594985961914e-01 -1.326486468315124512e-02 -7.995608448982238770e-02
3.212904334068298340e-01 5.443658679723739624e-02 7.426770776510238647e-02
6.526188254356384277e-01 7.852733135223388672e-02 4.883261024951934814e-02
-1.052717119455337524e-01 -8.728476613759994507e-02 2.452676557004451752e-02
4.580629989504814148e-02 -1.384238153696060181e-01 1.407054513692855835e-01
7.850088179111480713e-02 -9.005411714315414429e-02 3.366702934727072716e-03
-1.159996241331100464e-01 -8.647814393043518066e-02 2.097768336534500122e-02
-1.006486918777227402e-02 -3.066074475646018982e-02 2.287603765726089478e-01
-2.515907287597656250e-01 7.492446899414062500e-02 5.447888001799583435e-02
8.723124861717224121e-01 6.796073913574218750e-02 9.093631990253925323e-03
2.456557564437389374e-02 -9.005411714315414429e-02 -1.554931368445977569e-04
2.095749825239181519e-01 -3.262902610003948212e-03 2.009861022233963013e-01
-1.268888413906097412e-01 2.329594455659389496e-03 -8.121977001428604126e-02
9.184773564338684082e-01 -2.396588772535324097e-02 -4.857896640896797180e-02
-4.382671117782592773e-01 6.174427457153797150e-03 8.897488564252853394e-02
2.838906347751617432e-01 -9.298479557037353516e-02 -3.340650498867034912e-01
-2.003978937864303589e-01 5.855029076337814331e-02 7.930377125740051270e-01
9.856828255578875542e-04 -5.854256078600883484e-02 8.816828578710556030e-02
8.529538512229919434e-01 -1.400908082723617554e-01 1.178233139216899872e-02
4.107419028878211975e-02 -2.982724830508232117e-02 8.816828578710556030e-02
5.511204600334167480e-01 -8.763428777456283569e-02 7.641734555363655090e-03
-3.628222048282623291e-01 -8.559086918830871582e-02 2.288665995001792908e-02
-1.006486918777227402e-02 -3.066074475646018982e-02 2.287603765726089478e-01
-3.536268770694732666e-01 2.254861220717430115e-02 -7.869239896535873413e-02
6.216450333595275879e-01 4.048223420977592468e-02 8.206493407487869263e-02
-8.802892565727233887e-01 3.843882307410240173e-02 -2.630296051502227783e-01
-5.980580672621726990e-02 2.558684162795543671e-02 5.669987201690673828e-01
3.225541114807128906e-01 -2.214308129623532295e-03 -8.095090836286544800e-02
8.460707068443298340e-01 -7.884224504232406616e-02 3.130228817462921143e-02
-1.387997865676879883e-01 4.803748056292533875e-02 7.308211922645568848e-01
-1.869543790817260742e-01 5.768991261720657349e-02 -7.909557223320007324e-01
-8.615759015083312988e-01 4.319781810045242310e-02 2.933967113494873047e-01
-7.118960618972778320e-01 3.991760686039924622e-02 1.156467869877815247e-01
1.291559785604476929e-01 -2.600929886102676392e-02 -2.249307483434677124e-01
2.095212042331695557e-01 -5.410621315240859985e-02 -8.968918025493621826e-02
-1.856638193130493164e-01 -8.421963453292846680e-02 2.834471687674522400e-02
-5.531568080186843872e-02 2.082784101366996765e-02 -5.613139271736145020e-01
1.116525381803512573e-01 -8.970457315444946289e-02 -4.145391285419464111e-02
3.419665098190307617e-01 -4.638964310288429260e-02 1.011009216308593750e-01
6.072858348488807678e-02 -9.005411714315414429e-02 -6.043744739145040512e-03
5.809918642044067383e-01 6.546024978160858154e-02 -5.597288906574249268e-02
-8.601778149604797363e-01 3.212631046772003174e-01 6.458706688135862350e-03
-7.332442998886108398e-01 3.997138142585754395e-02 -2.905900962650775909e-02
2.610097825527191162e-01 -3.012300655245780945e-02 -1.746520698070526123e-01
7.908179759979248047e-01 -1.934132352471351624e-02 8.483429253101348877e-02
2.988935708999633789e-01 -7.720213383436203003e-02 8.367814868688583374e-02
-7.021629810333251953e-01 3.553502634167671204e-02 4.622457176446914673e-02
1.891139745712280273e-01 -5.918785184621810913e-02 8.816828578710556030e-02
2.937581539154052734e-01 -6.946424953639507294e-03 -2.873085737228393555e-01
-1.692896336317062378e-01 6.051304563879966736e-02 7.820140123367309570e-01
1.908616423606872559e-01 -6.677550263702869415e-03 2.996344864368438721e-01
3.334971368312835693e-01 -5.147128179669380188e-02 3.146105408668518066e-01
4.178684949874877930e-01 1.313816010951995850e-02 8.972772210836410522e-02
7.723719626665115356e-02 -8.830645680427551270e-02 1.471583396196365356e-01
1.123247295618057251e-01 -2.993480302393436432e-02 -2.068089097738265991e-01
3.155366182327270508e-01 -1.121283322572708130e-01 3.156591355800628662e-01
-6.005032658576965332e-01 -5.087976902723312378e-02 -1.881506666541099548e-02
8.086694031953811646e-02 -1.083372607827186584e-01 -1.709954291582107544e-01
5.781418681144714355e-01 -5.096042901277542114e-02 -6.479182094335556030e-02
9.326184540987014771e-02 2.443069778382778168e-02 8.754987269639968872e-02
4.303171634674072266e-01 2.760336548089981079e-02 8.682393282651901245e-02
2.802877724170684814e-01 -6.781856715679168701e-02 8.693147450685501099e-02
1.432985365390777588e-01 -2.006727643311023712e-02 1.489328891038894653e-01
2.036060690879821777e-01 -5.614961311221122742e-02 9.212066233158111572e-02
3.334971368312835693e-01 -6.222608312964439392e-02 -2.533234059810638428e-01
2.988935708999633789e-01 -7.720213383436203003e-02 8.367814868688583374e-02
-5.375622957944869995e-02 3.346472978591918945e-02 -5.623087286949157715e-01
7.067676633596420288e-02 -4.123283084481954575e-03 -8.081647008657455444e-02
4.967803135514259338e-02 -1.271312683820724487e-01 -1.405055969953536987e-01
2.521908581256866455e-01 -5.222411826252937317e-02 9.929949045181274414e-02
3.334971368312835693e-01 -8.255264163017272949e-02 -3.199762701988220215e-01
1.030487120151519775e-01 3.297518473118543625e-03 -3.928937911987304688e-01
-2.719710767269134521e-01 7.465559989213943481e-02 8.885672092437744141e-01
1.262252926826477051e-01 -1.926066353917121887e-02 -2.608517706394195557e-01
4.005248472094535828e-02 -6.058597192168235779e-02 9.575040638446807861e-02
2.866599857807159424e-01 -7.628797739744186401e-02 2.502699494361877441e-01
6.942936778068542480e-01 -2.942394651472568512e-02 -7.562727481126785278e-02
2.270515114068984985e-01 -8.720962330698966980e-03 1.478842943906784058e-01
-6.587674021720886230e-01 1.171908229589462280e-01 -6.904128938913345337e-03
-1.751256920397281647e-02 -1.710970699787139893e-02 -7.906881719827651978e-02
3.537967801094055176e-01 2.682363986968994141e-02 8.701213449239730835e-02
1.970456242561340332e-01 -7.440589368343353271e-02 3.379484713077545166e-01
3.032492697238922119e-01 -4.453443363308906555e-02 -7.885371893644332886e-02
2.059990018606185913e-01 -1.501251943409442902e-02 -1.153931468725204468e-01
8.772312104701995850e-02 -4.066270589828491211e-02 9.583106637001037598e-02
-8.085817098617553711e-01 3.714824840426445007e-02 -1.316597759723663330e-01
1.984706521034240723e-01 -2.520268596708774567e-02 -2.160849124193191528e-01
-8.317215368151664734e-03 8.217839524149894714e-03 4.534011781215667725e-01
-5.070171952247619629e-01 -5.752085894346237183e-02 4.875195026397705078e-02
-1.524315029382705688e-01 5.340930540114641190e-03 9.031923860311508179e-02
9.463308006525039673e-02 -1.226411610841751099e-01 1.231751441955566406e-01
3.334971368312835693e-01 -9.846974164247512817e-02 -2.802104055881500244e-01
7.104259133338928223e-01 -6.421571969985961914e-02 6.230299174785614014e-02
5.260870978236198425e-02 -2.748808823525905609e-02 2.601912617683410645e-01
5.574926733970642090e-01 -6.580205261707305908e-02 -5.137521401047706604e-02
7.401090860366821289e-01 -4.687915090471506119e-03 8.889422565698623657e-02
-7.637610435485839844e-01 2.913592197000980377e-02 -9.460949897766113281e-02
-5.552255511283874512e-01 5.715217441320419312e-02 5.853881314396858215e-02
7.628017663955688477e-01 8.368963003158569336e-02 2.807584777474403381e-02
9.922821521759033203e-01 -2.966592833399772644e-02 2.761876955628395081e-02
-6.626928448677062988e-01 -4.187262430787086487e-02 -6.473936140537261963e-03
2.008098065853118896e-01 -4.421179369091987610e-02 -1.278955936431884766e-01
-1.948860585689544678e-01 5.529696494340896606e-02 -7.773509621620178223e-01
-1.282600760459899902e-01 4.895163699984550476e-02 -7.256472110748291016e-01
