-2.250377386808395386e-01 3.070867434144020081e-02 7.112752795219421387e-01
-3.812102973461151123e-01 8.938767760992050171e-02 6.345126032829284668e-02
-1.551105380058288574e-01 2.339457347989082336e-02 6.029766798019409180e-01
-1.210334971547126770e-01 -7.786687463521957397e-02 -4.894756525754928589e-02
2.322872132062911987e-01 -3.018672764301300049e-02 3.182256221771240234e-01
-4.869597777724266052e-02 2.732867747545242310e-02 -6.313602328300476074e-01
4.907465726137161255e-02 -1.857836544513702393e-02 -3.675263524055480957e-01
-2.114069312810897827e-01 3.757949173450469971e-02 7.889321446418762207e-01
5.303645506501197815e-02 -7.925212383270263672e-02 -4.553985595703125000e-02
2.143898606300354004e-01 -4.849966987967491150e-02 -2.640762031078338623e-01
4.721842333674430847e-02 -3.799951076507568359e-02 1.898410767316818237e-01
2.114830305799841881e-03 -1.500381678342819214e-01 -1.310926228761672974e-01
4.034760594367980957e-02 1.594195701181888580e-02 3.875710368156433105e-01
-2.310774177312850952e-01 5.600325763225555420e-02 -8.539414405822753906e-01
6.857891380786895752e-02 -4.157343879342079163e-02 -2.985133826732635498e-01
2.195983678102493286e-01 -3.099016658961772919e-02 -2.874591648578643799e-01
-9.080743789672851562e-02 -5.030666943639516830e-03 3.936106860637664795e-01
5.584294795989990234e-01 9.074521064758300781e-02 -6.266149878501892090e-02
1.946362555027008057e-01 1.046253815293312073e-01 -3.952788934111595154e-02
2.378007024526596069e-02 2.023621834814548492e-02 4.530377089977264404e-01
-8.142934441566467285e-01 8.462243527173995972e-02 3.608656348660588264e-03
7.728655338287353516e-01 -5.451162531971931458e-02 -5.972477048635482788e-02
9.024413228034973145e-01 -2.115492150187492371e-02 -5.005576089024543762e-02
-3.086511790752410889e-01 5.797030404210090637e-02 9.356018900871276855e-01
3.998763393610715866e-03 -3.700213134288787842e-02 1.857961565256118774e-01
6.575300544500350952e-02 -6.841949373483657837e-02 -2.537067979574203491e-02
-7.729023098945617676e-01 5.378686264157295227e-02 -1.428395062685012817e-01
-2.043696865439414978e-02 -1.359917819499969482e-01 1.575094312429428101e-01
-1.479072570800781250e-01 1.718867756426334381e-02 6.184083223342895508e-01
4.556719362735748291e-01 -1.606961632205639035e-05 9.506256133317947388e-02
-7.072694301605224609e-01 5.666817352175712585e-02 -4.540133476257324219e-02
1.420523375272750854e-01 -2.215230092406272888e-02 3.199987411499023438e-01
-7.771134972572326660e-01 5.597554892301559448e-02 -1.628701537847518921e-01
-7.989449501037597656e-01 5.946637317538261414e-02 1.993161439895629883e-01
-6.452104449272155762e-01 1.543833911418914795e-01 5.464885383844375610e-03
1.336300373077392578e-01 -4.016048833727836609e-02 2.005351632833480835e-01
3.282016217708587646e-01 1.118009537458419800e-01 -1.794576458632946014e-02
1.754644513130187988e-01 -2.572622708976268768e-02 -2.862955331802368164e-01
6.713845301419496536e-03 -9.479457139968872070e-02 -1.316467225551605225e-01
4.832661896944046021e-02 -1.379588246345520020e-01 -1.723452359437942505e-01
3.078662157058715820e-01 -5.082688480615615845e-02 -9.568575024604797363e-02
3.865204751491546631e-01 -5.154719948768615723e-02 -7.030804455280303955e-02
3.527204990386962891e-01 -5.362508073449134827e-02 -3.428135514259338379e-01
9.427797198295593262e-01 -1.530918385833501816e-02 3.411176428198814392e-02
3.154019415378570557e-01 -1.286499798297882080e-01 -3.235586583614349365e-01
-8.223556280136108398e-01 3.879850357770919800e-02 -2.506592683494091034e-02
3.023806512355804443e-01 -5.187967792153358459e-02 -3.484099507331848145e-01
2.180191874504089355e-01 -3.553377091884613037e-02 3.238220214843750000e-01
-8.593138307332992554e-02 3.306359052658081055e-02 -5.965628623962402344e-01
3.722247481346130371e-01 -7.692491263151168823e-02 -2.661740221083164215e-02
2.007036209106445312e-01 -1.154624298214912415e-01 3.066449761390686035e-01
7.157124113291501999e-03 -4.337425529956817627e-02 -1.329211443662643433e-01
-2.606106735765933990e-02 -7.302469108253717422e-03 3.229631483554840088e-01
3.329391777515411377e-01 -1.303399801254272461e-01 -3.270494639873504639e-01
-4.215762019157409668e-02 6.743923295289278030e-03 -5.715730190277099609e-01
7.623930573463439941e-01 1.052071750164031982e-01 9.482097811996936798e-03
1.330761332064867020e-02 -1.429734081029891968e-01 -1.463580280542373657e-01
-7.139739394187927246e-01 -9.103287942707538605e-03 2.746258489787578583e-02
-6.575113534927368164e-01 -2.348213642835617065e-02 -2.900002337992191315e-02
3.658803105354309082e-01 -5.977556481957435608e-02 3.403341472148895264e-01
3.394221067428588867e-01 -1.186762079596519470e-01 -2.616381645202636719e-01
2.796903252601623535e-01 -3.653115034103393555e-02 3.042623698711395264e-01
1.294745039194822311e-02 -3.223688900470733643e-02 1.020442098379135132e-01
7.728655338287353516e-01 -5.451162531971931458e-02 -5.972477048635482788e-02
-3.952565044164657593e-02 -2.126573771238327026e-02 2.347507327795028687e-01
2.318439483642578125e-01 -2.766557224094867706e-02 -2.963247001171112061e-01
-3.703221306204795837e-02 2.951736561954021454e-02 -5.871154665946960449e-01
-9.427054971456527710e-02 1.535396557301282883e-03 -4.932235181331634521e-01
-2.842431366443634033e-01 7.290325313806533813e-02 -7.942296564579010010e-02
4.450334608554840088e-02 -8.189022541046142578e-03 -2.435191422700881958e-01
5.857744067907333374e-02 -2.265098504722118378e-02 1.304971575736999512e-01
6.386905908584594727e-01 6.165505945682525635e-02 -8.568427711725234985e-02
2.288795262575149536e-01 -5.218443274497985840e-02 -9.568575024604797363e-02
2.270787060260772705e-01 8.877816796302795410e-02 6.417158991098403931e-02
-9.972842037677764893e-02 -1.012836862355470657e-02 -4.396422207355499268e-01
1.352369338274002075e-01 -6.060670688748359680e-02 -9.568575024604797363e-02
-6.044286116957664490e-02 -4.988491907715797424e-02 8.168109506368637085e-02
4.115105047821998596e-02 8.184584788978099823e-03 9.586601704359054565e-02
3.299193382263183594e-01 -5.503803119063377380e-02 3.107452988624572754e-01
-6.958547979593276978e-02 6.522282492369413376e-03 -4.361236691474914551e-01
7.634458541870117188e-01 6.226456537842750549e-02 7.650027424097061157e-02
-9.080743789672851562e-02 -5.030666943639516830e-03 3.936106860637664795e-01
1.734974235296249390e-01 -1.872301218099892139e-03 2.379922121763229370e-01
7.736134529113769531e-01 -2.592626726254820824e-03 -8.698640763759613037e-02
4.802397452294826508e-04 -1.399258822202682495e-01 1.652945131063461304e-01
6.486645340919494629e-02 3.530155168846249580e-03 9.539502114057540894e-02
-8.889859318733215332e-01 6.173817440867424011e-02 2.784967720508575439e-01
1.935003399848937988e-01 -8.077587932348251343e-02 2.455357089638710022e-02
-7.258040308952331543e-01 1.131030768156051636e-01 6.296033039689064026e-03
3.943354357033967972e-03 -7.243671268224716187e-02 -1.302891820669174194e-01
5.600086450576782227e-01 -5.614622682332992554e-02 -6.504411995410919189e-02
3.309721350669860840e-01 -5.110393837094306946e-02 -2.732188105583190918e-01
-8.626385331153869629e-01 5.035145208239555359e-02 1.373956650495529175e-01
-1.260203868150711060e-01 2.009769156575202942e-02 -6.618910431861877441e-01
3.123821318149566650e-01 -1.071509569883346558e-01 2.490741759538650513e-01
3.219403028488159180e-01 -4.827803745865821838e-02 -2.769312858581542969e-01
6.117891073226928711e-01 1.124104484915733337e-01 -1.176756992936134338e-02
-8.561832904815673828e-01 4.758096113801002502e-02 -1.420914828777313232e-01
-1.050477623939514160e-01 -1.658360660076141357e-02 -4.335471391677856445e-01
4.876157343387603760e-01 -4.381753876805305481e-02 -7.648624479770660400e-02
-7.152482122182846069e-02 9.320480749011039734e-03 -5.824887752532958984e-01
5.514203011989593506e-02 -1.783032715320587158e-02 -1.671090126037597656e-01
7.760515213012695312e-01 9.913980960845947266e-02 -2.653428725898265839e-02
2.126167416572570801e-01 -6.196425482630729675e-02 3.450439870357513428e-01
3.598683774471282959e-01 -2.852442488074302673e-02 -3.058551847934722900e-01
3.129639327526092529e-01 -1.013329327106475830e-01 3.518317043781280518e-01
3.178678825497627258e-02 -5.265541374683380127e-02 -9.568575024604797363e-02
-2.547928094863891602e-01 4.796883091330528259e-02 -8.683757185935974121e-01
5.400611162185668945e-01 1.427966542541980743e-02 9.647551178932189941e-02
-6.939154863357543945e-02 -9.823612868785858154e-03 3.918929994106292725e-01
2.318162322044372559e-01 -1.102539151906967163e-01 2.558895647525787354e-01
3.596744239330291748e-01 -8.033262193202972412e-02 -2.055002562701702118e-02
-6.022123694419860840e-01 -2.179213240742683411e-02 5.167667567729949951e-02
8.885611891746520996e-01 -4.323574155569076538e-02 3.854455053806304932e-02
1.130175963044166565e-01 -4.099163785576820374e-02 -1.837596595287322998e-01
1.495603770017623901e-01 -6.637546233832836151e-03 1.605292707681655884e-01
2.322872132062911987e-01 -3.018672764301300049e-02 3.182256221771240234e-01
3.289773762226104736e-01 -4.390065371990203857e-02 -2.552106082439422607e-01
-9.487176537513732910e-01 6.705752015113830566e-02 -3.089304566383361816e-01
8.741269111633300781e-01 -5.412376672029495239e-02 2.854307740926742554e-02
1.413043141365051270e-01 -4.004967212677001953e-02 -2.040396630764007568e-01
-4.146479535847902298e-03 -1.888312026858329773e-02 -2.151493281126022339e-01
5.737779736518859863e-01 9.999865293502807617e-02 4.788110405206680298e-02
-3.109506666660308838e-01 6.946784257888793945e-02 -8.180558681488037109e-02
-1.501790583133697510e-01 5.015751719474792480e-02 8.996485918760299683e-02
5.203351974487304688e-01 -3.691902011632919312e-02 8.076683431863784790e-02
-8.469852805137634277e-01 4.719309136271476746e-02 1.412189453840255737e-01
-7.370522022247314453e-01 1.029353737831115723e-01 5.381770431995391846e-03
1.560156196355819702e-01 -2.977114729583263397e-02 -2.774853706359863281e-01
-1.329466104507446289e-01 1.618510694243013859e-03 -9.615673124790191650e-02
3.125760555267333984e-01 -1.968655921518802643e-02 -2.864894568920135498e-01
4.937940463423728943e-02 3.985129669308662415e-02 9.340026974678039551e-02
-9.324546903371810913e-02 6.771624553948640823e-03 4.584955871105194092e-01
5.411714315414428711e-03 2.286817878484725952e-02 5.262895226478576660e-01
2.678326368331909180e-01 -1.157949045300483704e-01 3.180316984653472900e-01
2.419584197923541069e-03 1.923265750519931316e-03 3.470110297203063965e-01
-6.759072840213775635e-02 -2.675131708383560181e-02 2.250263094902038574e-01
3.299193382263183594e-01 -8.914276957511901855e-02 -3.272433876991271973e-01
1.700066030025482178e-01 -8.077587932348251343e-02 1.205865480005741119e-02
-7.864498347043991089e-02 -1.921557635068893433e-02 -2.954381704330444336e-01
3.557125926017761230e-01 -6.517802923917770386e-02 3.477867841720581055e-01
1.413043141365051270e-01 -4.004967212677001953e-02 -2.040396630764007568e-01
3.267886638641357422e-01 -1.163489967584609985e-01 -3.106204569339752197e-01
3.431345820426940918e-01 -8.069277554750442505e-02 -3.078222572803497314e-01
-8.716426491737365723e-01 6.694669276475906372e-02 -2.856583297252655029e-01
-5.783307552337646484e-01 2.743949368596076965e-02 7.907683402299880981e-02
-7.903564572334289551e-01 4.846752062439918518e-02 1.715558171272277832e-01
2.486331164836883545e-01 -7.922442257404327393e-02 -2.463727593421936035e-01
2.670291960239410400e-01 2.710703760385513306e-02 -9.654460102319717407e-02
9.029123783111572266e-01 -4.946933686733245850e-02 -2.254477888345718384e-02
-4.303865134716033936e-01 -7.479162514209747314e-02 4.910787101835012436e-03
-5.205659866333007812e-01 9.030193090438842773e-02 5.849207937717437744e-02
6.575320847332477570e-03 -7.589981704950332642e-02 -1.212573796510696411e-01
-1.353846341371536255e-01 -9.657384827733039856e-03 -4.223820269107818604e-01
-7.470813989639282227e-01 -6.083448883146047592e-03 -1.910937018692493439e-02
1.706992238759994507e-01 -9.784211963415145874e-02 -2.809762060642242432e-01
2.126167416572570801e-01 -6.196425482630729675e-02 3.450439870357513428e-01
-2.151193767786026001e-01 1.129091456532478333e-01 -6.808390375226736069e-03
1.935003399848937988e-01 -8.077587932348251343e-02 2.455357089638710022e-02
-1.695448011159896851e-01 -1.550312340259552002e-02 -9.155771881341934204e-02
1.405285745859146118e-01 -4.509196057915687561e-02 2.940392196178436279e-01
-5.290712416172027588e-02 -3.423163667321205139e-02 -1.928745657205581665e-01
2.231723070144653320e-01 -1.292871981859207153e-01 2.896341681480407715e-01
6.783087551593780518e-02 -1.580787822604179382e-02 1.705030351877212524e-01
2.974214553833007812e-01 9.149324893951416016e-02 6.079158931970596313e-02
-2.897010147571563721e-01 -2.359295263886451721e-02 8.741600811481475830e-02
-4.770693182945251465e-01 5.245702713727951050e-02 -8.535181730985641479e-02
-8.939450979232788086e-01 6.456407159566879272e-02 -2.697002887725830078e-01
3.150974214076995850e-02 1.904490031301975250e-02 4.318434894084930420e-01
-9.249746203422546387e-01 6.813801079988479614e-02 3.308867812156677246e-01
3.907318413257598877e-02 1.605277135968208313e-02 4.891095161437988281e-01
-2.644893154501914978e-02 -4.988491907715797424e-02 8.267847448587417603e-02
6.511855125427246094e-01 1.085871756076812744e-01 2.787815965712070465e-02
1.996785551309585571e-01 -1.246327608823776245e-01 -2.876807749271392822e-01
-7.517911791801452637e-01 1.389794647693634033e-01 5.298655945807695389e-03
3.061485290527343750e-01 -5.972016230225563049e-02 -2.448766976594924927e-01
-3.492665588855743408e-01 -9.047875180840492249e-03 -9.369099140167236328e-02
-3.692139312624931335e-02 -7.008179277181625366e-02 2.441504411399364471e-02
3.047909736633300781e-01 -1.086470335721969604e-01 2.688554823398590088e-01
3.024914860725402832e-01 -3.262475878000259399e-02 3.321611881256103516e-01
7.760515213012695312e-01 9.913980960845947266e-02 -2.653428725898265839e-02
-9.239771962165832520e-01 7.085309177637100220e-02 -3.334215879440307617e-01
7.668257951736450195e-01 -2.841360867023468018e-02 -7.978312671184539795e-02
3.798713088035583496e-01 -8.036032319068908691e-02 -4.647407215088605881e-03
-7.053300738334655762e-01 4.636194556951522827e-02 9.689109027385711670e-02
-3.265483677387237549e-02 -8.077587932348251343e-02 -1.113035622984170914e-02
-9.116485118865966797e-01 3.867444992065429688e-01 -1.793801202438771725e-03
-2.650434337556362152e-02 -1.423639208078384399e-01 -1.699072122573852539e-01
2.168001681566238403e-01 -2.954950556159019470e-02 2.869744896888732910e-01
1.935003399848937988e-01 -8.077587932348251343e-02 2.455357089638710022e-02
-9.109559655189514160e-01 3.365986049175262451e-01 -4.362606559880077839e-04
5.963851809501647949e-01 9.459619224071502686e-02 5.691290274262428284e-02
2.333679236471652985e-02 -3.398229554295539856e-02 -2.313567101955413818e-01
-7.084053158760070801e-01 1.096399649977684021e-01 -8.249045349657535553e-03
-1.088433340191841125e-01 1.082824170589447021e-01 2.882012538611888885e-02
-5.456112623214721680e-01 -5.345885455608367920e-02 -8.526094257831573486e-03
-4.840509295463562012e-01 -1.458885800093412399e-02 -8.094673603773117065e-02
-7.822389602661132812e-01 3.968506306409835815e-02 -8.432673662900924683e-02
-1.076795440167188644e-02 -1.666673086583614349e-02 3.587579131126403809e-01
-3.766942396759986877e-02 9.819164872169494629e-03 -9.696017205715179443e-02
7.276235520839691162e-02 -8.077587932348251343e-02 -3.512280806899070740e-02
2.878355681896209717e-01 -7.983391731977462769e-02 -3.407911062240600586e-01
-3.772207796573638916e-01 -6.445769965648651123e-02 -5.454395711421966553e-02
2.553931176662445068e-01 -7.800540328025817871e-02 2.455556392669677734e-01
3.299193382263183594e-01 -8.914276957511901855e-02 -3.272433876991271973e-01
-4.465106502175331116e-02 -3.254164382815361023e-02 -1.538106501102447510e-01
-7.777783870697021484e-01 4.156899452209472656e-02 1.040943711996078491e-01
-1.409810334444046021e-01 3.073637560009956360e-02 6.317343711853027344e-01
2.486331164836883545e-01 -7.922442257404327393e-02 -2.463727593421936035e-01
-4.107712581753730774e-02 -2.129344828426837921e-02 9.475781023502349854e-02
-4.204680025577545166e-02 2.757802046835422516e-02 6.193780303001403809e-01
4.714083373546600342e-01 1.458441000431776047e-02 -9.743115305900573730e-02
8.189110159873962402e-01 8.656176924705505371e-02 3.552471473813056946e-02
5.770194530487060547e-01 1.513850688934326172e-02 9.655863046646118164e-02
2.327304929494857788e-01 -8.077587932348251343e-02 -4.650953039526939392e-02
1.610579043626785278e-01 -7.918078918009996414e-04 -2.873760163784027100e-01
-6.094433665275573730e-01 9.963849186897277832e-02 -3.689592331647872925e-02
-5.462482944130897522e-02 2.034703455865383148e-02 4.966175556182861328e-01
-8.169808387756347656e-01 5.838587880134582520e-02 -1.947031021118164062e-01
2.270510047674179077e-01 -1.182606294751167297e-01 3.024615347385406494e-01
2.482452690601348877e-01 -4.977409169077873230e-02 1.275881230831146240e-01
1.391156315803527832e-01 3.585567930713295937e-03 -9.635066241025924683e-02
-7.855911254882812500e-01 -1.872301218099892139e-03 -1.239702920429408550e-03
4.855932295322418213e-01 7.910914719104766846e-02 -7.443608343601226807e-02
5.203351974487304688e-01 -3.691902011632919312e-02 8.076683431863784790e-02
2.773631215095520020e-01 -4.855507239699363708e-02 3.295015096664428711e-01
-2.706677317619323730e-01 5.162588134407997131e-02 -8.975211977958679199e-01
-8.354877829551696777e-01 5.359292775392532349e-02 1.580081284046173096e-01
5.071753859519958496e-01 1.083932444453239441e-01 -2.936018630862236023e-02
-8.990982770919799805e-01 6.362210959196090698e-02 -7.778062019497156143e-03
1.651859432458877563e-01 -9.052801877260208130e-02 -3.194029033184051514e-01
-4.262861907482147217e-01 -3.004820086061954498e-02 7.982486486434936523e-02
-4.225460290908813477e-01 -4.057607054710388184e-02 -7.402050495147705078e-02
-7.373292446136474609e-01 6.622637063264846802e-02 3.829520568251609802e-02
-9.328150749206542969e-01 6.364981085062026978e-02 -2.711132466793060303e-01
-5.775548517704010010e-02 -3.174435580149292946e-03 -3.735105991363525391e-01
-9.576643817126750946e-03 -8.410663343966007233e-03 -4.375643432140350342e-01
5.320543646812438965e-01 5.486735701560974121e-02 8.813634514808654785e-02
-1.956151425838470459e-01 3.685915842652320862e-02 7.120232582092285156e-01
-1.768311858177185059e-01 4.082096368074417114e-02 8.125920891761779785e-01
1.996785551309585571e-01 -1.246327608823776245e-01 -2.876807749271392822e-01
3.023252487182617188e-01 -1.215852349996566772e-01 3.010762929916381836e-01
-6.035974621772766113e-02 -4.329114407300949097e-02 -1.167414784431457520e-01
-5.775548517704010010e-02 -3.174435580149292946e-03 -3.735105991363525391e-01
-3.994122520089149475e-02 2.338846446946263313e-03 -5.287412405014038086e-01
-3.007552623748779297e-01 5.434095859527587891e-02 8.928255438804626465e-01
-7.780554294586181641e-01 3.985129669308662415e-02 8.619699627161026001e-02
8.204348087310791016e-01 -5.999721586704254150e-02 4.053930193185806274e-02
-3.039413392543792725e-01 6.087932363152503967e-02 -9.359202980995178223e-01
9.309219717979431152e-01 2.646982669830322266e-02 4.045619070529937744e-02
-6.399741768836975098e-01 -3.002048842608928680e-02 2.244799770414829254e-02
3.464037775993347168e-01 -1.117222830653190613e-01 -2.732465267181396484e-01
-1.329466104507446289e-01 1.618510694243013859e-03 -9.615673124790191650e-02
2.056630142033100128e-02 -9.795911610126495361e-03 4.399610161781311035e-01
-7.856187224388122559e-02 9.071750938892364502e-02 -6.271690130233764648e-02
-3.068780601024627686e-01 9.049586951732635498e-02 6.203830987215042114e-02
7.846956700086593628e-02 9.043426252901554108e-03 -9.687706083059310913e-02
2.113423049449920654e-01 -1.213635802268981934e-01 3.252626657485961914e-01
-8.440742269158363342e-03 -2.204147540032863617e-02 1.967673003673553467e-01
3.638600464910268784e-03 -1.531134098768234253e-01 -1.668319553136825562e-01
-5.783307552337646484e-01 2.743949368596076965e-02 7.907683402299880981e-02
-6.532171368598937988e-01 -1.860606670379638672e-02 -3.814264386892318726e-02
-3.129454255104064941e-01 5.564309284090995789e-02 -8.867640048265457153e-02
3.705072402954101562e-02 1.821375824511051178e-02 4.242800176143646240e-01
-7.105384021997451782e-02 -8.077587932348251343e-02 -4.130100458860397339e-02
-5.462482944130897522e-02 2.034703455865383148e-02 4.966175556182861328e-01
-1.391525119543075562e-01 3.807198489084839821e-03 4.830144345760345459e-01
6.207932233810424805e-01 -1.481049880385398865e-02 -9.177935868501663208e-02
3.902329504489898682e-01 1.086702942848205566e-01 2.768422476947307587e-02
8.899464607238769531e-01 -4.628328233957290649e-02 -3.534444794058799744e-02
-8.164267539978027344e-01 4.855063557624816895e-02 1.647127121686935425e-01
-4.598368704319000244e-01 1.081161871552467346e-01 -2.869526855647563934e-02
9.024413228034973145e-01 -2.115492150187492371e-02 -5.005576089024543762e-02
3.192806541919708252e-01 -9.329851716756820679e-02 -2.435745745897293091e-01
3.369009792804718018e-01 -1.186762079596519470e-01 3.176992237567901611e-01
9.131354689598083496e-01 6.270784884691238403e-02 1.928963698446750641e-02
-1.541131585836410522e-01 2.649752795696258545e-02 7.118293642997741699e-01
-8.457383513450622559e-02 8.877198211848735809e-03 4.627898633480072021e-01
3.299193382263183594e-01 -8.914276957511901855e-02 -3.272433876991271973e-01
3.865204751491546631e-01 -5.154719948768615723e-02 -7.030804455280303955e-02
-6.651856899261474609e-01 1.007743850350379944e-01 -1.570166647434234619e-02
2.176590412855148315e-01 -6.559359282255172729e-02 -2.500575184822082520e-01
3.325513005256652832e-01 -4.500884562730789185e-02 -9.247197955846786499e-02
-1.398451328277587891e-01 2.694080956280231476e-02 -7.250581979751586914e-01
-5.456112623214721680e-01 -5.345885455608367920e-02 -8.526094257831573486e-03
8.880071043968200684e-01 5.459030717611312866e-02 -4.681428521871566772e-02
-3.794094622135162354e-01 -7.044195383787155151e-02 4.161979258060455322e-02
2.627349197864532471e-01 -4.805638641119003296e-02 -3.439494669437408447e-01
4.406006261706352234e-02 -1.713771373033523560e-02 1.831918805837631226e-01
2.245023474097251892e-02 2.067949064075946808e-02 4.934591948986053467e-01
-1.486828178167343140e-02 -8.024949580430984497e-02 7.082077115774154663e-02
5.770194530487060547e-01 1.513850688934326172e-02 9.655863046646118164e-02
-4.645167849957942963e-03 -4.988491907715797424e-02 3.727012500166893005e-02
7.728655338287353516e-01 -5.451162531971931458e-02 -5.972477048635482788e-02
9.679357409477233887e-01 2.597113139927387238e-02 -1.176756992936134338e-02
-8.894568681716918945e-01 3.165402412414550781e-01 -1.405932591296732426e-03
-6.537435054779052734e-01 1.245729103684425354e-01 -1.198920793831348419e-02
-4.276712611317634583e-02 -1.283729225397109985e-01 1.816127151250839233e-01
-2.112958952784538269e-02 -7.002639025449752808e-02 -9.269361943006515503e-02
-3.395696729421615601e-02 -6.609844975173473358e-03 4.440890550613403320e-01
2.159136235713958740e-01 -1.027458831667900085e-01 3.349593877792358398e-01
-8.870186656713485718e-02 2.885244414210319519e-02 -6.898729801177978516e-01
-4.857963621616363525e-01 4.220621287822723389e-02 8.517190814018249512e-02
3.224390149116516113e-01 -8.077587932348251343e-02 3.555441200733184814e-01
3.023252487182617188e-01 -1.215852349996566772e-01 3.010762929916381836e-01
-6.960489153861999512e-01 -1.669443212449550629e-02 2.208783105015754700e-02
-3.893001377582550049e-01 1.122442260384559631e-01 -1.337445434182882309e-02
8.058066368103027344e-01 -1.337476670742034912e-01 -1.002215966582298279e-02
1.589523255825042725e-01 -6.672950834035873413e-02 2.864758074283599854e-01
1.971019804477691650e-01 -1.439491845667362213e-02 2.876671254634857178e-01
2.012023180723190308e-01 -8.077587932348251343e-02 3.175684437155723572e-02
2.270787060260772705e-01 8.877816796302795410e-02 6.417158991098403931e-02
6.776437163352966309e-01 8.686652034521102905e-02 6.655421108007431030e-02
1.804515346884727478e-02 -1.494286656379699707e-01 -1.349990218877792358e-01
3.023806512355804443e-01 -5.187967792153358459e-02 -3.484099507331848145e-01
-4.074466973543167114e-02 2.408719807863235474e-02 5.055939555168151855e-01
-6.452104449272155762e-01 1.543833911418914795e-01 5.464885383844375610e-03
2.920190095901489258e-01 -1.058488339185714722e-01 2.668330073356628418e-01
-9.427054971456527710e-02 1.588654331862926483e-02 6.381619572639465332e-01
2.671400010585784912e-01 1.060106232762336731e-01 -3.645264357328414917e-02
2.292121760547161102e-02 -3.184901922941207886e-02 2.358035147190093994e-01
2.456132918596267700e-01 -1.578016765415668488e-02 -1.814324408769607544e-01
3.265947401523590088e-01 -7.094065845012664795e-02 2.718753218650817871e-01
4.774757027626037598e-01 -7.008179277181625366e-02 4.231241717934608459e-02
-7.258040308952331543e-01 1.131030768156051636e-01 6.296033039689064026e-03
-4.100787937641143799e-01 -3.813802823424339294e-02 -7.884116470813751221e-02
1.029607132077217102e-01 -8.077587932348251343e-02 3.175684437155723572e-02
-1.974159479141235352e-01 2.480752393603324890e-02 6.670858860015869141e-01
7.276235520839691162e-02 -8.077587932348251343e-02 -3.512280806899070740e-02
8.509103953838348389e-02 9.817013144493103027e-02 -5.249378830194473267e-02
-1.391525119543075562e-01 3.807198489084839821e-03 4.830144345760345459e-01
-1.311734914779663086e-01 3.557856427505612373e-03 4.954816401004791260e-01
5.899299383163452148e-01 -6.035737320780754089e-02 5.885224789381027222e-02
-2.036772519350051880e-01 2.957276813685894012e-02 -7.118706703186035156e-01
-4.443220794200897217e-01 4.093178361654281616e-02 8.921682834625244141e-02
4.572236165404319763e-02 -4.650491103529930115e-02 -9.568575024604797363e-02
2.582744359970092773e-01 -9.906112402677536011e-02 2.459989190101623535e-01
-3.897136077284812927e-03 1.120225861668586731e-01 -1.561855245381593704e-02
-1.532820165157318115e-01 4.312046989798545837e-02 -7.130065560340881348e-01
-1.494587361812591553e-01 -1.126426365226507187e-02 -9.297066181898117065e-02
2.293782085180282593e-01 -1.091734170913696289e-01 3.260384202003479004e-01
-7.784433364868164062e-01 5.242932215332984924e-02 1.824161559343338013e-01
-4.432416260242462158e-01 1.114684864878654480e-01 -2.021756768226623535e-02
5.516417622566223145e-01 -8.044342696666717529e-02 2.888328628614544868e-03
-8.378426432609558105e-01 1.513850688934326172e-02 -1.489822380244731903e-02
-3.656122833490371704e-02 -2.650196477770805359e-02 -2.619706094264984131e-01
-1.528664380311965942e-01 2.660834230482578278e-02 -6.185605525970458984e-01
-5.025855302810668945e-01 -6.044047698378562927e-02 1.552176754921674728e-02
6.982562690973281860e-02 -2.860753983259201050e-02 -3.030570149421691895e-01
-3.144137859344482422e-01 6.459178030490875244e-02 8.328797668218612671e-02
-5.579122304916381836e-01 1.003311201930046082e-01 4.416864365339279175e-02
-7.692728191614151001e-02 2.566637657582759857e-02 5.463478565216064453e-01
-1.238593980669975281e-01 1.129922643303871155e-01 -5.838718265295028687e-03
-7.108710408210754395e-01 2.799359150230884552e-02 -5.047133564949035645e-02
1.733588874340057373e-01 -2.758865011855959892e-03 2.705177664756774902e-01
-1.785488873720169067e-01 -5.113163962960243225e-02 6.971257179975509644e-02
9.439989179372787476e-02 -7.684178650379180908e-02 -8.399427682161331177e-02
2.230060845613479614e-01 -9.651227295398712158e-02 3.419687449932098389e-01
-8.638852834701538086e-01 3.824502527713775635e-01 4.550623241811990738e-03
6.211810708045959473e-01 -6.271228939294815063e-02 -5.684346333146095276e-02
3.247385025024414062e-01 -7.977851480245590210e-02 6.353437900543212891e-02
2.009531855583190918e-02 -1.339754927903413773e-02 9.475781023502349854e-02
6.074671745300292969e-01 -4.417770728468894958e-02 -7.620919495820999146e-02
-4.640479981899261475e-01 8.692193776369094849e-02 6.444863975048065186e-02
5.606458187103271484e-01 -7.883654534816741943e-02 1.895717717707157135e-02
1.959937810897827148e-01 -2.090558037161827087e-02 3.053151369094848633e-01
3.713383898138999939e-02 9.535980643704533577e-04 4.882506728172302246e-01
-8.826968669891357422e-01 5.857981368899345398e-02 2.473841756582260132e-01
-1.079013720154762268e-01 3.834910225123167038e-03 5.095003247261047363e-01
-4.495306313037872314e-01 5.927243828773498535e-02 -8.388345688581466675e-02
-6.546854972839355469e-01 -1.112574711441993713e-02 4.555388912558555603e-02
2.337001711130142212e-01 -3.500737622380256653e-02 2.855892479419708252e-01
4.654517769813537598e-01 1.108589842915534973e-01 2.111816033720970154e-02
-2.233200371265411377e-01 -6.429146975278854370e-02 5.392077192664146423e-02
-5.113402605056762695e-01 6.744538247585296631e-02 -7.676329463720321655e-02
2.907168865203857422e-01 -4.403917863965034485e-02 9.475781023502349854e-02
-2.151193767786026001e-01 1.129091456532478333e-01 -6.808390375226736069e-03
2.084887027740478516e-01 -7.136241067200899124e-03 -1.692422777414321899e-01
1.531343013048171997e-01 5.348210781812667847e-02 -8.975689858198165894e-02
-1.286246478557586670e-01 3.442112728953361511e-02 -7.449780106544494629e-01
-3.897136077284812927e-03 1.120225861668586731e-01 -1.561855245381593704e-02
3.173412978649139404e-01 -8.002786338329315186e-02 2.795772850513458252e-01
-1.362711936235427856e-01 7.602775935083627701e-03 -5.316225290298461914e-01
9.041036367416381836e-01 -5.071605741977691650e-02 1.646373607218265533e-02
6.321521997451782227e-01 7.323571294546127319e-02 -7.914591580629348755e-02
-4.472865462303161621e-01 -3.434246033430099487e-02 -7.507329434156417847e-02
-4.282532632350921631e-01 -1.561393868178129196e-02 8.694501966238021851e-02
3.222450613975524902e-01 -8.606752008199691772e-02 3.118257820606231689e-01
-4.309958592057228088e-02 -5.077148228883743286e-02 -9.413427114486694336e-02
7.642215490341186523e-01 9.642472118139266968e-02 3.846143186092376709e-02
-9.920202195644378662e-02 2.394867129623889923e-02 -6.866315007209777832e-01
2.857577204704284668e-01 -3.858131170272827148e-02 -2.591447234153747559e-01
-7.053300738334655762e-01 4.636194556951522827e-02 9.689109027385711670e-02
6.506037116050720215e-01 -8.466076105833053589e-03 -9.388493001461029053e-02
6.049183011054992676e-01 -6.492868065834045410e-02 -5.360198765993118286e-02
3.045693337917327881e-01 -2.761016972362995148e-02 2.753661274909973145e-01
-8.750780820846557617e-01 6.121177971363067627e-02 -1.243248768150806427e-02
1.466236561536788940e-01 -4.539671540260314941e-02 1.562627106904983521e-01
1.652136445045471191e-01 -3.492426127195358276e-02 3.101357817649841309e-01
-7.979475855827331543e-01 5.977112054824829102e-02 2.649291418492794037e-02
-9.814924001693725586e-02 4.400702938437461853e-02 9.201502054929733276e-02
-9.972842037677764893e-02 -1.012836862355470657e-02 -4.396422207355499268e-01
-1.081507131457328796e-01 -3.143344819545745850e-02 2.487417012453079224e-01
5.133813023567199707e-01 8.999717980623245239e-02 6.264781951904296875e-02
1.856598556041717529e-01 -3.590005915611982346e-03 2.305949777364730835e-01
2.268570661544799805e-01 -3.245852887630462646e-02 3.022398948669433594e-01
-3.628417477011680603e-02 -4.725912120193243027e-03 3.467893600463867188e-01
-4.957146942615509033e-01 3.987899795174598694e-02 8.508879691362380981e-02
2.150824666023254395e-01 -4.902605712413787842e-02 -3.356103003025054932e-01
6.470297574996948242e-01 -1.996361277997493744e-02 -9.006164968013763428e-02
5.395071581006050110e-02 8.315406739711761475e-02 7.023896276950836182e-02
-1.102839857339859009e-01 -3.057459555566310883e-02 -2.441286593675613403e-01
2.474417984485626221e-01 -8.077587932348251343e-02 -2.553691156208515167e-02
1.478703767061233521e-01 4.295424371957778931e-02 9.237518906593322754e-02
4.659504592418670654e-01 1.129368469119071960e-01 -6.365111563354730606e-03
-9.046669006347656250e-01 5.217997729778289795e-02 1.674000918865203857e-01
9.131354689598083496e-01 6.270784884691238403e-02 1.928963698446750641e-02
2.469985485076904297e-01 1.173080969601869583e-02 -9.715411067008972168e-02
1.935003399848937988e-01 -8.077587932348251343e-02 2.455357089638710022e-02
-9.235339760780334473e-01 5.830276384949684143e-02 2.247769534587860107e-01
-8.637465536594390869e-02 -4.642798099666833878e-03 4.330070614814758301e-01
-6.022123694419860840e-01 6.708522140979766846e-02 -6.640165299177169800e-02
-8.964662551879882812e-01 3.356012105941772461e-01 4.502965311985462904e-04
-7.485219836235046387e-01 8.115931600332260132e-02 -2.958182804286479950e-02
5.843891203403472900e-02 -3.445327654480934143e-02 2.245276272296905518e-01
5.203351974487304688e-01 -3.691902011632919312e-02 8.076683431863784790e-02
7.397027015686035156e-01 4.899391531944274902e-02 -8.704181015491485596e-02
2.655054032802581787e-01 -5.401294305920600891e-02 2.639794051647186279e-01
1.838590502738952637e-01 -3.451478900387883186e-03 2.131409049034118652e-01
-7.526500225067138672e-01 3.949112817645072937e-02 -9.108673036098480225e-02
-5.549477934837341309e-01 -5.246146395802497864e-02 1.586197875440120697e-03
2.840122878551483154e-01 -1.221116185188293457e-01 2.599344849586486816e-01
-6.839416921138763428e-02 -4.503655806183815002e-02 1.011853590607643127e-01
-4.419394433498382568e-01 4.112571850419044495e-02 -9.028328955173492432e-02
-8.240178823471069336e-01 6.370522081851959229e-02 -2.237855084240436554e-02
5.389530956745147705e-02 -1.556068509817123413e-01 -1.333921253681182861e-01
-9.083513915538787842e-02 8.996947854757308960e-02 -6.363116204738616943e-02
-3.492665588855743408e-01 -9.047875180840492249e-03 -9.369099140167236328e-02
-1.856690645217895508e-01 1.118009537458419800e-01 1.693471893668174744e-02
3.212200105190277100e-01 -4.908147826790809631e-02 -3.213145434856414795e-01
-3.955891430377960205e-01 4.619571939110755920e-02 -9.222263842821121216e-02
2.819344103336334229e-01 -3.148885071277618408e-02 3.115764558315277100e-01
-1.835909858345985413e-02 -8.077587932348251343e-02 -1.514756865799427032e-02
-7.947891950607299805e-01 5.934301880188286304e-04 3.830295754596590996e-03
7.190070748329162598e-01 3.530769050121307373e-02 -9.358017146587371826e-02
-1.335007101297378540e-01 2.267424948513507843e-02 -6.840826869010925293e-01
-1.125003844499588013e-01 4.062702879309654236e-02 -6.882106661796569824e-01
9.053503870964050293e-01 4.605719074606895447e-02 -4.437625408172607422e-02
-8.802312016487121582e-01 6.678047031164169312e-02 -3.208989799022674561e-01
2.295998483896255493e-01 -1.154070273041725159e-01 -3.144991397857666016e-01
-6.069220602512359619e-02 1.113022565841674805e-01 -2.077166549861431122e-02
2.933765351772308350e-01 -2.547688409686088562e-02 2.815166115760803223e-01
-7.692728191614151001e-02 2.566637657582759857e-02 5.463478565216064453e-01
-2.706677317619323730e-01 5.162588134407997131e-02 -8.975211977958679199e-01
-6.136268377304077148e-01 -1.713771373033523560e-02 -5.335264280438423157e-02
-3.539762273430824280e-02 6.134413182735443115e-03 -5.644805431365966797e-01
1.652136445045471191e-01 -3.492426127195358276e-02 3.101357817649841309e-01
4.572236165404319763e-02 -1.416989862918853760e-01 -1.573014706373214722e-01
1.787613332271575928e-01 -4.412229359149932861e-02 -1.805735975503921509e-01
-7.458623647689819336e-01 4.533686488866806030e-02 6.162273883819580078e-02
5.433858558535575867e-02 3.009916469454765320e-02 9.531190246343612671e-02
-7.454190254211425781e-01 -7.745740469545125961e-03 1.507848966866731644e-02
1.918934732675552368e-01 -1.051562204957008362e-01 3.179208636283874512e-01
6.776437163352966309e-01 8.686652034521102905e-02 6.655421108007431030e-02
1.890400610864162445e-02 -6.628622859716415405e-02 -1.588252484798431396e-01
9.684344530105590820e-01 2.475212141871452332e-02 1.277898252010345459e-02
2.713236398994922638e-02 -8.077587932348251343e-02 2.563406154513359070e-02
1.589523255825042725e-01 -6.672950834035873413e-02 2.864758074283599854e-01
-8.967156410217285156e-01 5.666817352175712585e-02 2.007567882537841797e-01
-6.346271634101867676e-01 3.949112817645072937e-02 6.613864004611968994e-02
-6.537435054779052734e-01 1.245729103684425354e-01 -1.198920793831348419e-02
-8.036269247531890869e-02 5.635729059576988220e-03 5.394216179847717285e-01
-4.598368704319000244e-01 1.081161871552467346e-01 -2.869526855647563934e-02
4.063849151134490967e-01 7.242607884109020233e-03 9.578289091587066650e-02
2.850927710533142090e-01 -6.744982302188873291e-02 -9.496542066335678101e-02
-3.268253803253173828e-02 -7.722966372966766357e-02 7.796863466501235962e-02
2.685531601309776306e-02 1.134078279137611389e-01 8.658702136017382145e-04
2.419584197923541069e-03 -7.750672101974487305e-02 -2.537067979574203491e-02
2.118687033653259277e-01 -4.157343879342079163e-02 -1.877491772174835205e-01
2.532321214675903320e-01 -4.212753474712371826e-02 -3.403201103210449219e-01
-3.358573913574218750e-01 2.253572270274162292e-02 9.605994075536727905e-02
8.880071043968200684e-01 5.459030717611312866e-02 -4.681428521871566772e-02
2.318439483642578125e-01 -2.766557224094867706e-02 -2.963247001171112061e-01
-2.586713247001171112e-02 4.666050896048545837e-03 9.550584852695465088e-02
3.961617946624755859e-01 1.034340560436248779e-01 4.101028665900230408e-02
-1.551105380058288574e-01 2.339457347989082336e-02 6.029766798019409180e-01
-1.131930053234100342e-01 -7.819933444261550903e-02 5.727306753396987915e-02
1.882918328046798706e-01 3.962965309619903564e-02 9.345568716526031494e-02
5.652727186679840088e-02 -1.385129243135452271e-01 -1.376309841871261597e-01
-3.979994952678680420e-01 -3.869212791323661804e-02 -8.061427623033523560e-02
-9.850940853357315063e-02 -8.466076105833053589e-03 -3.954528868198394775e-01
1.995400190353393555e-01 -4.016048833727836609e-02 -3.191812634468078613e-01
6.299635171890258789e-01 -4.827803745865821838e-02 -7.291231304407119751e-02
2.546727955341339111e-01 -1.251591444015502930e-01 3.301941454410552979e-01
-9.101801514625549316e-01 5.988194420933723450e-02 -2.494203001260757446e-01
-4.058953821659088135e-01 -6.329409778118133545e-02 -5.465477705001831055e-02
-8.324401974678039551e-01 4.245555400848388672e-02 6.137339398264884949e-02
-1.631726622581481934e-01 2.048556134104728699e-02 6.483296155929565430e-01
7.184808701276779175e-02 -5.058368202298879623e-03 -2.377842366695404053e-01
2.906891703605651855e-01 -2.630803547799587250e-02 -2.878192961215972900e-01
-4.381161928176879883e-01 -4.927540943026542664e-02 6.256470829248428345e-02
8.202408552169799805e-01 -6.473474949598312378e-02 -3.215838596224784851e-02
1.908129751682281494e-01 -3.096245415508747101e-02 -2.921412885189056396e-01
-5.953692793846130371e-01 -3.400999680161476135e-02 3.818438574671745300e-02
4.654517769813537598e-01 1.108589842915534973e-01 2.111816033720970154e-02
-5.079048275947570801e-01 -2.187524735927581787e-02 -7.166559249162673950e-02
-6.651856899261474609e-01 1.007743850350379944e-01 -1.570166647434234619e-02
5.278711393475532532e-02 -6.805933266878128052e-02 2.441504411399364471e-02
3.499499857425689697e-01 -8.077587932348251343e-02 2.089652232825756073e-02
3.063978850841522217e-01 -1.211696490645408630e-01 -2.912270128726959229e-01
7.580989599227905273e-02 1.022981628775596619e-01 -4.421002045273780823e-02
2.962301671504974365e-01 -1.196735799312591553e-01 3.404449522495269775e-01
2.106219828128814697e-01 -3.409311920404434204e-02 -2.823614478111267090e-01
-1.856136620044708252e-01 8.387439697980880737e-02 -7.058509439229965210e-02
-6.053430438041687012e-01 5.132112652063369751e-02 -7.216428220272064209e-02
2.401831299066543579e-01 -8.772982656955718994e-02 3.531338274478912354e-01
-7.568889260292053223e-01 4.691604524850845337e-02 -7.936755567789077759e-02
1.013261228799819946e-01 -3.691902011632919312e-02 2.184602469205856323e-01
7.936995625495910645e-01 8.678341656923294067e-02 -4.612166061997413635e-02
1.420246362686157227e-01 1.119671836495399475e-01 -1.625576429069042206e-02
-6.644098758697509766e-01 9.310013055801391602e-02 -3.301723673939704895e-02
2.486331164836883545e-01 -7.922442257404327393e-02 -2.463727593421936035e-01
2.501014769077301025e-01 -1.280127763748168945e-01 3.153997361660003662e-01
3.433562219142913818e-01 -7.919669896364212036e-02 4.796421527862548828e-02
-1.081230118870735168e-01 2.886751317419111729e-04 -4.747443497180938721e-01
9.539727121591567993e-02 1.092797964811325073e-01 -2.678363025188446045e-02
2.671400010585784912e-01 1.060106232762336731e-01 -3.645264357328414917e-02
4.832661896944046021e-02 -1.379588246345520020e-01 -1.723452359437942505e-01
-2.841598354279994965e-02 -7.925212383270263672e-02 -3.836428374052047729e-02
7.668257951736450195e-01 -2.841360867023468018e-02 -7.978312671184539795e-02
4.937940463423728943e-02 3.985129669308662415e-02 9.340026974678039551e-02
2.534260749816894531e-01 7.938619703054428101e-02 -7.421444356441497803e-02
1.699511855840682983e-01 -2.885689213871955872e-02 2.731497287750244141e-01
-7.657267451286315918e-01 1.932256817817687988e-01 -6.642160937190055847e-03
1.996785551309585571e-01 -1.246327608823776245e-01 -2.876807749271392822e-01
-3.054373860359191895e-01 -7.085753232240676880e-02 -4.168887063860893250e-02
-6.100251674652099609e-01 1.161229163408279419e-01 -6.780684925615787506e-03
-9.140311479568481445e-01 3.720608949661254883e-01 -7.133097969926893711e-04
1.629695445299148560e-01 -7.501327991485595703e-02 2.775271236896514893e-01
5.426377058029174805e-01 6.254161149263381958e-02 -8.524099737405776978e-02
2.571939527988433838e-01 -1.299244016408920288e-01 -2.825830578804016113e-01
4.937940463423728943e-02 3.985129669308662415e-02 9.340026974678039551e-02
2.524009943008422852e-01 -1.439491845667362213e-02 3.114102184772491455e-01
9.838383793830871582e-01 1.602507010102272034e-02 3.109968034550547600e-03
4.450334608554840088e-02 -8.189022541046142578e-03 -2.435191422700881958e-01
3.347678855061531067e-02 -2.237394265830516815e-02 -1.543093323707580566e-01
2.082116454839706421e-01 -7.496398407965898514e-03 -1.070447564125061035e-01
-1.687967628240585327e-01 5.431325733661651611e-02 8.841338753700256348e-02
4.954563826322555542e-02 -5.086069460958242416e-03 -4.584261476993560791e-01
7.630301713943481445e-01 -5.160262435674667358e-02 6.433781981468200684e-02
-7.413464188575744629e-01 3.655441477894783020e-02 -6.404674053192138672e-02
-3.886906206607818604e-01 -9.380331262946128845e-03 9.265223145484924316e-02
-8.561832904815673828e-01 4.758096113801002502e-02 -1.420914828777313232e-01
2.327304929494857788e-01 -8.077587932348251343e-02 -4.650953039526939392e-02
1.873498558998107910e-01 -2.231852896511554718e-02 -2.954381704330444336e-01
-1.974159479141235352e-01 2.480752393603324890e-02 6.670858860015869141e-01
3.053173720836639404e-01 -3.913540765643119812e-02 3.083626627922058105e-01
-3.834266960620880127e-01 6.140571460127830505e-02 -8.582279831171035767e-02
3.482877016067504883e-01 -1.305893212556838989e-01 3.127123415470123291e-01
4.176054000854492188e-01 -3.049147129058837891e-02 8.398060500621795654e-02
-1.360495537519454956e-01 4.530915990471839905e-02 9.157174825668334961e-02
5.516417622566223145e-01 -8.044342696666717529e-02 2.888328628614544868e-03
7.955557703971862793e-01 -1.531134098768234253e-01 1.798750646412372589e-02
4.714083373546600342e-01 1.458441000431776047e-02 -9.743115305900573730e-02
8.711349964141845703e-02 -2.234623022377490997e-02 -3.005081415176391602e-01
-1.349690705537796021e-01 2.444736659526824951e-02 7.025204896926879883e-01
2.931826114654541016e-01 -1.968655921518802643e-02 2.892740070819854736e-01
1.357910335063934326e-01 -1.494902558624744415e-02 -1.154393553733825684e-01
3.537455499172210693e-01 -4.187819361686706543e-02 -2.963524162769317627e-01
3.266224563121795654e-01 -4.232147336006164551e-02 3.048164546489715576e-01
-9.524022787809371948e-02 1.516621839255094528e-02 5.060649514198303223e-01
1.513888984918594360e-01 -1.669443212449550629e-02 -3.258027434349060059e-01
5.162071585655212402e-01 1.054842323064804077e-01 -3.783788904547691345e-02
1.790383905172348022e-01 -5.104851350188255310e-02 3.113270998001098633e-01
2.281314879655838013e-01 -8.077587932348251343e-02 6.181667372584342957e-02
3.390896618366241455e-01 -6.160409748554229736e-02 -8.366181701421737671e-02
4.840973764657974243e-02 1.124104484915733337e-01 -1.162904407829046249e-02
1.201931610703468323e-01 -2.852442488074302673e-02 3.052597343921661377e-01
2.279652655124664307e-01 -2.639115042984485626e-02 -9.568575024604797363e-02
-3.268253803253173828e-02 -7.722966372966766357e-02 7.796863466501235962e-02
3.311383426189422607e-01 -8.326932042837142944e-02 3.034866154193878174e-01
6.744301319122314453e-02 -7.504098117351531982e-02 6.392224133014678955e-02
7.112776488065719604e-02 -2.603098191320896149e-02 3.062848150730133057e-01
6.752612441778182983e-02 -3.733458742499351501e-02 -2.004657238721847534e-01
6.297695636749267578e-01 -6.019114702939987183e-02 5.907388404011726379e-02
1.962431371212005615e-01 -5.739294737577438354e-02 -3.043591380119323730e-01
5.436627268791198730e-01 1.978678628802299500e-03 9.525649994611740112e-02
5.984076261520385742e-01 -7.348950207233428955e-02 3.502602875232696533e-02
3.192806541919708252e-01 -9.329851716756820679e-02 -2.435745745897293091e-01
-1.630618423223495483e-01 -7.459769397974014282e-02 -3.262936696410179138e-02
-4.074466973543167114e-02 2.408719807863235474e-02 5.055939555168151855e-01
2.861732840538024902e-01 -8.036032319068908691e-02 2.571917176246643066e-01
3.045693337917327881e-01 -2.761016972362995148e-02 2.753661274909973145e-01
-2.699750959873199463e-01 4.522604495286941528e-02 -8.164567351341247559e-01
-1.334451138973236084e-02 -4.227217286825180054e-03 4.772241115570068359e-01
-1.081507131457328796e-01 -3.143344819545745850e-02 2.487417012453079224e-01
5.176202952861785889e-02 -2.229082770645618439e-02 1.383376419544219971e-01
-6.537435054779052734e-01 1.245729103684425354e-01 -1.198920793831348419e-02
7.736134529113769531e-01 -2.592626726254820824e-03 -8.698640763759613037e-02
5.516417622566223145e-01 -8.044342696666717529e-02 2.888328628614544868e-03
-4.100787937641143799e-01 -3.813802823424339294e-02 -7.884116470813751221e-02
3.266501426696777344e-01 -1.224717721343040466e-01 -2.948563694953918457e-01
-7.765871286392211914e-01 2.138935476541519165e-01 5.520295817404985428e-03
4.313747584819793701e-01 5.716686323285102844e-02 -8.792837709188461304e-02
5.417235940694808960e-02 7.381134666502475739e-03 9.578289091587066650e-02
-4.465106502175331116e-02 -3.254164382815361023e-02 -1.538106501102447510e-01
-1.206733286380767822e-01 -1.268952619284391403e-04 -4.646043777465820312e-01
1.359572559595108032e-01 -2.814267529174685478e-03 1.952158212661743164e-01
-7.870039343833923340e-02 2.851998619735240936e-02 -5.638433098793029785e-01
3.288942575454711914e-01 -2.597557939589023590e-02 2.863926887512207031e-01
-9.046669006347656250e-01 5.217997729778289795e-02 1.674000918865203857e-01
-8.991813063621520996e-01 3.623364567756652832e-01 1.059804577380418777e-03
9.427797198295593262e-01 -1.530918385833501816e-02 3.411176428198814392e-02
-1.348284073173999786e-03 -1.462425887584686279e-01 1.420778036117553711e-01
2.631505131721496582e-01 -6.941688060760498047e-02 2.574964761734008789e-01
3.887943923473358154e-03 -1.364350616931915283e-01 1.417730450630187988e-01
1.084187719970941544e-02 -1.333875209093093872e-01 -1.443909853696823120e-01
2.318439483642578125e-01 -2.766557224094867706e-02 -2.963247001171112061e-01
-5.029457211494445801e-01 6.101784482598304749e-02 7.893830537796020508e-02
2.166062444448471069e-01 -5.573064461350440979e-02 9.475781023502349854e-02
3.401701450347900391e-01 -5.930458381772041321e-02 8.398060500621795654e-02
3.294206559658050537e-01 -5.054983124136924744e-02 2.746180891990661621e-01
3.176737725734710693e-01 8.908291906118392944e-02 -6.471166014671325684e-02
-1.649180650711059570e-01 4.835670068860054016e-02 -7.653411030769348145e-01
2.544236741960048676e-02 -4.038212820887565613e-02 1.637153327465057373e-01
2.408203333616256714e-01 -1.160996630787849426e-01 2.838992178440093994e-01
1.406393945217132568e-01 7.644947618246078491e-02 7.564142346382141113e-02
