-3.030455112457275391e-01 -3.873193264007568359e-02 8.794201165437698364e-02
1.090346947312355042e-01 -2.631373517215251923e-02 2.380591183900833130e-01
-7.646610736846923828e-01 9.382937848567962646e-02 1.112673059105873108e-01
-7.677106857299804688e-01 8.393879979848861694e-02 -8.986871689558029175e-02
-1.926281303167343140e-01 1.618829928338527679e-02 8.216860294342041016e-01
8.853356838226318359e-01 9.017621167004108429e-03 5.538551136851310730e-02
-1.077614128589630127e-01 2.918424084782600403e-03 -6.288506388664245605e-01
-1.300152242183685303e-01 -9.395435452461242676e-02 3.846162185072898865e-02
2.783834934234619141e-01 -5.568328872323036194e-02 -9.572064876556396484e-02
1.408494114875793457e-01 -5.068305134773254395e-02 -2.735863327980041504e-01
7.021415978670120239e-02 -3.266019374132156372e-02 -1.546795219182968140e-01
1.669770479202270508e-01 1.230340898036956787e-01 4.806159064173698425e-03
2.529701888561248779e-01 -9.936670213937759399e-02 -2.622945904731750488e-01
2.906368374824523926e-01 -5.373263731598854065e-02 -2.819383740425109863e-01
2.028304189443588257e-01 -3.222063183784484863e-02 -1.190734133124351501e-01
-8.333731889724731445e-01 1.062200814485549927e-01 -2.322656661272048950e-01
8.771499991416931152e-02 -9.826775640249252319e-02 2.920177578926086426e-01
-2.329597175121307373e-01 8.904893696308135986e-02 -9.122158288955688477e-01
-5.949551463127136230e-01 -1.562641933560371399e-02 -2.720087394118309021e-02
-2.231775596737861633e-02 -3.694612160325050354e-02 -1.719880402088165283e-01
5.751010179519653320e-01 9.545034915208816528e-02 -6.269708275794982910e-02
-1.633959710597991943e-01 1.750704459846019745e-02 -8.528448939323425293e-01
7.504955679178237915e-02 -1.576379127800464630e-02 -3.730691373348236084e-01
5.427932739257812500e-02 -1.584621146321296692e-02 -3.732614219188690186e-01
6.024924516677856445e-01 -5.760644748806953430e-02 8.772221952676773071e-02
-6.694367527961730957e-01 9.234580397605895996e-02 8.349125832319259644e-02
-1.100692227482795715e-01 -5.299085751175880432e-02 2.872098088264465332e-01
-1.123220771551132202e-01 -8.181007578969001770e-03 -5.438465476036071777e-01
4.540527611970901489e-02 -4.428163170814514160e-02 -1.576467007398605347e-01
1.603558510541915894e-01 -2.853913046419620514e-02 -1.938846856355667114e-01
-1.732041239738464355e-01 1.216329261660575867e-01 3.675824031233787537e-02
-2.643074095249176025e-01 1.194350123405456543e-01 -4.409728944301605225e-02
6.716455519199371338e-02 -4.496848955750465393e-02 5.807795003056526184e-02
-8.045241981744766235e-02 -5.310073867440223694e-02 -9.778118878602981567e-02
-1.037502288818359375e-01 -3.183598443865776062e-02 -3.966417014598846436e-01
-8.565336465835571289e-01 3.951625227928161621e-01 1.905527169583365321e-04
-3.650265038013458252e-01 3.162859752774238586e-02 -1.018198430538177490e-01
5.947188287973403931e-02 -5.612287297844886780e-02 -1.952034533023834229e-01
-8.885940909385681152e-02 1.019899360835552216e-02 -7.821821570396423340e-01
-1.426806747913360596e-01 2.937574312090873718e-02 -1.070123985409736633e-01
-5.960540771484375000e-01 -1.845622994005680084e-02 -1.742018200457096100e-02
5.532333254814147949e-02 -5.985931307077407837e-02 -3.063510358333587646e-02
6.376040577888488770e-01 -5.202925577759742737e-02 -8.833018690347671509e-02
-2.398831397294998169e-01 1.882578805088996887e-02 -1.070398688316345215e-01
1.300247311592102051e-01 9.616465121507644653e-02 -7.159860432147979736e-02
6.620557308197021484e-01 1.901810057461261749e-02 1.005525067448616028e-01
-7.244119048118591309e-01 9.819772839546203613e-02 2.080576717853546143e-01
3.153632879257202148e-01 -1.082682237029075623e-01 -3.072143197059631348e-01
8.958322554826736450e-02 -7.777226716279983521e-02 -2.863891422748565674e-01
-6.639144420623779297e-01 7.690549641847610474e-02 7.552383840084075928e-02
3.848186507821083069e-02 -1.653305813670158386e-02 3.682027161121368408e-01
-1.455929130315780640e-01 -4.441900551319122314e-02 -9.105009585618972778e-02
-1.624343693256378174e-01 1.173753011971712112e-02 -7.423450946807861328e-01
-5.788554549217224121e-01 2.006477117538452148e-01 9.174500592052936554e-03
6.310102939605712891e-01 6.020140275359153748e-02 -8.854997158050537109e-02
-1.547417044639587402e-01 1.262485235929489136e-01 1.719686388969421387e-02
2.595639228820800781e-01 -1.293681263923645020e-01 2.906715273857116699e-01
-1.836152188479900360e-02 -1.749472469091415405e-01 1.125585809350013733e-01
5.004546046257019043e-01 8.308710902929306030e-02 8.090871572494506836e-02
-2.470812946557998657e-01 7.632854580879211426e-02 9.335435926914215088e-02
-6.162473559379577637e-01 1.404533628374338150e-02 5.491845682263374329e-02
1.703563332557678223e-01 -7.593151926994323730e-02 -2.669101953506469727e-01
-5.611059069633483887e-02 -1.546157710254192352e-02 5.593932271003723145e-01
3.183853924274444580e-01 -2.422573231160640717e-02 1.040966361761093140e-01
-1.680115610361099243e-01 1.377059239894151688e-02 7.647327780723571777e-01
1.772797256708145142e-01 -1.448084414005279541e-01 -2.799052894115447998e-01
-3.792290017008781433e-02 1.164128854870796204e-01 -4.382254928350448608e-02
2.848289906978607178e-03 -1.550836563110351562e-01 -1.300354897975921631e-01
-1.863626018166542053e-02 -1.327474266290664673e-01 -1.106938943266868591e-01
-7.612543106079101562e-01 1.054782941937446594e-01 1.903645098209381104e-01
-8.291422128677368164e-01 1.060277745127677917e-01 2.359985560178756714e-01
-4.715411365032196045e-02 -7.933745160698890686e-03 -5.805241465568542480e-01
1.362612843513488770e-01 -1.068395897746086121e-01 2.580777276307344437e-03
-1.176779996603727341e-02 -1.999389613047242165e-03 5.484311580657958984e-01
1.604657322168350220e-01 -4.724882543087005615e-02 2.909737229347229004e-01
1.298613566905260086e-02 -3.139640018343925476e-02 -3.961471319198608398e-01
6.502159684896469116e-02 -9.296530485153198242e-02 3.656592592597007751e-02
-6.022906303405761719e-01 5.286588147282600403e-02 7.005654275417327881e-02
1.019189804792404175e-01 -2.125856094062328339e-02 -3.029558658599853516e-01
-5.553363263607025146e-02 4.457769391592592001e-04 -5.832715034484863281e-01
1.829118728637695312e-01 -7.966796308755874634e-02 -3.059230446815490723e-01
8.125299811363220215e-01 -1.054384186863899231e-01 3.260968998074531555e-02
-8.599678874015808105e-01 4.883538186550140381e-01 2.223617397248744965e-03
-5.620689392089843750e-01 1.128687560558319092e-01 -4.656992852687835693e-02
3.505297899246215820e-01 1.183085739612579346e-01 2.296636998653411865e-02
-7.404840588569641113e-01 3.367806077003479004e-01 5.932586267590522766e-03
-7.884259223937988281e-01 4.028002619743347168e-01 4.558894317597150803e-03
2.783834934234619141e-01 -5.568328872323036194e-02 -9.572064876556396484e-02
7.560163140296936035e-01 9.088967740535736084e-02 3.980783745646476746e-02
2.807737290859222412e-01 -9.194876253604888916e-02 2.876768708229064941e-01
-7.645787000656127930e-01 1.282815784215927124e-01 -1.760090352036058903e-03
-1.585605442523956299e-01 1.083089038729667664e-02 7.701177000999450684e-01
5.432038903236389160e-01 -1.027459949254989624e-01 2.302131801843643188e-02
-8.060367107391357422e-01 2.022411823272705078e-01 -5.671185499522835016e-05
2.134902626276016235e-01 1.188855320215225220e-01 -2.714592404663562775e-02
4.719107598066329956e-02 -5.274358391761779785e-02 -9.877023845911026001e-02
-5.586182232946157455e-03 -5.766141042113304138e-02 -2.725148499011993408e-01
-3.332667648792266846e-01 2.890868857502937317e-02 1.053879037499427795e-01
-3.818680047988891602e-01 1.736967265605926514e-02 -9.986920654773712158e-02
-1.141628250479698181e-01 2.534649393055588007e-04 6.076922416687011719e-01
6.886504292488098145e-01 -1.051362082362174988e-01 1.837823912501335144e-02
8.246749639511108398e-02 -2.554446645081043243e-02 4.067210555076599121e-01
7.422534376382827759e-02 -2.922596782445907593e-02 3.610595166683197021e-01
2.760207355022430420e-01 -9.936670213937759399e-02 -2.865814566612243652e-01
2.614611014723777771e-02 -1.015911903232336044e-02 4.453218281269073486e-01
8.233271837234497070e-01 -9.381698071956634521e-02 1.082293130457401276e-02
-7.543309330940246582e-01 7.586148381233215332e-02 -2.906909398734569550e-02
-2.270239032804965973e-02 8.940610289573669434e-02 8.170545846223831177e-02
7.623353004455566406e-01 -3.307231143116950989e-02 -4.342631902545690536e-03
6.752172112464904785e-02 -2.535215578973293304e-02 -2.611131966114044189e-01
4.288028180599212646e-01 8.753787726163864136e-02 7.755690068006515503e-02
4.354514479637145996e-01 -4.010560736060142517e-02 -9.753391891717910767e-02
6.761773228645324707e-01 4.396435245871543884e-02 -9.234136343002319336e-02
1.626911163330078125e-01 -1.142025887966156006e-01 3.068261444568634033e-01
-8.173009753227233887e-01 1.102312654256820679e-01 -2.354800999164581299e-01
-3.426627814769744873e-01 3.426608815789222717e-02 -1.032210066914558411e-01
6.502159684896469116e-02 -9.296530485153198242e-02 3.656592592597007751e-02
-4.531626105308532715e-01 1.169623583555221558e-01 -5.146027728915214539e-02
-8.119984865188598633e-01 1.159183606505393982e-01 -3.192753493785858154e-01
2.512393295764923096e-01 -3.955614194273948669e-02 -1.400084942579269409e-01
2.727238833904266357e-01 -4.955660924315452576e-02 -2.136109322309494019e-01
1.958795189857482910e-01 -3.337452188134193420e-02 8.560673892498016357e-02
-2.267491444945335388e-02 -1.867601275444030762e-02 3.702357709407806396e-01
-5.281662344932556152e-01 -2.092886716127395630e-02 -5.253175646066665649e-02
-1.715282201766967773e-01 1.154521852731704712e-02 -7.464111447334289551e-01
-1.636157482862472534e-01 6.388288736343383789e-02 9.931618720293045044e-02
2.774219214916229248e-01 -9.142676740884780884e-02 -2.985050976276397705e-01
-4.345903098583221436e-01 1.072915643453598022e-01 -6.478509306907653809e-02
-3.633780777454376221e-01 1.294354945421218872e-01 -1.387605629861354828e-02
1.722245514392852783e-01 -5.065558105707168579e-02 -2.993018627166748047e-01
1.549434959888458252e-01 -1.118673086166381836e-01 -2.714708447456359863e-01
3.233307003974914551e-01 4.264649003744125366e-03 1.089320331811904907e-01
3.152534067630767822e-01 -3.837475925683975220e-02 9.879417717456817627e-02
-6.621561050415039062e-01 7.226241379976272583e-02 -4.387749731540679932e-02
-7.917503118515014648e-01 1.078685224056243896e-01 2.134150713682174683e-01
4.771456122398376465e-03 1.238033547997474670e-01 -1.744765602052211761e-02
-2.008427977561950684e-01 1.720483042299747467e-02 -8.297393321990966797e-01
7.735171914100646973e-01 9.435139596462249756e-02 1.843318715691566467e-02
1.770049929618835449e-01 -7.744256407022476196e-02 2.622360885143280029e-01
-7.927104085683822632e-02 -1.471977867186069489e-02 4.444426596164703369e-01
9.532525390386581421e-02 1.006163191050291061e-02 -1.077816709876060486e-01
5.547703504562377930e-01 3.291987255215644836e-02 1.056901142001152039e-01
1.813458651304244995e-01 -1.024163067340850830e-01 2.307785451412200928e-01
-4.137926101684570312e-01 4.484351351857185364e-02 -9.758886694908142090e-02
1.834063977003097534e-01 -4.529817402362823486e-02 1.981121301651000977e-01
1.656033545732498169e-01 -1.312088817358016968e-01 -2.757018208503723145e-01
-1.838639825582504272e-01 2.206769399344921112e-02 -8.519656658172607422e-01
-1.475985050201416016e-01 -2.837428823113441467e-02 -5.603033900260925293e-01
3.702575340867042542e-02 -3.189092501997947693e-02 3.144364058971405029e-01
7.735171914100646973e-01 9.435139596462249756e-02 1.843318715691566467e-02
-5.832512378692626953e-01 9.781309217214584351e-02 -5.841115862131118774e-02
-8.146894723176956177e-02 8.495614863932132721e-03 7.664361596107482910e-01
-6.506706029176712036e-02 -1.024712473154067993e-01 5.074242874979972839e-02
1.968975365161895752e-02 -1.488462090492248535e-02 -5.171145200729370117e-01
-8.693364262580871582e-01 1.219076588749885559e-01 3.433938324451446533e-01
7.628847956657409668e-01 9.786803275346755981e-02 -1.456290204077959061e-02
-6.896574497222900391e-01 2.735358178615570068e-01 7.278804667294025421e-03
-3.240065649151802063e-02 -5.038084089756011963e-02 1.015140935778617859e-01
2.406619042158126831e-01 -5.104020610451698303e-02 2.637196779251098633e-01
9.296250343322753906e-02 -9.219603985548019409e-02 -8.659932762384414673e-02
-2.679599449038505554e-02 -5.628771334886550903e-02 2.853141427040100098e-01
-2.097168564796447754e-01 -5.983184278011322021e-02 7.975481450557708740e-02
-1.541647464036941528e-01 3.316713497042655945e-02 -1.065728142857551575e-01
1.392024848610162735e-02 -2.518731355667114258e-02 3.994679749011993408e-01
-3.316732645034790039e-01 1.239132508635520935e-01 -3.511333838105201721e-02
3.285507261753082275e-01 -1.393686234951019287e-01 2.772093415260314941e-01
-9.627734869718551636e-02 -5.598469171673059464e-03 -5.879145860671997070e-01
-9.322775900363922119e-02 -1.444504596292972565e-02 4.718340635299682617e-01
-7.096859216690063477e-01 8.844450861215591431e-02 1.477800458669662476e-01
-2.858468890190124512e-01 -4.609408322721719742e-03 1.041790619492530823e-01
-5.830849334597587585e-02 -1.359335705637931824e-02 5.039784908294677734e-01
4.705370962619781494e-02 -2.763248980045318604e-02 -2.422936260700225830e-01
-6.641328334808349609e-02 -4.381457716226577759e-02 1.008547246456146240e-01
-2.164754271507263184e-01 2.105116285383701324e-02 -8.617739081382751465e-01
3.216547966003417969e-01 -6.007909402251243591e-02 2.869350910186767578e-01
1.512345224618911743e-01 6.679511815309524536e-02 9.577205777168273926e-02
-6.468242406845092773e-02 -1.428020372986793518e-02 4.916152358055114746e-01
3.364646807312965393e-02 -1.367577724158763885e-02 4.022977650165557861e-01
3.427837044000625610e-02 -6.032636761665344238e-02 -7.940118014812469482e-02
1.186505407094955444e-01 -1.120321527123451233e-01 2.506421208381652832e-01
-5.533597469329833984e-01 9.984615445137023926e-02 6.233639642596244812e-02
2.005500942468643188e-01 -3.408885002136230469e-02 2.819623053073883057e-01
-8.146894723176956177e-02 8.495614863932132721e-03 7.664361596107482910e-01
5.434511899948120117e-01 -8.958601951599121094e-02 -5.646051838994026184e-02
-5.838831663131713867e-01 1.109455972909927368e-01 4.730820283293724060e-02
-6.666893362998962402e-01 1.147919297218322754e-01 -3.069005161523818970e-02
-2.392512410879135132e-01 6.094319000840187073e-02 -9.054847955703735352e-01
6.219714283943176270e-01 -9.936670213937759399e-02 3.840667381882667542e-02
1.745323538780212402e-01 -4.560038819909095764e-02 1.922052651643753052e-01
3.130280077457427979e-01 -1.040921956300735474e-01 -4.346538707613945007e-02
2.986317276954650879e-01 -6.332100927829742432e-02 3.145462870597839355e-01
1.834063977003097534e-01 -4.529817402362823486e-02 1.981121301651000977e-01
-6.878991723060607910e-01 8.349922299385070801e-02 -1.156666576862335205e-01
2.767900228500366211e-01 -1.200270280241966248e-01 2.971004247665405273e-01
-7.447425723075866699e-01 1.076762005686759949e-01 2.050080895423889160e-01
-2.097168564796447754e-01 -5.983184278011322021e-02 7.975481450557708740e-02
-8.280432224273681641e-01 1.131160333752632141e-01 2.969630360603332520e-01
2.506898343563079834e-01 -1.173071339726448059e-01 3.067986667156219482e-01
4.140218496322631836e-01 7.627359777688980103e-02 -8.626964688301086426e-02
-1.994416415691375732e-01 3.473314270377159119e-02 8.941346406936645508e-01
5.470502376556396484e-01 -1.395050995051860809e-02 1.073110699653625488e-01
-3.465351089835166931e-02 -1.296145934611558914e-02 5.728004574775695801e-01
-7.268845438957214355e-01 2.315557748079299927e-01 6.152377463877201080e-03
-6.556998491287231445e-01 2.793328166007995605e-01 7.526069413870573044e-03
2.532174587249755859e-01 -9.106959402561187744e-02 -9.187430888414382935e-02
-5.917132496833801270e-01 2.495511472225189209e-01 2.570967080828268081e-05
4.192419052124023438e-01 1.101213768124580383e-01 4.508281871676445007e-02
7.021415978670120239e-02 -3.266019374132156372e-02 -1.546795219182968140e-01
9.694620221853256226e-02 -7.139831781387329102e-02 2.644065320491790771e-01
1.958795189857482910e-01 -3.337452188134193420e-02 8.560673892498016357e-02
-4.278577491641044617e-02 6.737296003848314285e-03 -6.837433576583862305e-01
2.217324227094650269e-01 -1.080209687352180481e-01 -1.390353031456470490e-02
2.211554795503616333e-01 1.138028651475906372e-01 -4.176201298832893372e-02
-7.927668094635009766e-01 9.303264319896697998e-02 -1.497342288494110107e-01
-1.836166977882385254e-01 9.517560154199600220e-02 -7.714832574129104614e-02
2.720919847488403320e-01 -9.052012860774993896e-02 2.252013534307479858e-01
-7.133109867572784424e-02 -3.711096197366714478e-02 2.788302898406982422e-01
-4.608277976512908936e-01 8.849946409463882446e-02 8.178787678480148315e-02
-2.086728662252426147e-01 6.770175695419311523e-02 9.102067947387695312e-01
2.845391258597373962e-02 -2.922596782445907593e-02 -2.761414051055908203e-01
4.057138226926326752e-03 -1.650557853281497955e-02 -4.931847751140594482e-01
4.076219350099563599e-02 -7.749752700328826904e-02 2.112562395632266998e-02
1.217276155948638916e-01 7.256462424993515015e-02 -9.148967266082763672e-02
-6.316602230072021484e-01 -3.208243055269122124e-03 3.129094839096069336e-02
-1.805930957198143005e-02 -2.246740274131298065e-02 1.032724156975746155e-01
-3.192001283168792725e-01 6.863586604595184326e-02 -9.607781469821929932e-02
2.927523255348205566e-01 -7.920090109109878540e-02 -3.031756579875946045e-01
5.775462388992309570e-01 1.014671102166175842e-01 5.469866469502449036e-02
4.565253853797912598e-02 -3.013260662555694580e-02 -2.082535177469253540e-01
-6.152033209800720215e-01 1.910593360662460327e-01 9.119552560150623322e-03
-2.379599809646606445e-01 1.273200064897537231e-01 -1.643112488090991974e-02
-3.077969700098037720e-02 -5.263368412852287292e-02 2.689397037029266357e-01
3.096487224102020264e-01 -5.304579809308052063e-02 8.203513920307159424e-02
8.335199952125549316e-01 7.638349384069442749e-02 1.337799988687038422e-02
-9.800820052623748779e-02 9.841839782893657684e-03 -6.955295801162719727e-01
3.244571089744567871e-01 -5.450190231204032898e-02 3.006170392036437988e-01
-2.109256982803344727e-01 2.118853479623794556e-02 -8.771592378616333008e-01
3.804762959480285645e-01 -9.878975152969360352e-02 -3.003067895770072937e-02
-1.100692227482795715e-01 -5.299085751175880432e-02 2.872098088264465332e-01
-2.291408777236938477e-01 7.800444960594177246e-02 -9.102261811494827271e-02
2.465687841176986694e-01 -4.796313121914863586e-02 1.512692272663116455e-01
2.877795398235321045e-01 -6.719481945037841797e-02 2.466034740209579468e-01
2.745921015739440918e-01 -1.015646085143089294e-01 2.339105606079101562e-01
9.193483591079711914e-01 -5.131494998931884766e-02 -3.404185920953750610e-02
-7.586718201637268066e-01 5.704190582036972046e-02 -2.192589268088340759e-02
2.886601909995079041e-02 -6.441996246576309204e-02 -1.003087759017944336e-01
-1.162783056497573853e-01 1.138037722557783127e-02 -7.934738993644714355e-01
-1.354825198650360107e-01 -1.197239849716424942e-02 5.704651474952697754e-01
6.810951232910156250e-01 1.052859723567962646e-01 3.123599849641323090e-02
1.135953664779663086e-01 -9.725121408700942993e-02 2.587194442749023438e-01
-2.316796686500310898e-03 -1.703865975141525269e-01 1.695942878723144531e-01
-1.031168363988399506e-02 -2.433562465012073517e-02 -3.069120943546295166e-01
-1.139155626296997070e-01 9.319834411144256592e-03 1.088770776987075806e-01
2.512942850589752197e-01 -5.488654971122741699e-02 -2.549041211605072021e-01
1.290371455252170563e-02 -9.148170799016952515e-02 1.580003201961517334e-01
-4.936040937900543213e-01 7.720770686864852905e-02 -8.343983441591262817e-02
1.867582201957702637e-01 -6.018899753689765930e-02 -2.808668911457061768e-01
-5.154993012547492981e-02 -8.686609566211700439e-02 -9.278094768524169922e-02
-1.926281303167343140e-01 1.618829928338527679e-02 8.216860294342041016e-01
8.125863969326019287e-02 -5.051821097731590271e-02 -1.003087759017944336e-01
8.125299811363220215e-01 -1.054384186863899231e-01 3.260968998074531555e-02
-3.240065649151802063e-02 -5.038084089756011963e-02 1.015140935778617859e-01
6.668911576271057129e-01 -1.048614680767059326e-01 -7.282333448529243469e-03
7.815120220184326172e-01 7.135577499866485596e-02 -5.533409118652343750e-02
2.978899180889129639e-01 -1.407697945833206177e-01 -2.482554316520690918e-01
2.208532541990280151e-01 -1.079934984445571899e-01 1.258125808089971542e-02
3.620153665542602539e-02 -9.843259304761886597e-02 -2.022251486778259277e-02
-6.556998491287231445e-01 3.038944303989410400e-01 6.839223206043243408e-03
-1.478732228279113770e-01 -9.082233905792236328e-02 3.969794511795043945e-02
-5.787455439567565918e-01 1.042419746518135071e-01 -5.393292009830474854e-02
-1.633959710597991943e-01 1.750704459846019745e-02 -8.528448939323425293e-01
4.765523374080657959e-01 1.164953038096427917e-01 2.324110828340053558e-02
3.900372087955474854e-01 -7.799205183982849121e-02 7.022138684988021851e-02
-2.379599809646606445e-01 1.273200064897537231e-01 -1.643112488090991974e-02
-7.449059188365936279e-02 -4.815544560551643372e-02 -1.954507231712341309e-01
-3.028517216444015503e-02 -1.045592501759529114e-01 -3.022299706935882568e-02
9.955622255802154541e-02 -4.903461411595344543e-02 -1.216010078787803650e-01
1.485421061515808105e-01 -4.408932104706764221e-02 -2.726796865463256836e-01
6.628250479698181152e-01 3.061206638813018799e-02 -9.720423072576522827e-02
3.216547966003417969e-01 -6.007909402251243591e-02 2.869350910186767578e-01
1.019189804792404175e-01 -2.125856094062328339e-02 -3.029558658599853516e-01
-2.877411060035228729e-02 -3.153377398848533630e-02 3.856486082077026367e-01
-6.678158044815063477e-01 2.785085737705230713e-01 7.498595863580703735e-03
1.778566837310791016e-01 -3.301737084984779358e-02 -2.537227571010589600e-01
-4.061533883213996887e-02 -1.066198050975799561e-01 9.948103129863739014e-02
7.636830210685729980e-02 -4.318267852067947388e-02 -1.875107586383819580e-01
-6.506706029176712036e-02 -1.024712473154067993e-01 5.074242874979972839e-02
2.878359891474246979e-02 -1.656610965728759766e-01 -1.026440560817718506e-01
8.109639883041381836e-01 5.803185980767011642e-03 7.937017828226089478e-02
6.384831666946411133e-01 5.550336837768554688e-02 -9.036324918270111084e-02
4.625132381916046143e-01 -1.428020372986793518e-02 -1.058310195803642273e-01
-1.836166977882385254e-01 9.517560154199600220e-02 -7.714832574129104614e-02
-1.476244814693927765e-02 -3.549001738429069519e-02 1.839081496000289917e-01
1.135953664779663086e-01 -6.793662160634994507e-02 -1.003087759017944336e-01
-1.310592442750930786e-01 -8.307471871376037598e-02 -7.426356524229049683e-02
1.190351843833923340e-01 -7.436551153659820557e-02 2.732805907726287842e-01
-7.244119048118591309e-01 9.819772839546203613e-02 2.080576717853546143e-01
6.761773228645324707e-01 4.396435245871543884e-02 -9.234136343002319336e-02
-7.679839432239532471e-02 -1.019217595458030701e-01 -2.857456542551517487e-02
9.106680750846862793e-02 -3.359430655837059021e-02 -1.283321082592010498e-01
-4.307714104652404785e-01 -5.969447270035743713e-02 1.280104834586381912e-02
3.552003800868988037e-01 1.800156943500041962e-02 1.086573004722595215e-01
2.102758288383483887e-01 1.210010126233100891e-01 -1.742018200457096100e-02
-9.130311198532581329e-03 3.764536231756210327e-02 1.067066490650177002e-01
-1.982602775096893311e-01 1.481460407376289368e-02 -7.989136576652526855e-01
1.968975365161895752e-02 -1.488462090492248535e-02 -5.171145200729370117e-01
3.183853924274444580e-01 -2.422573231160640717e-02 1.040966361761093140e-01
7.713756710290908813e-02 -4.763345047831535339e-02 1.298396289348602295e-01
-1.437631901353597641e-03 -4.735870659351348877e-02 8.453525602817535400e-02
-1.668561808764934540e-02 -4.244090244174003601e-02 3.970502614974975586e-01
-1.863626018166542053e-02 -1.327474266290664673e-01 -1.106938943266868591e-01
2.134902626276016235e-01 1.188855320215225220e-01 -2.714592404663562775e-02
-1.656762808561325073e-01 9.141169488430023193e-02 8.167798072099685669e-02
3.971818834543228149e-02 -2.068160474300384521e-02 1.040142178535461426e-01
2.312383800745010376e-01 -1.237360015511512756e-01 -2.782843410968780518e-01
2.800593972206115723e-01 -1.150542646646499634e-01 3.226785659790039062e-01
-7.900468707084655762e-01 1.060827225446701050e-01 2.571534216403961182e-01
5.403206497430801392e-02 -3.755054995417594910e-02 2.499278038740158081e-01
-3.698879107832908630e-02 -1.386808976531028748e-02 -4.258463680744171143e-01
1.816205978393554688e-01 -7.296432554721832275e-02 -3.188632428646087646e-01
6.376040577888488770e-01 -5.202925577759742737e-02 -8.833018690347671509e-02
-1.102890148758888245e-01 -9.552036225795745850e-02 -4.761393740773200989e-02
7.760997414588928223e-01 -1.575013548135757446e-01 -6.018536165356636047e-03
3.213540837168693542e-02 -2.678078971803188324e-02 2.599557638168334961e-01
2.092867642641067505e-01 -1.078561246395111084e-01 -1.154077891260385513e-02
2.418707460165023804e-01 -3.985835239291191101e-02 -1.555312126874923706e-01
6.474834401160478592e-03 -3.587463870644569397e-02 1.584399044513702393e-01
2.375573664903640747e-01 -3.318221122026443481e-02 9.423352032899856567e-02
-3.279643058776855469e-01 9.822520613670349121e-02 -7.571968436241149902e-02
8.452950976788997650e-03 -1.050812676548957825e-01 -1.695312745869159698e-02
-1.915826089680194855e-02 -3.873193264007568359e-02 -1.940770298242568970e-01
-2.877411060035228729e-02 -3.153377398848533630e-02 3.856486082077026367e-01
1.329369544982910156e-01 -4.730376601219177246e-02 2.797369360923767090e-01
-7.965856790542602539e-01 1.040771305561065674e-01 1.894578784704208374e-01
2.118967771530151367e-01 1.039672419428825378e-01 -6.008706241846084595e-02
1.917035132646560669e-01 -1.312913149595260620e-01 -2.578438222408294678e-01
7.751930952072143555e-01 7.926824688911437988e-02 -4.860299825668334961e-02
-1.600990891456604004e-01 4.072326701134443283e-03 -6.725340485572814941e-01
-8.291422128677368164e-01 1.060277745127677917e-01 2.359985560178756714e-01
1.369756013154983521e-01 -8.747052401304244995e-02 -3.003733456134796143e-01
-5.244572758674621582e-01 1.595743000507354736e-01 1.156472600996494293e-02
-2.126565575599670410e-01 6.940513849258422852e-02 -9.574811905622482300e-02
-8.495812863111495972e-02 -1.532420516014099121e-02 -4.426054358482360840e-01
-2.117499262094497681e-01 -6.977736949920654297e-02 -6.813690066337585449e-02
7.021415978670120239e-02 -3.266019374132156372e-02 -1.546795219182968140e-01
3.162424564361572266e-01 -9.681162983179092407e-02 -6.788963824510574341e-02
-1.774625629186630249e-01 6.121792644262313843e-02 9.062780141830444336e-01
7.543404102325439453e-01 9.569759666919708252e-02 -2.838224917650222778e-02
9.963865578174591064e-02 -3.046229109168052673e-02 3.530097007751464844e-01
2.253589630126953125e-01 -7.582161575555801392e-02 3.224312961101531982e-01
8.513245731592178345e-02 -8.812989294528961182e-02 2.908088862895965576e-01
2.386837899684906006e-01 -1.337639540433883667e-01 2.781434357166290283e-01
-1.697973608970642090e-01 1.275947391986846924e-01 -5.386637989431619644e-03
1.512345224618911743e-01 6.679511815309524536e-02 9.577205777168273926e-02
-3.948890790343284607e-02 -1.999389613047242165e-03 -6.546210646629333496e-01
-7.651281952857971191e-01 3.285109698772430420e-01 -3.930523991584777832e-03
2.029128372669219971e-01 -5.521623045206069946e-02 8.046913146972656250e-02
-3.121928311884403229e-02 -3.222063183784484863e-02 -2.798228859901428223e-01
1.635428071022033691e-01 -5.491402000188827515e-02 -2.777073979377746582e-01
4.161388427019119263e-02 -7.576580625027418137e-03 -5.056029558181762695e-01
-2.162281572818756104e-01 3.970590606331825256e-02 -1.054738610982894897e-01
-3.072475269436836243e-02 -5.043577775359153748e-02 -2.062479257583618164e-01
-1.476244814693927765e-02 -3.549001738429069519e-02 1.839081496000289917e-01
7.537634372711181641e-01 -1.022789403796195984e-01 -8.298865519464015961e-03
7.952764630317687988e-01 3.399134427309036255e-02 -7.558231055736541748e-02
2.812407910823822021e-01 -1.073341146111488342e-01 3.576918318867683411e-02
5.760514177381992340e-03 -1.829970926046371460e-01 -1.179195120930671692e-01
2.869278490543365479e-01 -1.077462285757064819e-01 -2.671849131584167480e-01
-7.127904891967773438e-01 1.736967265605926514e-02 5.520478822290897369e-03
3.162424564361572266e-01 -9.681162983179092407e-02 -6.788963824510574341e-02
3.514089584350585938e-01 1.077861040830612183e-01 -5.052616447210311890e-02
6.618634462356567383e-01 -9.906449168920516968e-02 3.972541540861129761e-02
-5.072036385536193848e-01 1.173744648694992065e-01 4.824231192469596863e-02
1.759609878063201904e-01 -3.447347506880760193e-02 2.817699909210205078e-01
-7.377916574478149414e-01 3.319726586341857910e-01 -4.754739347845315933e-03
1.760983616113662720e-01 -3.370420634746551514e-02 -8.132434636354446411e-02
9.235808253288269043e-02 -7.161812484264373779e-02 -2.711136937141418457e-01
-3.279643058776855469e-01 9.822520613670349121e-02 -7.571968436241149902e-02
-8.074653148651123047e-01 4.388459324836730957e-01 -2.749148756265640259e-03
-1.187509521842002869e-01 -2.084644511342048645e-02 5.585415363311767578e-01
-4.558000862598419189e-01 1.054233461618423462e-01 -6.654341518878936768e-02
4.076219350099563599e-02 -7.749752700328826904e-02 2.112562395632266998e-02
-1.618024706840515137e-01 4.160160571336746216e-02 8.990249633789062500e-01
2.912412583827972412e-01 -8.788263797760009766e-02 2.668791711330413818e-01
6.866448521614074707e-01 -1.051087379455566406e-01 1.399401924572885036e-03
4.206155836582183838e-01 -1.014547049999237061e-01 -1.824439689517021179e-02
-1.836166977882385254e-01 9.517560154199600220e-02 -7.714832574129104614e-02
-1.482029259204864502e-01 1.135289669036865234e-02 -7.306411862373352051e-01
-2.086728662252426147e-01 6.770175695419311523e-02 9.102067947387695312e-01
-4.608003199100494385e-01 6.168498098850250244e-02 -9.187430888414382935e-02
-8.182609826326370239e-02 -1.128555089235305786e-02 -4.782664775848388672e-01
1.390361487865447998e-01 -1.197522878646850586e-01 2.874845564365386963e-01
-1.201795935630798340e-01 -5.397990718483924866e-02 2.864955067634582520e-01
1.917035132646560669e-01 -1.312913149595260620e-01 -2.578438222408294678e-01
1.185681298375129700e-01 -2.713796496391296387e-02 -2.230893969535827637e-01
2.446730881929397583e-01 1.205614432692527771e-01 -1.722786575555801392e-02
2.446730881929397583e-01 1.205614432692527771e-01 -1.722786575555801392e-02
8.533836603164672852e-01 -7.109610736370086670e-02 -4.393244534730911255e-02
1.031827703118324280e-01 -3.156124427914619446e-02 1.541539877653121948e-01
-7.884259223937988281e-01 4.028002619743347168e-01 4.558894317597150803e-03
3.306951746344566345e-02 -2.488509938120841980e-02 2.791599929332733154e-01
1.689551621675491333e-01 6.989966332912445068e-02 9.393131732940673828e-02
1.833239942789077759e-01 -2.999523654580116272e-02 -2.115229070186614990e-01
4.857011139392852783e-01 -5.191937461495399475e-02 9.302467852830886841e-02
4.076219350099563599e-02 -7.749752700328826904e-02 2.112562395632266998e-02
-1.994416415691375732e-01 3.473314270377159119e-02 8.941346406936645508e-01
1.512345224618911743e-01 6.679511815309524536e-02 9.577205777168273926e-02
2.202763110399246216e-01 -1.452480256557464600e-01 -2.649045884609222412e-01
-8.613140583038330078e-01 4.046684801578521729e-01 8.773989975452423096e-04
1.833789348602294922e-01 -8.791010826826095581e-02 2.164097130298614502e-01
7.518677711486816406e-01 -8.892662823200225830e-02 -1.666072785155847669e-04
7.656061649322509766e-02 -4.538058489561080933e-02 1.590992808341979980e-01
-9.644219279289245605e-02 4.434898868203163147e-02 1.055252775549888611e-01
1.745323538780212402e-01 -4.560038819909095764e-02 1.922052651643753052e-01
-2.080959081649780273e-01 -8.648062124848365784e-03 1.061571687459945679e-01
-4.550568386912345886e-02 -5.397990718483924866e-02 2.056399732828140259e-01
1.689551621675491333e-01 6.989966332912445068e-02 9.393131732940673828e-02
-2.443064451217651367e-01 8.943357318639755249e-02 9.117727875709533691e-01
-7.360882759094238281e-01 1.147369742393493652e-01 2.153773047029972076e-02
1.481849402189254761e-01 -4.158920422196388245e-02 -2.334195673465728760e-01
-7.300165891647338867e-01 9.734603762626647949e-02 -1.253649294376373291e-01
-2.866272581741213799e-03 -2.127815969288349152e-05 5.874989628791809082e-01
3.012966811656951904e-01 -6.202974542975425720e-02 -2.529809474945068359e-01
1.036223545670509338e-01 -9.329498559236526489e-02 -2.801251113414764404e-01
3.244296610355377197e-01 -4.518827050924301147e-02 -2.644100487232208252e-01
7.903311848640441895e-01 -5.653496459126472473e-02 7.118297368288040161e-02
7.543404102325439453e-01 9.569759666919708252e-02 -2.838224917650222778e-02
-6.507545709609985352e-01 4.011801257729530334e-02 5.774826183915138245e-02
1.476354598999023438e-01 -1.259888708591461182e-01 -2.678992450237274170e-01
-4.789443686604499817e-03 6.440489739179611206e-02 -9.684707969427108765e-02
-3.880206122994422913e-02 -1.044493690133094788e-01 4.302227869629859924e-02
-6.316602230072021484e-01 -3.208243055269122124e-03 3.129094839096069336e-02
-3.529379963874816895e-01 -6.304626911878585815e-02 -5.102069303393363953e-02
-4.307714104652404785e-01 -5.969447270035743713e-02 1.280104834586381912e-02
-1.838639825582504272e-01 2.206769399344921112e-02 -8.519656658172607422e-01
-9.130311198532581329e-03 3.764536231756210327e-02 1.067066490650177002e-01
1.135953664779663086e-01 -6.793662160634994507e-02 -1.003087759017944336e-01
1.834613382816314697e-01 -1.363739818334579468e-01 -2.336668223142623901e-01
-8.484838008880615234e-01 4.419779479503631592e-01 -1.045770361088216305e-03
8.018716424703598022e-02 1.214680746197700500e-01 -2.398643270134925842e-02
1.534049659967422485e-01 -9.167402237653732300e-02 -2.592449784278869629e-01
2.983295023441314697e-01 -5.919994413852691650e-02 2.757532298564910889e-01
-1.632311195135116577e-01 -2.645110711455345154e-02 -5.679136514663696289e-01
-9.410691261291503906e-02 -7.631531450897455215e-03 5.214243531227111816e-01
1.468112468719482422e-01 -2.504994161427021027e-02 2.958915531635284424e-01
-7.583695650100708008e-01 3.355992138385772705e-01 5.410583224147558212e-03
1.070840656757354736e-01 -1.017294526100158691e-01 -2.463872134685516357e-01
2.971770800650119781e-02 -1.386808976531028748e-02 5.313423871994018555e-01
5.470502376556396484e-01 -1.395050995051860809e-02 1.073110699653625488e-01
2.167596668004989624e-01 -8.334943652153015137e-02 3.245193064212799072e-01
7.504955679178237915e-02 -1.576379127800464630e-02 -3.730691373348236084e-01
-2.663114666938781738e-02 -2.438974566757678986e-03 6.525020599365234375e-01
3.712725639343261719e-01 1.200394332408905029e-01 8.597549051046371460e-03
3.071486055850982666e-01 -1.024437770247459412e-01 5.618225410580635071e-02
4.305884940549731255e-04 -4.332005232572555542e-02 3.883959949016571045e-01
7.884094864130020142e-02 -4.955660924315452576e-02 1.043713688850402832e-01
2.529442124068737030e-02 -3.134145960211753845e-02 3.936434984207153320e-01
-4.678611159324645996e-01 -2.004970796406269073e-02 7.483699172735214233e-02
2.626135051250457764e-01 -5.826583504676818848e-02 -2.927356064319610596e-01
6.741182506084442139e-02 -7.016199827194213867e-02 -5.541651323437690735e-02
8.821761608123779297e-01 4.138181358575820923e-02 -1.508490554988384247e-02
-6.162473559379577637e-01 1.404533628374338150e-02 5.491845682263374329e-02
-8.280432224273681641e-01 1.131160333752632141e-01 2.969630360603332520e-01
2.955286763608455658e-02 -1.409346312284469604e-01 1.404994875192642212e-01
3.004999458789825439e-01 -1.254119127988815308e-01 2.816601097583770752e-01
1.662077754735946655e-01 -1.290109753608703613e-01 2.746817469596862793e-01
6.741182506084442139e-02 -7.016199827194213867e-02 -5.541651323437690735e-02
-1.800436340272426605e-02 -1.527483761310577393e-01 -1.294585317373275757e-01
-8.291422128677368164e-01 1.060277745127677917e-01 2.359985560178756714e-01
-7.804310917854309082e-01 1.091872677206993103e-01 -2.188858985900878906e-01
6.761773228645324707e-01 4.396435245871543884e-02 -9.234136343002319336e-02
2.418707460165023804e-01 -3.985835239291191101e-02 -1.555312126874923706e-01
1.370030790567398071e-01 -2.329162321984767914e-02 -3.044394552707672119e-01
8.246749639511108398e-02 -2.554446645081043243e-02 4.067210555076599121e-01
4.604526758193969727e-01 -2.656100876629352570e-02 -1.027814224362373352e-01
-2.237834632396697998e-01 8.193401619791984558e-03 -1.069574505090713501e-01
-2.162281572818756104e-01 3.970590606331825256e-02 -1.054738610982894897e-01
4.537779837846755981e-02 -3.820991516113281250e-02 8.698043227195739746e-02
7.137340307235717773e-01 -9.513574093580245972e-02 4.571472108364105225e-02
-1.101241707801818848e-01 1.668282411992549896e-02 8.269610404968261719e-01
3.326992988586425781e-01 -6.414523720741271973e-02 3.078426718711853027e-01
1.453276574611663818e-01 -6.285395473241806030e-02 2.649285197257995605e-01
-5.778499413281679153e-03 -2.980292402207851410e-02 3.861156702041625977e-01
-3.388273296877741814e-03 -2.903365530073642731e-02 -3.313363492488861084e-01
-1.994416415691375732e-01 3.473314270377159119e-02 8.941346406936645508e-01
-1.624343693256378174e-01 1.173753011971712112e-02 -7.423450946807861328e-01
-4.608277976512908936e-01 8.849946409463882446e-02 8.178787678480148315e-02
2.723667025566101074e-01 -1.038174703717231750e-01 3.124308288097381592e-01
-6.783382296562194824e-01 1.380348056554794312e-01 -6.925173569470643997e-03
8.007711768150329590e-01 4.168402776122093201e-02 7.151265442371368408e-02
4.999340698122978210e-02 -2.477521821856498718e-02 4.073529541492462158e-01
3.223691284656524658e-01 1.028141472488641739e-02 -1.077816709876060486e-01
2.532174587249755859e-01 -9.106959402561187744e-02 -9.187430888414382935e-02
6.123006343841552734e-01 7.962540537118911743e-02 7.761185616254806519e-02
1.507399976253509521e-01 -8.999811112880706787e-02 -2.880375683307647705e-01
3.295123279094696045e-01 -1.196149364113807678e-01 -2.351229488849639893e-01
-1.965843737125396729e-01 2.811194024980068207e-02 -9.003471136093139648e-01
2.259633988142013550e-01 -4.854008927941322327e-02 -1.687461286783218384e-01
-2.679599449038505554e-02 -5.628771334886550903e-02 2.853141427040100098e-01
1.099413335323333740e-01 -3.466578572988510132e-02 -9.942961484193801880e-02
2.714875638484954834e-01 -1.296978443861007690e-01 -2.468542754650115967e-01
-8.189494013786315918e-01 4.250815510749816895e-01 -2.337041078135371208e-03
-7.380389571189880371e-01 8.946104347705841064e-02 1.509395390748977661e-01
3.206932246685028076e-01 5.772875249385833740e-02 9.906892478466033936e-02
9.487453103065490723e-01 -4.296289756894111633e-02 -2.494801767170429230e-02
2.597012817859649658e-01 -1.446985453367233276e-01 2.657252550125122070e-01
-7.004546523094177246e-01 9.154905378818511963e-02 -1.653393656015396118e-01
2.876696586608886719e-01 -9.964144974946975708e-02 -2.228696048259735107e-01
4.857011139392852783e-01 -5.191937461495399475e-02 9.302467852830886841e-02
1.457962114363908768e-02 -8.807495236396789551e-02 -9.239631146192550659e-02
2.311559468507766724e-01 -3.323715180158615112e-02 1.073385551571846008e-01
-2.296903431415557861e-01 1.113027483224868774e-01 5.934174358844757080e-02
4.087208956480026245e-02 -1.774190180003643036e-02 3.536965250968933105e-01
4.140218496322631836e-01 7.627359777688980103e-02 -8.626964688301086426e-02
1.298613566905260086e-02 -3.139640018343925476e-02 -3.961471319198608398e-01
8.009085655212402344e-01 8.880167454481124878e-02 9.048727224580943584e-04
1.403014268726110458e-02 -4.114961624145507812e-02 1.821498274803161621e-01
-7.968314737081527710e-02 1.146279741078615189e-02 -7.119864225387573242e-01
-7.524901628494262695e-01 1.899603605270385742e-01 4.531420301645994186e-03
-3.501067310571670532e-02 -4.874837759416550398e-05 5.738169550895690918e-01
-2.837292850017547607e-04 -3.323715180158615112e-02 2.853965461254119873e-01
2.567066252231597900e-01 5.775622278451919556e-02 9.945356100797653198e-02
2.514041662216186523e-01 -1.446436047554016113e-01 2.713024616241455078e-01
8.178213611245155334e-03 -4.667186737060546875e-02 1.034372597932815552e-01
5.513910651206970215e-01 1.011923775076866150e-01 -5.700999498367309570e-02
1.306840926408767700e-01 -4.510585963726043701e-02 1.851170063018798828e-01
-1.114703863859176636e-01 3.193167038261890411e-03 -6.940185427665710449e-01
-2.953253686428070068e-01 -8.282744139432907104e-02 6.591958459466695786e-03
-7.865303158760070801e-01 1.143248751759529114e-01 2.583622932434082031e-01
-5.072036385536193848e-01 1.173744648694992065e-01 4.824231192469596863e-02
6.002670526504516602e-01 -1.039273515343666077e-01 4.778685048222541809e-03
-5.991586446762084961e-01 1.271002143621444702e-01 -1.046929974108934402e-02
-6.863331198692321777e-01 2.451287023723125458e-02 3.634613379836082458e-02
-5.190708488225936890e-02 -4.829200915992259979e-03 5.262872576713562012e-01
5.042459964752197266e-01 -6.156269088387489319e-02 -8.550037443637847900e-02
-1.455929130315780640e-01 -4.441900551319122314e-02 -9.105009585618972778e-02
-8.001023530960083008e-01 9.110947698354721069e-02 -1.061881855130195618e-01
-6.332262158393859863e-01 4.775574430823326111e-02 6.324303150177001953e-02
2.512668073177337646e-01 -9.310265630483627319e-02 2.243221849203109741e-01
-7.927104085683822632e-02 -1.246692426502704620e-02 -5.067843198776245117e-01
-1.484776437282562256e-01 2.209517359733581543e-02 -8.419651985168457031e-01
9.141008257865905762e-01 -3.774286061525344849e-02 -4.189938306808471680e-02
-8.468338102102279663e-02 -2.834681794047355652e-02 -5.595340728759765625e-01
-4.975328743457794189e-01 -4.433659464120864868e-02 2.574122883379459381e-02
1.674440950155258179e-01 -9.508077800273895264e-02 -2.904003262519836426e-01
7.098327875137329102e-01 7.553180307149887085e-02 7.132034003734588623e-02
2.551680803298950195e-01 -1.079660058021545410e-01 -9.232976473867893219e-03
-2.338114231824874878e-01 -5.667233839631080627e-02 -7.885169982910156250e-02
-2.643074095249176025e-01 -5.483158677816390991e-02 -7.742306590080261230e-02
1.655773818492889404e-02 -1.607158035039901733e-01 -1.606962978839874268e-01
-1.892488300800323486e-01 2.179296128451824188e-02 8.520721197128295898e-01
1.717849671840667725e-01 -8.455829322338104248e-02 2.535543739795684814e-01
-7.828212976455688477e-01 9.899446368217468262e-02 -2.058632969856262207e-01
-1.783951558172702789e-02 -4.301783815026283264e-02 -1.370687931776046753e-01
1.156009584665298462e-01 -3.562738746404647827e-02 2.959739565849304199e-01
-8.015859127044677734e-01 3.523582816123962402e-01 3.762152511626482010e-03
4.106700420379638672e-01 -6.263417005538940430e-02 8.497484773397445679e-02
-1.274601668119430542e-01 5.913076922297477722e-03 6.682171225547790527e-01
-7.676008343696594238e-01 9.220843017101287842e-02 -1.595423966646194458e-01
7.721983790397644043e-01 -9.917439520359039307e-02 2.288394980132579803e-02
8.271185755729675293e-01 7.754707476124167442e-04 7.560626417398452759e-02
-1.796055138111114502e-01 1.143523529171943665e-01 -5.184491351246833801e-02
-3.332667648792266846e-01 2.890868857502937317e-02 1.053879037499427795e-01
-2.600489556789398193e-01 1.073739901185035706e-01 -6.445540487766265869e-02
1.227166727185249329e-01 -9.073991328477859497e-02 2.839404344558715820e-01
-3.428276479244232178e-01 5.259113758802413940e-02 -1.003637313842773438e-01
-2.866272581741213799e-03 -2.127815969288349152e-05 5.874989628791809082e-01
4.350958019495010376e-02 -3.282503783702850342e-02 1.708580851554870605e-01
1.778841465711593628e-01 -3.172608464956283569e-02 1.299220472574234009e-01
-5.788554549217224121e-01 2.006477117538452148e-01 9.174500592052936554e-03
1.880494803190231323e-01 -5.930982530117034912e-02 2.571534216403961182e-01
6.476594805717468262e-01 1.091323196887969971e-01 2.532912231981754303e-02
3.290727436542510986e-01 -1.337364912033081055e-01 2.417406141757965088e-01
1.842855662107467651e-01 -4.807303473353385925e-02 2.433340847492218018e-01
-3.332667648792266846e-01 2.890868857502937317e-02 1.053879037499427795e-01
-8.995836228132247925e-02 -6.120464764535427094e-03 5.332106351852416992e-01
-8.047729134559631348e-01 9.132926166057586670e-02 -1.220131143927574158e-01
5.716408044099807739e-02 -2.135901449946686625e-04 1.083276048302650452e-01
1.590920537710189819e-01 9.806035459041595459e-02 -6.890616565942764282e-02
-4.990439414978027344e-01 5.869033560156822205e-02 8.909591287374496460e-02
3.977313637733459473e-02 2.514476701617240906e-02 1.084375083446502686e-01
8.125299811363220215e-01 -1.054384186863899231e-01 3.260968998074531555e-02
1.032926663756370544e-01 1.009725853800773621e-01 -6.626868247985839844e-02
9.094851613044738770e-01 -4.205625876784324646e-02 4.348933696746826172e-02
1.759609878063201904e-01 -3.447347506880760193e-02 2.817699909210205078e-01
3.752028197050094604e-02 -2.015959843993186951e-02 -4.591721892356872559e-01
-3.578558266162872314e-01 9.937909990549087524e-02 -7.412619888782501221e-02
-7.668849825859069824e-02 -5.411728098988533020e-02 2.022881656885147095e-01
-1.164156794548034668e-01 2.781062619760632515e-03 -6.864358186721801758e-01
9.694620221853256226e-02 -7.139831781387329102e-02 2.644065320491790771e-01
-4.550568386912345886e-02 -5.397990718483924866e-02 2.056399732828140259e-01
1.833789348602294922e-01 -8.791010826826095581e-02 2.164097130298614502e-01
3.096212744712829590e-01 -1.246426403522491455e-01 -2.880925238132476807e-01
-7.679839432239532471e-02 -1.019217595458030701e-01 -2.857456542551517487e-02
2.418432682752609253e-01 -9.392688423395156860e-02 8.851896971464157104e-02
5.493870005011558533e-02 -2.161571383476257324e-02 3.063041269779205322e-01
-1.549889445304870605e-01 1.305627543479204178e-02 7.507761120796203613e-01
-3.513445258140563965e-01 7.926824688911437988e-02 9.077182412147521973e-02
1.639274507761001587e-01 -1.422258913516998291e-01 -2.864715754985809326e-01
-6.181156039237976074e-01 1.728725060820579529e-02 -5.514177307486534119e-02
2.312383800745010376e-01 -1.237360015511512756e-01 -2.782843410968780518e-01
-8.554071784019470215e-01 1.131984367966651917e-01 2.758081555366516113e-01
1.523609608411788940e-01 -1.003008186817169189e-01 2.540214061737060547e-01
1.730762422084808350e-01 1.110829561948776245e-01 5.019295215606689453e-02
-1.258392035961151123e-01 1.918294280767440796e-02 8.064380288124084473e-01
7.721983790397644043e-01 -9.917439520359039307e-02 2.288394980132579803e-02
7.345317602157592773e-01 6.327846646308898926e-02 7.599089294672012329e-02
2.493161708116531372e-01 -9.016295522451400757e-02 -2.229520231485366821e-01
2.639337256550788879e-02 -4.994042683392763138e-03 5.301885008811950684e-01
1.437891125679016113e-01 -7.867889106273651123e-02 2.748465836048126221e-01
3.290727436542510986e-01 -1.337364912033081055e-01 2.417406141757965088e-01
5.584793686866760254e-01 -4.636965692043304443e-02 -9.486895799636840820e-02
3.411337435245513916e-01 -2.494006045162677765e-02 -1.027814224362373352e-01
6.761773228645324707e-01 4.396435245871543884e-02 -9.234136343002319336e-02
6.662318110466003418e-01 8.841703087091445923e-02 6.324303150177001953e-02
-5.512152984738349915e-02 -9.760838747024536133e-02 -6.882374733686447144e-02
9.525942732580006123e-04 -3.554495796561241150e-02 -1.676746606826782227e-01
-1.473497226834297180e-02 -1.703041791915893555e-01 -1.193481534719467163e-01
9.235808253288269043e-02 -7.161812484264373779e-02 -2.711136937141418457e-01
6.123006343841552734e-01 7.962540537118911743e-02 7.761185616254806519e-02
5.752384066581726074e-01 -1.035976707935333252e-01 1.986182853579521179e-02
4.254235327243804932e-01 -5.274358391761779785e-02 9.198066592216491699e-02
-6.497105360031127930e-01 1.493265628814697266e-01 9.256921708583831787e-03
7.807977199554443359e-01 7.404821366071701050e-02 5.390192568302154541e-02
1.457962114363908768e-02 -8.807495236396789551e-02 -9.239631146192550659e-02
-5.842128396034240723e-01 6.946007907390594482e-02 -7.058206945657730103e-02
1.958795189857482910e-01 -3.337452188134193420e-02 8.560673892498016357e-02
