-6.514224410057067871e-01 1.175426691770553589e-02 4.150494560599327087e-02
3.620558604598045349e-02 -1.635756641626358032e-01 1.599128842353820801e-01
-7.841559648513793945e-01 6.332637369632720947e-02 -1.643777936697006226e-01
2.374483495950698853e-01 -4.570019990205764771e-02 -1.360055357217788696e-01
3.351158797740936279e-01 -1.193058192729949951e-01 2.756585478782653809e-01
1.655668914318084717e-01 -1.920421048998832703e-02 -1.281201243400573730e-01
-6.655198335647583008e-01 1.327484101057052612e-01 8.340580388903617859e-03
2.201815843582153320e-01 -1.869711093604564667e-02 2.459931522607803345e-01
-8.049977421760559082e-01 1.023223921656608582e-01 -1.142196008004248142e-03
2.087464630603790283e-01 -9.798225015401840210e-02 -3.945362567901611328e-02
8.833550661802291870e-02 -2.914337627589702606e-02 3.308056890964508057e-01
-8.806064724922180176e-01 7.689131051301956177e-02 2.291067093610763550e-01
4.870560765266418457e-02 -3.611600026488304138e-02 -3.823041915893554688e-01
4.410394933074712753e-03 -2.298210933804512024e-02 3.908463716506958008e-01
2.728946805000305176e-01 -4.722150787711143494e-02 9.153039753437042236e-02
-2.053516656160354614e-01 -8.500047773122787476e-02 -5.507231503725051880e-02
1.571743786334991455e-01 -3.804298490285873413e-02 -2.375523746013641357e-01
3.445609286427497864e-02 -8.453676477074623108e-03 3.728443086147308350e-01
1.824279576539993286e-01 6.525335460901260376e-02 -7.606627047061920166e-02
2.601664662361145020e-01 -1.232104897499084473e-01 -2.607522308826446533e-01
8.326450735330581665e-02 -2.044660225510597229e-02 3.977936208248138428e-01
2.276359498500823975e-01 -7.883921265602111816e-02 -3.202857971191406250e-01
7.251014709472656250e-01 -1.326425522565841675e-01 -9.864321909844875336e-03
1.128284484148025513e-01 -3.230543108657002449e-03 3.367894589900970459e-01
1.120931580662727356e-01 -1.591131985187530518e-01 -1.999508887529373169e-01
1.553234606981277466e-01 -7.185932248830795288e-03 -2.811376452445983887e-01
-6.420157551765441895e-01 9.296639263629913330e-02 -2.459558658301830292e-02
5.087470412254333496e-01 -1.009487733244895935e-01 2.177873998880386353e-02
-6.439173221588134766e-01 7.864080369472503662e-02 3.727065399289131165e-02
1.773473341017961502e-03 -4.876815527677536011e-02 1.632343828678131104e-01
-8.129085302352905273e-01 6.750995665788650513e-02 1.870934665203094482e-01
-1.245069038122892380e-02 -4.909777641296386719e-02 -1.627043634653091431e-01
-3.101056441664695740e-02 -1.481051323935389519e-03 4.954864978790283203e-01
-2.042183623416349292e-04 -7.718383334577083588e-03 -4.231257736682891846e-01
4.176211059093475342e-01 -8.091831207275390625e-02 6.163682788610458374e-02
-4.901262745261192322e-02 1.322486251592636108e-02 9.546042233705520630e-02
-1.435231883078813553e-02 -4.116165637969970703e-02 -1.001535430550575256e-01
-8.114632964134216309e-01 5.412250012159347534e-02 2.299578115344047546e-02
-8.844096660614013672e-01 8.229193091392517090e-02 -2.708435058593750000e-01
7.245943546295166016e-01 5.926956981420516968e-02 -6.823156774044036865e-02
7.573530077934265137e-01 -8.905727416276931763e-02 3.293494880199432373e-02
-1.825699023902416229e-02 1.923400163650512695e-02 -9.954501688480377197e-02
5.597613453865051270e-01 -4.729757085442543030e-02 -9.356123208999633789e-02
-2.893274724483489990e-01 6.401096284389495850e-02 -7.507742941379547119e-02
-8.179795742034912109e-01 6.421380490064620972e-02 -6.191817298531532288e-02
-6.892014741897583008e-01 9.699783474206924438e-02 3.523127408698201180e-03
4.295001924037933350e-02 -5.987365171313285828e-02 -1.003056690096855164e-01
6.321752667427062988e-01 -4.537058994174003601e-02 8.818352967500686646e-02
2.609271109104156494e-01 5.556774139404296875e-02 -8.243038505315780640e-02
3.351158797740936279e-01 -1.193058192729949951e-01 2.756585478782653809e-01
7.180403172969818115e-02 -6.915359199047088623e-02 1.101916879415512085e-01
4.041068851947784424e-01 8.865603059530258179e-02 3.732136636972427368e-02
-8.717069029808044434e-01 2.783876359462738037e-01 -3.601632779464125633e-03
4.287395626306533813e-02 -1.049548685550689697e-01 -2.105686813592910767e-03
1.458406895399093628e-01 -4.117974080145359039e-03 3.239091336727142334e-01
-4.249007701873779297e-01 8.437104523181915283e-02 -4.761794209480285645e-02
-6.068990826606750488e-01 -2.582186460494995117e-02 5.819451762363314629e-04
2.201815843582153320e-01 -1.869711093604564667e-02 2.459931522607803345e-01
3.089748620986938477e-01 6.170365214347839355e-02 7.299587130546569824e-02
-1.062135472893714905e-01 1.327556557953357697e-02 -6.860066056251525879e-01
-7.771832942962646484e-01 2.155832648277282715e-01 6.058629136532545090e-03
9.200814962387084961e-01 -8.834008127450942993e-03 3.047551028430461884e-02
-3.690183162689208984e-01 -1.147093065083026886e-02 8.572410047054290771e-02
-7.767015695571899414e-01 5.320972204208374023e-02 -3.686741739511489868e-02
-7.593840956687927246e-01 1.984251663088798523e-02 -2.815627027302980423e-03
-4.913308918476104736e-01 7.582639902830123901e-02 5.245831236243247986e-02
1.590506434440612793e-01 -5.487143993377685547e-03 3.328340947628021240e-01
-5.497105419635772705e-02 7.501883665099740028e-04 6.401115655899047852e-01
-2.303263694047927856e-01 4.015188664197921753e-02 8.683971315622329712e-02
7.362069487571716309e-01 -1.157307624816894531e-01 -4.920093808323144913e-03
3.242768719792366028e-02 -1.839284412562847137e-02 3.110541403293609619e-01
-8.716053962707519531e-01 8.513168990612030029e-02 -2.977705597877502441e-01
-4.622357711195945740e-02 -6.157243996858596802e-02 -8.346993476152420044e-02
-7.430397905409336090e-03 -4.818499088287353516e-02 1.656938195228576660e-01
3.929889574646949768e-02 -1.453961282968521118e-01 -1.820248812437057495e-01
2.758488245308399200e-02 -1.524882111698389053e-02 -1.017762571573257446e-01
1.521033644676208496e-01 -3.776407614350318909e-02 2.372710257768630981e-01
-5.706256721168756485e-03 -3.857544437050819397e-02 2.375499308109283447e-01
4.872460067272186279e-01 9.187612682580947876e-02 -2.860167808830738068e-02
9.239230304956436157e-02 -1.364965140819549561e-01 1.781938374042510986e-01
1.341142691671848297e-02 -2.627826109528541565e-02 -3.637442886829376221e-01
1.485029608011245728e-01 -9.112914092838764191e-03 -3.842818737030029297e-01
-7.020817995071411133e-01 1.535141766071319580e-01 -1.148704253137111664e-02
-3.239117264747619629e-01 -3.839795291423797607e-02 -8.798312395811080933e-02
4.571242034435272217e-01 7.917325943708419800e-02 5.136804282665252686e-02
-6.455907821655273438e-01 1.685750484466552734e-01 6.464309524744749069e-03
7.238083481788635254e-01 8.736292272806167603e-02 1.067324168980121613e-02
3.198014795780181885e-01 -5.989900231361389160e-02 2.545631527900695801e-01
6.704106926918029785e-01 4.481721296906471252e-02 7.862468808889389038e-02
5.631589293479919434e-01 6.543084233999252319e-02 7.020682096481323242e-02
4.740010015666484833e-03 -6.038076058030128479e-02 9.109935909509658813e-02
4.147306382656097412e-01 -9.884431958198547363e-02 3.159113228321075439e-02
5.636659860610961914e-01 -1.041942238807678223e-01 -1.110671833157539368e-02
-1.056810840964317322e-01 1.246420852839946747e-02 -7.336233258247375488e-01
-7.434865236282348633e-01 2.808217108249664307e-01 -6.821719929575920105e-03
2.545376420021057129e-01 8.972094208002090454e-02 -4.138061031699180603e-02
3.409221768379211426e-01 -6.575601547956466675e-02 -2.556558549404144287e-01
-3.320760726928710938e-01 -8.611610531806945801e-02 2.497347071766853333e-02
-5.790592432022094727e-01 8.391464501619338989e-02 3.554651513695716858e-02
4.110288023948669434e-01 -8.768811821937561035e-02 -5.664432793855667114e-02
4.425958096981048584e-01 -4.602981731295585632e-02 8.912166208028793335e-02
-8.381114006042480469e-01 1.834077239036560059e-01 -1.015421003103256226e-03
2.537262737751007080e-01 -6.159779056906700134e-02 -2.636680305004119873e-01
-1.285637170076370239e-02 -2.939692139625549316e-02 -3.058841526508331299e-01
1.173799484968185425e-02 1.375731360167264938e-02 -6.310369372367858887e-01
5.295635461807250977e-01 -8.596397191286087036e-02 -5.950944870710372925e-02
-6.704387664794921875e-01 9.499479085206985474e-02 -1.676088571548461914e-02
6.412523388862609863e-01 6.208397820591926575e-02 -7.510278373956680298e-02
2.035993933677673340e-01 -7.754610478878021240e-02 -2.773090302944183350e-01
1.003030762076377869e-01 -1.230764016509056091e-02 -4.406714141368865967e-01
2.012920975685119629e-01 -6.126818060874938965e-02 2.890713512897491455e-01
-6.514224410057067871e-01 1.175426691770553589e-02 4.150494560599327087e-02
-8.101194500923156738e-01 1.183721125125885010e-01 -1.066130935214459896e-03
2.694210410118103027e-01 -1.159589439630508423e-01 -2.523089945316314697e-01
-8.188923597335815430e-01 7.856474071741104126e-02 2.163784950971603394e-01
-2.157979309558868408e-01 9.162257611751556396e-02 -3.552359715104103088e-02
-5.513462424278259277e-01 -1.314435806125402451e-02 -5.935731530189514160e-02
8.965396881103515625e-02 -1.644050888717174530e-02 -2.442207485437393188e-01
6.809837222099304199e-01 -9.430576860904693604e-02 3.714388236403465271e-02
-3.348240861669182777e-03 9.623719006776809692e-02 5.526173859834671021e-03
-8.709208369255065918e-01 7.628278434276580811e-02 -2.503566741943359375e-01
8.036006093025207520e-01 -8.758668601512908936e-02 8.467354811728000641e-03
-8.902159929275512695e-01 8.487813919782638550e-02 -3.033486604690551758e-01
6.321752667427062988e-01 -4.537058994174003601e-02 8.818352967500686646e-02
1.143751069903373718e-01 -4.734827578067779541e-02 -1.932064443826675415e-01
9.382864236831665039e-01 -1.560379099100828171e-02 -2.553372271358966827e-02
5.113968998193740845e-02 -4.295454826205968857e-03 -3.861581683158874512e-01
1.200292780995368958e-01 6.892983615398406982e-02 -7.289689779281616211e-02
1.368903666734695435e-01 -6.425278261303901672e-03 -2.931052148342132568e-01
5.037904158234596252e-02 -4.095881432294845581e-02 2.354961782693862915e-01
-8.172442317008972168e-01 6.117119640111923218e-02 8.722004294395446777e-02
1.905669271945953369e-01 -1.119021475315093994e-01 -2.972888052463531494e-01
8.289712481200695038e-03 -1.760683767497539520e-02 4.455624818801879883e-01
2.722607851028442383e-01 -4.983306676149368286e-02 -2.843577563762664795e-01
-7.108799815177917480e-01 5.275333300232887268e-02 -8.093443512916564941e-02
-7.100782357156276703e-03 8.505561947822570801e-02 4.378689453005790710e-02
3.221594691276550293e-01 6.943693757057189941e-02 6.627679616212844849e-02
8.952842950820922852e-01 -2.275390550494194031e-02 4.292482510209083557e-02
9.241766482591629028e-02 1.662971219047904015e-03 9.776772558689117432e-02
-1.193063915707170963e-03 -5.637466907501220703e-02 1.065152063965797424e-01
3.107497096061706543e-01 -5.262212082743644714e-02 -2.705646157264709473e-01
3.336452841758728027e-01 6.677465885877609253e-02 -7.484923303127288818e-02
1.144004613161087036e-01 -3.626812994480133057e-02 2.676970660686492920e-01
-1.548191159963607788e-01 9.502015262842178345e-02 -1.805399358272552490e-02
2.201815843582153320e-01 -1.869711093604564667e-02 2.459931522607803345e-01
-8.915344476699829102e-01 8.066920936107635498e-02 2.775601446628570557e-01
4.318959712982177734e-01 -6.268806755542755127e-02 -8.314032107591629028e-02
-8.338264226913452148e-01 2.414200156927108765e-01 1.824341015890240669e-03
7.360041141510009766e-01 8.335683494806289673e-02 -2.662398852407932281e-02
3.445609286427497864e-02 -8.453676477074623108e-03 3.728443086147308350e-01
-6.216303706169128418e-01 9.917837381362915039e-02 -1.397183444350957870e-02
-8.375282883644104004e-01 3.540723621845245361e-01 -7.810565643012523651e-03
-6.892014741897583008e-01 9.699783474206924438e-02 3.523127408698201180e-03
-1.822278946638107300e-01 -4.397605732083320618e-02 8.889347314834594727e-02
3.349637389183044434e-01 -1.379671096801757812e-01 -2.935362458229064941e-01
1.372453421354293823e-01 -8.174779824912548065e-03 2.640966475009918213e-01
-5.173801910132169724e-03 1.451796758919954300e-02 5.951824188232421875e-01
-1.012946665287017822e-01 7.291056960821151733e-02 6.214392930269241333e-02
1.265077572315931320e-02 -3.692736849188804626e-02 1.985032111406326294e-01
3.281432688236236572e-01 -1.308423429727554321e-01 -3.147837519645690918e-01
-1.337744444608688354e-01 4.382836446166038513e-02 8.544518798589706421e-02
-3.471240028738975525e-02 -5.645073205232620239e-02 -9.951966255903244019e-02
3.352426290512084961e-01 -9.212524443864822388e-02 -2.862593531608581543e-01
1.973874270915985107e-01 -8.081690967082977295e-02 2.979963123798370361e-01
2.117890864610671997e-01 5.891459807753562927e-02 -8.027520775794982910e-02
-4.809984564781188965e-02 9.499479085206985474e-02 1.214383449405431747e-02
7.173427939414978027e-01 -1.700919121503829956e-01 -3.145242342725396156e-03
1.748468130826950073e-01 -7.693031802773475647e-03 2.942944765090942383e-01
2.705366313457489014e-01 -1.032560989260673523e-01 -2.482014894485473633e-01
1.711449772119522095e-01 -9.467884898185729980e-03 2.398572564125061035e-01
-8.351195454597473145e-01 7.329089939594268799e-02 2.397304773330688477e-01
1.896417513489723206e-02 -4.275901615619659424e-02 3.661505579948425293e-01
-6.911537051200866699e-01 1.743052899837493896e-01 7.453154772520065308e-03
7.079867720603942871e-01 6.763672828674316406e-02 5.778286606073379517e-02
-3.896826505661010742e-01 -7.886456698179244995e-02 -1.800328306853771210e-02
3.808563351631164551e-01 5.698761716485023499e-02 7.606383413076400757e-02
8.602436780929565430e-01 4.309307038784027100e-02 -4.008750617504119873e-02
7.248861342668533325e-02 -1.083705388009548187e-02 3.119669258594512939e-01
6.205880045890808105e-01 -3.251559287309646606e-02 9.244317561388015747e-02
3.935084939002990723e-01 9.697248041629791260e-02 -4.083377774804830551e-03
-1.748749464750289917e-01 -7.683616876602172852e-02 -7.089384645223617554e-02
8.798053860664367676e-02 6.730711460113525391e-02 6.957294791936874390e-02
-7.610322237014770508e-01 5.455353483557701111e-02 -7.758757472038269043e-02
3.036503195762634277e-01 -1.178098618984222412e-01 -3.270049095153808594e-01
5.058058500289916992e-01 -4.496490582823753357e-02 -9.503182768821716309e-02
3.539422526955604553e-02 7.900303229689598083e-03 4.988840818405151367e-01
1.893752515316009521e-01 -3.616671636700630188e-02 2.221087217330932617e-01
1.303110085427761078e-02 9.352420270442962646e-02 1.906575262546539307e-02
-1.680797934532165527e-01 8.137914538383483887e-02 4.961854591965675354e-02
-4.463511109352111816e-01 -1.529953349381685257e-02 7.616525143384933472e-02
-1.058078631758689880e-01 1.383337751030921936e-02 -7.458444237709045410e-01
-1.295401602983474731e-01 -1.119202468544244766e-02 -6.465288400650024414e-01
1.784725934267044067e-01 -1.192731782793998718e-02 1.985539197921752930e-01
-4.280194342136383057e-01 -1.311900652945041656e-02 7.925856113433837891e-02
3.322761058807373047e-01 -7.419922947883605957e-02 3.247711956501007080e-01
-6.327358484268188477e-01 6.256572902202606201e-02 4.999887570738792419e-02
3.755571246147155762e-01 8.520775288343429565e-02 -4.782078415155410767e-02
-7.611843347549438477e-01 6.200791522860527039e-02 1.494158953428268433e-01
-3.440182507038116455e-01 9.638932347297668457e-02 7.427799981087446213e-03
7.856745719909667969e-01 -1.142855286598205566e-01 1.944607868790626526e-02
-1.303008198738098145e-01 2.504029870033264160e-02 7.861057519912719727e-01
-8.118183016777038574e-01 7.785479724407196045e-02 -2.545148730278015137e-01
-1.272328495979309082e-01 9.446962736546993256e-03 6.943712234497070312e-01
1.443193852901458740e-01 -4.498296417295932770e-03 -3.229227662086486816e-01
-2.836225926876068115e-01 -4.790608584880828857e-02 -8.468697220087051392e-02
-2.342310398817062378e-01 2.841251343488693237e-02 -9.584318101406097412e-02
-4.425478577613830566e-01 -5.883410200476646423e-02 3.889337927103042603e-02
-8.781470060348510742e-01 8.500491827726364136e-02 -1.478319615125656128e-02
3.256584703922271729e-01 3.013665415346622467e-02 -9.721235930919647217e-02
1.956632882356643677e-01 -1.009741500020027161e-01 -2.449416741728782654e-02
9.200814962387084961e-01 -8.834008127450942993e-03 3.047551028430461884e-02
-7.501803040504455566e-01 2.473023831844329834e-01 6.793924141675233841e-03
7.960700988769531250e-01 7.466007024049758911e-02 -2.844955027103424072e-02
6.975659132003784180e-01 -1.006445214152336121e-01 6.844634655863046646e-03
-1.080137491226196289e-01 4.401310347020626068e-03 -6.334202885627746582e-01
7.517624646425247192e-02 -2.457947283983230591e-02 1.902374774217605591e-01
2.002272009849548340e-01 -1.014305353164672852e-01 -2.780950367450714111e-01
-7.414073944091796875e-01 8.637408912181854248e-02 3.116009756922721863e-02
3.528136909008026123e-01 -1.215624213218688965e-01 -2.721873521804809570e-01
-8.169524371623992920e-02 -5.655214935541152954e-02 -8.676608651876449585e-02
8.062628507614135742e-01 -8.687674999237060547e-02 -1.460571121424436569e-02
-1.609803885221481323e-01 -5.424484238028526306e-02 8.293504267930984497e-02
7.403527200222015381e-02 -7.734325528144836426e-02 -7.145166397094726562e-02
-9.143156558275222778e-02 9.599091485142707825e-03 6.397311687469482422e-01
6.135776266455650330e-02 -3.619206696748733521e-02 3.694213628768920898e-01
-8.370972871780395508e-01 6.609006971120834351e-02 1.308560222387313843e-01
7.205375432968139648e-01 -1.529519259929656982e-01 -2.302357554435729980e-02
-2.455140203237533569e-01 -5.132901668548583984e-02 7.971496134996414185e-02
4.539548456668853760e-01 -5.309653934091329575e-03 -1.038300171494483948e-01
-5.951850414276123047e-01 -2.655716612935066223e-02 -1.927103474736213684e-02
1.251509934663772583e-01 -1.621231622993946075e-02 9.634784609079360962e-02
6.665820479393005371e-01 1.581107266247272491e-02 8.940057456493377686e-02
-8.442727327346801758e-01 3.628705441951751709e-01 -7.582370191812515259e-03
-3.906714916229248047e-01 -7.815462350845336914e-02 1.543998531997203827e-02
-2.057573497295379639e-01 -9.975709766149520874e-02 -1.414931938052177429e-02
2.854200303554534912e-01 -1.271332334727048874e-02 9.708313643932342529e-02
8.907204270362854004e-01 -4.402676969766616821e-02 3.562257811427116394e-02
1.518751829862594604e-01 -4.625073634088039398e-03 -3.292107880115509033e-01
-1.246719956398010254e-01 1.786483079195022583e-02 -7.377815246582031250e-01
-8.552384376525878906e-02 -7.128341495990753174e-02 7.165206223726272583e-02
-8.375282883644104004e-01 3.540723621845245361e-01 -7.810565643012523651e-03
-5.398221313953399658e-02 -4.320816136896610260e-03 -5.120965242385864258e-01
1.232747137546539307e-01 -7.173980027437210083e-02 -7.685227692127227783e-02
5.011658668518066406e-01 9.233251214027404785e-02 -2.626901865005493164e-02
-8.440698385238647461e-01 6.657181680202484131e-02 1.187616884708404541e-01
-4.518024325370788574e-01 9.806274622678756714e-02 -5.604678764939308167e-03
-8.024622797966003418e-01 3.916304185986518860e-02 -2.025987952947616577e-02
-7.959207296371459961e-01 5.744400992989540100e-02 -7.162914425134658813e-02
-2.679532170295715332e-01 -3.271843492984771729e-02 8.861456811428070068e-02
6.153524667024612427e-02 -1.006952375173568726e-01 1.679504215717315674e-01
-5.119315907359123230e-02 8.635605685412883759e-03 -6.863869428634643555e-01
6.480604410171508789e-02 -1.600947417318820953e-02 -4.447028636932373047e-01
2.439138740301132202e-01 -8.664854615926742554e-02 -3.281205296516418457e-01
1.643244922161102295e-01 -1.786039210855960846e-02 -3.441702425479888916e-01
7.725536078214645386e-02 -2.762207761406898499e-02 -1.664061993360519409e-01
-5.469344854354858398e-01 5.843285843729972839e-02 -6.605104357004165649e-02
8.383876681327819824e-01 -3.228740021586418152e-02 6.199179962277412415e-02
-7.386054098606109619e-02 9.253535419702529907e-02 2.471992187201976776e-02
6.407075375318527222e-02 -5.751564353704452515e-02 -1.176738590002059937e-01
3.521674126386642456e-02 -8.013232052326202393e-02 -6.719201058149337769e-02
-8.172442317008972168e-01 6.117119640111923218e-02 8.722004294395446777e-02
3.098245523869991302e-02 8.762373588979244232e-03 5.113334059715270996e-01
-5.133644342422485352e-01 -1.983808726072311401e-02 -6.473258137702941895e-02
8.046147823333740234e-01 -2.118189446628093719e-02 -7.789183408021926880e-02
-5.394547581672668457e-01 9.907694905996322632e-02 7.478510029613971710e-03
6.962727904319763184e-01 4.365088045597076416e-02 -8.207540959119796753e-02
-4.153165817260742188e-01 2.093278430402278900e-02 8.344214409589767456e-02
-3.230496644973754883e-01 3.008594550192356110e-02 8.757501840591430664e-02
6.627663969993591309e-02 -1.080228388309478760e-01 -1.783991307020187378e-01
5.517113953828811646e-02 -4.737363383173942566e-02 -1.931810975074768066e-01
3.532954156398773193e-01 -6.687163561582565308e-02 -2.573800086975097656e-01
6.458670496940612793e-01 -6.565460562705993652e-02 7.380723953247070312e-02
-7.484561204910278320e-01 6.824524700641632080e-02 -1.427499651908874512e-01
2.376511842012405396e-01 -9.884431958198547363e-02 -3.273852169513702393e-01
-8.131621479988098145e-01 9.565401822328567505e-02 -1.446456299163401127e-03
1.789926551282405853e-02 -1.624346971511840820e-01 1.818703263998031616e-01
-1.578870713710784912e-01 1.456867065280675888e-02 7.870945930480957031e-01
-2.941702902317047119e-01 8.241870254278182983e-02 -5.230861902236938477e-02
-8.114126324653625488e-01 7.684059441089630127e-02 -2.018778622150421143e-01
-2.738479897379875183e-02 -2.102976664900779724e-02 -3.780952692031860352e-01
3.046898543834686279e-01 -7.592337578535079956e-02 3.247204422950744629e-01
-4.039192199707031250e-02 1.895509473979473114e-02 -6.640998125076293945e-01
-1.939796656370162964e-02 -7.708971947431564331e-02 6.635286659002304077e-02
7.613844871520996094e-01 1.426441315561532974e-02 7.725551724433898926e-02
-6.838386505842208862e-02 -4.851461201906204224e-02 8.689042925834655762e-02
-3.351693451404571533e-01 5.120667815208435059e-02 7.728087902069091797e-02
8.534361422061920166e-02 -2.911801636219024658e-02 1.358509659767150879e-01
-1.062135472893714905e-01 1.327556557953357697e-02 -6.860066056251525879e-01
-2.370831929147243500e-02 -5.011197552084922791e-02 3.728189468383789062e-01
-4.223906099796295166e-01 -2.799508161842823029e-03 8.212368190288543701e-02
8.552109450101852417e-02 -4.440709203481674194e-02 2.149839848279953003e-01
1.028639301657676697e-01 -2.024376019835472107e-02 1.879301667213439941e-01
-7.440950274467468262e-01 2.008773386478424072e-01 -1.095458772033452988e-02
-3.525629043579101562e-01 8.746435493230819702e-02 -4.406823962926864624e-02
-7.449824810028076172e-01 1.426622271537780762e-01 5.095138214528560638e-03
-3.676491379737854004e-01 -1.748006977140903473e-02 -8.996082097291946411e-02
-6.275504827499389648e-02 3.944195061922073364e-02 8.833566308021545410e-02
-1.809347867965698242e-01 -3.494967520236968994e-02 9.193608164787292480e-02
5.418353676795959473e-01 5.376753211021423340e-02 -8.326710015535354614e-02
3.137669563293457031e-01 -1.053098514676094055e-01 -1.522521371953189373e-03
1.203335374593734741e-01 9.319458156824111938e-02 -2.507733181118965149e-02
2.087464630603790283e-01 -9.798225015401840210e-02 -3.945362567901611328e-02
-1.982776224613189697e-01 -7.691221684217453003e-02 6.272709369659423828e-02
-4.359809160232543945e-01 3.480197861790657043e-02 7.882753014564514160e-02
6.843181699514389038e-02 -1.223484203219413757e-01 -1.720603704452514648e-01
1.155414357781410217e-01 -1.609894633293151855e-01 1.802222579717636108e-01
-6.979995965957641602e-01 2.278370223939418793e-02 -4.138061031699180603e-02
1.545278122648596764e-03 -1.286545209586620331e-02 4.896802008152008057e-01
-6.904184818267822266e-01 4.892472550272941589e-02 -5.035628750920295715e-02
-4.232780337333679199e-01 -6.981282681226730347e-02 -3.423049300909042358e-02
-3.258257359266281128e-02 9.618648141622543335e-02 -1.123349275439977646e-02
-4.723146557807922363e-01 -4.019815847277641296e-02 5.496845766901969910e-02
-2.537290453910827637e-01 9.278889745473861694e-02 -2.981871925294399261e-02
8.273204416036605835e-02 -8.614145219326019287e-02 -1.740887761116027832e-01
6.153524667024612427e-02 -1.006952375173568726e-01 1.679504215717315674e-01
1.485029608011245728e-01 -9.112914092838764191e-03 -3.842818737030029297e-01
4.808565080165863037e-01 -1.008980721235275269e-01 2.190551534295082092e-02
-8.793386816978454590e-01 7.815906405448913574e-02 2.589242160320281982e-01
3.595581054687500000e-01 -7.070025056600570679e-02 7.253948599100112915e-02
3.670124709606170654e-01 -1.245289444923400879e-01 2.895277142524719238e-01
-5.558594465255737305e-01 9.362562000751495361e-02 2.063776552677154541e-02
-2.581154704093933105e-01 5.934563651680946350e-02 -7.877925783395767212e-02
3.242768719792366028e-02 -7.540903054177761078e-03 -5.233541131019592285e-01
3.471848666667938232e-01 -7.607552409172058105e-02 -7.388573884963989258e-02
-4.723146557807922363e-01 -4.019815847277641296e-02 5.496845766901969910e-02
1.227929815649986267e-01 -4.204907640814781189e-02 2.234272062778472900e-01
-5.476821959018707275e-02 2.131311222910881042e-02 6.940670013427734375e-01
-9.148228168487548828e-02 -4.414911963976919651e-04 6.332657337188720703e-01
5.418353676795959473e-01 5.376753211021423340e-02 -8.326710015535354614e-02
-7.609561085700988770e-01 8.211444318294525146e-02 2.915704995393753052e-02
-4.780448973178863525e-01 -2.845878712832927704e-02 -6.698917597532272339e-02
-7.626295685768127441e-01 1.456287652254104614e-01 -7.303465157747268677e-03
-6.908748149871826172e-01 5.285475403070449829e-02 -7.735937833786010742e-02
1.616368591785430908e-01 -1.390501204878091812e-02 -1.853971034288406372e-01
2.103088190779089928e-03 -3.458745777606964111e-03 -5.703116655349731445e-01
7.114480435848236084e-02 -5.310386791825294495e-02 -1.529173254966735840e-01
-7.593840956687927246e-01 1.984251663088798523e-02 -2.815627027302980423e-03
8.833550661802291870e-02 -2.914337627589702606e-02 3.308056890964508057e-01
1.272047460079193115e-01 -1.010176166892051697e-02 -2.603465318679809570e-01
-6.235319375991821289e-01 1.071398407220840454e-01 9.557620622217655182e-03
3.113582432270050049e-01 8.604446798563003540e-02 4.145423322916030884e-02
-7.818233370780944824e-01 6.570974737405776978e-02 6.688531488180160522e-02
-4.772081673145294189e-01 8.221586048603057861e-02 -4.878427460789680481e-02
5.619165301322937012e-01 -8.426518738269805908e-02 -6.209565699100494385e-02
-7.414073944091796875e-01 8.637408912181854248e-02 3.116009756922721863e-02
5.120335612446069717e-03 8.027080446481704712e-03 6.340516209602355957e-01
1.453842967748641968e-01 4.821478202939033508e-02 -8.752673864364624023e-02
4.916070401668548584e-01 -5.807344615459442139e-02 -8.625898510217666626e-02
5.011658668518066406e-01 9.233251214027404785e-02 -2.626901865005493164e-02
2.126765102148056030e-01 -1.664335094392299652e-02 2.589242160320281982e-01
2.045882493257522583e-01 -3.297197818756103516e-02 -2.314925193786621094e-01
2.276359498500823975e-01 -7.883921265602111816e-02 -3.202857971191406250e-01
-5.870968103408813477e-01 -3.094358183443546295e-02 4.866942763328552246e-03
-8.035272359848022461e-01 3.236209750175476074e-01 -8.266955614089965820e-03
-8.295921087265014648e-01 6.259107589721679688e-02 4.104855284094810486e-02
1.615354269742965698e-01 -9.073071181774139404e-02 4.634775221347808838e-02
-7.964024543762207031e-01 6.307282298803329468e-02 6.429910659790039062e-02
6.529157161712646484e-01 8.203838020563125610e-02 4.284875839948654175e-02
2.987568080425262451e-01 2.271496225148439407e-03 -1.027904674410820007e-01
6.583924293518066406e-01 -8.145077526569366455e-02 5.747860297560691833e-02
2.036501169204711914e-01 -3.401153907179832458e-02 2.217284142971038818e-01
7.609534263610839844e-01 8.393999934196472168e-02 -1.097994297742843628e-02
2.096085399389266968e-01 -9.696805477142333984e-02 3.004050254821777344e-01
7.390849292278289795e-02 -1.377823483198881149e-02 2.842031717300415039e-01
1.155414357781410217e-01 -1.609894633293151855e-01 1.802222579717636108e-01
-6.141123548150062561e-02 1.248956006020307541e-02 -7.198809385299682617e-01
-2.342310398817062378e-01 2.841251343488693237e-02 -9.584318101406097412e-02
-6.343078017234802246e-01 1.928470470011234283e-02 -5.565548315644264221e-02
2.928366512060165405e-02 -4.990913346409797668e-02 1.628540605306625366e-01
7.836715579032897949e-01 -1.061212122440338135e-01 -2.391100116074085236e-02
-7.440950274467468262e-01 2.008773386478424072e-01 -1.095458772033452988e-02
-1.216547489166259766e-01 -8.023374527692794800e-02 6.138328090310096741e-02
5.519649386405944824e-02 -1.481091082096099854e-01 -1.480491608381271362e-01
-5.969852805137634277e-01 3.538514301180839539e-02 5.943094193935394287e-02
-4.959579184651374817e-02 -3.124783933162689209e-02 -3.785769939422607422e-01
3.224130272865295410e-01 5.369146540760993958e-02 7.834578305482864380e-02
-7.834206819534301758e-01 1.490009725093841553e-01 -5.731454119086265564e-03
1.301966458559036255e-01 -1.159769855439662933e-02 2.379049062728881836e-01
6.583924293518066406e-01 -8.145077526569366455e-02 5.747860297560691833e-02
2.258994244039058685e-02 2.930724760517477989e-03 4.646294713020324707e-01
2.601664662361145020e-01 -1.232104897499084473e-01 -2.607522308826446533e-01
7.943589240312576294e-02 -1.106597483158111572e-01 1.665051877498626709e-01
1.137665882706642151e-01 -3.167887404561042786e-02 -3.062391281127929688e-01
1.739086806774139404e-01 -9.590313583612442017e-02 -2.963252961635589600e-01
2.278134524822235107e-01 -2.432591840624809265e-02 -2.377552241086959839e-01
-8.287301063537597656e-01 6.710427254438400269e-02 -9.629958122968673706e-02
-3.023853302001953125e-01 7.843796163797378540e-02 -5.819098651409149170e-02
-7.881366610527038574e-01 8.343290537595748901e-02 2.515095658600330353e-02
-3.136553615331649780e-02 9.370898827910423279e-03 6.742140650749206543e-01
2.739088833332061768e-01 -1.008220165967941284e-01 2.933453395962715149e-02
8.612962067127227783e-02 -1.485147923231124878e-01 1.608256548643112183e-01
7.517495751380920410e-01 7.836189866065979004e-02 3.263068944215774536e-02
-1.295401602983474731e-01 -1.119202468544244766e-02 -6.465288400650024414e-01
6.412523388862609863e-01 6.208397820591926575e-02 -7.510278373956680298e-02
2.453337609767913818e-01 -1.079214066267013550e-01 3.210439980030059814e-01
-7.116152644157409668e-01 2.258266955614089966e-01 -1.027000229805707932e-02
3.808563351631164551e-01 5.698761716485023499e-02 7.606383413076400757e-02
-1.809347867965698242e-01 -3.494967520236968994e-02 9.193608164787292480e-02
-2.554024755954742432e-01 -9.529461711645126343e-02 -1.820612326264381409e-02
-5.314171910285949707e-01 -4.440709203481674194e-02 -2.662398852407932281e-02
4.960187971591949463e-01 -7.356536388397216797e-02 -7.588879019021987915e-02
-1.830770075321197510e-02 8.576556295156478882e-02 -4.799826815724372864e-02
-4.667618870735168457e-01 -5.064442381262779236e-02 -4.680658131837844849e-02
-3.427251577377319336e-01 -7.759681344032287598e-02 -4.622341692447662354e-02
1.016598381102085114e-02 -2.417378872632980347e-02 3.797662258148193359e-01
1.392990797758102417e-01 -2.850220771506428719e-03 -3.651388287544250488e-01
-2.958944439888000488e-01 -6.441220641136169434e-02 6.756990402936935425e-02
-2.722382247447967529e-01 9.504549950361251831e-02 1.331016421318054199e-02
6.041833162307739258e-01 -6.106534972786903381e-02 -8.440806716680526733e-02
3.035995960235595703e-01 -4.983306676149368286e-02 -2.949054241180419922e-01
6.057175621390342712e-02 -2.523870021104812622e-02 3.704862594604492188e-01
1.161122042685747147e-02 -3.155209869146347046e-02 3.001514673233032227e-01
2.247201353311538696e-01 -1.400642842054367065e-02 1.871695220470428467e-01
6.407075375318527222e-02 -5.751564353704452515e-02 -1.176738590002059937e-01
4.011656939983367920e-01 -1.748006977140903473e-02 9.614500403404235840e-02
-1.435231883078813553e-02 -4.116165637969970703e-02 -1.001535430550575256e-01
7.319473028182983398e-01 -1.119021475315093994e-01 -2.474771812558174133e-02
2.887798659503459930e-02 -3.907878417521715164e-04 -5.720611810684204102e-01
2.366369813680648804e-01 -1.712509989738464355e-02 -2.181304395198822021e-01
7.120182514190673828e-01 -4.392534494400024414e-02 8.389852941036224365e-02
-6.235319375991821289e-01 1.071398407220840454e-01 9.557620622217655182e-03
-3.644797801971435547e-01 -7.351466268301010132e-02 4.109926149249076843e-02
-2.537290453910827637e-01 9.278889745473861694e-02 -2.981871925294399261e-02
-9.813769720494747162e-03 -5.416877940297126770e-02 -1.154679730534553528e-01
-5.127558708190917969e-01 -3.745982050895690918e-02 -4.804897680878639221e-02
-8.961997628211975098e-01 8.472601324319839478e-02 2.942944765090942383e-01
-7.324063777923583984e-01 9.583150595426559448e-02 8.771615102887153625e-03
-8.093842267990112305e-01 2.728855907917022705e-01 5.957208573818206787e-03
-1.062135472893714905e-01 1.327556557953357697e-02 -6.860066056251525879e-01
7.517624646425247192e-02 -2.457947283983230591e-02 1.902374774217605591e-01
2.305264472961425781e-01 -1.268616169691085815e-01 2.731737196445465088e-01
3.810721263289451599e-02 -2.090299874544143677e-02 2.797914147377014160e-01
-5.119315907359123230e-02 8.635605685412883759e-03 -6.863869428634643555e-01
1.097351387143135071e-01 -1.759957405738532543e-03 -3.627554774284362793e-01
7.190162539482116699e-01 -1.647166460752487183e-01 1.462862547487020493e-02
1.238832399249076843e-01 -2.371740154922008514e-02 1.287008523941040039e-01
5.883364081382751465e-01 9.486801177263259888e-02 7.554574869573116302e-03
3.730216026306152344e-01 -9.902179986238479614e-02 -3.552359715104103088e-02
-6.783241033554077148e-01 2.389932237565517426e-02 -4.764330014586448669e-02
1.788529008626937866e-01 -4.935131967067718506e-02 -9.186244755983352661e-02
4.947510659694671631e-01 -4.892028495669364929e-02 -9.236954897642135620e-02
-1.155949011445045471e-01 2.283441089093685150e-02 7.870184779167175293e-01
5.613462999463081360e-02 -9.653701633214950562e-02 3.739743307232856750e-02
7.467545866966247559e-01 6.119655072689056396e-02 -6.204494461417198181e-02
-7.854998111724853516e-01 6.142475083470344543e-02 -4.041711986064910889e-02
-8.846125602722167969e-01 3.756748437881469727e-01 2.559636486694216728e-03
2.705366313457489014e-01 -1.032560989260673523e-01 -2.482014894485473633e-01
3.398826420307159424e-01 -9.435646981000900269e-02 -3.226945400238037109e-01
4.696495831012725830e-01 -1.514740474522113800e-02 -1.018776819109916687e-01
3.524840772151947021e-01 7.884363830089569092e-02 5.210334062576293945e-02
-5.419141650199890137e-01 2.400074340403079987e-02 6.926868855953216553e-02
2.608003318309783936e-01 4.263668134808540344e-02 8.582551032304763794e-02
1.919867992401123047e-01 -1.036364138126373291e-01 -2.828617990016937256e-01
-1.262693554162979126e-01 8.305986411869525909e-03 6.752789020538330078e-01
3.506461158394813538e-02 7.709415256977081299e-02 -6.087861582636833191e-02
7.385903000831604004e-01 -3.416366875171661377e-02 8.275755494832992554e-02
2.897940762341022491e-02 8.246941119432449341e-02 -5.284107476472854614e-02
-7.116152644157409668e-01 2.258266955614089966e-01 -1.027000229805707932e-02
2.233639173209667206e-02 5.973321385681629181e-03 -6.102457642555236816e-01
7.585954666137695312e-01 -7.409782707691192627e-02 5.441065132617950439e-02
-1.010411158204078674e-01 1.502506714314222336e-02 7.508876323699951172e-01
1.381581127643585205e-01 -4.810892790555953979e-02 1.781684905290603638e-01
-4.391627013683319092e-02 -1.403177995234727859e-02 -4.713002741336822510e-01
7.763946652412414551e-01 7.884363830089569092e-02 1.800084114074707031e-02
1.163020953536033630e-01 -6.005113199353218079e-02 -1.073036566376686096e-01
7.211461067199707031e-01 -1.664154380559921265e-01 4.511972889304161072e-03
2.715255022048950195e-01 9.552724659442901611e-02 -1.217162888497114182e-02
7.068711519241333008e-01 -1.626628935337066650e-01 1.830510236322879791e-02
-7.719094753265380859e-01 1.293508410453796387e-01 -5.934293847531080246e-03
6.774846911430358887e-01 -7.587266713380813599e-02 -6.960074603557586670e-02
8.497974276542663574e-01 8.280634880065917969e-03 -6.136035919189453125e-02
1.784218698740005493e-01 8.863799273967742920e-03 9.627178311347961426e-02
-6.815566867589950562e-02 1.347840763628482819e-02 7.258368730545043945e-01
-1.449052989482879639e-01 1.783947087824344635e-02 7.747466564178466797e-01
3.197761178016662598e-01 -3.494967520236968994e-02 9.325453639030456543e-02
3.040559887886047363e-01 -4.067990556359291077e-02 -2.852451801300048828e-01
-6.037550568580627441e-01 5.564380437135696411e-02 -6.087861582636833191e-02
9.974525868892669678e-02 -2.521334961056709290e-02 -1.541850715875625610e-01
5.328089594841003418e-01 3.388919681310653687e-02 9.109935909509658813e-02
3.150093555450439453e-01 -1.335046291351318359e-01 2.617893517017364502e-01
-8.280201554298400879e-01 6.778886169195175171e-02 1.711197942495346069e-01
-8.042371273040771484e-01 5.691155418753623962e-02 3.597754985094070435e-02
-2.190180271863937378e-01 2.995916828513145447e-02 9.069367498159408569e-02
-6.566709280014038086e-01 9.588222205638885498e-02 -1.293227914720773697e-02
-5.724162459373474121e-01 9.684570878744125366e-02 -9.585416875779628754e-03
9.416715800762176514e-02 -1.354316174983978271e-01 -1.498493701219558716e-01
-4.682071208953857422e-01 -2.414843626320362091e-02 6.660640984773635864e-02
-9.404313564300537109e-02 1.739035709761083126e-03 6.227687001228332520e-01
-5.438918471336364746e-01 -3.502573817968368530e-02 3.247855603694915771e-02
6.627663969993591309e-02 -1.080228388309478760e-01 -1.783991307020187378e-01
7.844704389572143555e-02 -5.873268470168113708e-02 2.176716029644012451e-01
5.631589293479919434e-01 6.543084233999252319e-02 7.020682096481323242e-02
3.387292847037315369e-02 -9.163617156445980072e-03 -5.112597942352294922e-01
1.708914339542388916e-01 -6.565460562705993652e-02 -2.937644720077514648e-01
2.620427310466766357e-01 -9.311409294605255127e-02 -4.820110648870468140e-02
2.534123603254556656e-03 -4.009674116969108582e-02 -1.968575716018676758e-01
6.267622113227844238e-02 -6.154708936810493469e-02 1.776867508888244629e-01
-8.644553422927856445e-01 8.107487857341766357e-02 -3.110058605670928955e-01
6.111813187599182129e-01 9.418343007564544678e-02 -1.584810577332973480e-02
3.279404044151306152e-01 2.131311222910881042e-02 9.371092170476913452e-02
6.643000841140747070e-01 6.872699409723281860e-02 -6.627923250198364258e-02
1.531936377286911011e-01 -4.798215255141258240e-02 -1.786273270845413208e-01
-8.716053962707519531e-01 8.513168990612030029e-02 -2.977705597877502441e-01
6.204866170883178711e-01 6.667323410511016846e-02 6.850803643465042114e-02
4.076948761940002441e-02 -3.601458668708801270e-02 -3.716297447681427002e-01
2.376511842012405396e-01 -9.884431958198547363e-02 -3.273852169513702393e-01
1.789926551282405853e-02 -1.624346971511840820e-01 1.818703263998031616e-01
-1.825699023902416229e-02 1.923400163650512695e-02 -9.954501688480377197e-02
-4.971625804901123047e-01 8.883351832628250122e-02 3.283352777361869812e-02
-8.117421865463256836e-01 2.533368766307830811e-01 4.765523131936788559e-03
2.531684637069702148e-01 9.225644916296005249e-02 -2.865238860249519348e-02
6.894776225090026855e-01 -4.321541264653205872e-02 -9.107644855976104736e-02
5.421142578125000000e-01 3.548656404018402100e-02 -9.548821300268173218e-02
-2.032218426465988159e-01 -9.859076887369155884e-02 1.571889221668243408e-02
-4.873372241854667664e-02 -1.759957405738532543e-03 -5.206158161163330078e-01
-6.075200065970420837e-02 8.049171417951583862e-02 5.073417350649833679e-02
4.160744547843933105e-01 -1.034335792064666748e-01 -1.387041620910167694e-02
8.133751899003982544e-02 -3.363121673464775085e-02 -1.101941242814064026e-01
2.889093710109591484e-03 1.330092642456293106e-02 5.775099992752075195e-01
-3.196013867855072021e-01 7.171888649463653564e-02 -6.805408746004104614e-02
8.172416090965270996e-01 -9.341107681393623352e-03 -7.533097267150878906e-02
1.303110085427761078e-02 9.352420270442962646e-02 1.906575262546539307e-02
4.103188812732696533e-01 4.024718873552046716e-05 9.791985899209976196e-02
-3.480750322341918945e-01 5.564380437135696411e-02 -7.908351719379425049e-02
-4.514571279287338257e-03 -9.594652801752090454e-03 -5.235823392868041992e-01
1.292331516742706299e-01 -4.878618754446506500e-03 3.129050433635711670e-01
2.117890864610671997e-01 5.891459807753562927e-02 -8.027520775794982910e-02
-6.120839342474937439e-02 -1.035857051610946655e-01 -9.281156584620475769e-03
-8.601956367492675781e-01 3.085347414016723633e-01 2.204666147008538246e-03
-1.959956735372543335e-01 -9.575100243091583252e-02 -3.788161650300025940e-02
5.259630680084228516e-01 6.274320930242538452e-02 7.200703024864196777e-02
8.739736676216125488e-02 -8.096903562545776367e-02 -6.605104357004165649e-02
-3.050222396850585938e-01 9.281425923109054565e-02 -2.992014028131961823e-02
-1.492410004138946533e-01 -8.137471973896026611e-02 5.960842594504356384e-02
1.665686815977096558e-02 -3.898111730813980103e-02 9.178394079208374023e-02
4.670256376266479492e-02 -1.633728444576263428e-01 -1.660512387752532959e-01
7.748355716466903687e-02 -3.707949817180633545e-02 -2.743678689002990723e-01
2.010515145957469940e-02 -6.780249066650867462e-03 4.005319476127624512e-01
3.027375042438507080e-01 -6.765764951705932617e-02 -3.255343139171600342e-01
1.144004613161087036e-01 -3.626812994480133057e-02 2.676970660686492920e-01
6.250758767127990723e-01 6.074747070670127869e-03 9.520687162876129150e-02
2.274838238954544067e-01 -4.889493435621261597e-02 -9.221742302179336548e-02
6.135776266455650330e-02 -3.619206696748733521e-02 3.694213628768920898e-01
3.790307641029357910e-01 7.886900007724761963e-02 -5.727820470929145813e-02
-8.948052525520324707e-01 3.002182841300964355e-01 -1.268971129320561886e-03
-3.023853302001953125e-01 7.843796163797378540e-02 -5.819098651409149170e-02
3.450679779052734375e-02 -1.683892915025353432e-03 -5.596371889114379883e-01
2.519514262676239014e-01 -1.143108829855918884e-01 3.199537396430969238e-01
-5.745714306831359863e-01 -3.347907960414886475e-02 -1.589881628751754761e-02
-2.726438939571380615e-01 7.349373400211334229e-02 -6.579748541116714478e-02
2.334169149398803711e-01 -1.277997493743896484e-01 2.998218536376953125e-01
-8.458954095840454102e-01 7.841260731220245361e-02 -2.208941280841827393e-01
2.930265665054321289e-01 -1.322115212678909302e-01 3.070480227470397949e-01
3.935084939002990723e-01 -4.957952350378036499e-02 -9.186244755983352661e-02
-3.050222396850585938e-01 9.281425923109054565e-02 -2.992014028131961823e-02
2.030669599771499634e-01 -1.050816476345062256e-01 1.802619732916355133e-02
8.257991820573806763e-02 -6.988888233900070190e-02 -1.821263134479522705e-01
-7.841559648513793945e-01 6.332637369632720947e-02 -1.643777936697006226e-01
1.169359683990478516e-01 -6.598421931266784668e-02 7.545531541109085083e-02
2.903135716915130615e-01 -4.960487410426139832e-02 -9.178638458251953125e-02
7.844321727752685547e-01 -4.389999434351921082e-02 -7.761292904615402222e-02
1.655668914318084717e-01 -1.920421048998832703e-02 -1.281201243400573730e-01
-8.945516943931579590e-01 3.660906255245208740e-01 1.317240647040307522e-03
1.893882080912590027e-02 -2.957441285252571106e-02 -2.491649836301803589e-01
-1.480493247509002686e-01 -7.146089524030685425e-02 -7.672550529241561890e-02
-1.390736401081085205e-01 -7.008442189544439316e-03 6.383620500564575195e-01
2.471339702606201172e-01 -8.971651643514633179e-02 2.435083687305450439e-01
2.337465137243270874e-01 -1.261516809463500977e-01 2.631585001945495605e-01
-4.473399817943572998e-01 6.621684879064559937e-02 -6.749627739191055298e-02
-5.390614643692970276e-02 2.387396618723869324e-02 -9.863223135471343994e-02
-6.082935929298400879e-01 -2.037053741514682770e-02 -2.723250910639762878e-02
-4.514571279287338257e-03 -9.594652801752090454e-03 -5.235823392868041992e-01
-8.332179188728332520e-01 2.255984842777252197e-01 1.089045545086264610e-03
-1.852294080890715122e-03 9.375239908695220947e-02 -2.330248057842254639e-02
-3.312900364398956299e-01 -8.882909268140792847e-02 -1.724263094365596771e-02
3.906433582305908203e-01 -6.651667505502700806e-02 7.537924498319625854e-02
-8.440698385238647461e-01 6.657181680202484131e-02 1.187616884708404541e-01
-3.549840301275253296e-02 -1.093847025185823441e-02 -4.488864541053771973e-01
2.647810578346252441e-01 8.553736656904220581e-02 4.234166070818901062e-02
8.947011828422546387e-01 2.737295813858509064e-02 -3.407836332917213440e-02
1.708914339542388916e-01 -6.565460562705993652e-02 -2.937644720077514648e-01
1.203335374593734741e-01 9.319458156824111938e-02 -2.507733181118965149e-02
2.040304392576217651e-01 -9.428042173385620117e-02 -2.690179646015167236e-01
3.248724639415740967e-01 9.458910673856735229e-02 1.130711846053600311e-02
8.947011828422546387e-01 2.737295813858509064e-02 -3.407836332917213440e-02
-3.196013867855072021e-01 7.171888649463653564e-02 -6.805408746004104614e-02
-2.790333330631256104e-01 4.841762408614158630e-02 8.045025169849395752e-02
-1.078616231679916382e-01 5.878782644867897034e-02 -8.068089187145233154e-02
-8.529694676399230957e-01 8.459923416376113892e-02 2.934577465057373047e-01
1.558812707662582397e-01 -3.441722318530082703e-02 -2.617410719394683838e-01
-4.007470328360795975e-03 9.169863909482955933e-02 2.842175401747226715e-02
2.519514262676239014e-01 -1.143108829855918884e-01 3.199537396430969238e-01
-5.141504406929016113e-01 6.606471538543701172e-02 -6.328734010457992554e-02
-1.374509334564208984e-01 1.538003701716661453e-02 -7.568231821060180664e-01
-4.703876674175262451e-01 9.545118361711502075e-02 1.328480802476406097e-02
9.272062778472900391e-01 1.330092642456293106e-02 -7.709146011620759964e-03
-1.272959634661674500e-02 -2.599935419857501984e-02 3.247711956501007080e-01
4.571242034435272217e-01 7.917325943708419800e-02 5.136804282665252686e-02
-2.053516656160354614e-01 -8.500047773122787476e-02 -5.507231503725051880e-02
2.490863054990768433e-01 -5.317993089556694031e-02 -2.846112847328186035e-01
7.522820234298706055e-01 6.956370919942855835e-02 4.644917324185371399e-02
5.335189104080200195e-01 -3.659775108098983765e-02 9.241781383752822876e-02
-4.219088852405548096e-01 -7.184122502803802490e-02 2.048563398420810699e-02
7.173427939414978027e-01 -1.700919121503829956e-01 -3.145242342725396156e-03
-2.507749013602733612e-02 4.228170961141586304e-02 -9.168495982885360718e-02
4.037265777587890625e-01 4.159712418913841248e-02 8.630726486444473267e-02
-2.915080189704895020e-01 9.370168298482894897e-02 2.015601843595504761e-02
2.149967662990093231e-02 -2.711496874690055847e-02 2.596848607063293457e-01
-1.138578075915575027e-02 -2.310887724161148071e-02 3.791323602199554443e-01
7.994170188903808594e-01 -7.972663640975952148e-02 3.534367680549621582e-02
-3.880852758884429932e-01 8.366110175848007202e-02 4.401509091258049011e-02
1.670757867395877838e-02 -4.295454826205968857e-03 5.507604479789733887e-01
-4.425478577613830566e-01 -5.883410200476646423e-02 3.889337927103042603e-02
1.133355498313903809e-01 -1.048534587025642395e-01 -4.184797871857881546e-03
1.639695167541503906e-01 -2.904195152223110199e-02 2.945480346679687500e-01
-8.961997628211975098e-01 8.472601324319839478e-02 2.942944765090942383e-01
8.719323873519897461e-01 -3.824582695960998535e-02 -5.385527387261390686e-02
2.618145346641540527e-01 -4.133913666009902954e-02 -1.376028954982757568e-01
2.703338265419006348e-01 -1.352541148662567139e-01 2.773826718330383301e-01
6.931924074888229370e-02 -9.002076834440231323e-02 1.310842186212539673e-01
2.328083962202072144e-01 -7.805319875478744507e-02 -2.553262412548065186e-01
-5.394547581672668457e-01 9.907694905996322632e-02 7.478510029613971710e-03
4.051593691110610962e-02 -2.840808406472206116e-02 -3.470860719680786133e-01
7.362069487571716309e-01 -1.157307624816894531e-01 -4.920093808323144913e-03
-3.164827227592468262e-01 -8.525403589010238647e-02 3.612967953085899353e-02
1.203335374593734741e-01 9.319458156824111938e-02 -2.507733181118965149e-02
2.192181050777435303e-01 -8.294673264026641846e-02 3.130064606666564941e-01
