7.653188705444335938e-02 -1.296089887619018555e-01 9.933167695999145508e-02
-3.602131502702832222e-03 -4.124967753887176514e-02 4.511511921882629395e-01
7.721542567014694214e-02 -6.123191490769386292e-02 -2.532397508621215820e-01
6.739518791437149048e-02 -1.106520667672157288e-01 1.192911267280578613e-01
2.144480496644973755e-01 -5.045472085475921631e-02 -1.128172650933265686e-01
-4.939530491828918457e-01 5.779569596052169800e-02 8.443254046142101288e-03
1.375039219856262207e-01 6.472226232290267944e-02 2.578246034681797028e-02
-2.330674678087234497e-01 4.754254966974258423e-02 -5.079713463783264160e-02
8.694189190864562988e-01 -3.505222126841545105e-02 -6.016166880726814270e-02
2.348895184695720673e-02 -7.879896461963653564e-02 -1.326855868101119995e-01
8.541794121265411377e-02 -5.145725235342979431e-02 -3.122751116752624512e-01
1.063343510031700134e-01 -3.792310133576393127e-02 -2.471562176942825317e-01
1.765605062246322632e-02 -3.019906207919120789e-02 -4.224166572093963623e-01
3.460756242275238037e-01 -1.053581014275550842e-02 7.709375023841857910e-02
8.482974171638488770e-01 -9.806700982153415680e-03 6.788870692253112793e-02
-3.157761693000793457e-01 5.399063602089881897e-02 -3.746804594993591309e-02
-2.691585421562194824e-01 -8.030276000499725342e-02 -3.678240114822983742e-03
3.016225695610046387e-01 -8.583946526050567627e-02 2.534954808652400970e-02
-4.056620895862579346e-01 -6.496861577033996582e-02 2.297993376851081848e-02
1.287089884281158447e-01 -4.357372224330902100e-02 -7.041481137275695801e-02
7.900140285491943359e-01 -8.223947137594223022e-02 2.405081875622272491e-02
9.508289098739624023e-01 -5.564964935183525085e-02 3.261788934469223022e-02
9.127099514007568359e-01 -2.333296462893486023e-03 4.243812337517738342e-02
8.552011847496032715e-01 -4.170537367463111877e-02 6.333175301551818848e-02
1.207378227263689041e-02 -2.994843386113643646e-02 3.900424838066101074e-01
5.399968028068542480e-01 5.159823969006538391e-02 5.077734962105751038e-02
4.142056033015251160e-02 -5.608256161212921143e-02 2.537896037101745605e-01
-4.102418124675750732e-01 -6.321418285369873047e-02 -2.479971572756767273e-02
6.308168172836303711e-01 7.196781784296035767e-02 6.141993217170238495e-03
-3.382419645786285400e-01 6.093999370932579041e-02 -2.546047419309616089e-02
-4.681606888771057129e-01 -6.086735799908638000e-02 -1.399763859808444977e-03
-8.163995295763015747e-02 -2.142692729830741882e-02 5.522927641868591309e-01
3.374209627509117126e-02 -5.760913342237472534e-02 3.119135200977325439e-01
-3.159129023551940918e-01 3.476029634475708008e-02 6.052922457456588745e-02
-3.130648136138916016e-01 7.039567083120346069e-02 1.081721633672714233e-01
-1.594726890325546265e-01 2.095273137092590332e-02 -6.144010424613952637e-01
-3.535305261611938477e-01 4.804381728172302246e-02 4.647102952003479004e-02
-1.727299205958843231e-02 -4.653574153780937195e-02 -3.973989784717559814e-01
-6.883136928081512451e-03 -4.874585941433906555e-02 -3.194751143455505371e-01
2.711365520954132080e-01 6.843617558479309082e-02 1.222552545368671417e-02
7.072176784276962280e-02 -6.241672113537788391e-02 -2.151892036199569702e-01
-1.564195603132247925e-01 3.779067471623420715e-02 6.264344453811645508e-01
8.668214678764343262e-01 -1.233581081032752991e-02 -6.184774637222290039e-02
-1.681992560625076294e-01 4.612989723682403564e-02 -5.293889716267585754e-02
8.302554488182067871e-02 -1.349406242370605469e-01 1.222759336233139038e-01
-8.175877928733825684e-01 1.826106309890747070e-01 -1.833816617727279663e-01
-2.447297796607017517e-02 -8.451794087886810303e-02 -2.821743115782737732e-02
-3.837887048721313477e-01 -5.940913036465644836e-02 -3.484779968857765198e-02
3.058377504348754883e-01 2.360364655032753944e-03 -7.308063656091690063e-02
9.081792831420898438e-02 -1.316140443086624146e-01 9.914939850568771362e-02
2.711172774434089661e-02 -3.502943366765975952e-02 -3.081054687500000000e-01
4.996484518051147461e-02 -6.284963339567184448e-02 -1.381767094135284424e-01
6.578395962715148926e-01 5.322383251041173935e-03 -7.294392585754394531e-02
-6.720615625381469727e-01 5.615519359707832336e-02 1.425546943210065365e-03
6.632168292999267578e-01 4.592483490705490112e-02 -5.533130094408988953e-02
-3.970038592815399170e-01 3.334764391183853149e-02 -1.144349873065948486e-01
-7.105221748352050781e-01 1.865979731082916260e-01 5.453683435916900635e-02
-4.290848076343536377e-01 2.004134096205234528e-02 5.886593833565711975e-02
-2.878876328468322754e-01 -3.837091848254203796e-03 7.431400567293167114e-02
4.078258946537971497e-02 -4.341422393918037415e-02 -1.601867824792861938e-01
-3.315888047218322754e-01 -7.344455271959304810e-02 -1.354404259473085403e-02
-3.461482524871826172e-01 8.421111851930618286e-03 -1.552197039127349854e-01
-3.128597438335418701e-01 3.259574621915817261e-02 -9.622995555400848389e-02
-8.355877995491027832e-01 1.872131675481796265e-01 1.641315668821334839e-01
4.343302498455159366e-05 -5.200408399105072021e-02 1.301594674587249756e-01
-4.124291539192199707e-01 8.337855106219649315e-04 -1.374931633472442627e-01
-3.090091049671173096e-01 6.524631381034851074e-02 1.317088305950164795e-01
-3.766115009784698486e-01 6.549694389104843140e-02 -1.501387059688568115e-01
8.949641138315200806e-02 -6.879644840955734253e-02 9.643801301717758179e-02
-3.520494997501373291e-01 6.592985242605209351e-02 -9.916918724775314331e-02
-3.982798159122467041e-01 1.407173369079828262e-02 6.467605382204055786e-02
6.851164251565933228e-02 -3.486994281411170959e-02 -3.038675189018249512e-01
-1.813460886478424072e-01 -4.532814770936965942e-02 6.636212766170501709e-02
7.517355680465698242e-01 2.776537649333477020e-02 6.820768862962722778e-02
4.743573814630508423e-02 -9.256096184253692627e-02 2.131874673068523407e-03
-2.755539899226278067e-04 -4.815345630049705505e-02 3.933462798595428467e-01
-3.328191936016082764e-01 3.596789389848709106e-02 -9.853121638298034668e-02
-4.257126748561859131e-01 1.015275437384843826e-02 -1.245741993188858032e-01
-4.887546226382255554e-02 -2.819400466978549957e-02 -4.585533142089843750e-01
3.692705631256103516e-01 -8.782172948122024536e-02 1.377488952130079269e-02
8.825429081916809082e-01 -5.619647726416587830e-02 -4.835916310548782349e-02
7.564064860343933105e-01 -8.030276000499725342e-02 3.156979009509086609e-02
4.355058372020721436e-01 -2.143152814824134111e-04 -7.371860742568969727e-02
7.742469310760498047e-01 2.398310601711273193e-02 6.782034784555435181e-02
-2.980723977088928223e-01 6.165420636534690857e-03 -1.105387881398200989e-01
1.038280352950096130e-01 -1.096039712429046631e-01 -8.663757145404815674e-02
-4.534382373094558716e-02 -4.104461520910263062e-02 4.616321921348571777e-01
3.016488440334796906e-02 -4.790282249450683594e-02 9.174434840679168701e-02
-3.191483020782470703e-01 2.505398914217948914e-02 9.851142019033432007e-02
9.671918302774429321e-02 -1.012191772460937500e-01 9.677977859973907471e-02
9.040780365467071533e-02 -3.651044517755508423e-02 -2.591410279273986816e-01
-8.111625313758850098e-01 1.935701072216033936e-01 1.780074834823608398e-01
-1.586524397134780884e-01 4.970710724592208862e-02 -4.797182232141494751e-02
2.212151288986206055e-01 -7.166733592748641968e-02 5.551657825708389282e-02
-5.726516246795654297e-01 -3.646487370133399963e-02 7.030598819255828857e-03
3.207390010356903076e-01 -4.364207386970520020e-02 6.973427534103393555e-02
5.315664410591125488e-01 1.537046581506729126e-02 7.271907478570938110e-02
-4.267800226807594299e-02 -3.926740214228630066e-02 -3.520800769329071045e-01
-8.774277754127979279e-03 -4.573827609419822693e-02 -2.734498381614685059e-01
-1.087047066539525986e-02 -4.498637840151786804e-02 2.599414885044097900e-01
-3.167296200990676880e-02 6.784377992153167725e-02 -6.184564437717199326e-03
7.208885997533798218e-02 -3.500664979219436646e-02 2.635642588138580322e-01
7.208166718482971191e-01 4.521850869059562683e-02 -5.585534870624542236e-02
-5.689569935202598572e-02 -5.738129094243049622e-02 -5.861230567097663879e-02
4.780029878020286560e-02 -2.126743458211421967e-02 7.543046027421951294e-02
6.153460144996643066e-01 -6.697367131710052490e-02 5.214443057775497437e-02
-7.361970841884613037e-02 6.510960310697555542e-02 -1.903516985476016998e-02
1.015039831399917603e-01 -7.216860353946685791e-02 4.717735573649406433e-02
-4.915834069252014160e-01 4.364635795354843140e-02 -3.582754358649253845e-02
8.398250490427017212e-02 5.585899204015731812e-02 4.075205326080322266e-02
-3.772039115428924561e-01 1.648691855370998383e-02 7.198995351791381836e-02
-4.169825837016105652e-02 -2.424436155706644058e-03 -7.378696650266647339e-02
7.517355680465698242e-01 2.776537649333477020e-02 6.820768862962722778e-02
-4.055025577545166016e-01 -5.685724318027496338e-02 3.649130091071128845e-02
-2.210599184036254883e-01 6.649947911500930786e-02 -1.124278176575899124e-02
4.979133009910583496e-01 -9.054801426827907562e-03 -7.540468126535415649e-02
-4.524619877338409424e-01 4.795267805457115173e-02 3.655965253710746765e-02
-1.130373552441596985e-01 -3.760411217808723450e-02 -6.973127275705337524e-02
8.642467260360717773e-01 -9.531792253255844116e-02 -1.062759291380643845e-02
1.776278764009475708e-01 -7.538125663995742798e-02 4.339508339762687683e-02
-5.633326172828674316e-01 5.184887349605560303e-02 1.042552944272756577e-02
-3.585887551307678223e-01 2.074766904115676880e-02 -8.435909450054168701e-02
-6.524894237518310547e-01 4.183144774287939072e-03 -1.623264513909816742e-02
-4.169825837016105652e-02 -2.424436155706644058e-03 -7.378696650266647339e-02
7.089230418205261230e-01 7.235515862703323364e-02 6.688827648758888245e-03
-4.169825837016105652e-02 -2.424436155706644058e-03 -7.378696650266647339e-02
3.952942416071891785e-02 -3.236361593008041382e-02 3.505109250545501709e-01
-6.928184628486633301e-01 1.334183216094970703e-01 -2.812419319525361061e-03
6.821737289428710938e-01 -5.063699930906295776e-02 -6.203002110123634338e-02
-4.290848076343536377e-01 2.004134096205234528e-02 5.886593833565711975e-02
4.108527600765228271e-01 4.421597346663475037e-02 -5.542244017124176025e-02
-6.549273729324340820e-01 9.431967139244079590e-02 6.119208410382270813e-03
-5.584338903427124023e-01 5.271469429135322571e-02 -5.227604415267705917e-03
1.750532090663909912e-01 -1.326998602598905563e-02 -7.499455660581588745e-02
1.214214041829109192e-02 -5.268763005733489990e-02 -2.787586748600006104e-01
-2.444826513528823853e-01 3.507928550243377686e-02 6.153175234794616699e-02
-6.781906485557556152e-01 1.892637908458709717e-01 2.218246646225452423e-02
2.146759033203125000e-01 5.551721900701522827e-02 -4.061234369874000549e-02
7.337584495544433594e-01 -8.588502556085586548e-02 -8.394686505198478699e-03
1.986582279205322266e-01 -4.482688009738922119e-02 -6.701988726854324341e-02
-2.969787418842315674e-01 3.152486309409141541e-02 -1.547184288501739502e-01
8.375465124845504761e-02 -6.979898363351821899e-02 7.082793861627578735e-02
7.359264791011810303e-02 -6.822682917118072510e-02 -7.216924428939819336e-02
7.653188705444335938e-02 -1.296089887619018555e-01 9.933167695999145508e-02
6.646101921796798706e-02 -3.628259524703025818e-02 2.473870813846588135e-01
9.685782194137573242e-01 -2.671299502253532410e-02 -2.700983919203281403e-02
4.674501121044158936e-01 7.199060171842575073e-02 6.508649676106870174e-04
8.835682272911071777e-01 -6.471798568964004517e-02 4.444317892193794250e-02
6.684836000204086304e-02 -2.575603500008583069e-02 7.456463575363159180e-02
5.402053520083427429e-02 -4.029271751642227173e-02 -2.061892300844192505e-01
-6.594125181436538696e-02 -3.858385607600212097e-02 4.326044023036956787e-01
-7.633600831031799316e-01 1.966004818677902222e-01 -1.142754852771759033e-01
-1.483502238988876343e-02 -4.248005524277687073e-02 4.506727457046508789e-01
6.181941032409667969e-01 -6.752051413059234619e-02 -4.952118545770645142e-02
2.490160800516605377e-02 -9.057869017124176025e-02 8.443254046142101288e-03
8.181987404823303223e-01 5.998303368687629700e-02 1.783057674765586853e-02
-4.135911762714385986e-01 6.009695678949356079e-02 -1.316374838352203369e-01
-8.177666366100311279e-02 -3.115602396428585052e-02 -5.643429160118103027e-01
2.680150568485260010e-01 -2.564211189746856689e-02 7.435957342386245728e-02
4.718510434031486511e-02 -4.680915549397468567e-02 -6.706545501947402954e-02
-5.342364907264709473e-01 -4.136359319090843201e-02 -1.955922134220600128e-02
4.803462624549865723e-01 3.977294638752937317e-02 -5.847559869289398193e-02
-2.533003389835357666e-01 -8.212554454803466797e-02 -7.824748172424733639e-05
1.024381592869758606e-01 -7.273822277784347534e-02 -3.831108286976814270e-02
4.165945053100585938e-01 4.216535016894340515e-02 5.850138142704963684e-02
-3.672013878822326660e-01 3.612738475203514099e-02 -1.642196774482727051e-01
5.386104062199592590e-02 -3.541677445173263550e-02 -2.729485630989074707e-01
-4.753116145730018616e-02 5.214507877826690674e-02 -4.416676610708236694e-02
-1.027614250779151917e-01 -6.649519503116607666e-02 -5.091105401515960693e-02
-2.982091307640075684e-01 -5.316610634326934814e-02 -5.446548014879226685e-02
1.522684395313262939e-01 -1.153834350407123566e-02 -7.533632963895797729e-02
4.107843637466430664e-01 -1.023960951715707779e-02 7.707095891237258911e-02
-7.541970163583755493e-02 -2.988007850944995880e-02 4.758726954460144043e-01
9.188881516456604004e-02 -1.033609434962272644e-01 1.233696043491363525e-01
2.893450856208801270e-02 -4.544207081198692322e-02 -1.480652838945388794e-01
7.953947782516479492e-02 6.647669523954391479e-02 1.580273360013961792e-02
6.181941032409667969e-01 -6.752051413059234619e-02 -4.952118545770645142e-02
-4.851090162992477417e-02 -4.181929677724838257e-02 4.396449327468872070e-01
-3.306090533733367920e-01 4.006915166974067688e-02 1.540151238441467285e-01
-6.001755595207214355e-01 7.201339304447174072e-02 1.192932296544313431e-02
8.073076605796813965e-01 6.050708517432212830e-02 2.657992765307426453e-02
-6.062591671943664551e-01 5.497038364410400391e-02 -9.830126538872718811e-03
7.334622144699096680e-01 -3.791524097323417664e-03 -7.453886419534683228e-02
8.136225491762161255e-02 -8.946223556995391846e-02 1.559767127037048340e-02
-9.428549557924270630e-02 4.061597958207130432e-02 -5.651611089706420898e-02
-4.444417655467987061e-01 1.965400017797946930e-02 8.160512894392013550e-02
-8.202763795852661133e-01 1.912460625171661377e-01 -1.353513896465301514e-01
-4.130215644836425781e-01 2.263880521059036255e-02 -4.797182232141494751e-02
4.718510434031486511e-02 -4.680915549397468567e-02 -6.706545501947402954e-02
-3.310191929340362549e-01 -4.178864881396293640e-03 -1.387691050767898560e-01
-4.537151455879211426e-01 -6.346481293439865112e-02 3.090935351792722940e-04
5.033588409423828125e-01 3.995522484183311462e-02 6.023302301764488220e-02
-7.361970841884613037e-02 6.510960310697555542e-02 -1.903516985476016998e-02
5.462853908538818359e-01 6.802605837583541870e-02 2.220525220036506653e-02
-6.135502457618713379e-01 1.432613432407379150e-01 -8.782027289271354675e-03
7.243418134748935699e-03 -5.036358535289764404e-02 2.603288292884826660e-01
1.114311278797686100e-03 -4.070283845067024231e-02 -4.522418975830078125e-01
-1.388524919748306274e-01 -1.577631011605262756e-02 5.903433561325073242e-01
8.762999176979064941e-01 -1.240416429936885834e-02 6.144061312079429626e-02
-3.721684813499450684e-01 -1.535831019282341003e-03 1.079215332865715027e-01
-7.691018581390380859e-01 1.878055483102798462e-01 5.314696207642555237e-02
1.830734312534332275e-01 -4.377878457307815552e-02 1.235746666789054871e-01
7.432368397712707520e-01 -2.477629110217094421e-02 -7.200974971055984497e-02
-4.887546226382255554e-02 -2.819400466978549957e-02 -4.585533142089843750e-01
-6.643830537796020508e-01 1.158968433737754822e-01 8.238191716372966766e-03
6.575661897659301758e-01 7.130706310272216797e-02 -8.166838437318801880e-03
-5.673427581787109375e-01 3.514764085412025452e-02 3.234447166323661804e-02
1.758769713342189789e-02 -4.402941465377807617e-02 -2.236195653676986694e-01
1.128280162811279297e-01 1.441350486129522324e-02 -7.061988115310668945e-02
-6.588008403778076172e-01 4.745141044259071350e-02 2.017950871959328651e-03
6.612117290496826172e-01 -2.208768762648105621e-02 -7.276164740324020386e-02
-3.841725364327430725e-02 -7.296606153249740601e-02 -4.398449137806892395e-02
2.588135004043579102e-02 -6.246229261159896851e-02 -5.690345168113708496e-02
1.171343252062797546e-01 -3.903954848647117615e-02 2.270858436822891235e-01
4.107843637466430664e-01 -1.023960951715707779e-02 7.707095891237258911e-02
-3.186242580413818359e-01 3.750234143808484077e-03 -1.239134445786476135e-01
-1.580372750759124756e-01 -3.906233981251716614e-02 7.073680311441421509e-02
1.178862303495407104e-01 -7.207746058702468872e-02 6.825325638055801392e-02
3.960426449775695801e-01 5.339823663234710693e-02 -4.519207775592803955e-02
7.942292094230651855e-01 -2.953830547630786896e-02 7.176211476325988770e-02
-5.374263525009155273e-01 -2.427502535283565521e-02 -3.637437894940376282e-02
-5.902414321899414062e-01 1.355600953102111816e-01 -6.184564437717199326e-03
1.414912492036819458e-01 -7.143948227167129517e-02 1.085367202758789062e-01
-1.670337282121181488e-02 5.820582062005996704e-02 3.706092014908790588e-02
3.674968332052230835e-02 -3.443703055381774902e-02 -3.043460249900817871e-01
2.031468152999877930e-01 3.542105853557586670e-02 6.189631298184394836e-02
-1.293512433767318726e-01 2.861629007384181023e-03 6.063382625579833984e-01
4.306106269359588623e-02 -4.443953931331634521e-02 1.346936225891113281e-01
-1.905020698904991150e-02 -2.700919657945632935e-02 4.914802312850952148e-01
-1.278087031096220016e-03 -4.847244545817375183e-02 -2.114980667829513550e-01
-9.355638921260833740e-02 -8.745718002319335938e-02 -3.837733762338757515e-03
5.386104062199592590e-02 -4.439397528767585754e-02 1.198379620909690857e-01
-6.562716960906982422e-01 1.466107070446014404e-01 -1.055923942476511002e-02
-4.077582657337188721e-01 -5.564964935183525085e-02 -3.630602359771728516e-02
-6.323704719543457031e-01 4.389698803424835205e-02 1.350147277116775513e-02
-7.248048484325408936e-02 -3.247753903269767761e-02 5.500370860099792480e-01
-5.158036351203918457e-01 4.305395111441612244e-02 3.455459326505661011e-02
-5.601883530616760254e-01 -3.088260814547538757e-02 2.496220730245113373e-02
4.636678099632263184e-01 5.859316140413284302e-02 -3.847057372331619263e-02
1.610405743122100830e-01 -1.575352437794208527e-02 -7.453886419534683228e-02
-2.082741260528564453e-02 -3.482437133789062500e-02 -5.001354813575744629e-01
-7.297070026397705078e-01 1.702612936496734619e-01 3.111619269475340843e-03
5.839521065354347229e-02 -3.402690589427947998e-02 -3.204320371150970459e-01
7.912216186523437500e-01 5.369444191455841064e-02 4.282546415925025940e-02
-3.969810605049133301e-01 2.956537157297134399e-02 1.173088550567626953e-01
1.041242331266403198e-01 -3.778639063239097595e-02 2.669591903686523438e-01
-4.153456091880798340e-01 1.979070715606212616e-02 1.464050114154815674e-01
-3.261204659938812256e-01 1.281857118010520935e-02 -1.045008227229118347e-01
9.752997159957885742e-01 -6.230279430747032166e-02 1.846855133771896362e-02
9.744566679000854492e-01 -6.770278513431549072e-02 -8.052914403378963470e-03
-3.912621140480041504e-01 4.644888266921043396e-02 -1.622146368026733398e-01
-4.866163432598114014e-01 4.578812792897224426e-02 1.135721504688262939e-01
-5.008112788200378418e-01 -2.422945760190486908e-02 4.690393805503845215e-02
-6.550833582878112793e-02 -2.409274503588676453e-02 -7.251101732254028320e-02
-4.140696525573730469e-01 1.584894396364688873e-02 -1.532374322414398193e-01
-3.970266282558441162e-01 3.455523774027824402e-02 -1.300425529479980469e-01
5.161411166191101074e-01 7.201339304447174072e-02 -7.390056271106004715e-04
6.136599183082580566e-01 -2.327249571681022644e-02 -7.260216027498245239e-02
1.298254430294036865e-01 -7.182683050632476807e-02 9.085574001073837280e-02
3.484224677085876465e-01 6.504125148057937622e-02 3.017991967499256134e-02
-3.288090527057647705e-01 5.508431047201156616e-02 9.261016547679901123e-02
8.341708779335021973e-01 -8.401667326688766479e-02 1.138248946517705917e-02
5.146864429116249084e-02 -4.772054404020309448e-02 6.014188379049301147e-02
-2.649661600589752197e-01 -3.641930595040321350e-02 6.936971098184585571e-02
-2.754471302032470703e-01 -4.457624629139900208e-02 6.344567984342575073e-02
-4.851090162992477417e-02 -4.181929677724838257e-02 4.396449327468872070e-01
1.278203874826431274e-01 -4.024714604020118713e-02 2.062605768442153931e-01
-2.772698998451232910e-01 5.497038364410400391e-02 3.949889168143272400e-02
1.799782365560531616e-02 -4.612561687827110291e-02 -1.708500534296035767e-01
3.207390010356903076e-01 -4.364207386970520020e-02 6.973427534103393555e-02
3.073450550436973572e-02 -5.009016022086143494e-02 3.639766871929168701e-01
-7.205019593238830566e-01 1.877599954605102539e-01 -8.827596902847290039e-03
5.836751461029052734e-01 -1.798642799258232117e-02 -7.362747192382812500e-02
2.758302092552185059e-01 -5.849774181842803955e-02 -5.884015560150146484e-02
6.865711808204650879e-01 -4.405219852924346924e-02 -6.622242182493209839e-02
1.038508191704750061e-01 6.533745676279067993e-02 -2.008327096700668335e-02
-4.505252540111541748e-01 3.159321472048759460e-02 -9.506793320178985596e-02
-6.814783439040184021e-03 -6.708759814500808716e-02 -5.341738089919090271e-02
-7.176310420036315918e-01 1.546081602573394775e-01 3.339467104524374008e-03
-3.699127733707427979e-01 4.284888878464698792e-02 5.123304203152656555e-02
8.829985857009887695e-01 -2.940159849822521210e-02 6.080264598131179810e-02
9.671918302774429321e-02 -1.012191772460937500e-01 9.677977859973907471e-02
2.675365805625915527e-01 -8.408503234386444092e-02 3.145586699247360229e-02
-7.607170939445495605e-01 2.023878097534179688e-01 -1.012422842904925346e-03
-3.177584707736968994e-01 -6.922936439514160156e-02 -3.117945045232772827e-02
-3.847228586673736572e-01 8.398327976465225220e-03 -1.545589417219161987e-01
5.490195751190185547e-01 3.594510629773139954e-02 -6.114141643047332764e-02
-1.625030785799026489e-01 -8.315085619688034058e-02 1.662298478186130524e-02
-1.278087031096220016e-03 -4.847244545817375183e-02 -2.114980667829513550e-01
9.173352122306823730e-01 -5.920406803488731384e-02 4.066091403365135193e-02
1.907291263341903687e-01 -6.843189895153045654e-02 1.072379872202873230e-01
9.229175448417663574e-01 -8.233060687780380249e-02 -1.183518487960100174e-02
5.838118195533752441e-01 -8.695591241121292114e-02 -8.964305743575096130e-03
-1.254550516605377197e-01 3.799573704600334167e-02 -5.829332023859024048e-02
-5.766686983406543732e-03 -4.320916160941123962e-02 -4.397330582141876221e-01
5.103573203086853027e-02 -6.428506970405578613e-02 5.449126288294792175e-02
9.911157935857772827e-02 -5.631040409207344055e-02 2.714478075504302979e-01
-8.858930319547653198e-02 6.517796218395233154e-02 -1.862504519522190094e-02
6.261038780212402344e-02 -5.965976417064666748e-02 -2.651562094688415527e-01
-4.119962453842163086e-01 6.319568306207656860e-02 -1.448070704936981201e-01
7.516480237245559692e-02 -1.307026594877243042e-01 -8.522491157054901123e-02
-4.047506749629974365e-01 6.538302451372146606e-02 1.409366577863693237e-01
-4.620999395847320557e-01 -6.152811273932456970e-02 4.547060001641511917e-03
8.642011880874633789e-01 4.647167026996612549e-02 1.042552944272756577e-02
8.832265138626098633e-01 -1.115634590387344360e-01 1.516686053946614265e-03
3.310412168502807617e-02 -5.330281332135200500e-02 3.386400640010833740e-01
-8.111169934272766113e-01 1.938663125038146973e-01 -1.438501179218292236e-01
-1.073025749064981937e-03 -1.500162389129400253e-02 -7.456164807081222534e-02
2.382125854492187500e-01 -5.858888477087020874e-02 -7.709076255559921265e-02
-7.922283411026000977e-01 1.952789574861526489e-01 1.419164091348648071e-01
-1.905020698904991150e-02 -2.700919657945632935e-02 4.914802312850952148e-01
-3.788672089576721191e-01 2.314006909728050232e-02 8.869118988513946533e-02
-5.673427581787109375e-01 3.514764085412025452e-02 3.234447166323661804e-02
1.633190363645553589e-01 -6.799899041652679443e-02 1.317543983459472656e-01
3.376488387584686279e-02 -5.685724318027496338e-02 -2.770042717456817627e-01
1.101394146680831909e-01 -2.830792963504791260e-02 7.404058426618576050e-02
1.841443181037902832e-01 -6.995847076177597046e-02 -9.825780242681503296e-02
6.873914003372192383e-01 3.842864558100700378e-02 -6.013888493180274963e-02
1.970404982566833496e-01 4.160360898822546005e-03 -7.262494415044784546e-02
6.333687305450439453e-01 -6.348760426044464111e-02 5.576721206307411194e-02
-5.766617655754089355e-01 1.167854517698287964e-01 8.739456534385681152e-03
8.787868916988372803e-02 -1.379254311323165894e-01 -8.759453147649765015e-02
3.326361626386642456e-02 -6.004710495471954346e-02 -1.132046058773994446e-01
-9.850067645311355591e-02 -1.557124406099319458e-02 5.959711670875549316e-01
-1.670337282121181488e-02 5.820582062005996704e-02 3.706092014908790588e-02
3.928071856498718262e-01 6.479062139987945557e-02 -2.910603582859039307e-02
-1.224702373147010803e-01 -3.575854375958442688e-02 -7.002747058868408203e-02
-3.672013878822326660e-01 3.612738475203514099e-02 -1.642196774482727051e-01
-4.476088285446166992e-01 2.284386567771434784e-02 -5.141232162714004517e-02
-8.708550781011581421e-02 -2.379654534161090851e-02 5.363206863403320312e-01
-1.740093827247619629e-01 -3.334335982799530029e-02 7.203552871942520142e-02
-2.355054616928100586e-01 5.934506282210350037e-02 3.491915017366409302e-02
3.796831667423248291e-01 -7.437872141599655151e-02 4.407862573862075806e-02
2.893450856208801270e-02 -4.544207081198692322e-02 -1.480652838945388794e-01
7.154394388198852539e-01 5.102861672639846802e-02 5.310139432549476624e-02
7.327365875244140625e-02 -7.902681827545166016e-02 1.101316511631011963e-01
-3.815785646438598633e-01 2.375525981187820435e-02 5.152924358844757080e-02
5.904650092124938965e-01 5.330710113048553467e-02 4.884064197540283203e-02
7.837745547294616699e-02 -3.960917145013809204e-02 -1.852955967187881470e-01
-7.046437263488769531e-01 2.059878110885620117e-01 -5.318742711097002029e-03
-1.515400875359773636e-02 -5.569520965218544006e-02 6.239757686853408813e-02
6.495722383260726929e-02 -6.168761104345321655e-02 2.272909134626388550e-01
1.278203874826431274e-01 -4.024714604020118713e-02 2.062605768442153931e-01
7.861861586570739746e-01 5.670202523469924927e-02 -3.710349276661872864e-02
-4.034291505813598633e-01 1.714767515659332275e-02 9.320256859064102173e-02
2.206683009862899780e-01 -1.421907451003789902e-03 -7.369583100080490112e-02
-3.866823613643646240e-01 1.933501288294792175e-02 8.124057203531265259e-02
4.674501121044158936e-01 7.199060171842575073e-02 6.508649676106870174e-04
-3.263710737228393555e-01 6.089442595839500427e-02 2.840270660817623138e-02
-5.374263525009155273e-01 -2.427502535283565521e-02 -3.637437894940376282e-02
9.429225921630859375e-01 2.223655115813016891e-03 -1.188075542449951172e-02
1.995012462139129639e-01 -4.480409622192382812e-02 -8.016669750213623047e-02
3.007374890148639679e-02 -5.870280042290687561e-02 1.353088170289993286e-01
3.105349279940128326e-02 -3.170285746455192566e-02 -3.474547564983367920e-01
-4.290848076343536377e-01 2.004134096205234528e-02 5.886593833565711975e-02
8.630619645118713379e-01 -9.716349095106124878e-02 8.238191716372966766e-03
-4.389961957931518555e-01 4.330458492040634155e-02 4.426090419292449951e-02
-2.214700281620025635e-01 -3.357120603322982788e-02 7.171653956174850464e-02
4.474713653326034546e-02 -4.336865991353988647e-02 1.546986550092697144e-01
4.041768014430999756e-01 -8.476857841014862061e-02 -2.527819760143756866e-02
-2.696598172187805176e-01 -2.853577770292758942e-02 -6.941228359937667847e-02
-2.687939703464508057e-01 -6.480912119150161743e-02 4.578748345375061035e-02
1.633190363645553589e-01 -6.799899041652679443e-02 1.317543983459472656e-01
2.156556546688079834e-01 -8.766224235296249390e-02 -1.780479401350021362e-02
-7.922283411026000977e-01 1.952789574861526489e-01 1.419164091348648071e-01
-3.867279291152954102e-01 -2.147250063717365265e-02 -6.246293336153030396e-02
6.003763675689697266e-01 -6.581164896488189697e-02 -5.211865156888961792e-02
2.555517852306365967e-01 5.483367666602134705e-02 -4.193386062979698181e-02
-2.714598178863525391e-01 -2.739653736352920532e-02 7.160261273384094238e-02
5.701181888580322266e-01 3.963623940944671631e-02 6.082542613148689270e-02
7.410951256752014160e-01 -8.741160482168197632e-02 2.450861502438783646e-03
-4.063000380992889404e-01 4.485394805669784546e-02 9.160764515399932861e-02
5.210661888122558594e-02 -6.913822889328002930e-02 1.986049115657806396e-01
2.314682602882385254e-01 -5.355344712734222412e-02 -6.212116032838821411e-02
3.374209627509117126e-02 -5.760913342237472534e-02 3.119135200977325439e-01
-9.742979705333709717e-02 -1.864718832075595856e-02 5.869029164314270020e-01
-8.288207650184631348e-01 1.821093708276748657e-01 2.025466710329055786e-01
-1.501730177551507950e-02 -3.997372835874557495e-02 2.972857058048248291e-01
9.161540120840072632e-02 -1.367634087800979614e-01 1.102000102400779724e-01
7.608723044395446777e-01 5.970961228013038635e-02 3.813180327415466309e-02
-6.007679700851440430e-01 -3.051804937422275543e-02 4.091364331543445587e-03
-7.649550437927246094e-01 1.984460502862930298e-01 -3.047312237322330475e-02
1.038280352950096130e-01 -1.096039712429046631e-01 -8.663757145404815674e-02
8.533328175544738770e-01 -3.443703055381774902e-02 -6.321483105421066284e-02
1.128280162811279297e-01 1.441350486129522324e-02 -7.061988115310668945e-02
4.969143122434616089e-02 -5.519395321607589722e-02 -3.143029212951660156e-01
-2.976167500019073486e-01 6.722858548164367676e-02 -1.277640759944915771e-01
5.070728063583374023e-01 4.886406660079956055e-02 -5.255155637860298157e-02
1.937822848558425903e-01 6.738808006048202515e-02 -1.299720816314220428e-02
6.845433115959167480e-01 -3.106488287448883057e-02 7.285577803850173950e-02
7.787355184555053711e-01 -1.682440564036369324e-02 7.463299483060836792e-02
7.361279726028442383e-01 2.664892375469207764e-02 6.914186477661132812e-02
-7.205019593238830566e-01 1.877599954605102539e-01 -8.827596902847290039e-03
4.319058358669281006e-01 -8.075845986604690552e-02 -3.275159746408462524e-02
3.005451522767543793e-03 -2.896868623793125153e-02 4.343132674694061279e-01
-4.568559303879737854e-02 4.023651126772165298e-03 7.426843792200088501e-02
-1.115563511848449707e-01 -2.122186683118343353e-02 5.918243527412414551e-01
5.904650092124938965e-01 5.330710113048553467e-02 4.884064197540283203e-02
-7.748891711235046387e-01 1.900384724140167236e-01 -3.701234981417655945e-02
3.105349279940128326e-02 -3.170285746455192566e-02 -3.474547564983367920e-01
4.440888762474060059e-03 3.357549011707305908e-02 -6.082243099808692932e-02
6.817407608032226562e-01 4.023651126772165298e-03 -7.321733981370925903e-02
6.333687305450439453e-01 -6.348760426044464111e-02 5.576721206307411194e-02
-3.802570700645446777e-01 1.069958787411451340e-02 6.554187089204788208e-02
-4.131810367107391357e-01 1.585683086887001991e-03 1.383847594261169434e-01
3.683591485023498535e-01 -6.501417607069015503e-02 -5.423763394355773926e-02
-7.607170939445495605e-01 2.023878097534179688e-01 -1.012422842904925346e-03
-5.695756673812866211e-01 2.958815544843673706e-02 -3.297944739460945129e-02
-5.559504032135009766e-01 -1.304213423281908035e-02 3.981787338852882385e-02
4.278273880481719971e-01 -5.770027637481689453e-02 -5.865787342190742493e-02
-6.334377825260162354e-02 -2.297629602253437042e-02 5.216928720474243164e-01
4.122653901576995850e-01 7.164882868528366089e-02 6.508649676106870174e-04
-2.214700281620025635e-01 -3.357120603322982788e-02 7.171653956174850464e-02
-2.537104785442352295e-01 -7.784200459718704224e-02 -2.131364680826663971e-02
4.287878423929214478e-02 -5.915849655866622925e-02 2.446529120206832886e-01
5.444170236587524414e-01 -3.209019824862480164e-02 -7.102999836206436157e-02
3.038554787635803223e-01 1.149705331772565842e-02 7.317476719617843628e-02
-5.855898186564445496e-02 3.523878008127212524e-02 -6.002496182918548584e-02
-5.093100070953369141e-01 6.221593543887138367e-02 1.493901247158646584e-03
1.706364937126636505e-02 -7.909516990184783936e-02 3.959002718329429626e-02
1.114311278797686100e-03 -4.070283845067024231e-02 -4.522418975830078125e-01
2.761719822883605957e-01 5.606405809521675110e-02 4.218748956918716431e-02
1.839848458766937256e-01 -8.545212447643280029e-02 -2.855920232832431793e-02
-4.124063551425933838e-01 -4.345979541540145874e-02 4.995709657669067383e-02
8.823606371879577637e-01 -1.250976026058197021e-01 -2.447863109409809113e-03
-3.969810605049133301e-01 2.733246609568595886e-02 1.561796814203262329e-01
-3.325457870960235596e-01 4.480838030576705933e-02 -1.183539628982543945e-01
1.515848934650421143e-01 -4.232055693864822388e-02 -8.663757145404815674e-02
-1.949030011892318726e-01 1.156540960073471069e-02 7.294691354036331177e-02
-7.819524407386779785e-01 1.963042765855789185e-01 1.125696226954460144e-01
-1.278087031096220016e-03 -4.847244545817375183e-02 -2.114980667829513550e-01
6.488886475563049316e-02 -6.380659341812133789e-02 -1.619867831468582153e-01
-2.621180713176727295e-01 -7.665719836950302124e-02 2.626094035804271698e-02
1.540036033838987350e-02 5.895772203803062439e-02 3.601282089948654175e-02
-1.439562737941741943e-01 -7.314834743738174438e-02 4.150394722819328308e-02
-8.166763782501220703e-01 1.897650510072708130e-01 1.193139180541038513e-01
1.865858025848865509e-02 -4.824460297822952271e-02 -1.212476342916488647e-01
8.714958280324935913e-02 -6.708759814500808716e-02 -1.265336871147155762e-01
8.250341415405273438e-01 4.736027121543884277e-02 -3.958702832460403442e-02
4.877057671546936035e-01 -5.505724623799324036e-02 -6.009331718087196350e-02
6.075536012649536133e-01 -5.150281637907028198e-02 6.353681534528732300e-02
3.016225695610046387e-01 -8.583946526050567627e-02 2.534954808652400970e-02
9.407579898834228516e-01 -7.631542533636093140e-02 -1.035207533277571201e-03
1.408760547637939453e-01 4.366914555430412292e-02 -5.469332635402679443e-02
6.817407608032226562e-01 4.380585253238677979e-02 -5.672116950154304504e-02
-3.157761693000793457e-01 5.399063602089881897e-02 -3.746804594993591309e-02
3.434326052665710449e-01 -4.564713314175605774e-02 6.834439933300018311e-02
7.195214927196502686e-02 -8.030276000499725342e-02 -1.228653490543365479e-01
-6.844792366027832031e-01 2.006333768367767334e-01 -6.412412039935588837e-03
-4.793708026409149170e-01 -4.532814770936965942e-02 3.573940321803092957e-02
7.505087554454803467e-02 -6.822682917118072510e-02 -8.969072997570037842e-02
1.179773733019828796e-01 -6.127747893333435059e-02 2.202960103750228882e-01
1.599696725606918335e-01 -7.444707304239273071e-02 -6.524267047643661499e-02
3.823490142822265625e-01 1.279578544199466705e-02 7.301527261734008789e-02
7.527872174978256226e-02 -4.974839091300964355e-02 -6.512875109910964966e-02
-6.624235510826110840e-01 1.912232786417007446e-01 1.619007438421249390e-02
7.478393912315368652e-01 -5.674331635236740112e-02 5.943555757403373718e-02
-5.122228711843490601e-02 6.467669457197189331e-02 2.256980724632740021e-02
-4.108569920063018799e-01 -6.658633053302764893e-02 -1.110607385635375977e-02
-3.139306008815765381e-01 4.237040877342224121e-02 -5.277940630912780762e-02
8.762999176979064941e-01 -1.240416429936885834e-02 6.144061312079429626e-02
1.860810369253158569e-01 -8.868755400180816650e-02 -1.397695392370223999e-02
1.840795017778873444e-02 6.645390391349792480e-02 1.466349512338638306e-02
1.348608732223510742e-01 -4.368764907121658325e-02 2.263339608907699585e-01
6.794202327728271484e-02 -4.487245157361030579e-02 9.718991070985794067e-02
-3.331153988838195801e-01 2.170462906360626221e-02 1.519872695207595825e-01
1.164963617920875549e-01 -7.444707304239273071e-02 4.660773649811744690e-02
1.373899877071380615e-01 -7.415087521076202393e-02 -5.314396321773529053e-02
2.588135004043579102e-02 -6.246229261159896851e-02 -5.690345168113708496e-02
6.400374229997396469e-03 -5.560407415032386780e-02 6.895958632230758667e-02
3.548477590084075928e-01 -3.892563283443450928e-02 -6.998190283775329590e-02
-9.850067645311355591e-02 -1.557124406099319458e-02 5.959711670875549316e-01
1.348608732223510742e-01 -4.368764907121658325e-02 2.263339608907699585e-01
2.657821476459503174e-01 1.380619709379971027e-03 -7.321733981370925903e-02
9.681031852960586548e-02 -7.474327832460403442e-02 1.109746918082237244e-01
1.075419411063194275e-01 -3.926740214228630066e-02 -1.648120880126953125e-01
6.599813103675842285e-01 5.374000966548919678e-02 4.879507422447204590e-02
-4.324114024639129639e-01 5.362608656287193298e-02 -1.098096817731857300e-01
1.813189983367919922e-01 -4.377878457307815552e-02 -1.037717163562774658e-01
-6.135502457618713379e-01 1.432613432407379150e-01 -8.782027289271354675e-03
-7.826132178306579590e-01 1.964181959629058838e-01 -9.301730245351791382e-02
-3.290824890136718750e-01 -3.507500141859054565e-02 -6.376166641712188721e-02
3.778375983238220215e-01 6.966655701398849487e-02 9.559707716107368469e-03
9.681031852960586548e-02 -7.474327832460403442e-02 1.109746918082237244e-01
8.860781043767929077e-02 -9.768753498792648315e-02 -1.076451241970062256e-01
8.469759225845336914e-01 -3.313043387606739998e-03 -6.433128565549850464e-02
7.688469290733337402e-01 -7.834327220916748047e-02 3.409890085458755493e-02
1.838481128215789795e-01 7.236303295940160751e-03 7.381273806095123291e-02
1.101394146680831909e-01 -2.830792963504791260e-02 7.404058426618576050e-02
1.522228717803955078e-01 -5.899900570511817932e-02 -1.947740614414215088e-01
-1.458438858389854431e-02 -5.940913036465644836e-02 3.611513972282409668e-01
2.859274111688137054e-02 -5.510281026363372803e-02 -3.020675182342529297e-01
-7.603069543838500977e-01 1.932055503129959106e-01 1.519189327955245972e-01
3.195997476577758789e-01 -6.843189895153045654e-02 5.307860672473907471e-02
2.576742880046367645e-02 -5.585470795631408691e-02 2.230985164642333984e-01
-1.695208102464675903e-01 -5.341674014925956726e-02 6.121276691555976868e-02
-1.442980319261550903e-01 1.208945736289024353e-02 -6.120769381523132324e-01
2.299123909324407578e-03 -3.439146280288696289e-02 3.395286500453948975e-01
-2.621180713176727295e-01 -7.665719836950302124e-02 2.626094035804271698e-02
7.069898396730422974e-02 -6.492304056882858276e-02 1.472708135843276978e-01
-2.426826655864715576e-01 4.432990029454231262e-02 -5.385029315948486328e-02
-4.077354967594146729e-01 5.522101745009422302e-02 -1.424830257892608643e-01
9.544323384761810303e-02 -3.703449293971061707e-02 2.801743447780609131e-01
1.371849179267883301e-01 -4.106739908456802368e-02 1.526936143636703491e-01
-1.423841267824172974e-01 -5.226961337029933929e-03 5.969509482383728027e-01
1.247444450855255127e-01 -4.042942449450492859e-02 -1.297007799148559570e-01
8.642011880874633789e-01 4.647167026996612549e-02 1.042552944272756577e-02
6.495722383260726929e-02 -6.168761104345321655e-02 2.272909134626388550e-01
-7.371085137128829956e-02 -8.577110618352890015e-02 -1.472885161638259888e-02
-4.190367460250854492e-01 -3.377627208828926086e-02 -5.369079858064651489e-02
-1.197588518261909485e-01 -1.513045048341155052e-03 -6.045807600021362305e-01
-4.851090162992477417e-02 -4.181929677724838257e-02 4.396449327468872070e-01
7.167872786521911621e-02 -1.030419543385505676e-01 -9.026034176349639893e-02
5.827865600585937500e-01 5.189444497227668762e-02 -4.895156621932983398e-02
7.612140774726867676e-01 2.132517285645008087e-03 -7.260216027498245239e-02
3.784335032105445862e-02 -5.984204262495040894e-02 1.890125125646591187e-01
2.000480890274047852e-01 -7.437084335833787918e-03 -7.478949427604675293e-02
-1.631603203713893890e-02 -4.113575071096420288e-02 4.609486758708953857e-01
3.326361626386642456e-02 -6.004710495471954346e-02 -1.132046058773994446e-01
-5.040203407406806946e-02 5.770455673336982727e-02 3.772167488932609558e-02
6.790521740913391113e-01 5.918556451797485352e-02 -3.954145684838294983e-02
1.153798997402191162e-01 6.586150079965591431e-02 1.967614330351352692e-02
-3.622991591691970825e-02 -3.931297361850738525e-02 4.866270720958709717e-01
-1.207158267498016357e-01 -2.664464153349399567e-02 -5.565733313560485840e-01
5.108130350708961487e-02 -3.901676833629608154e-02 -2.298853695392608643e-01
-1.435917317867279053e-01 -5.874837562441825867e-02 -5.621990561485290527e-02
1.153798997402191162e-01 6.586150079965591431e-02 1.967614330351352692e-02
-7.986308932304382324e-01 1.948916167020797729e-01 -1.327767223119735718e-01
7.281796634197235107e-02 -8.005212992429733276e-02 -1.334602683782577515e-01
4.016249179840087891e-01 -1.085479743778705597e-02 7.695703953504562378e-02
-7.007703781127929688e-01 2.012485712766647339e-01 -1.443264912813901901e-02
1.287089884281158447e-01 -4.357372224330902100e-02 -7.041481137275695801e-02
7.390444874763488770e-01 3.769953548908233643e-02 6.203301995992660522e-02
-5.535351634025573730e-01 -9.556067176163196564e-03 -3.951867669820785522e-02
-7.562512755393981934e-01 1.985144019126892090e-01 -7.278443872928619385e-02
-2.538244128227233887e-01 6.426656991243362427e-02 1.988120563328266144e-02
1.154938265681266785e-01 -7.007239758968353271e-02 1.043671071529388428e-01
-4.308620393276214600e-01 -6.446734815835952759e-02 1.395716704428195953e-02
1.041698008775711060e-01 -6.635848432779312134e-02 1.869391053915023804e-01
-5.051403641700744629e-01 1.423122733831405640e-02 -5.362244322896003723e-02
7.898545265197753906e-01 -5.972811579704284668e-02 -5.483003333210945129e-02
-1.594726890325546265e-01 2.095273137092590332e-02 -6.144010424613952637e-01
2.648935019969940186e-01 -8.362933248281478882e-02 -3.033641539514064789e-02
-4.681606888771057129e-01 4.954760894179344177e-02 1.385214775800704956e-01
8.177886009216308594e-01 1.195275038480758667e-02 -6.471862643957138062e-02
-3.697988390922546387e-01 -6.850025802850723267e-02 2.202297374606132507e-02
6.575206518173217773e-01 -8.374325931072235107e-02 2.350398339331150055e-02
8.860781043767929077e-02 -9.768753498792648315e-02 -1.076451241970062256e-01
-2.999863326549530029e-01 3.838307783007621765e-02 5.831910297274589539e-02
-5.447630882263183594e-01 4.822609201073646545e-02 -2.040225639939308167e-02
-3.535760939121246338e-01 -7.007239758968353271e-02 -2.001491561532020569e-02
-2.538699507713317871e-01 2.771980687975883484e-02 -6.510596722364425659e-02
6.927686333656311035e-01 -1.816870830953121185e-02 -7.346797734498977661e-02
-1.293512433767318726e-01 2.861629007384181023e-03 6.063382625579833984e-01
2.686074376106262207e-01 -6.875088810920715332e-02 -5.132118239998817444e-02
2.299123909324407578e-03 -3.439146280288696289e-02 3.395286500453948975e-01
8.829985857009887695e-01 -7.244201749563217163e-02 -3.236425668001174927e-02
-7.046437263488769531e-01 2.059878110885620117e-01 -5.318742711097002029e-03
-4.153456091880798340e-01 1.979070715606212616e-02 1.464050114154815674e-01
1.617013365030288696e-01 -6.325975805521011353e-02 -1.704854965209960938e-01
4.349589943885803223e-01 -8.994071185588836670e-02 1.951697049662470818e-04
-2.214700281620025635e-01 -8.258123695850372314e-02 -8.508610539138317108e-03
-4.549911022186279297e-01 2.227425016462802887e-02 5.109633132815361023e-02
-4.124063551425933838e-01 -4.345979541540145874e-02 4.995709657669067383e-02
-1.165462061762809753e-01 -1.434086821973323822e-02 -5.970845818519592285e-01
4.258258268237113953e-02 -3.924461081624031067e-02 2.391845732927322388e-01
5.657891035079956055e-01 6.779820472002029419e-02 2.389132604002952576e-02
7.629457116127014160e-01 3.924889862537384033e-02 -5.840724706649780273e-02
-4.946365654468536377e-01 5.816024914383888245e-02 -4.657985176891088486e-03
6.534876823425292969e-01 -2.575603500008583069e-02 -7.210089266300201416e-02
-5.043656229972839355e-01 7.461085170507431030e-02 -4.316213540732860565e-03
4.855183959007263184e-01 3.075018152594566345e-02 6.595200300216674805e-02
3.793869614601135254e-01 -1.119657047092914581e-02 -7.513126730918884277e-02
1.220786273479461670e-01 -4.147752001881599426e-02 2.459744215011596680e-01
6.454709172248840332e-02 -6.594835966825485229e-02 1.111341863870620728e-01
1.371849179267883301e-01 -4.106739908456802368e-02 1.526936143636703491e-01
1.826861053705215454e-01 -7.472049444913864136e-02 -4.794903844594955444e-02
-9.135279688052833080e-04 -4.817624017596244812e-02 3.087920248508453369e-01
-1.695208102464675903e-01 -5.341674014925956726e-02 6.121276691555976868e-02
-1.217411383986473083e-01 -1.561681646853685379e-02 -5.904314517974853516e-01
6.864344477653503418e-01 -8.766224235296249390e-02 -2.220015274360775948e-03
7.514201104640960693e-02 -7.330784201622009277e-02 4.863557964563369751e-02
1.247444450855255127e-01 -4.042942449450492859e-02 -1.297007799148559570e-01
2.459366172552108765e-01 -6.979898363351821899e-02 -4.186550527811050415e-02
-2.440109383314847946e-03 -4.521422088146209717e-02 -3.617180287837982178e-01
-1.352980732917785645e-01 2.565427916124463081e-03 -6.020972728729248047e-01
3.959777951240539551e-02 -7.380910217761993408e-02 -2.652245461940765381e-01
2.171173878014087677e-02 -5.519395321607589722e-02 6.324061006307601929e-02
-2.059536129236221313e-01 2.737803570926189423e-02 -6.537938117980957031e-02
-5.944338440895080566e-01 4.464888572692871094e-02 -1.677948050200939178e-02
2.769238650798797607e-01 -7.724960148334503174e-02 4.104825481772422791e-02
4.855183959007263184e-01 3.075018152594566345e-02 6.595200300216674805e-02
-1.162044405937194824e-01 5.740835517644882202e-02 -3.669336438179016113e-02
3.558766096830368042e-02 -5.697115883231163025e-02 2.772579193115234375e-01
1.970860809087753296e-01 -8.734325319528579712e-02 2.170398645102977753e-02
4.588637501001358032e-02 1.434515044093132019e-02 7.233173400163650513e-02
-1.949030011892318726e-01 1.156540960073471069e-02 7.294691354036331177e-02
4.122653901576995850e-01 7.164882868528366089e-02 6.508649676106870174e-04
3.807120397686958313e-02 -5.924963951110839844e-02 2.264478802680969238e-01
4.328891262412071228e-02 6.909693777561187744e-02 -5.339427734725177288e-04
5.150018930435180664e-01 -3.949524462223052979e-02 7.146590948104858398e-02
1.253824234008789062e-01 -7.068759202957153320e-02 1.135721504688262939e-01
-4.686619341373443604e-01 4.423876106739044189e-02 3.990901261568069458e-02
2.606363035738468170e-02 -5.747242644429206848e-02 -1.390197426080703735e-01
8.656073361635208130e-03 5.869217682629823685e-03 7.390387356281280518e-02
-4.156873822212219238e-01 5.932227149605751038e-02 1.168075874447822571e-01
2.859274111688137054e-02 -5.510281026363372803e-02 -3.020675182342529297e-01
1.893199980258941650e-02 -3.398133441805839539e-02 -4.453836679458618164e-01
-3.542596399784088135e-01 -6.970784813165664673e-02 2.325335144996643066e-02
-1.188474670052528381e-01 -7.086987048387527466e-02 4.596976190805435181e-02
-3.673836588859558105e-01 -7.130277901887893677e-02 -7.460511289536952972e-03
-4.065734446048736572e-01 4.610711336135864258e-02 1.503467708826065063e-01
7.145088165998458862e-02 -4.177372530102729797e-02 -1.504121273756027222e-01
6.719013303518295288e-02 -5.669774487614631653e-02 -2.910852730274200439e-01
5.033588409423828125e-01 3.995522484183311462e-02 6.023302301764488220e-02
-4.297420755028724670e-02 -3.566740825772285461e-02 7.230894267559051514e-02
-8.827031403779983521e-02 5.576785281300544739e-02 -3.915411606431007385e-02
-7.007703781127929688e-01 2.012485712766647339e-01 -1.443264912813901901e-02
3.484224677085876465e-01 6.504125148057937622e-02 3.017991967499256134e-02
-5.477706193923950195e-01 5.339823663234710693e-02 -1.017189770936965942e-02
5.210661888122558594e-02 -6.913822889328002930e-02 1.986049115657806396e-01
-1.810726523399353027e-01 5.709724035114049911e-03 -7.235152274370193481e-02
-4.023354947566986084e-01 5.756784602999687195e-02 1.505518406629562378e-01
-7.498329505324363708e-03 -6.278128176927566528e-02 -3.135966360569000244e-01
-5.994464755058288574e-01 7.828706875443458557e-03 3.412168473005294800e-02
7.516480237245559692e-02 -1.307026594877243042e-01 -8.522491157054901123e-02
1.227621659636497498e-01 -6.658633053302764893e-02 5.610897764563560486e-02
