5.200644955039024353e-03 1.972714206203818321e-03 -5.263406634330749512e-01
-9.107325971126556396e-02 -2.833277359604835510e-02 -4.119953811168670654e-01
3.456242978572845459e-01 -7.812227308750152588e-02 1.145517174154520035e-02
-1.271077804267406464e-02 -1.087446883320808411e-02 9.104372560977935791e-02
2.821880280971527100e-01 -6.037076562643051147e-02 -2.225394546985626221e-01
-1.852132938802242279e-02 -4.192626476287841797e-02 -1.319961398839950562e-01
1.313535720109939575e-01 2.052675234153866768e-03 -3.217985928058624268e-01
-6.903047859668731689e-02 -3.917795140296220779e-03 -4.270548522472381592e-01
-8.550259470939636230e-02 -9.968236088752746582e-03 4.172075390815734863e-01
1.411622017621994019e-01 -6.210035644471645355e-03 2.034432440996170044e-01
9.606380760669708252e-02 9.997912496328353882e-02 3.645578399300575256e-03
-8.991929888725280762e-01 7.375168055295944214e-02 6.390930619090795517e-03
-1.825479045510292053e-02 -3.758167847990989685e-02 1.780154258012771606e-01
8.545554429292678833e-02 2.958907512947916985e-03 3.265309631824493408e-01
3.724647760391235352e-01 2.270944789052009583e-02 8.680576086044311523e-02
-8.579578995704650879e-02 -5.090571008622646332e-03 -4.627710878849029541e-01
-3.144847601652145386e-02 -7.852207124233245850e-02 -8.735085278749465942e-02
8.932191878557205200e-03 4.829719662666320801e-02 7.984908670186996460e-02
1.935904324054718018e-01 -2.763977460563182831e-02 2.566444277763366699e-01
6.680299639701843262e-01 8.582883514463901520e-03 8.749876171350479126e-02
9.054644405841827393e-02 -1.085876747965812683e-01 1.507484763860702515e-01
2.667820453643798828e-01 -2.843939512968063354e-02 2.658666968345642090e-01
5.618674159049987793e-01 3.896833211183547974e-02 -8.260645717382431030e-02
2.272010147571563721e-01 -3.291724622249603271e-02 -1.718170642852783203e-01
1.322331577539443970e-01 9.057028591632843018e-02 3.976162150502204895e-02
-3.653686046600341797e-01 9.984584897756576538e-02 6.231007166206836700e-03
6.142689585685729980e-01 8.985063433647155762e-02 -4.038666933774948120e-02
1.903386712074279785e-01 -5.970442667603492737e-02 9.186999499797821045e-02
-1.697555780410766602e-01 2.436199039220809937e-02 -7.960782051086425781e-01
9.481091499328613281e-01 1.324731577187776566e-02 -1.322634238749742508e-02
-3.288793861865997314e-01 -1.143419649451971054e-02 8.454018086194992065e-02
1.701616644859313965e-01 -7.729306351393461227e-03 2.806862592697143555e-01
-6.071446090936660767e-02 2.185947028920054436e-03 -8.561834692955017090e-02
-7.726498879492282867e-03 -4.192626476287841797e-02 -1.439104378223419189e-01
7.849072813987731934e-01 -1.356147378683090210e-01 1.006916910409927368e-02
-8.065157383680343628e-02 -9.221926331520080566e-03 -4.204980134963989258e-01
-5.647493992000818253e-03 -3.009193763136863708e-02 -1.859969645738601685e-01
-1.271077804267406464e-02 -1.087446883320808411e-02 9.104372560977935791e-02
6.100043654441833496e-01 9.867307543754577637e-02 -1.263995748013257980e-02
-7.020074129104614258e-01 1.293517202138900757e-01 -1.605165749788284302e-02
-2.979593351483345032e-02 -7.516073528677225113e-03 4.422089159488677979e-01
-1.444343775510787964e-01 3.086554259061813354e-02 -7.368531823158264160e-01
-2.688910346478223801e-03 -1.330026686191558838e-01 1.793747693300247192e-01
9.073302894830703735e-02 -8.681145310401916504e-02 3.429757058620452881e-02
-6.906528472900390625e-01 9.955265372991561890e-02 5.617967341095209122e-03
7.707807421684265137e-01 -5.192147940397262573e-02 -4.531764611601829529e-02
-8.608646392822265625e-01 8.054842054843902588e-02 -1.295173317193984985e-01
2.670752406120300293e-01 -2.817285060882568359e-02 -2.646526396274566650e-01
-1.293482631444931030e-01 -7.247163355350494385e-02 4.658426623791456223e-03
2.138473987579345703e-01 -2.209576033055782318e-02 2.643207609653472900e-01
1.450803428888320923e-01 -7.031267881393432617e-02 2.672785893082618713e-02
5.125859379768371582e-02 -9.435159154236316681e-03 -4.181258082389831543e-01
4.206816554069519043e-01 5.661321803927421570e-02 7.641073316335678101e-02
-2.627243995666503906e-01 6.820766627788543701e-02 8.805857300758361816e-01
1.456667184829711914e-01 2.505791373550891876e-03 -2.737682461738586426e-01
8.649504929780960083e-02 -8.737117052078247070e-02 1.265459787100553513e-02
8.048444390296936035e-01 -6.122369691729545593e-02 -3.870822722092270851e-03
-5.182820558547973633e-01 -1.791110262274742126e-02 -6.152322143316268921e-02
-2.019534856081008911e-01 2.902642823755741119e-02 7.863907814025878906e-01
6.263698339462280273e-01 8.993059396743774414e-02 4.125423729419708252e-02
3.939760103821754456e-02 -4.099338501691818237e-02 -2.165423333644866943e-01
6.986301392316818237e-02 -1.076281368732452393e-01 -1.482017040252685547e-01
5.138903856277465820e-01 6.439615041017532349e-02 7.041360437870025635e-02
-2.875642850995063782e-02 6.077409256249666214e-03 5.781704783439636230e-01
3.762229979038238525e-01 -2.244226448237895966e-02 7.992905378341674805e-02
7.072910666465759277e-01 -3.566260263323783875e-02 -7.045227289199829102e-02
2.813617289066314697e-01 -1.157575771212577820e-01 2.336687743663787842e-01
1.318333446979522705e-01 -4.370921291410923004e-03 -8.831039816141128540e-02
-8.009184151887893677e-02 -7.916177809238433838e-02 -8.058076351881027222e-02
-5.509064197540283203e-01 9.837988018989562988e-02 -1.695789024233818054e-02
9.251867532730102539e-01 -1.737802661955356598e-02 -2.466086670756340027e-02
2.017465382814407349e-01 -5.258782953023910522e-02 1.279593855142593384e-01
7.172879576683044434e-02 -3.795483335852622986e-02 -1.843444108963012695e-01
-2.552346587181091309e-01 -6.378246843814849854e-02 -4.187928885221481323e-02
-4.604164361953735352e-01 -3.966068476438522339e-02 -5.032857879996299744e-02
1.125359237194061279e-01 7.159271091222763062e-02 -6.376214325428009033e-02
-3.432709351181983948e-02 -6.181008368730545044e-02 -9.300147742033004761e-02
-9.536453336477279663e-02 9.635418653488159180e-02 -2.468752115964889526e-02
2.317588180303573608e-01 6.815435737371444702e-02 6.750833243131637573e-02
-7.164537906646728516e-01 6.266365200281143188e-02 4.050792753696441650e-02
2.962346076965332031e-01 -8.753108978271484375e-02 3.056342899799346924e-01
-1.324667632579803467e-01 1.831155456602573395e-02 6.392078995704650879e-01
-6.374516487121582031e-01 -1.460601855069398880e-02 2.680782042443752289e-02
1.115763783454895020e-01 -7.702656090259552002e-03 2.191956937313079834e-01
9.824942797422409058e-02 3.412023652344942093e-03 -3.853948116302490234e-01
1.820226609706878662e-01 -1.218050625175237656e-02 -2.629201114177703857e-01
7.659030556678771973e-01 -4.810997098684310913e-02 5.239556729793548584e-02
2.033724337816238403e-01 -1.943037286400794983e-02 -2.661185860633850098e-01
-5.300897359848022461e-01 -3.899433836340904236e-02 3.152556344866752625e-02
7.514049112796783447e-02 -2.084303274750709534e-02 -2.998890876770019531e-01
4.336903616786003113e-02 -1.388635952025651932e-02 2.389995455741882324e-01
7.020951807498931885e-02 -5.178820714354515076e-02 -1.835181415081024170e-01
-1.279356032609939575e-01 6.930341012775897980e-03 -5.875380039215087891e-01
-4.223812818527221680e-01 7.708341628313064575e-02 -5.803155899047851562e-02
-1.870273053646087646e-01 1.724539883434772491e-02 7.162376642227172852e-01
2.147802859544754028e-01 -7.297807186841964722e-02 1.385402306914329529e-02
5.336425080895423889e-02 1.639247313141822815e-02 8.763203024864196777e-02
2.233628481626510620e-01 -1.134386956691741943e-01 -2.322947978973388672e-01
2.068656310439109802e-02 -1.475556939840316772e-01 -1.366072595119476318e-01
2.439663261175155640e-01 -1.145797665230929852e-03 8.779195696115493774e-02
-1.077586039900779724e-01 -7.076579332351684570e-02 8.541975915431976318e-02
-4.830988943576812744e-01 8.252081274986267090e-02 5.175587534904479980e-02
-2.510484494268894196e-02 -8.723789453506469727e-02 -4.723747260868549347e-03
-9.062013775110244751e-02 -4.477532580494880676e-03 4.531636834144592285e-01
5.624287575483322144e-02 -8.713129162788391113e-02 -1.900750100612640381e-01
-7.516636252403259277e-01 2.388222329318523407e-02 -2.226201631128787994e-02
1.360180079936981201e-01 4.227341711521148682e-02 -8.124711364507675171e-02
-1.632253825664520264e-01 -6.263635307550430298e-02 -3.079126402735710144e-02
7.319475710391998291e-02 -1.066152900457382202e-01 1.432054191827774048e-01
1.420966535806655884e-02 -9.355198591947555542e-03 4.232846200466156006e-01
-5.112187862396240234e-01 9.968592971563339233e-02 8.016818203032016754e-03
-5.138574838638305664e-01 7.599060237407684326e-02 5.860592797398567200e-02
-1.681547984480857849e-02 -2.209576033055782318e-02 2.917742729187011719e-01
1.228243261575698853e-01 -1.887063682079315186e-02 3.200274109840393066e-01
-6.590146422386169434e-01 6.348992139101028442e-02 -5.126146599650382996e-02
-8.595319986343383789e-01 6.807439029216766357e-02 1.037576422095298767e-01
-4.034570157527923584e-01 9.329193271696567535e-03 8.411371707916259766e-02
-7.245299816131591797e-01 1.279390603303909302e-01 6.869950448162853718e-04
-1.756194382905960083e-01 2.883985079824924469e-02 7.548859119415283203e-01
-6.038410663604736328e-01 2.239247784018516541e-03 -5.787163600325584412e-02
2.977554313838481903e-02 -3.507621586322784424e-02 1.216690614819526672e-01
2.702737152576446533e-01 -3.560929000377655029e-02 7.281246036291122437e-02
9.347822070121765137e-01 -1.564551331102848053e-02 1.993111334741115570e-02
4.652203619480133057e-01 -4.544458538293838501e-02 -6.413529813289642334e-02
-5.819315910339355469e-01 -3.270401060581207275e-02 1.633283682167530060e-02
-9.536453336477279663e-02 9.635418653488159180e-02 -2.468752115964889526e-02
6.455073356628417969e-01 6.005157157778739929e-02 7.369203865528106689e-02
-3.483633995056152344e-01 4.491215199232101440e-02 8.136836439371109009e-02
-2.627243995666503906e-01 6.820766627788543701e-02 8.805857300758361816e-01
-8.474044203758239746e-01 8.907767385244369507e-02 -1.787470877170562744e-01
2.252019792795181274e-01 -1.194891259074211121e-01 2.935334444046020508e-01
-7.815426588058471680e-01 1.111471056938171387e-01 -1.461234595626592636e-02
-4.704100638628005981e-02 -1.148750726133584976e-02 4.012151956558227539e-01
-2.237030863761901855e-01 3.353093191981315613e-02 -8.350195288658142090e-01
6.564087867736816406e-01 -2.859931625425815582e-02 7.734362035989761353e-02
7.818953990936279297e-01 -9.496753662824630737e-02 -3.364398377016186714e-03
2.382357269525527954e-01 -4.317900165915489197e-02 2.474488317966461182e-01
8.382417559623718262e-01 -1.993680000305175781e-02 5.764639005064964294e-02
9.321184456348419189e-02 -5.336079001426696777e-02 -1.084340885281562805e-01
4.727367758750915527e-01 4.661800339818000793e-02 -7.943464070558547974e-02
8.236087560653686523e-01 -2.113622613251209259e-02 6.092481687664985657e-02
-1.007486283779144287e-01 -7.780242711305618286e-02 -2.823248878121376038e-02
-1.916384398937225342e-01 -7.103233039379119873e-02 -2.351474761962890625e-02
-6.929701566696166992e-02 -3.614236786961555481e-02 9.317603707313537598e-02
5.850829482078552246e-01 4.224676266312599182e-02 -8.124711364507675171e-02
-8.076367974281311035e-01 6.612865626811981201e-02 -9.945172816514968872e-02
2.821880280971527100e-01 -6.037076562643051147e-02 -2.225394546985626221e-01
-4.670532643795013428e-01 4.493880644440650940e-02 -7.756887376308441162e-02
9.950215369462966919e-02 -2.377496287226676941e-02 9.456204622983932495e-02
1.977750957012176514e-01 3.888837248086929321e-02 -8.263310790061950684e-02
8.806763589382171631e-02 -1.159412786364555359e-02 2.098401784896850586e-01
-8.982051908969879150e-02 2.428202889859676361e-02 -6.396464109420776367e-01
2.136075347661972046e-01 -5.869157239794731140e-02 -9.054932743310928345e-02
1.583806425333023071e-01 -6.351592391729354858e-02 2.745825052261352539e-01
2.532152235507965088e-01 -3.251744061708450317e-02 -1.446034461259841919e-01
-5.216404199600219727e-01 5.810583382844924927e-02 7.084006816148757935e-02
-6.374516487121582031e-01 -1.460601855069398880e-02 2.680782042443752289e-02
-5.322471261024475098e-02 1.532631926238536835e-02 -5.409203171730041504e-01
1.483587622642517090e-01 -8.539877831935882568e-02 4.090773686766624451e-02
-3.432709351181983948e-02 -6.181008368730545044e-02 -9.300147742033004761e-02
4.852374494075775146e-01 9.742034971714019775e-02 2.320954576134681702e-02
-8.579578995704650879e-02 -5.090571008622646332e-03 -4.627710878849029541e-01
-8.024660348892211914e-01 8.129473030567169189e-02 9.880001097917556763e-02
1.759988516569137573e-01 -7.516073528677225113e-03 2.687986195087432861e-01
8.865401893854141235e-02 -1.073082983493804932e-01 -1.729098856449127197e-01
9.251867532730102539e-01 -1.737802661955356598e-02 -2.466086670756340027e-02
2.966877520084381104e-01 -1.185295954346656799e-01 2.748757004737854004e-01
8.323779106140136719e-01 6.380976736545562744e-02 -4.433145001530647278e-02
1.755190938711166382e-01 -7.641641050577163696e-02 -7.239801436662673950e-02
5.840338766574859619e-03 4.451527725905179977e-03 -5.390012860298156738e-01
2.666221261024475098e-01 -7.388430833816528320e-02 6.097812205553054810e-02
-1.016548573970794678e-01 -1.234043855220079422e-02 8.411371707916259766e-02
2.988371066749095917e-03 -1.333758085966110229e-01 -1.366072595119476318e-01
-4.847514629364013672e-01 -1.412624213844537735e-02 -6.986588984727859497e-02
3.168647289276123047e-01 -2.819950133562088013e-02 9.560155123472213745e-02
-6.276696920394897461e-01 8.230757713317871094e-02 -4.497114196419715881e-02
-9.065228700637817383e-01 8.393346518278121948e-02 2.401723265647888184e-01
8.212365508079528809e-01 7.820288091897964478e-02 2.902009524405002594e-02
8.854740858078002930e-02 3.896833211183547974e-02 8.371391147375106812e-02
1.327928900718688965e-01 -6.250308454036712646e-02 -2.613742053508758545e-01
-7.241834402084350586e-01 8.843797445297241211e-02 3.067263774573802948e-02
2.983136177062988281e-01 -3.193105012178421021e-02 -8.713761717081069946e-02
-7.905234396457672119e-02 3.616967424750328064e-02 -8.375257253646850586e-02
9.347837418317794800e-02 -1.839086972177028656e-02 1.542667895555496216e-01
-2.600323557853698730e-01 9.979254007339477539e-02 -5.016940645873546600e-03
-5.842222273349761963e-02 -1.052796375006437302e-02 4.111038148403167725e-01
-2.552346587181091309e-01 -6.378246843814849854e-02 -4.187928885221481323e-02
-1.159680038690567017e-01 -7.335121929645538330e-02 1.100205536931753159e-02
-2.204246520996093750e-01 -7.164537906646728516e-02 -2.068943716585636139e-02
-8.956746459007263184e-01 2.996968328952789307e-01 -3.364398377016186714e-03
7.900530844926834106e-02 -1.305771619081497192e-01 1.435785740613937378e-01
1.474791914224624634e-01 -5.060991388745605946e-04 2.437705993652343750e-01
1.041932478547096252e-01 2.159286756068468094e-03 -2.983698248863220215e-01
5.739416480064392090e-01 -4.507142677903175354e-02 -6.442849338054656982e-02
6.542764902114868164e-01 -1.465642009861767292e-03 -8.516523241996765137e-02
1.793039441108703613e-01 -9.933877736330032349e-02 2.486749142408370972e-01
2.187250852584838867e-01 -6.236686371266841888e-03 1.225219890475273132e-01
2.108637057244777679e-02 -1.945702359080314636e-02 3.186947107315063477e-01
1.115763783454895020e-01 -7.702656090259552002e-03 2.191956937313079834e-01
4.155657067894935608e-02 5.746614187955856323e-02 7.574438303709030151e-02
7.260288000106811523e-01 7.041993737220764160e-02 6.225750967860221863e-02
3.131332099437713623e-01 3.600974753499031067e-02 -8.383253216743469238e-02
2.218169271945953369e-01 -8.363961428403854370e-02 3.397772088646888733e-02
-2.875642850995063782e-02 6.077409256249666214e-03 5.781704783439636230e-01
-7.510756701231002808e-02 9.747365117073059082e-02 -2.180889807641506195e-02
1.793039441108703613e-01 -9.933877736330032349e-02 2.486749142408370972e-01
7.279649376869201660e-03 -4.094007238745689392e-02 6.870775669813156128e-02
3.231817185878753662e-01 9.928611665964126587e-02 8.976359851658344269e-03
7.610520124435424805e-01 6.740804761648178101e-02 -5.856463313102722168e-02
1.825024187564849854e-01 -8.763770759105682373e-02 2.718638181686401367e-01
3.921086788177490234e-01 -7.481718808412551880e-02 -1.312047592364251614e-03
-9.245770983397960663e-03 -3.742175549268722534e-02 2.111195772886276245e-01
-4.919997230172157288e-02 -4.397571552544832230e-03 4.743535220623016357e-01
1.404159069061279297e-01 -1.892107771709561348e-03 -3.176672160625457764e-01
2.490838766098022461e-01 -4.067352786660194397e-02 -2.455950826406478882e-01
7.870129346847534180e-01 -6.466205418109893799e-02 1.401394605636596680e-02
-7.470258474349975586e-01 7.561744749546051025e-02 -4.129290580749511719e-02
-9.677719324827194214e-02 6.663797423243522644e-03 -5.843395590782165527e-01
7.978343963623046875e-01 8.174784481525421143e-02 -3.268369287252426147e-02
7.900530844926834106e-02 -1.305771619081497192e-01 1.435785740613937378e-01
2.575598061084747314e-01 -8.268008381128311157e-02 3.328472003340721130e-02
6.008103489875793457e-02 -2.897247113287448883e-02 2.129853367805480957e-01
-1.741801351308822632e-01 2.870657853782176971e-02 -7.480211257934570312e-01
1.334325820207595825e-01 9.971258044242858887e-02 -4.723747260868549347e-03
-4.056959748268127441e-01 7.961554080247879028e-02 -5.464651063084602356e-02
4.632762074470520020e-02 -1.230341047048568726e-01 1.636223196983337402e-01
-3.084625005722045898e-01 4.533861204981803894e-02 -8.004768192768096924e-02
1.423631887882947922e-02 -1.082115806639194489e-02 -4.037326872348785400e-01
-1.508046537637710571e-01 -5.573299154639244080e-02 5.378157272934913635e-02
9.031706452369689941e-01 5.048281699419021606e-02 2.979231067001819611e-03
3.771558701992034912e-01 -5.951784178614616394e-02 -6.205629557371139526e-02
2.631304860115051270e-01 -3.870114311575889587e-02 -1.173898056149482727e-01
2.178988009691238403e-01 -6.407566368579864502e-02 -7.588966935873031616e-02
-3.346633315086364746e-01 7.428475469350814819e-02 6.319040060043334961e-02
4.825986921787261963e-01 -4.096672311425209045e-02 6.870775669813156128e-02
3.518628701567649841e-02 -8.774433284997940063e-02 4.605119116604328156e-03
3.433586955070495605e-01 2.977273240685462952e-02 8.589953184127807617e-02
5.929192304611206055e-01 8.212099969387054443e-02 -5.176788941025733948e-02
4.355561360716819763e-02 6.823719479143619537e-03 -3.913386464118957520e-01
2.789895534515380859e-01 -3.534275665879249573e-02 2.651203870773315430e-01
2.084648795425891876e-02 5.277505144476890564e-02 7.798331975936889648e-02
5.616275072097778320e-01 1.937771402299404144e-02 8.725887537002563477e-02
5.902004837989807129e-01 5.541379377245903015e-02 7.689050585031509399e-02
8.678824454545974731e-02 -4.277918860316276550e-02 -6.618764996528625488e-02
-8.432198166847229004e-01 9.038371592760086060e-02 1.983789950609207153e-01
8.212365508079528809e-01 7.820288091897964478e-02 2.902009524405002594e-02
-8.062508106231689453e-01 5.909203365445137024e-02 4.319997504353523254e-02
-1.841471344232559204e-02 -7.340452075004577637e-02 1.062890049070119858e-02
1.277286410331726074e-01 -1.004819758236408234e-02 1.851586699485778809e-01
-1.778317093849182129e-01 2.508164942264556885e-02 8.101927042007446289e-01
5.544325336813926697e-02 -4.219280928373336792e-02 -1.516134142875671387e-01
-1.503781974315643311e-01 6.527573615312576294e-02 -6.861315667629241943e-02
3.231817185878753662e-01 9.928611665964126587e-02 8.976359851658344269e-03
-1.544828861951828003e-01 9.814000129699707031e-02 -1.669135130941867828e-02
3.014854490756988525e-01 -1.013644635677337646e-01 3.011564612388610840e-01
2.371962219476699829e-01 -8.284000307321548462e-02 -4.771649464964866638e-02
-5.225466489791870117e-01 6.191734224557876587e-02 -6.808007508516311646e-02
2.135290950536727905e-02 9.862270206212997437e-03 -4.358773231506347656e-01
5.216733217239379883e-01 7.103297859430313110e-02 -6.418860703706741333e-02
3.790482878684997559e-01 -7.617653906345367432e-02 -7.922216318547725677e-03
9.321184456348419189e-02 -5.336079001426696777e-02 -1.084340885281562805e-01
1.160808876156806946e-01 -1.788444258272647858e-02 1.326504796743392944e-01
1.862872689962387085e-01 7.023335993289947510e-02 -6.480164825916290283e-02
6.867409944534301758e-01 9.264929592609405518e-02 -3.358992561697959900e-02
-2.690946757793426514e-01 7.876261323690414429e-02 8.913272023200988770e-01
5.979567766189575195e-01 4.315299168229103088e-02 -8.087395876646041870e-02
8.008463382720947266e-01 2.612114883959293365e-02 -7.103866338729858398e-02
-7.664032578468322754e-01 6.914054602384567261e-02 1.039708703756332397e-01
2.169659137725830078e-01 -1.647178456187248230e-02 2.111195772886276245e-01
-9.928265959024429321e-02 -3.782156109809875488e-02 9.072387963533401489e-02
-1.741801351308822632e-01 2.870657853782176971e-02 -7.480211257934570312e-01
7.496708631515502930e-01 -6.977959722280502319e-02 1.484021730720996857e-02
4.490947425365447998e-01 9.254268556833267212e-02 -3.390977159142494202e-02
5.280451849102973938e-02 -2.678685262799263000e-02 -1.447900086641311646e-01
1.767467148602008820e-02 7.881591469049453735e-02 -5.605916678905487061e-02
-1.267095208168029785e-01 9.515766054391860962e-03 -6.188030242919921875e-01
-6.508319377899169922e-01 9.275591373443603516e-02 -2.865895256400108337e-02
4.355561360716819763e-02 6.823719479143619537e-03 -3.913386464118957520e-01
-1.183120068162679672e-02 5.037915427237749100e-03 8.709895610809326172e-02
9.143652915954589844e-01 3.523678705096244812e-02 -7.762292865663766861e-03
1.360180079936981201e-01 4.227341711521148682e-02 -8.124711364507675171e-02
3.979741409420967102e-02 9.766022861003875732e-02 2.142373286187648773e-02
8.332042098045349121e-01 -5.810230504721403122e-03 6.460306048393249512e-02
1.161075383424758911e-01 -3.291724622249603271e-02 2.251395285129547119e-01
5.902004837989807129e-01 5.541379377245903015e-02 7.689050585031509399e-02
3.032446205615997314e-01 -2.129614911973476410e-02 1.001060605049133301e-01
9.161244630813598633e-01 7.250185124576091766e-03 -3.550900518894195557e-02
-8.705666661262512207e-01 8.433327078819274902e-02 1.615166515111923218e-01
1.411622017621994019e-01 -6.210035644471645355e-03 2.034432440996170044e-01
-4.328829348087310791e-01 2.838672883808612823e-02 -8.159360289573669434e-02
3.252089396119117737e-02 -1.475556939840316772e-01 1.458441615104675293e-01
7.402102649211883545e-02 9.515766054391860962e-03 3.919929563999176025e-01
2.821880280971527100e-01 -6.037076562643051147e-02 -2.225394546985626221e-01
-1.061060577630996704e-01 -7.471057027578353882e-02 5.537255783565342426e-04
-3.140331804752349854e-01 -5.301429703831672668e-02 5.791292712092399597e-02
4.037564396858215332e-01 -4.280584678053855896e-02 -6.616099923849105835e-02
7.482064515352249146e-02 9.409153833985328674e-03 -3.857946097850799561e-01
-9.890950471162796021e-02 2.361568622291088104e-02 -7.111055254936218262e-01
-3.463643491268157959e-01 -7.225841283798217773e-02 1.228144299238920212e-02
5.088543891906738281e-02 -3.361024335026741028e-02 -2.025490254163742065e-01
5.859358906745910645e-01 9.867307543754577637e-02 1.356083061546087265e-02
4.336903616786003113e-02 -5.306759476661682129e-02 -5.616578087210655212e-02
3.052702844142913818e-01 -5.786529928445816040e-02 2.920141816139221191e-01
1.874600499868392944e-01 -9.141964837908744812e-03 -1.265587508678436279e-01
2.164594978094100952e-01 -1.223943978548049927e-01 2.838314175605773926e-01
4.555465653538703918e-02 -3.744841739535331726e-02 2.114394158124923706e-01
5.546708703041076660e-01 9.915284812450408936e-02 -8.855102583765983582e-03
1.853810399770736694e-01 -5.586626380681991577e-02 1.111940816044807434e-01
-1.632253825664520264e-01 -6.263635307550430298e-02 -3.079126402735710144e-02
-3.379401564598083496e-02 -1.503247488290071487e-02 4.124898314476013184e-01
3.168647289276123047e-01 -2.819950133562088013e-02 9.560155123472213745e-02
-1.288151890039443970e-01 2.521491609513759613e-02 6.818541288375854492e-01
-1.628522276878356934e-01 2.297599241137504578e-02 -7.807254791259765625e-01
7.874926924705505371e-01 8.737182617187500000e-02 2.406246960163116455e-02
1.282617300748825073e-01 -9.038306027650833130e-02 2.610689699649810791e-01
5.130375027656555176e-01 5.733286961913108826e-02 -7.474355399608612061e-02
2.368497252464294434e-01 -1.235138773918151855e-01 -2.855492830276489258e-01
7.870129346847534180e-01 -6.466205418109893799e-02 1.401394605636596680e-02
5.682376623153686523e-01 -6.564824283123016357e-02 -3.689500689506530762e-02
-8.024660348892211914e-01 8.129473030567169189e-02 9.880001097917556763e-02
2.961546778678894043e-01 -6.127699837088584900e-02 2.275650203227996826e-01
6.517192721366882324e-02 -8.905036002397537231e-02 -1.895419210195541382e-01
1.963624507188796997e-01 -8.001469075679779053e-02 2.320961803197860718e-01
1.829555332660675049e-01 -1.038432866334915161e-01 -2.479406297206878662e-01
9.758463129401206970e-03 -1.217280626296997070e-01 -1.366072595119476318e-01
-8.952481746673583984e-01 8.635897189378738403e-02 2.601360976696014404e-01
-4.034570157527923584e-01 9.329193271696567535e-03 8.411371707916259766e-02
-1.740202158689498901e-01 -5.754545703530311584e-02 2.864694036543369293e-02
6.610481441020965576e-02 -1.471558809280395508e-01 1.450178772211074829e-01
-4.839251637458801270e-01 6.637147162109613419e-03 7.920939475297927856e-02
-5.463736876845359802e-02 2.127013914287090302e-02 -6.353817582130432129e-01
-2.253822684288024902e-01 -9.648391976952552795e-03 -8.407241851091384888e-02
8.114545345306396484e-01 -7.023271918296813965e-02 -1.429249905049800873e-02
-1.290017515420913696e-01 9.542426094412803650e-03 -5.776760578155517578e-01
1.679760366678237915e-01 -8.545210212469100952e-02 -1.335961278527975082e-02
2.513761222362518311e-01 -8.689139783382415771e-02 2.216478586196899414e-01
6.138691902160644531e-01 -3.822137787938117981e-02 7.078675925731658936e-02
5.850829482078552246e-01 4.224676266312599182e-02 -8.124711364507675171e-02
-5.801457762718200684e-01 -2.993201464414596558e-02 2.651462890207767487e-02
2.919966578483581543e-01 -1.003249585628509521e-01 -2.797387242317199707e-01
-2.982103731483221054e-03 -6.449919193983078003e-03 -4.122619330883026123e-01
3.651898354291915894e-02 -2.020333334803581238e-02 2.063751667737960815e-01
1.434544473886489868e-01 -3.832798823714256287e-02 -1.940197795629501343e-01
9.089294821023941040e-02 -6.842025369405746460e-02 3.131233155727386475e-02
4.481085538864135742e-01 -4.898955300450325012e-02 6.252405047416687012e-02
6.487873196601867676e-02 -1.219146326184272766e-01 -1.552916616201400757e-01
2.086765617132186890e-01 -6.015754118561744690e-02 -8.108717948198318481e-02
-9.163298457860946655e-02 1.487320289015769958e-02 5.744122862815856934e-01
4.031700491905212402e-01 2.558807097375392914e-02 8.643260598182678223e-02
1.771982759237289429e-01 -8.065439760684967041e-02 6.745502352714538574e-02
-8.705666661262512207e-01 8.433327078819274902e-02 1.615166515111923218e-01
8.275535106658935547e-01 -5.354737117886543274e-02 -2.455425076186656952e-02
-2.409481704235076904e-01 -3.422329202294349670e-02 7.398522645235061646e-02
6.986301392316818237e-02 -1.076281368732452393e-01 -1.482017040252685547e-01
5.787031259387731552e-03 -7.684287428855895996e-02 9.304277598857879639e-02
1.309004575014114380e-01 -4.930648487061262131e-03 -2.190477848052978516e-01
4.017056897282600403e-02 -1.849748194217681885e-02 -3.241974413394927979e-01
-5.698291212320327759e-02 2.798985224217176437e-03 4.582279324531555176e-01
1.185863539576530457e-01 -3.456978872418403625e-02 2.168768048286437988e-01
2.334380149841308594e-01 -8.366628736257553101e-02 1.731903105974197388e-02
-1.877736151218414307e-01 2.788030728697776794e-02 -7.582562565803527832e-01
-1.081850603222846985e-01 -6.165015324950218201e-02 -4.499779641628265381e-02
-4.056959748268127441e-01 7.961554080247879028e-02 -5.464651063084602356e-02
-7.957225441932678223e-01 7.540421932935714722e-02 3.874877095222473145e-02
1.129090785980224609e-01 -2.620046399533748627e-02 2.643474042415618896e-01
5.315885543823242188e-01 9.947269409894943237e-02 -6.402943283319473267e-03
-2.528987126424908638e-03 -3.448982536792755127e-02 -1.942330002784729004e-01
1.583806425333023071e-01 -6.351592391729354858e-02 2.745825052261352539e-01
2.223249152302742004e-02 -1.289246231317520142e-01 -1.434040218591690063e-01
1.759988516569137573e-01 -7.516073528677225113e-03 2.687986195087432861e-01
3.105211257934570312e-01 -5.128179118037223816e-02 5.959212034940719604e-02
-1.036368543282151222e-03 2.692363923415541649e-03 -3.954699635505676270e-01
-8.285868167877197266e-01 2.632609605789184570e-01 -1.413257606327533722e-02
-9.096679687500000000e-01 9.176971018314361572e-02 -2.383718788623809814e-01
4.981912374496459961e-01 9.776684641838073730e-02 -1.946335844695568085e-02
1.421750634908676147e-01 -7.276482880115509033e-02 1.558652706444263458e-02
-4.584157839417457581e-02 1.743197627365589142e-02 -5.533410310745239258e-01
-2.907627262175083160e-02 -8.582524955272674561e-02 3.976162150502204895e-02
7.788301706314086914e-01 6.007822602987289429e-02 -6.075025349855422974e-02
8.529562503099441528e-02 -4.078014940023422241e-02 6.881437450647354126e-02
2.051049321889877319e-01 -8.577194809913635254e-02 -2.828572392463684082e-01
-2.073109298944473267e-01 5.890836939215660095e-03 8.720556646585464478e-02
2.919966578483581543e-01 -9.638018906116485596e-02 2.335354983806610107e-01
-5.066593736410140991e-02 -8.443924784660339355e-02 -8.481948636472225189e-03
1.411622017621994019e-01 -6.210035644471645355e-03 2.034432440996170044e-01
1.678427606821060181e-01 -1.748463697731494904e-02 8.198139816522598267e-02
-9.938926994800567627e-02 -2.150937169790267944e-02 4.143822491168975830e-01
-4.839251637458801270e-01 6.637147162109613419e-03 7.920939475297927856e-02
1.729070097208023071e-01 -3.707526251673698425e-02 2.044827491044998169e-01
7.659030556678771973e-01 -4.810997098684310913e-02 5.239556729793548584e-02
-8.579578995704650879e-02 -5.090571008622646332e-03 -4.627710878849029541e-01
4.081026092171669006e-02 -7.249539718031883240e-03 4.447943568229675293e-01
2.689692378044128418e-02 -1.072816476225852966e-01 1.826798617839813232e-01
-1.359035726636648178e-02 -1.250036060810089111e-02 -3.863010406494140625e-01
-9.251257032155990601e-02 -5.010901764035224915e-02 -6.000394374132156372e-02
4.704445302486419678e-01 -7.412417978048324585e-02 -4.110707901418209076e-03
-2.688910346478223801e-03 -1.330026686191558838e-01 1.793747693300247192e-01
1.271422505378723145e-01 -8.609179407358169556e-02 3.621665015816688538e-02
-4.277638345956802368e-02 -2.761312387883663177e-02 -3.219585120677947998e-01
1.480922251939773560e-01 -6.796423811465501785e-03 3.196009397506713867e-01
-2.721865475177764893e-01 2.124348282814025879e-02 -8.591154217720031738e-02
-4.703583419322967529e-01 -5.064209178090095520e-02 -2.695310302078723907e-02
-6.395306587219238281e-01 -1.751128770411014557e-02 -1.693123579025268555e-02
-4.779280424118041992e-01 -3.011562861502170563e-03 7.659731060266494751e-02
-5.956316590309143066e-01 8.494631946086883545e-02 -4.337191209197044373e-02
-8.465781211853027344e-01 7.620383799076080322e-02 -1.789336800575256348e-01
1.903919726610183716e-01 -4.970921203494071960e-02 -2.589220404624938965e-01
-9.051351994276046753e-02 -7.836214452981948853e-02 7.009375840425491333e-02
-4.570831358432769775e-02 7.330146152526140213e-03 -5.914294719696044922e-01
-7.726498879492282867e-03 -4.192626476287841797e-02 -1.439104378223419189e-01
-8.931958079338073730e-01 2.007575333118438721e-01 -8.428640663623809814e-03
7.652100324630737305e-01 3.728913515806198120e-02 -7.453032582998275757e-02
-5.279840826988220215e-01 6.572885066270828247e-02 6.657544523477554321e-02
-6.828416883945465088e-02 -8.044115453958511353e-02 -7.986110448837280273e-02
2.147269845008850098e-01 -1.876402460038661957e-02 -8.034086972475051880e-02
3.228256013244390488e-03 -5.008236691355705261e-02 -6.005725637078285217e-02
3.969079628586769104e-02 -8.713129162788391113e-02 2.811386436223983765e-02
1.998008042573928833e-01 -7.420414686203002930e-02 -3.471014089882373810e-03
-8.244021534919738770e-01 8.236088603734970093e-02 1.102611944079399109e-01
6.720812916755676270e-01 -6.503229960799217224e-03 -8.452553302049636841e-02
9.347837418317794800e-02 -1.839086972177028656e-02 1.542667895555496216e-01
2.021996527910232544e-01 -4.027372226119041443e-02 -2.706497609615325928e-01
5.836703181266784668e-01 -6.961967051029205322e-02 2.838040143251419067e-02
5.268974900245666504e-01 -6.367585062980651855e-02 -4.163940623402595520e-02
-4.019377529621124268e-01 6.986020505428314209e-02 6.518943607807159424e-02
-1.825479045510292053e-02 -3.758167847990989685e-02 1.780154258012771606e-01
-4.779280424118041992e-01 -3.011562861502170563e-03 7.659731060266494751e-02
5.827373862266540527e-01 -6.346262246370315552e-02 4.322662577033042908e-02
1.405491679906845093e-01 -7.428409904241561890e-02 -2.857974031940102577e-03
2.188316881656646729e-01 -9.717982262372970581e-02 -3.039404749870300293e-01
6.624592542648315430e-01 6.732808053493499756e-02 6.812136620283126831e-02
-9.611084312200546265e-02 -6.167681142687797546e-02 4.607859253883361816e-02
-5.682298541069030762e-02 -5.711898952722549438e-02 9.357585012912750244e-02
2.666221261024475098e-01 -7.388430833816528320e-02 6.097812205553054810e-02
8.225426077842712402e-01 4.779077693819999695e-02 6.025846675038337708e-02
8.633230924606323242e-01 7.289874553680419922e-02 1.281452178955078125e-02
-1.330264955759048462e-01 -2.739989012479782104e-02 -7.676924765110015869e-02
7.884538173675537109e-02 -1.256461888551712036e-01 1.693529039621353149e-01
7.520163655281066895e-01 9.624756872653961182e-02 1.805708743631839752e-04
-2.530756890773773193e-01 4.163372144103050232e-02 8.621944785118103027e-01
-2.982103731483221054e-03 -6.449919193983078003e-03 -4.122619330883026123e-01
-2.549148201942443848e-01 9.718045592308044434e-02 -2.359470911324024200e-02
-2.044856101274490356e-01 4.224676266312599182e-02 -8.531175255775451660e-01
6.959365010261535645e-01 6.876739859580993652e-02 6.705521792173385620e-02
-1.633570902049541473e-02 -3.393010050058364868e-02 -1.982843875885009766e-01
2.195779979228973389e-01 -4.171303287148475647e-02 2.599761784076690674e-01
4.236668944358825684e-01 6.671504676342010498e-02 -6.752034276723861694e-02
-2.411880344152450562e-01 2.574799396097660065e-02 -8.532515168190002441e-02
-1.852132938802242279e-02 -4.192626476287841797e-02 -1.319961398839950562e-01
-2.116006612777709961e-02 1.855144277215003967e-02 -5.785023570060729980e-01
-1.187400072813034058e-01 5.117582157254219055e-02 -7.754221558570861816e-02
2.414075285196304321e-01 -2.897247113287448883e-02 7.721035182476043701e-02
-3.324776887893676758e-01 -3.774160146713256836e-02 -7.037231326103210449e-02
-3.655285239219665527e-01 -6.327604502439498901e-02 3.778922930359840393e-02
-1.976355761289596558e-01 6.852751225233078003e-02 -6.618764996528625488e-02
3.194768428802490234e-01 -5.234794691205024719e-02 -2.510324716567993164e-01
-1.486456990242004395e-01 -6.666108965873718262e-02 4.722470790147781372e-02
5.130375027656555176e-01 5.733286961913108826e-02 -7.474355399608612061e-02
-9.098013043403625488e-01 2.353276461362838745e-01 -7.442445959895849228e-03
-6.473919749259948730e-02 2.254952676594257355e-02 -6.057692766189575195e-01
4.643423855304718018e-02 -8.739782124757766724e-02 -1.669135130941867828e-02
-7.751723527908325195e-01 1.044569760560989380e-01 -9.655470494180917740e-04
2.136075347661972046e-01 -5.869157239794731140e-02 -9.054932743310928345e-02
-6.969165205955505371e-01 8.094823360443115234e-02 -3.737477958202362061e-02
5.563234090805053711e-01 9.118333458900451660e-02 3.829565644264221191e-02
6.738420575857162476e-02 -6.093050166964530945e-02 9.277623146772384644e-02
1.303140670061111450e-01 -4.344553500413894653e-02 -2.590553164482116699e-01
-1.244424004107713699e-02 -1.545603037811815739e-03 -4.996067881584167480e-01
7.207529246807098389e-02 -2.105625532567501068e-02 1.636489629745483398e-01
-3.644623756408691406e-01 8.750509470701217651e-02 -4.515771940350532532e-02
1.811430752277374268e-01 8.230757713317871094e-02 5.260879918932914734e-02
-7.245299816131591797e-01 1.279390603303909302e-01 6.869950448162853718e-04
-4.843516051769256592e-01 -5.258782953023910522e-02 -6.909367628395557404e-03
-2.013137936592102051e-01 9.859311580657958984e-02 -1.442576851695775986e-02
-9.677719324827194214e-02 6.663797423243522644e-03 -5.843395590782165527e-01
-8.550259470939636230e-02 -9.968236088752746582e-03 4.172075390815734863e-01
-7.245299816131591797e-01 1.279390603303909302e-01 6.869950448162853718e-04
1.281550973653793335e-01 -4.339223727583885193e-02 1.732710301876068115e-01
5.383320450782775879e-01 4.563180729746818542e-02 8.094189316034317017e-02
-3.780292272567749023e-01 6.879405677318572998e-02 -6.549464911222457886e-02
1.706680804491043091e-01 -5.855830013751983643e-02 -4.902253672480583191e-02
4.323576763272285461e-02 4.904643632471561432e-03 4.895462691783905029e-01
-8.474044203758239746e-01 8.907767385244369507e-02 -1.787470877170562744e-01
7.276014089584350586e-01 -5.959780514240264893e-02 4.455932229757308960e-02
1.265558749437332153e-01 -8.659821003675460815e-02 -1.397265307605266571e-02
1.906067505478858948e-02 -1.467027664184570312e-01 1.543201059103012085e-01
4.907281398773193359e-01 -5.677249655127525330e-02 5.242222175002098083e-02
5.840338766574859619e-03 4.451527725905179977e-03 -5.390012860298156738e-01
-3.125405609607696533e-01 9.923281520605087280e-02 9.642706252634525299e-03
-8.802686929702758789e-01 8.929090201854705811e-02 -1.970849633216857910e-01
4.661266207695007324e-01 7.892253249883651733e-02 -5.589924380183219910e-02
-1.715946942567825317e-01 -5.013566836714744568e-02 -7.618286460638046265e-02
-8.544943928718566895e-01 1.414525955915451050e-01 -9.521449916064739227e-03
-7.011278271675109863e-01 1.495820283889770508e-01 -1.421253755688667297e-02
-1.999011486768722534e-01 2.580130472779273987e-02 8.189352154731750488e-01
-8.966875672340393066e-01 7.591064274311065674e-02 -7.815599441528320312e-03
-4.056693315505981445e-01 -5.751880630850791931e-02 -3.612204641103744507e-02
-6.715152859687805176e-01 2.193648740649223328e-02 -4.878265410661697388e-02
-2.600323557853698730e-01 9.979254007339477539e-02 -5.016940645873546600e-03
1.129090785980224609e-01 -2.620046399533748627e-02 2.643474042415618896e-01
-5.434263031929731369e-03 -1.841752044856548309e-02 3.294629156589508057e-01
-2.409748136997222900e-01 -6.228984892368316650e-02 -4.451802745461463928e-02
2.017465382814407349e-01 -5.258782953023910522e-02 1.279593855142593384e-01
-3.148327767848968506e-01 -6.772724539041519165e-02 3.277829661965370178e-02
3.678552433848381042e-02 -4.157688003033399582e-03 3.149365186691284180e-01
-4.502346515655517578e-01 6.077409256249666214e-03 -8.007433265447616577e-02
-8.888763934373855591e-02 1.258096657693386078e-02 5.574070811271667480e-01
7.288008332252502441e-01 6.005157157778739929e-02 6.974726170301437378e-02
8.294047438539564610e-04 -2.913239412009716034e-02 -3.094844818115234375e-01
-1.789778470993041992e-01 3.401070460677146912e-02 7.951065897941589355e-01
6.610481441020965576e-02 -1.471558809280395508e-01 1.450178772211074829e-01
-7.241834402084350586e-01 8.843797445297241211e-02 3.067263774573802948e-02
8.740112781524658203e-01 -1.708483137190341949e-02 4.709144309163093567e-02
2.206974625587463379e-01 -7.159205526113510132e-02 3.094191849231719971e-01
4.240667521953582764e-01 -1.090111862868070602e-02 -8.361930400133132935e-02
-2.131998911499977112e-02 -4.797376692295074463e-03 4.703554511070251465e-01
1.831687688827514648e-01 9.678065031766891479e-02 2.478212676942348480e-02
-8.726990222930908203e-01 7.708341628313064575e-02 1.865979880094528198e-01
3.152655065059661865e-01 -4.962924867868423462e-02 7.854305207729339600e-02
-9.044970870018005371e-01 8.193442225456237793e-02 2.171966582536697388e-01
-1.947302818298339844e-01 1.839151978492736816e-02 7.297512292861938477e-01
2.535617053508758545e-01 -3.867449238896369934e-02 -1.277048587799072266e-01
-7.826355099678039551e-01 5.530717223882675171e-02 3.256506472826004028e-02
-2.204246520996093750e-01 -7.164537906646728516e-02 -2.068943716585636139e-02
2.919966578483581543e-01 -7.913512736558914185e-02 3.060874342918395996e-01
-1.632786840200424194e-01 -4.120661690831184387e-02 -6.741373240947723389e-02
2.467116713523864746e-01 3.865139791741967201e-03 -8.583158254623413086e-02
-7.707478404045104980e-01 7.575071603059768677e-02 -1.082741618156433105e-01
9.673015028238296509e-02 8.785159140825271606e-02 4.541224241256713867e-02
-2.870327532291412354e-01 2.385556884109973907e-02 -8.556503802537918091e-02
-1.924098469316959381e-02 -1.929710246622562408e-02 3.205338418483734131e-01
-9.938926994800567627e-02 -2.150937169790267944e-02 4.143822491168975830e-01
-4.920812547206878662e-01 8.369650691747665405e-03 -7.767548412084579468e-02
-3.479902744293212891e-01 6.362318992614746094e-02 7.131984084844589233e-02
1.115763783454895020e-01 -7.702656090259552002e-03 2.191956937313079834e-01
-8.422869443893432617e-01 9.078352153301239014e-02 2.072280943393707275e-01
-1.825479045510292053e-02 -3.758167847990989685e-02 1.780154258012771606e-01
-8.119547367095947266e-01 8.121477067470550537e-02 9.789378196001052856e-02
1.495581865310668945e-01 -7.551018148660659790e-02 -2.822974920272827148e-01
-7.164537906646728516e-01 6.266365200281143188e-02 4.050792753696441650e-02
8.394678831100463867e-01 8.158792555332183838e-02 -3.630937542766332626e-03
3.244344592094421387e-01 -5.098859965801239014e-02 2.767681181430816650e-01
6.098726764321327209e-02 -1.943037286400794983e-02 -1.848508268594741821e-01
-2.149872481822967529e-01 2.950619533658027649e-02 -8.005027174949645996e-01
4.638077020645141602e-01 4.070083424448966980e-02 8.299425244331359863e-02
-5.386440828442573547e-02 2.145671658217906952e-02 5.924302935600280762e-01
3.622578829526901245e-02 -6.724748015403747559e-02 -3.303019329905509949e-02
-1.053330898284912109e-01 -2.033660560846328735e-02 4.233646094799041748e-01
-9.717699885368347168e-02 -1.359020592644810677e-03 5.059650540351867676e-01
7.548699527978897095e-02 -7.169578690081834793e-03 2.568843066692352295e-01
-2.942026555538177490e-01 -2.342845685780048370e-02 -7.850176095962524414e-02
-2.673888504505157471e-01 -6.082388013601303101e-02 4.759786278009414673e-02
-1.508046537637710571e-01 -5.573299154639244080e-02 5.378157272934913635e-02
-2.451061606407165527e-01 5.877218395471572876e-02 8.720830678939819336e-01
6.100043654441833496e-01 9.867307543754577637e-02 -1.263995748013257980e-02
4.876629412174224854e-01 9.347556531429290771e-02 3.277829661965370178e-02
-1.793509870767593384e-01 -5.623940750956535339e-02 5.319518223404884338e-02
8.052175641059875488e-01 -6.093050166964530945e-02 -1.477226987481117249e-02
1.676843874156475067e-02 -7.385763525962829590e-02 -6.029788404703140259e-03
1.157077327370643616e-01 -2.131990855559706688e-03 2.595230638980865479e-01
1.161075383424758911e-01 -3.291724622249603271e-02 2.251395285129547119e-01
-4.645477533340454102e-01 9.073022007942199707e-02 4.010811820626258850e-02
2.498035132884979248e-01 -4.379204288125038147e-02 -1.176563426852226257e-01
3.105211257934570312e-01 -5.128179118037223816e-02 5.959212034940719604e-02
-1.041070148348808289e-01 6.397263612598180771e-03 5.357640981674194336e-01
-8.451639860868453979e-02 2.852295991033315659e-03 5.271815657615661621e-01
-7.156542539596557617e-01 9.859311580657958984e-02 -1.162710878998041153e-02
-7.970018982887268066e-01 1.209024339914321899e-01 -2.324895933270454407e-03
-7.457464337348937988e-01 1.388938128948211670e-01 -1.629154197871685028e-02
9.028241038322448730e-01 4.027437418699264526e-02 -2.479413524270057678e-02
-6.567757725715637207e-01 1.238343641161918640e-01 -1.013449020683765411e-02
-8.096891641616821289e-01 8.137468993663787842e-02 2.784732542932033539e-02
1.427081376314163208e-01 6.487593054771423340e-02 7.004044950008392334e-02
-2.195717394351959229e-01 3.958136960864067078e-02 -8.585549592971801758e-01
6.738420575857162476e-02 -6.093050166964530945e-02 9.277623146772384644e-02
-8.497766852378845215e-01 8.204104006290435791e-02 -1.986316591501235962e-02
5.840338766574859619e-03 4.451527725905179977e-03 -5.390012860298156738e-01
-7.583270668983459473e-01 9.081017971038818359e-02 2.672785893082618713e-02
-7.970018982887268066e-01 1.209024339914321899e-01 -2.324895933270454407e-03
2.804303914308547974e-02 -4.333892464637756348e-02 2.126388400793075562e-01
-1.632253825664520264e-01 -6.263635307550430298e-02 -3.079126402735710144e-02
1.318333446979522705e-01 -4.370921291410923004e-03 -8.831039816141128540e-02
8.678824454545974731e-02 -4.277918860316276550e-02 -6.618764996528625488e-02
-8.451639860868453979e-02 2.852295991033315659e-03 5.271815657615661621e-01
3.121485747396945953e-02 -1.472891569137573242e-01 -1.783206313848495483e-01
-1.767922043800354004e-01 -5.440029501914978027e-02 -3.337669372558593750e-02
2.164594978094100952e-01 -1.223943978548049927e-01 2.838314175605773926e-01
-1.136224642395973206e-01 -3.091523889452219009e-03 -5.179713368415832520e-01
7.241363525390625000e-01 8.606578409671783447e-02 -4.299875721335411072e-02
1.142684221267700195e-01 -5.002905428409576416e-02 -2.605479061603546143e-01
6.298881769180297852e-01 4.331292212009429932e-02 -8.082064241170883179e-02
-4.380804300308227539e-01 -5.698571726679801941e-02 2.560839802026748657e-02
6.223450899124145508e-01 -2.697342447936534882e-02 7.803662121295928955e-02
1.450803428888320923e-01 -7.031267881393432617e-02 2.672785893082618713e-02
8.920026421546936035e-01 1.895124837756156921e-02 -4.134621098637580872e-02
8.169735223054885864e-02 -4.595100879669189453e-02 1.868112087249755859e-01
6.289019584655761719e-01 -7.359111309051513672e-02 9.216244332492351532e-03
9.143652915954589844e-01 3.523678705096244812e-02 -7.762292865663766861e-03
-9.661727398633956909e-02 -1.625564182177186012e-03 4.776585996150970459e-01
2.686211764812469482e-01 -2.652030996978282928e-02 -7.714240252971649170e-02
-2.232766151428222656e-01 2.644099853932857513e-02 7.963060140609741211e-01
2.988371066749095917e-03 -2.580066025257110596e-02 -1.999102830886840820e-01
6.618728637695312500e-01 -6.314276903867721558e-02 4.399958997964859009e-02
-8.349304795265197754e-01 6.930047273635864258e-02 4.269354790449142456e-02
-5.153234601020812988e-01 9.821996092796325684e-02 1.990445889532566071e-02
6.487324833869934082e-01 9.936607629060745239e-02 8.150088600814342499e-03
-1.478727161884307861e-01 -5.205475166440010071e-02 8.219463378190994263e-02
1.475591510534286499e-01 -9.840589761734008789e-02 2.675725221633911133e-01
-8.085163831710815430e-01 4.107398912310600281e-02 1.129524875432252884e-02
3.806490823626518250e-02 -1.366808861494064331e-01 1.409664899110794067e-01
1.408423632383346558e-01 1.186131220310926437e-02 8.797852694988250732e-02
2.013467252254486084e-01 -3.278106451034545898e-03 -1.607023924589157104e-01
-8.132075071334838867e-01 6.151753664016723633e-02 -6.178975850343704224e-02
1.602197587490081787e-01 -2.569403871893882751e-02 -2.500995993614196777e-01
7.319475710391998291e-02 -1.066152900457382202e-01 1.432054191827774048e-01
4.422446787357330322e-01 4.307303205132484436e-02 8.200805634260177612e-02
3.043107688426971436e-01 -8.118746429681777954e-02 -2.287505567073822021e-02
-2.120819836854934692e-01 4.669796675443649292e-02 8.054208755493164062e-02
-5.261167138814926147e-02 -1.225758809596300125e-03 5.071111917495727539e-01
2.247755080461502075e-01 -1.801771484315395355e-02 -1.946594715118408203e-01
3.093750178813934326e-01 -7.287145406007766724e-02 -1.359949726611375809e-02
-2.942026555538177490e-01 -2.342845685780048370e-02 -7.850176095962524414e-02
-5.206542611122131348e-01 7.961554080247879028e-02 -5.400681868195533752e-02
-8.778699040412902832e-01 7.076644152402877808e-02 1.149522811174392700e-01
7.399437576532363892e-02 -1.668501645326614380e-02 9.410893172025680542e-02
-8.465781211853027344e-01 7.620383799076080322e-02 -1.789336800575256348e-01
3.376014530658721924e-01 -3.480967134237289429e-02 -8.247318863868713379e-02
