7.515513896942138672e-01 4.226350039243698120e-02 -3.167596086859703064e-02
-2.060130536556243896e-01 -6.714665330946445465e-03 9.037524461746215820e-02
-4.846136569976806641e-01 1.641608625650405884e-01 -3.888976760208606720e-03
-2.042823731899261475e-01 -2.590595744550228119e-02 -1.176713928580284119e-01
-4.241361021995544434e-01 1.447580456733703613e-01 4.072138573974370956e-03
-9.173065423965454102e-02 -3.513623401522636414e-02 1.932928413152694702e-01
-1.828989088535308838e-01 -3.875142335891723633e-02 -1.946096122264862061e-01
5.451156198978424072e-02 -2.740587294101715088e-02 1.422544475644826889e-02
-1.820527911186218262e-01 -6.849273573607206345e-03 1.997348070144653320e-01
1.904274076223373413e-01 3.799449279904365540e-02 4.007022827863693237e-02
-4.237899482250213623e-01 1.828137189149856567e-01 -1.007166938506998122e-04
1.708515286445617676e-01 6.645452231168746948e-02 -1.258082315325737000e-02
3.886092007160186768e-01 8.457603864371776581e-03 -4.673285037279129028e-02
6.253273487091064453e-01 4.964772239327430725e-02 3.403208404779434204e-02
5.460815429687500000e-01 -2.861735224723815918e-02 -7.734926883131265640e-03
-3.089691400527954102e-01 -2.559827826917171478e-02 1.549102663993835449e-01
-1.004270557314157486e-02 -5.876959487795829773e-02 -1.096910461783409119e-01
-3.235644996166229248e-01 -6.714665330946445465e-03 -4.496371746063232422e-02
-2.200123220682144165e-01 -5.330834537744522095e-02 1.676788330078125000e-01
-2.265312075614929199e-01 -1.536805462092161179e-02 3.018447756767272949e-01
-4.513269066810607910e-01 8.087683469057083130e-02 8.341141976416110992e-03
-5.156120061874389648e-01 1.370661407709121704e-01 4.072138573974370956e-03
-4.903825521469116211e-01 1.110290735960006714e-01 4.687490407377481461e-03
-2.940705418586730957e-02 -1.629108190536499023e-02 -1.197481974959373474e-01
-1.761921308934688568e-02 -7.714612409472465515e-03 -2.337037026882171631e-01
-5.019441619515419006e-02 1.832246407866477966e-02 -4.161773994565010071e-02
9.155427217483520508e-01 -1.554112136363983154e-02 5.706667434424161911e-03
-5.463988184928894043e-01 1.360469758510589600e-01 3.129880875349044800e-03
1.135084256529808044e-01 -1.179132144898176193e-02 1.286039650440216064e-01
-3.357991576194763184e-02 -2.229076251387596130e-02 -2.004196308553218842e-02
2.063496410846710205e-01 -2.273304574191570282e-02 1.139867119491100311e-02
6.454949080944061279e-02 -2.503351541236042976e-03 -9.999924898147583008e-02
3.750522136688232422e-01 8.784509263932704926e-03 -4.329072684049606323e-02
1.302190870046615601e-01 3.015584079548716545e-03 5.174268037080764771e-02
8.049331903457641602e-01 4.495566338300704956e-02 -2.058039791882038116e-02
2.942103743553161621e-01 1.131070544943213463e-03 3.745497763156890869e-02
5.076797604560852051e-01 -2.638669498264789581e-02 1.547537837177515030e-02
-3.223722279071807861e-01 -5.060906987637281418e-03 2.749397233128547668e-02
8.835591375827789307e-02 -6.753126624971628189e-03 1.788513064384460449e-01
-2.572987973690032959e-01 6.416618078947067261e-02 1.889827474951744080e-02
3.422654867172241211e-01 -1.090675126761198044e-02 -7.832732796669006348e-02
7.056500315666198730e-01 5.160915479063987732e-02 2.941694669425487518e-02
-2.969120740890502930e-01 5.762806534767150879e-02 2.857083640992641449e-02
1.255270093679428101e-01 -5.611493252217769623e-04 -7.896190881729125977e-02
1.669863462448120117e-01 -2.190616913139820099e-02 2.066740952432155609e-02
-2.731056213378906250e-01 -9.329913184046745300e-03 1.921967566013336182e-01
-1.230367049574851990e-01 -5.042388290166854858e-02 1.185660585761070251e-01
-9.248062968254089355e-02 -5.253207404166460037e-03 1.441223770380020142e-01
1.532133296132087708e-02 -6.572960992343723774e-04 -6.227049231529235840e-02
4.871232211589813232e-01 -2.294457331299781799e-02 -1.998427510261535645e-02
-1.423433721065521240e-01 1.059210672974586487e-02 4.045481979846954346e-02
-5.504947900772094727e-01 1.717758625745773315e-01 2.783745527267456055e-03
2.980563342571258545e-01 -1.157979294657707214e-02 -3.088754042983055115e-02
-1.980134695768356323e-01 -2.230999246239662170e-02 -3.079881966114044189e-01
9.545983672142028809e-01 9.380631148815155029e-03 5.206693429499864578e-03
6.960928440093994141e-01 3.670610487461090088e-02 -3.867558762431144714e-02
-2.896240055561065674e-01 3.791757673025131226e-02 3.966640308499336243e-02
-1.431510001420974731e-01 -6.099315825849771500e-03 -1.294400095939636230e-01
-2.718364894390106201e-01 -1.723333634436130524e-02 -3.119879961013793945e-01
2.252140194177627563e-01 -1.809867657721042633e-02 7.504913210868835449e-02
-1.204259321093559265e-02 -3.349459730088710785e-03 8.924069255590438843e-02
-3.911378383636474609e-01 5.057074874639511108e-02 -3.077216446399688721e-02
-1.054799407720565796e-01 -2.219461277127265930e-02 1.168546080589294434e-01
1.135084256529808044e-01 -1.179132144898176193e-02 1.286039650440216064e-01
-5.477109178900718689e-02 -4.599392879754304886e-03 1.387188285589218140e-01
4.436254799365997314e-01 5.230142921209335327e-02 -3.269513696432113647e-02
-7.880828529596328735e-02 -1.994473114609718323e-02 -5.842453613877296448e-02
-3.155456781387329102e-01 -3.748226165771484375e-02 -1.910521239042282104e-01
-5.186311006546020508e-01 2.095430791378021240e-01 2.918353769928216934e-03
-2.718364894390106201e-01 -1.723333634436130524e-02 -3.119879961013793945e-01
3.395496308803558350e-02 -1.332969870418310165e-02 1.143932044506072998e-01
-1.648229211568832397e-01 -1.440656557679176331e-02 -1.171906441450119019e-01
5.791522935032844543e-02 -1.279126852750778198e-02 -1.233057156205177307e-01
-9.173065423965454102e-02 -3.513623401522636414e-02 1.932928413152694702e-01
2.194258719682693481e-01 -4.484015516936779022e-03 -3.550267964601516724e-02
-2.023447304964065552e-02 -1.184971779584884644e-01 -9.340345114469528198e-02
-2.447610050439834595e-01 -1.921400055289268494e-02 2.818842828273773193e-01
-2.313001751899719238e-01 -7.637693081051111221e-03 1.697940975427627563e-01
7.637045979499816895e-01 5.455130711197853088e-02 -1.681136712431907654e-02
-2.989311814308166504e-01 -1.473347097635269165e-02 -2.283001393079757690e-01
-7.352010160684585571e-02 -4.887840710580348969e-03 1.212582141160964966e-01
1.022974848747253418e-01 -1.486807875335216522e-02 9.741333127021789551e-02
2.808456718921661377e-01 4.611653741449117661e-03 5.795389041304588318e-02
-2.846819460391998291e-01 -9.099153801798820496e-03 -2.103395462036132812e-01
-5.065547823905944824e-01 1.916401833295822144e-01 3.226029453799128532e-03
9.499639868736267090e-01 8.669131435453891754e-03 -8.215670473873615265e-03
-4.527159035205841064e-02 -1.166511252522468567e-01 1.101241931319236755e-01
-3.023348450660705566e-01 -1.625262014567852020e-02 1.851394325494766235e-01
-2.064553350210189819e-01 -7.156951818615198135e-03 -1.266132444143295288e-01
-1.425741314888000488e-01 -2.157215261831879616e-03 -5.113646760582923889e-02
-9.949947893619537354e-02 -1.423349883407354355e-02 -1.926289498805999756e-01
-2.129549831151962280e-01 -1.723333634436130524e-02 -2.446480467915534973e-02
-9.230756014585494995e-02 -5.403907224535942078e-02 -1.300553530454635620e-01
-1.311901062726974487e-01 -5.887787789106369019e-03 -1.268247514963150024e-01
-2.752209007740020752e-01 -1.852173171937465668e-02 6.745338439941406250e-02
-1.335021480917930603e-02 -3.327094390988349915e-02 -1.532464325428009033e-01
-4.092330336570739746e-01 1.405851989984512329e-01 -4.312030971050262451e-03
-3.719080686569213867e-01 -7.637693081051111221e-03 -1.113859191536903381e-02
-1.198830157518386841e-01 -5.676259752362966537e-03 -1.159214824438095093e-01
2.513857185840606689e-01 -1.952167972922325134e-02 -3.140674531459808350e-02
-4.748641550540924072e-01 6.864671409130096436e-02 5.437450483441352844e-03
1.116771250963211060e-02 4.457106813788414001e-02 3.803187236189842224e-02
-4.994397461414337158e-01 3.759066760540008545e-02 2.780164591968059540e-02
1.340650320053100586e-01 -1.368795870803296566e-03 -1.359204202890396118e-01
2.414439171552658081e-01 4.560947418212890625e-02 3.716653585433959961e-02
-1.553426831960678101e-01 -5.396215617656707764e-02 1.640636175870895386e-01
3.916622325778007507e-02 -1.336815953254699707e-02 1.446800529956817627e-01
4.946035444736480713e-01 -1.248237714171409607e-01 3.975989762693643570e-03
5.797144770622253418e-01 5.828187614679336548e-02 -2.675314620137214661e-02
-3.714273571968078613e-01 9.810668230056762695e-02 4.918247461318969727e-03
6.454949080944061279e-02 -2.503351541236042976e-03 -9.999924898147583008e-02
-2.389343827962875366e-01 6.237781792879104614e-02 2.166735753417015076e-02
-1.047299653291702271e-01 -8.022290654480457306e-03 2.512897849082946777e-01
-2.053207904100418091e-01 -1.457963138818740845e-02 -2.201082557439804077e-01
-7.890442013740539551e-02 -5.003218073397874832e-03 1.421994119882583618e-01
-3.095844984054565430e-01 -1.202207617461681366e-02 2.585201561450958252e-01
4.956507589668035507e-03 -2.755971252918243408e-02 -1.313848607242107391e-02
-5.077130347490310669e-02 -2.609825134277343750e-02 1.504489779472351074e-01
-2.398426458239555359e-02 -1.389768570661544800e-01 -1.015760898590087891e-01
7.573780417442321777e-01 5.910875648260116577e-02 -4.638936836272478104e-03
-3.763116896152496338e-01 1.063177883625030518e-01 4.764409735798835754e-03
-5.178810954093933105e-01 2.185618281364440918e-01 -2.331367228180170059e-03
2.481166571378707886e-01 -2.657190663740038872e-03 -1.139600500464439392e-01
-2.035324275493621826e-01 -1.617570035159587860e-02 -8.430778235197067261e-02
1.660056263208389282e-01 -9.137615561485290527e-03 1.507566422224044800e-01
-2.928161323070526123e-01 -8.599182590842247009e-03 -9.988387674093246460e-02
-6.075154244899749756e-02 -1.627185195684432983e-02 1.768514066934585571e-01
8.325855731964111328e-01 1.063056476414203644e-02 -2.961837686598300934e-02
-4.680998250842094421e-02 -2.534828893840312958e-02 1.165853887796401978e-01
-1.533087529242038727e-02 -1.461809314787387848e-02 -2.067051231861114502e-01
9.155427217483520508e-01 -1.554112136363983154e-02 5.706667434424161911e-03
-4.743641912937164307e-01 8.149218559265136719e-02 7.206587120890617371e-03
-1.894754767417907715e-01 -8.079979568719863892e-03 -2.227042764425277710e-01
-3.596440702676773071e-02 -1.276120841503143311e-01 -1.026337295770645142e-01
-1.066721752285957336e-01 -5.401984602212905884e-02 -1.857639402151107788e-01
8.083369135856628418e-01 -1.346430648118257523e-02 2.189811505377292633e-02
-4.367553070187568665e-02 -4.657793417572975159e-02 -1.157676428556442261e-01
2.049266397953033447e-01 9.266525012208148837e-05 -9.526873379945755005e-02
4.010123908519744873e-01 3.828294202685356140e-02 -4.011781886219978333e-02
-2.752209007740020752e-01 -1.852173171937465668e-02 6.745338439941406250e-02
3.063828051090240479e-01 6.801213324069976807e-02 3.860611235722899437e-03
-1.907638758420944214e-01 -5.392369627952575684e-02 1.650251150131225586e-01
-1.115949973464012146e-01 -1.892555691301822662e-02 3.119403719902038574e-01
1.034082751721143723e-02 6.541611999273300171e-02 -1.706135272979736328e-02
2.169260084629058838e-01 6.531996279954910278e-02 -1.683059521019458771e-02
-1.732071042060852051e-01 -8.060748688876628876e-03 -2.280886024236679077e-01
-2.937583923339843750e-01 -4.036672413349151611e-02 1.587754487991333008e-01
1.664671599864959717e-01 8.169157430529594421e-03 -3.994475305080413818e-02
3.987624943256378174e-01 -2.830967307090759277e-02 8.129614405333995819e-03
-5.498601794242858887e-01 4.399417713284492493e-02 -2.200339920818805695e-02
2.580584287643432617e-01 -2.277150750160217285e-02 1.970592327415943146e-02
7.087652087211608887e-01 6.222397834062576294e-02 1.130252331495285034e-02
-2.805860042572021484e-01 -1.294510439038276672e-02 -2.715670466423034668e-01
-4.283473789691925049e-01 1.615071594715118408e-01 3.764462890103459358e-03
-3.586011230945587158e-01 3.909059241414070129e-02 3.728191182017326355e-02
-3.031232953071594238e-01 -3.952061757445335388e-02 1.908698976039886475e-01
8.453348875045776367e-01 3.512926399707794189e-02 1.712913624942302704e-02
-2.498953193426132202e-01 -2.923270128667354584e-02 1.940428167581558228e-01
2.153876125812530518e-01 -1.082983147352933884e-02 1.298731416463851929e-01
1.581214368343353271e-01 -1.109904889017343521e-02 -1.351127773523330688e-01
-8.254331536591053009e-03 -1.852173171937465668e-02 6.985710561275482178e-02
-1.156717091798782349e-01 -3.063647449016571045e-02 1.175853386521339417e-01
1.407140772789716721e-02 -3.426379291340708733e-03 1.425839960575103760e-01
-4.994397461414337158e-01 3.759066760540008545e-02 2.780164591968059540e-02
7.472439408302307129e-01 -1.144518516957759857e-02 -2.761848457157611847e-02
3.776244819164276123e-02 -2.513676136732101440e-02 -2.715697139501571655e-02
-3.082960844039916992e-01 -4.214798565953969955e-03 3.474358469247817993e-02
-4.240976274013519287e-01 -1.484177075326442719e-03 5.398991052061319351e-03
3.082288801670074463e-01 -4.387868568301200867e-03 3.545508533716201782e-02
-3.207954168319702148e-01 -4.321273043751716614e-02 1.481606364250183105e-01
-2.138824760913848877e-02 -4.875089600682258606e-02 -1.885137856006622314e-01
-2.969120740890502930e-01 5.762806534767150879e-02 2.857083640992641449e-02
-1.529389321804046631e-01 -1.409889012575149536e-02 -3.018539249897003174e-01
3.029073122888803482e-04 -1.212278157472610474e-01 9.160595387220382690e-02
-4.312895238399505615e-01 4.903236776590347290e-02 -2.992605417966842651e-02
1.513333320617675781e-01 -1.041890354827046394e-03 1.038552969694137573e-01
-8.944233506917953491e-02 -5.311604589223861694e-02 -1.922251284122467041e-01
-5.580950528383255005e-02 2.155306190252304077e-02 -4.196387529373168945e-02
-4.044063389301300049e-01 1.088753491640090942e-01 4.725949838757514954e-03
1.811009794473648071e-01 -2.923270128667354584e-02 3.341408213600516319e-03
-2.905085682868957520e-01 -1.344507932662963867e-02 1.129894256591796875e-01
9.591365456581115723e-01 5.688520614057779312e-03 -8.369509130716323853e-03
-5.407882854342460632e-02 -1.627185195684432983e-02 -1.822833567857742310e-01
3.016330599784851074e-01 2.304084133356809616e-03 -8.198098093271255493e-02
-8.173120766878128052e-02 -5.403907224535942078e-02 -1.420547217130661011e-01
1.667555868625640869e-01 -1.765514607541263103e-04 8.627930283546447754e-02
2.672117948532104492e-01 -1.390659343451261520e-02 -9.390342235565185547e-02
4.306454360485076904e-01 3.674456104636192322e-02 -4.042549803853034973e-02
4.845418781042098999e-02 -1.307971216738224030e-02 1.435454934835433960e-01
4.178146645426750183e-02 -2.926407381892204285e-03 1.226619854569435120e-01
-2.398426458239555359e-02 -1.389768570661544800e-01 -1.015760898590087891e-01
-1.841488182544708252e-01 -5.394292995333671570e-02 1.577370464801788330e-01
-7.169327139854431152e-02 -1.723333634436130524e-02 -2.841240763664245605e-01
-1.912061572074890137e-01 -3.429012373089790344e-02 -1.180367544293403625e-01
4.178146645426750183e-02 -2.926407381892204285e-03 1.226619854569435120e-01
-2.774323225021362305e-01 -1.936784014105796814e-02 1.173738092184066772e-01
-1.781491637229919434e-01 -2.217538468539714813e-02 4.237779602408409119e-02
-1.014609113335609436e-01 -3.986674919724464417e-02 1.568524837493896484e-01
-1.721302419900894165e-01 -1.346430648118257523e-02 1.058359593152999878e-01
-3.698357567191123962e-02 -1.752178557217121124e-02 7.720287144184112549e-02
3.120510466396808624e-02 -1.569496095180511475e-02 9.097136557102203369e-02
-1.711924932897090912e-02 -4.761634021997451782e-02 1.516796648502349854e-01
-1.004994362592697144e-01 -4.690483957529067993e-02 1.574101299047470093e-01
-2.331654429435729980e-01 -2.675206214189529419e-02 3.399004340171813965e-01
4.940459132194519043e-01 -4.157110117375850677e-03 3.720499202609062195e-02
-4.549421370029449463e-01 8.472277969121932983e-02 -5.311978049576282501e-03
-2.826628088951110840e-01 -8.541493676602840424e-03 1.984656453132629395e-01
-1.653229147195816040e-01 -8.329965174198150635e-03 2.364059388637542725e-01
-2.895855307579040527e-01 -8.060748688876628876e-03 7.145317643880844116e-02
-5.309811234474182129e-02 -5.405830591917037964e-02 1.381611526012420654e-01
-2.480108290910720825e-01 5.943566560745239258e-02 2.603251114487648010e-02
1.173159182071685791e-01 -1.721411012113094330e-02 -2.677237614989280701e-02
-2.812590599060058594e-01 3.828294202685356140e-02 3.962793946266174316e-02
6.441488116979598999e-02 -1.281049568206071854e-02 1.621406674385070801e-01
6.933769583702087402e-02 -2.604056149721145630e-02 -2.223415486514568329e-02
6.597248464822769165e-02 9.938294067978858948e-03 4.032021388411521912e-02
-9.878798574209213257e-02 -1.931015215814113617e-02 -2.732208073139190674e-01
-5.505332350730895996e-01 1.562959104776382446e-01 2.879894105717539787e-03
-3.162956535816192627e-01 6.114711239933967590e-02 -2.340716868638992310e-02
-5.052132159471511841e-02 -4.484015516936779022e-03 -1.045182496309280396e-01
8.443304896354675293e-02 -9.457436390221118927e-04 -7.171230018138885498e-02
4.583170115947723389e-01 6.111576221883296967e-03 -3.934862837195396423e-02
-1.964558660984039307e-01 -1.398350950330495834e-02 -2.066089808940887451e-01
-1.831149309873580933e-02 -2.657190663740038872e-03 -7.063543051481246948e-02
-3.456787168979644775e-01 6.005101650953292847e-02 2.395569719374179840e-02
-2.166086435317993164e-01 -2.004088275134563446e-02 2.879416644573211670e-01
1.418146044015884399e-01 4.807088524103164673e-02 -3.575266525149345398e-02
-2.312336815521121025e-03 -2.902117371559143066e-02 4.668260458856821060e-03
-1.713802665472030640e-01 -1.694489270448684692e-02 2.553087770938873291e-01
-1.853603124618530273e-01 -1.873325929045677185e-02 -2.737208008766174316e-01
-5.666477680206298828e-01 7.708857208490371704e-02 2.841434907168149948e-03
1.745051890611648560e-01 -1.090675126761198044e-02 1.367189288139343262e-01
2.359057664871215820e-01 -1.356045715510845184e-02 1.085473597049713135e-01
-5.996312573552131653e-02 -1.921400055289268494e-02 6.404972076416015625e-02
2.861338555812835693e-01 5.210912972688674927e-02 -3.294512629508972168e-02
3.029073122888803482e-04 -1.212278157472610474e-01 9.160595387220382690e-02
-4.579419791698455811e-01 3.630937077105045319e-03 6.995060481131076813e-03
-1.734378635883331299e-01 -2.086775936186313629e-02 3.369967639446258545e-01
-5.680130124092102051e-01 5.257064476609230042e-02 -1.794592291116714478e-02
-3.161418139934539795e-01 -4.909702762961387634e-02 1.382957696914672852e-01
5.027569532394409180e-01 -1.013634726405143738e-01 1.303054857999086380e-03
2.976909279823303223e-01 4.026360437273979187e-02 -3.975245356559753418e-02
-5.670130848884582520e-01 9.179932624101638794e-02 -6.199199124239385128e-04
4.896230399608612061e-01 3.143715113401412964e-02 4.130093008279800415e-02
-1.982827037572860718e-01 -2.400220558047294617e-02 3.187835589051246643e-02
-1.075419783592224121e-02 -1.338617503643035889e-01 1.031437963247299194e-01
-3.479138761758804321e-02 -2.732895687222480774e-02 -1.421535201370716095e-02
6.626523137092590332e-01 5.668581277132034302e-02 -2.692621387541294098e-02
-2.198584675788879395e-01 -7.464626338332891464e-03 1.870623975992202759e-01
-2.796437740325927734e-01 -4.903933778405189514e-02 1.464684158563613892e-01
-5.705942958593368530e-02 -4.846244305372238159e-02 -1.927443295717239380e-01
-3.992142975330352783e-01 1.444119215011596680e-01 4.072138573974370956e-03
5.665420889854431152e-01 -2.905963547527790070e-02 -6.042708642780780792e-03
-2.233198285102844238e-01 7.255035638809204102e-02 -3.196705831214785576e-03
-4.477162659168243408e-02 -5.407753586769104004e-02 -1.656111627817153931e-01
1.287960708141326904e-01 -8.111352799460291862e-04 8.589471131563186646e-02
1.540831923484802246e-01 -1.792561076581478119e-02 -7.594284415245056152e-02
-4.561920464038848877e-01 1.465848684310913086e-01 -4.196652676910161972e-03
2.211950123310089111e-01 -1.227206271141767502e-02 -1.204789429903030396e-01
-4.513269066810607910e-01 8.087683469057083130e-02 8.341141976416110992e-03
-2.313001751899719238e-01 -7.637693081051111221e-03 1.697940975427627563e-01
5.612538456916809082e-01 1.384193263947963715e-02 -4.123314842581748962e-02
2.081957012414932251e-01 -4.676312673836946487e-03 1.325076073408126831e-01
-2.303579002618789673e-01 -1.579110696911811829e-02 2.472899705171585083e-01
-2.369729578495025635e-01 -8.291507139801979065e-03 2.100611776113510132e-01
4.420441761612892151e-02 -1.721411012113094330e-02 8.024116605520248413e-02
8.550844192504882812e-01 -7.406937889754772186e-03 -2.248414233326911926e-02
-1.189792156219482422e-01 -3.369399905204772949e-02 1.678903549909591675e-01
-4.509615600109100342e-01 6.397388130426406860e-02 -1.365768909454345703e-02
-1.601501107215881348e-01 -1.963705755770206451e-02 2.309035882353782654e-02
8.047601580619812012e-01 -1.677182316780090332e-02 1.876366697251796722e-02
-1.752262264490127563e-01 -1.071445457637310028e-02 2.675773501396179199e-01
-1.371128857135772705e-01 -8.791479282081127167e-03 2.559049129486083984e-01
7.235676795244216919e-02 -1.269511785358190536e-02 1.727747172117233276e-01
-8.896157890558242798e-02 6.310950848273932934e-04 3.666656091809272766e-02
-3.031232953071594238e-01 -4.825092479586601257e-02 -1.676302850246429443e-01
-1.614769697189331055e-01 -2.663668431341648102e-02 -1.725365035235881805e-02
3.627643883228302002e-01 3.893675282597541809e-02 -4.000244289636611938e-02
1.394301205873489380e-01 -4.791693761944770813e-03 1.553910076618194580e-01
-4.309049248695373535e-01 1.206439509987831116e-01 4.514422733336687088e-03
-1.298632472753524780e-01 -1.177209056913852692e-02 2.840572595596313477e-01
-2.906431555747985840e-01 -1.369506586343050003e-02 -1.603422015905380249e-01
-8.421182632446289062e-02 -2.575211785733699799e-02 -1.517849713563919067e-01
-5.563643202185630798e-02 -5.205841362476348877e-02 -1.655342280864715576e-01
-2.358576357364654541e-01 7.151194661855697632e-02 3.360637929290533066e-03
-1.548042297363281250e-01 -1.546420156955718994e-02 2.363097816705703735e-01
2.544816732406616211e-01 -1.931015215814113617e-02 3.145530074834823608e-02
-7.890442013740539551e-02 -5.003218073397874832e-03 1.421994119882583618e-01
-1.805721074342727661e-01 -7.964601740241050720e-03 -2.235119342803955078e-01
-3.629131242632865906e-02 -1.222085282206535339e-01 1.014708057045936584e-01
4.933920800685882568e-01 -1.293427497148513794e-01 -1.038863137364387512e-02
4.821888636797666550e-03 -1.328810304403305054e-01 -1.209212243556976318e-01
-1.073836684226989746e-01 -1.623339019715785980e-02 -1.753029376268386841e-01
2.802880406379699707e-01 -1.782945916056632996e-02 2.455182000994682312e-02
-2.715716883540153503e-02 -1.936784014105796814e-02 -6.340504437685012817e-02
-1.140800956636667252e-02 -5.659662932157516479e-02 9.608647972345352173e-02
-4.110021591186523438e-01 -1.734163030050694942e-03 1.297551114112138748e-02
-1.354591101408004761e-01 -2.863657847046852112e-02 5.956653505563735962e-03
-1.297863423824310303e-01 -3.582850843667984009e-02 1.179314702749252319e-01
5.863870978355407715e-01 -2.352146804332733154e-02 -1.940738223493099213e-02
-2.620100677013397217e-01 -5.136613920331001282e-02 -1.646881401538848877e-01
-1.652267575263977051e-01 -2.067546173930168152e-02 -5.205949395895004272e-02
-2.407996505498886108e-01 -7.733843289315700531e-03 1.043168082833290100e-01
5.376397371292114258e-01 5.693579837679862976e-02 -2.882995828986167908e-02
-2.207045853137969971e-01 -1.275280676782131195e-02 2.790767550468444824e-01
-2.755670547485351562e-01 -1.448348443955183029e-02 -2.216850966215133667e-01
8.596034049987792969e-01 1.793786883354187012e-02 -2.384945377707481384e-02
4.224343299865722656e-01 -8.022290654480457306e-03 4.926204681396484375e-02
-1.337668895721435547e-01 -4.810920916497707367e-03 7.487607002258300781e-02
-2.133056707680225372e-02 -4.080190323293209076e-03 1.857163310050964355e-01
8.917362689971923828e-01 2.487980946898460388e-02 1.492700102971866727e-04
-1.713802665472030640e-01 -1.694489270448684692e-02 2.553087770938873291e-01
2.207527309656143188e-01 -2.159848995506763458e-02 2.351341396570205688e-02
3.337467312812805176e-01 4.101356863975524902e-02 -3.959861770272254944e-02
3.039598464965820312e-01 5.399364605545997620e-02 -3.167596086859703064e-02
-5.813629925251007080e-02 4.823181312531232834e-03 3.855107724666595459e-02
-1.189984455704689026e-01 -3.846297785639762878e-02 -1.785912364721298218e-01
3.624374866485595703e-01 6.265412084758281708e-03 -5.655925348401069641e-02
2.554047405719757080e-01 -1.934861019253730774e-02 -2.704159170389175415e-02
4.814651608467102051e-02 -6.380653358064591885e-04 6.520351022481918335e-02
-6.144380569458007812e-02 -8.137668482959270477e-03 3.272446244955062866e-02
6.670367121696472168e-01 6.249319389462471008e-02 -1.800361089408397675e-02
1.731975674629211426e-01 -1.415657903999090195e-02 -1.064604446291923523e-01
-4.680998250842094421e-02 -2.534828893840312958e-02 1.165853887796401978e-01
2.580584287643432617e-01 -2.277150750160217285e-02 1.970592327415943146e-02
-1.552317570894956589e-02 -1.961782574653625488e-02 -6.159744411706924438e-02
7.637045979499816895e-01 5.455130711197853088e-02 -1.681136712431907654e-02
2.882491350173950195e-01 -1.692566275596618652e-02 4.512764886021614075e-02
-1.841488182544708252e-01 -5.394292995333671570e-02 -1.822448819875717163e-01
3.791096806526184082e-01 1.555337943136692047e-02 4.122401028871536255e-02
7.468594312667846680e-01 6.496170535683631897e-03 3.578199446201324463e-02
1.102201342582702637e-01 6.407003104686737061e-02 -1.888817921280860901e-02
-9.173065423965454102e-02 -2.252151817083358765e-02 1.951362565159797668e-02
7.367445230484008789e-01 5.837802961468696594e-02 1.560998708009719849e-02
-2.040323913097381592e-01 -2.171387150883674622e-02 3.027293384075164795e-01
-1.202336605638265610e-02 -1.759870350360870361e-02 2.593636140227317810e-02
4.306454360485076904e-01 3.674456104636192322e-02 -4.042549803853034973e-02
2.989749051630496979e-02 -1.208239868283271790e-01 9.970167279243469238e-02
-2.195892632007598877e-01 -2.213692292571067810e-02 3.075560033321380615e-01
-3.938729315996170044e-02 5.728193372488021851e-02 -2.931070327758789062e-02
-2.535297572612762451e-01 -7.945370860397815704e-03 -1.130177900195121765e-01
-6.071308627724647522e-02 5.455130711197853088e-02 3.141684085130691528e-02
-1.237866505980491638e-01 -5.400061979889869690e-02 1.640251725912094116e-01
-3.667545318603515625e-01 8.228059858083724976e-02 5.206693429499864578e-03
-2.586641013622283936e-01 -1.657952554523944855e-02 -3.080843687057495117e-01
4.513366222381591797e-01 5.705117434263229370e-02 2.864775620400905609e-02
-2.163009792566299438e-01 -2.294457331299781799e-02 3.517075181007385254e-01
-2.571834027767181396e-01 2.424522489309310913e-02 -4.181003943085670471e-02
1.410838812589645386e-01 -1.515652704983949661e-02 9.627877920866012573e-02
2.433861345052719116e-01 -1.992550492286682129e-02 3.618581593036651611e-02
-3.586011230945587158e-01 3.909059241414070129e-02 3.728191182017326355e-02
-3.598510324954986572e-01 5.183991417288780212e-02 -3.138751164078712463e-02
-4.312895238399505615e-01 4.903236776590347290e-02 -2.992605417966842651e-02
-8.896157890558242798e-02 6.310950848273932934e-04 3.666656091809272766e-02
6.385721266269683838e-02 -1.298356615006923676e-02 1.765052825212478638e-01
-2.862203419208526611e-01 -3.077107854187488556e-02 1.178737804293632507e-01
-2.243390083312988281e-01 -1.375275384634733200e-02 2.023308277130126953e-01
-2.972581982612609863e-01 -1.282972656190395355e-02 -1.349589377641677856e-01
4.606970027089118958e-02 -1.348353736102581024e-02 1.730439215898513794e-01
3.139785528182983398e-01 2.304084133356809616e-03 -8.357704430818557739e-02
5.899209529161453247e-02 -2.202154509723186493e-02 -4.496371746063232422e-02
-2.610870599746704102e-01 -5.150074511766433716e-02 -1.454391479492187500e-01
3.337467312812805176e-01 4.101356863975524902e-02 -3.959861770272254944e-02
7.738002538681030273e-01 8.496063761413097382e-03 3.458974882960319519e-02
-2.559911906719207764e-01 -2.171387150883674622e-02 -8.600265718996524811e-03
-3.031232953071594238e-01 -4.825092479586601257e-02 -1.676302850246429443e-01
-4.309049248695373535e-01 1.283550709486007690e-01 4.360584542155265808e-03
9.606941342353820801e-01 9.284482337534427643e-03 -1.100663561373949051e-03
-3.059500455856323242e-01 8.957576937973499298e-03 -3.825253620743751526e-02
9.774240851402282715e-01 5.592369940131902695e-03 6.300137029029428959e-04
2.714423239231109619e-01 6.233935430645942688e-02 2.103277482092380524e-02
-2.102288790047168732e-02 -1.267852038145065308e-01 1.032207161188125610e-01
-3.182763159275054932e-01 -4.590488970279693604e-02 -1.645919829607009888e-01
-5.090161561965942383e-01 1.870705932378768921e-02 1.789832673966884613e-02
5.756761431694030762e-01 4.416724294424057007e-02 -3.802177682518959045e-02
-7.121253013610839844e-02 -5.405830591917037964e-02 1.820049881935119629e-01
-2.085513919591903687e-01 -2.419450692832469940e-02 -1.602294668555259705e-02
1.471989452838897705e-01 -1.138040795922279358e-03 1.206044033169746399e-01
-4.477162659168243408e-02 -5.407753586769104004e-02 -1.656111627817153931e-01
-1.529389321804046631e-01 -1.409889012575149536e-02 -3.018539249897003174e-01
-3.316025733947753906e-01 -1.075291261076927185e-02 1.805216446518898010e-02
-2.721056938171386719e-01 8.406896889209747314e-02 3.091421443969011307e-03
2.514773979783058167e-02 1.015692949295043945e-03 -5.167489871382713318e-02
-2.657021880149841309e-01 -3.311001695692539215e-03 -4.004090279340744019e-02
-2.694520056247711182e-01 -1.834866218268871307e-02 4.460844770073890686e-02
-6.022228002548217773e-01 5.276294052600860596e-02 1.434082258492708206e-02
-2.650099098682403564e-01 -8.579951710999011993e-03 1.441608369350433350e-01
-3.114497661590576172e-01 -3.678999096155166626e-02 -1.205750927329063416e-01
-5.223039388656616211e-01 5.582047253847122192e-02 1.899442262947559357e-02
-1.055953055620193481e-01 -2.227153256535530090e-02 4.224318638443946838e-02
2.775766253471374512e-01 -1.675259694457054138e-02 -5.877067521214485168e-02
-4.256552457809448242e-01 1.372969150543212891e-01 4.206746816635131836e-03
-4.607924818992614746e-02 -4.464784637093544006e-03 1.540257036685943604e-01
4.953105375170707703e-02 4.845547676086425781e-02 -3.556036949157714844e-02
-2.414534687995910645e-01 -6.253151223063468933e-03 6.889561563730239868e-02
1.098163127899169922e-01 -5.522420629858970642e-03 -1.682841032743453979e-01
-2.554186992347240448e-02 5.422440171241760254e-02 3.160913661122322083e-02
-2.047438770532608032e-01 7.095428556203842163e-02 2.187623409554362297e-03
2.104455828666687012e-01 -2.188693732023239136e-02 -4.150236025452613831e-02
-3.192377984523773193e-01 -1.777177117764949799e-02 -1.625536233186721802e-01
1.116771250963211060e-02 4.457106813788414001e-02 3.803187236189842224e-02
8.007795810699462891e-01 3.419409040361642838e-03 -3.113752789795398712e-02
7.510662078857421875e-02 -2.221384271979331970e-02 -2.031118050217628479e-02
-5.002089738845825195e-01 1.548344343900680542e-01 -4.062044434249401093e-03
8.834674954414367676e-01 -1.459886226803064346e-02 -1.442687865346670151e-02
-4.519422948360443115e-01 8.476834744215011597e-03 1.935978792607784271e-02
-2.274542152881622314e-01 -2.421373315155506134e-02 -8.215670473873615265e-03
-2.334923744201660156e-01 -7.599235046654939651e-03 -1.094026044011116028e-01
-4.607924818992614746e-02 -4.464784637093544006e-03 1.540257036685943604e-01
-1.423048824071884155e-01 -1.475270185619592667e-02 -3.094496726989746094e-01
4.077812433242797852e-01 -7.676154375076293945e-03 6.949174404144287109e-02
-4.046415910124778748e-02 -2.627131715416908264e-02 1.141239851713180542e-01
-1.230367049574851990e-01 -5.042388290166854858e-02 1.185660585761070251e-01
-2.562603950500488281e-01 -1.107981801033020020e-02 -2.584139108657836914e-01
-1.000379249453544617e-01 -5.387816112488508224e-03 1.558909863233566284e-01
-1.847449541091918945e-01 4.412878304719924927e-02 -3.863713145256042480e-02
-2.219545245170593262e-01 -7.176178973168134689e-03 9.512498974800109863e-02
-2.243197858333587646e-01 -5.311604589223861694e-02 -1.833986788988113403e-01
1.847501099109649658e-02 -8.040468674153089523e-05 5.914613604545593262e-02
-3.077768683433532715e-01 -2.869426831603050232e-02 -1.924366503953933716e-01
4.478752613067626953e-01 4.438586998730897903e-03 5.068504437804222107e-02
2.361173033714294434e-01 -2.063700370490550995e-02 2.282114140689373016e-02
-8.730782568454742432e-02 -5.157057195901870728e-03 -1.371511369943618774e-01
-3.577357530593872070e-01 9.779900312423706055e-02 4.918247461318969727e-03
-9.755727648735046387e-02 -3.044417314231395721e-02 1.559102088212966919e-01
-2.334923744201660156e-01 -7.599235046654939651e-03 -1.094026044011116028e-01
2.876292727887630463e-02 -2.599501982331275940e-03 8.787538111209869385e-02
-2.219545245170593262e-01 -7.176178973168134689e-03 9.512498974800109863e-02
3.097435086965560913e-02 -2.964865416288375854e-03 -3.613726422190666199e-02
-5.174772739410400391e-01 9.433765709400177002e-02 4.456733353435993195e-03
-1.491506844758987427e-01 -6.233924068510532379e-03 -1.635343432426452637e-01
5.665420889854431152e-01 -2.905963547527790070e-02 -6.042708642780780792e-03
-1.920714974403381348e-01 -1.419503707438707352e-02 -2.113779634237289429e-01
-2.282041758298873901e-01 -2.473293989896774292e-02 -2.159957401454448700e-02
-1.439586579799652100e-01 -1.184901036322116852e-02 -2.828741669654846191e-01
-2.458186447620391846e-01 -2.523291297256946564e-02 -3.301024138927459717e-01
1.543908566236495972e-01 5.573142785578966141e-03 -3.906018286943435669e-02
6.770554184913635254e-01 -2.330285264179110527e-03 -3.590650483965873718e-02
-2.053592354059219360e-01 -5.390446633100509644e-02 -1.838986575603485107e-01
3.173245191574096680e-01 -1.511806529015302658e-02 -4.448297247290611267e-02
9.681745171546936035e-01 -5.445504561066627502e-03 -8.369509130716323853e-03
8.514454960823059082e-02 -1.906016469001770020e-02 2.418645471334457397e-02
-5.225154757499694824e-01 1.274705082178115845e-01 -4.081274382770061493e-03
-2.052246183156967163e-01 -1.894478499889373779e-02 -2.770860195159912109e-01
-4.734841734170913696e-02 -1.022663200274109840e-03 5.668472498655319214e-02
3.937242925167083740e-01 6.606993079185485840e-02 -1.323463395237922668e-02
3.961665034294128418e-01 4.457817878574132919e-03 3.860876709222793579e-02
-2.480108290910720825e-01 5.943566560745239258e-02 2.603251114487648010e-02
-2.752016782760620117e-01 -8.156899362802505493e-03 8.785614371299743652e-02
-2.657021880149841309e-01 -3.311001695692539215e-03 -4.004090279340744019e-02
-1.263249814510345459e-01 -2.755971252918243408e-02 8.764196187257766724e-03
-8.421182632446289062e-02 -2.575211785733699799e-02 -1.517849713563919067e-01
1.860622614622116089e-01 -1.464946311898529530e-03 -1.311706900596618652e-01
-2.253197133541107178e-01 -1.194515638053417206e-02 -2.710863053798675537e-01
-2.437994927167892456e-01 -1.992550492286682129e-02 -3.320253789424896240e-01
-2.101089954376220703e-01 4.182121530175209045e-02 3.932026401162147522e-02
-2.847588658332824707e-01 -1.384890452027320862e-02 2.084074318408966064e-01
1.651787608861923218e-01 -4.457681789062917233e-04 9.197130799293518066e-02
-1.992249637842178345e-01 -5.392369627952575684e-02 1.305269449949264526e-01
1.519679278135299683e-01 2.592531731352210045e-03 5.697317421436309814e-02
-1.835911720991134644e-01 -6.791584659367799759e-03 -1.424393057823181152e-01
-5.905931815505027771e-02 -1.490654051303863525e-02 -2.195121347904205322e-01
7.041693329811096191e-01 5.522435158491134644e-02 -2.548398077487945557e-02
-2.483569532632827759e-01 4.057127982378005981e-02 3.935872390866279602e-02
4.590092897415161133e-01 -2.277150750160217285e-02 -2.017657272517681122e-02
-4.917670786380767822e-01 6.333930790424346924e-02 -1.171548385173082352e-02
3.764263121411204338e-03 -1.282972656190395355e-02 -2.311076819896697998e-01
8.012026548385620117e-01 4.014822840690612793e-02 -2.596472576260566711e-02
-1.451893746852874756e-01 -1.777177117764949799e-02 2.615968883037567139e-01
-1.158063039183616638e-01 -5.676259752362966537e-03 1.773129254579544067e-01
1.619289368391036987e-01 -1.359891518950462341e-02 -2.948376908898353577e-02
-2.040323913097381592e-01 -2.171387150883674622e-02 3.027293384075164795e-01
-1.451316624879837036e-01 4.515506792813539505e-03 3.841646760702133179e-02
-3.159495294094085693e-01 -9.022237733006477356e-03 -1.137100607156753540e-01
-1.245943084359169006e-01 -8.214588277041912079e-03 -2.485875040292739868e-01
-4.241361021995544434e-01 1.447580456733703613e-01 4.072138573974370956e-03
-6.177521310746669769e-03 -1.734871789813041687e-02 7.874124497175216675e-02
-2.917629852890968323e-02 -1.113629564642906189e-01 -1.184405758976936340e-01
1.579868197441101074e-01 1.611815183423459530e-03 -6.317428499460220337e-02
-1.579771488904953003e-01 -5.226877401582896709e-04 3.672424703836441040e-02
-5.535907149314880371e-01 2.147614210844039917e-02 -7.850305177271366119e-03
-7.830830663442611694e-02 -5.403907224535942078e-02 -1.578038781881332397e-01
2.554047405719757080e-01 -1.934861019253730774e-02 -2.704159170389175415e-02
-1.408543321304023266e-03 -3.753284923732280731e-03 1.903699189424514771e-01
2.161568254232406616e-01 -2.800199575722217560e-02 8.571898564696311951e-03
-8.584635704755783081e-02 -5.203917622566223145e-02 1.625252515077590942e-01
-1.574194729328155518e-01 -6.099315825849771500e-03 -9.559564292430877686e-02
-6.109767407178878784e-02 -5.714721512049436569e-03 -2.191275358200073242e-01
2.130031287670135498e-01 2.187996730208396912e-02 -4.204079508781433105e-02
-2.783553600311279297e-01 -4.994314163923263550e-02 -1.734953522682189941e-01
-5.052471756935119629e-01 1.354508548974990845e-01 -4.408179782330989838e-03
7.042462229728698730e-01 -1.527190394699573517e-02 -2.711851149797439575e-02
-3.011041283607482910e-01 -1.132980734109878540e-02 2.508667111396789551e-01
-2.557411789894104004e-01 8.310748636722564697e-02 -3.004408441483974457e-03
-2.752016782760620117e-01 -8.156899362802505493e-03 8.785614371299743652e-02
-3.161610364913940430e-01 2.849500067532062531e-02 -4.156005382537841797e-02
-4.869449138641357422e-02 -4.123206064105033875e-02 -1.518042087554931641e-01
-2.796437740325927734e-01 -1.898324675858020782e-02 -2.818357646465301514e-01
1.032160036265850067e-02 -1.631030999124050140e-02 -1.832832992076873779e-01
1.384494006633758545e-01 -2.342402585782110691e-04 7.614523172378540039e-02
7.299179434776306152e-01 1.041903812438249588e-02 3.766650706529617310e-02
-2.588948607444763184e-01 -1.429118774831295013e-02 2.168877422809600830e-01
-3.429140895605087280e-02 -5.291665438562631607e-03 -2.197044342756271362e-01
-1.131333708763122559e-01 -2.423296868801116943e-02 3.107070550322532654e-02
8.299126029014587402e-01 -2.198308520019054413e-02 7.552722468972206116e-03
8.007795810699462891e-01 3.419409040361642838e-03 -3.113752789795398712e-02
-1.992441862821578979e-01 -5.392369627952575684e-02 -1.392664015293121338e-01
3.489721566438674927e-02 -1.369506586343050003e-02 -1.621882617473602295e-01
6.394420266151428223e-01 -1.369506586343050003e-02 2.934002690017223358e-02
-6.573204696178436279e-02 -7.656923495233058929e-03 2.566741108894348145e-01
8.224514722824096680e-01 1.503417734056711197e-02 3.093609586358070374e-02
4.605047404766082764e-02 -2.902117371559143066e-02 5.033625755459070206e-03
-6.171066164970397949e-01 5.897415056824684143e-02 7.187357638031244278e-03
-2.561642229557037354e-01 1.841861382126808167e-02 -4.115622863173484802e-02
-2.731056213378906250e-01 -9.329913184046745300e-03 1.921967566013336182e-01
-1.847449541091918945e-01 4.412878304719924927e-02 -3.863713145256042480e-02
-3.058539032936096191e-01 -8.849168196320533752e-03 -1.145561710000038147e-01
-1.033838912844657898e-01 -5.401984602212905884e-02 1.756207048892974854e-01
-1.469630561769008636e-02 -3.945582080632448196e-03 1.687172204256057739e-01
9.904765337705612183e-02 5.958949774503707886e-02 2.543638832867145538e-02
-4.899210333824157715e-01 8.076144754886627197e-02 -7.158034015446901321e-03
1.568138152360916138e-01 -2.677129581570625305e-02 -1.346539147198200226e-02
5.245397612452507019e-02 -1.590648479759693146e-02 -9.013438969850540161e-02
1.410838812589645386e-01 -1.515652704983949661e-02 9.627877920866012573e-02
-7.328934222459793091e-02 -1.150287408381700516e-02 3.049381263554096222e-02
-4.484853520989418030e-02 -2.746356278657913208e-02 1.908122152090072632e-01
-2.377036660909652710e-01 -1.879094913601875305e-02 6.578039377927780151e-02
-9.542726911604404449e-03 -4.007827863097190857e-02 -1.517849713563919067e-01
-2.479192242026329041e-02 -9.618360549211502075e-03 -2.421455532312393188e-01
8.260621875524520874e-02 -2.291823737323284149e-03 1.700440794229507446e-01
-9.861491620540618896e-02 -5.053926259279251099e-02 1.913314163684844971e-01
-1.408543321304023266e-03 -3.753284923732280731e-03 1.903699189424514771e-01
-2.376267611980438232e-01 -3.580218413844704628e-03 -4.786740615963935852e-02
-2.313001751899719238e-01 -7.637693081051111221e-03 1.697940975427627563e-01
-3.095844984054565430e-01 -1.202207617461681366e-02 2.585201561450958252e-01
4.441639184951782227e-01 -1.002218201756477356e-02 3.185912594199180603e-02
-3.011041283607482910e-01 -1.132980734109878540e-02 2.508667111396789551e-01
-2.717210948467254639e-01 -1.952167972922325134e-02 2.862109839916229248e-01
-1.354591101408004761e-01 -2.863657847046852112e-02 5.956653505563735962e-03
-2.839896976947784424e-01 -1.063753478229045868e-02 -1.418047398328781128e-01
3.131901025772094727e-01 -1.877171732485294342e-02 2.491718530654907227e-02
9.577859938144683838e-02 5.432055145502090454e-02 3.145530074834823608e-02
-2.610485851764678955e-01 -1.888709515333175659e-02 3.234397768974304199e-01
-8.157736063003540039e-02 -1.461809314787387848e-02 9.591341018676757812e-02
1.117969825863838196e-01 2.780272997915744781e-02 -4.227155074477195740e-02
9.789387136697769165e-02 -2.022607019171118736e-03 -1.560924351215362549e-01
7.809537649154663086e-01 -2.515599690377712250e-02 -5.254288669675588608e-03
-3.636777102947235107e-01 1.441882550716400146e-02 3.603198006749153137e-02
7.673198580741882324e-01 5.687810480594635010e-02 -8.369509130716323853e-03
6.906847655773162842e-02 -2.522582421079277992e-03 1.744669228792190552e-01
-1.073836684226989746e-01 -1.623339019715785980e-02 -1.753029376268386841e-01
4.400680065155029297e-01 8.457603864371776581e-03 -4.717513918876647949e-02
1.785242110490798950e-01 -5.803765379823744297e-04 -1.081718951463699341e-01
7.748386859893798828e-01 -8.560724556446075439e-03 -2.777232229709625244e-02
-1.468431055545806885e-01 -2.444449625909328461e-02 2.962847240269184113e-02
7.794538140296936035e-01 2.687970176339149475e-02 -3.444504365324974060e-02
-9.248062968254089355e-02 -5.253207404166460037e-03 1.441223770380020142e-01
-1.936913281679153442e-02 -1.222469881176948547e-01 -1.106525361537933350e-01
5.272172689437866211e-01 2.611051127314567566e-02 -4.252154007554054260e-02
-4.427504837512969971e-01 1.170095354318618774e-01 4.572112113237380981e-03
-5.621331930160522461e-02 -1.688720472157001495e-02 -2.464914768934249878e-01
-1.325169503688812256e-01 -5.983934737741947174e-03 1.835818141698837280e-01
-1.507659703493118286e-01 -2.127158455550670624e-02 -2.956811785697937012e-01
2.536740601062774658e-01 4.526333883404731750e-02 -3.754103183746337891e-02
2.176182717084884644e-01 7.343446486629545689e-05 1.101049706339836121e-01
2.682886421680450439e-01 -2.080299193039536476e-03 3.635888546705245972e-02
2.725850557908415794e-03 -1.684874296188354492e-02 -8.269248157739639282e-02
-5.038433670997619629e-01 1.237591728568077087e-01 4.456733353435993195e-03
-4.129636287689208984e-01 8.126142621040344238e-02 5.225923378020524979e-03
-3.042386174201965332e-01 -6.022396031767129898e-03 4.745445027947425842e-02
7.573780417442321777e-01 5.910875648260116577e-02 -4.638936836272478104e-03
-1.165799144655466080e-02 -2.255997993052005768e-02 -4.138698428869247437e-02
-8.584635704755783081e-02 -5.203917622566223145e-02 1.625252515077590942e-01
9.274652004241943359e-01 -1.486807875335216522e-02 -2.408286323770880699e-03
-2.535297572612762451e-01 -1.902170479297637939e-02 -1.733057014644145966e-02
3.171514272689819336e-01 -2.484120894223451614e-03 -9.119202941656112671e-02
-1.165755018591880798e-01 -1.742563396692276001e-02 -7.738506793975830078e-02
5.537542104721069336e-01 -2.863657847046852112e-02 -7.773386314511299133e-03
1.379109621047973633e-01 -2.705973945558071136e-02 -1.035017240792512894e-02
-5.404183268547058105e-01 2.141197472810745239e-01 -2.985178725793957710e-03
4.526250064373016357e-01 3.957133367657661438e-02 -3.984860330820083618e-02
-2.808552384376525879e-01 -2.896348387002944946e-02 3.566687703132629395e-01
-1.036338731646537781e-01 -5.426274146884679794e-03 -1.327090710401535034e-01
-4.922285974025726318e-01 1.271436065435409546e-01 4.399044439196586609e-03
1.635974645614624023e-02 -1.584879495203495026e-02 -1.851870268583297729e-01
8.425850272178649902e-01 -4.753232002258300781e-03 -2.511861734092235565e-02
-2.972581982612609863e-01 -1.282972656190395355e-02 -1.349589377641677856e-01
-9.723038226366043091e-02 -1.625262014567852020e-02 -1.698032468557357788e-01
6.763054132461547852e-01 6.230089440941810608e-02 -1.781131327152252197e-02
-3.938729315996170044e-02 5.728193372488021851e-02 -2.931070327758789062e-02
-1.335021480917930603e-02 -3.327094390988349915e-02 -1.532464325428009033e-01
-5.603211522102355957e-01 3.051412291824817657e-02 -1.771516539156436920e-02
-3.082960844039916992e-01 -4.214798565953969955e-03 3.474358469247817993e-02
-1.251711845397949219e-01 -1.848326995968818665e-02 2.669043242931365967e-01
-1.491506844758987427e-01 -6.233924068510532379e-03 -1.635343432426452637e-01
1.357764750719070435e-01 6.003178656101226807e-02 2.474411763250827789e-02
5.122327059507369995e-02 -1.913708448410034180e-02 -6.588567793369293213e-02
-1.784375905990600586e-01 -1.692566275596618652e-02 2.556164562702178955e-01
-1.051337942481040955e-01 -2.561750635504722595e-02 -2.350331842899322510e-02
4.987719655036926270e-02 6.874286383390426636e-02 -1.869853353127837181e-03
-4.869449138641357422e-02 -4.123206064105033875e-02 -1.518042087554931641e-01
6.201115995645523071e-02 -1.965628750622272491e-02 -6.192435324192047119e-02
-2.924315333366394043e-01 -1.734871789813041687e-02 -6.186666339635848999e-02
-1.321131139993667603e-01 2.209149487316608429e-02 -4.202156513929367065e-02
-1.180369704961776733e-01 -4.753232002258300781e-03 -7.988493144512176514e-02
9.499639868736267090e-01 8.669131435453891754e-03 -8.215670473873615265e-03
-5.039395689964294434e-01 1.154903843998908997e-01 4.610571544617414474e-03
-2.471070289611816406e-01 -7.829993963241577148e-03 -1.066527441143989563e-01
-1.442663520574569702e-01 -1.429118774831295013e-02 9.700950235128402710e-02
-3.974259793758392334e-01 1.076446399092674255e-01 -4.908153321593999863e-03
-8.007743209600448608e-02 -4.609718918800354004e-02 -1.904175281524658203e-01
4.383373260498046875e-01 6.551226973533630371e-02 1.564844697713851929e-02
-2.227621525526046753e-01 -1.396428234875202179e-02 -9.801859408617019653e-02
-2.610870599746704102e-01 -5.150074511766433716e-02 -1.454391479492187500e-01
1.098163127899169922e-01 -5.522420629858970642e-03 -1.682841032743453979e-01
-6.259759515523910522e-02 -6.733895745128393173e-03 2.395788431167602539e-01
-2.762016355991363525e-01 -1.544497068971395493e-02 2.423094660043716431e-01
2.960564196109771729e-01 6.705064326524734497e-02 -8.907941170036792755e-03
1.859038881957530975e-02 -2.484120894223451614e-03 3.612812608480453491e-02
1.346996128559112549e-01 -1.106059085577726364e-02 -1.528233736753463745e-01
6.605947613716125488e-01 1.691869273781776428e-02 -4.100238904356956482e-02
-2.177047431468963623e-01 -2.734110224992036819e-03 -4.398300126194953918e-02
-5.411298274993896484e-01 1.905319467186927795e-02 7.437344174832105637e-03
-3.031232953071594238e-01 -3.952061757445335388e-02 1.908698976039886475e-01
-1.000187024474143982e-01 -1.625262014567852020e-02 -1.429969817399978638e-01
