-4.539727270603179932e-01 -5.858287960290908813e-02 -4.086347296833992004e-02
3.599576354026794434e-01 -4.627018049359321594e-02 2.275640070438385010e-01
5.250918120145797729e-02 -6.748252548277378082e-03 -4.390357434749603271e-01
1.421256214380264282e-01 -7.761879265308380127e-02 2.361855357885360718e-01
-1.645624404773116112e-03 -8.940420299768447876e-02 -4.769214615225791931e-02
1.563893854618072510e-01 -3.880873695015907288e-02 -2.204127460718154907e-01
-5.732240080833435059e-01 8.041620254516601562e-02 -4.268113989382982254e-03
1.960958689451217651e-01 -3.245463967323303223e-02 -2.801834046840667725e-01
3.677354753017425537e-01 -6.707257777452468872e-02 -3.166733086109161377e-01
-7.071608304977416992e-01 3.187342584133148193e-01 3.667911514639854431e-03
-1.680912226438522339e-01 3.741401806473731995e-02 7.965322136878967285e-01
-5.422444939613342285e-01 1.015613600611686707e-01 1.231580507010221481e-02
3.281608223915100098e-01 -1.204772200435400009e-02 8.803761005401611328e-02
1.573121696710586548e-01 -1.110502928495407104e-01 2.441479265689849854e-01
3.464848697185516357e-01 -1.394196152687072754e-01 2.514511644840240479e-01
1.136508435010910034e-01 -5.831923708319664001e-02 8.761576563119888306e-02
7.354887574911117554e-02 -1.256567984819412231e-01 1.498120576143264771e-01
9.096790552139282227e-01 -6.675619632005691528e-02 -5.876411683857440948e-03
-6.874658465385437012e-01 -1.584435813128948212e-02 3.430621698498725891e-03
-2.289692312479019165e-01 3.754584491252899170e-02 7.978240847587585449e-01
9.469403326511383057e-02 -1.463010013103485107e-01 -1.740357875823974609e-01
-7.022237777709960938e-02 -5.799090955406427383e-03 4.381718933582305908e-01
-4.951293170452117920e-01 -2.610054984688758850e-02 5.961557105183601379e-02
-6.276425123214721680e-01 5.209962278604507446e-02 3.733669593930244446e-02
-4.855371080338954926e-04 -3.453751653432846069e-02 -9.599380940198898315e-02
7.433984428644180298e-02 5.194142460823059082e-02 7.514487206935882568e-02
6.064490079879760742e-01 -8.974694460630416870e-02 -1.758270710706710815e-02
-5.203015729784965515e-02 -3.311377763748168945e-02 2.377938479185104370e-01
-2.916664779186248779e-01 9.494361281394958496e-02 9.125576354563236237e-03
2.314784228801727295e-01 -1.260139327496290207e-02 2.399294376373291016e-01
-2.977764979004859924e-02 -9.109158813953399658e-02 -2.103659138083457947e-02
1.434439122676849365e-01 7.524855434894561768e-02 -6.298415362834930420e-02
-7.719937562942504883e-01 1.919951289892196655e-01 -3.529879031702876091e-03
-7.613420486450195312e-01 6.177577003836631775e-02 6.278099026530981064e-03
9.719876199960708618e-02 -6.129854172468185425e-02 -3.738322108983993530e-02
6.396959424018859863e-01 3.630666807293891907e-02 8.263268321752548218e-02
-3.792459145188331604e-02 1.816717535257339478e-02 -6.373045444488525391e-01
8.874529004096984863e-01 -7.221386581659317017e-02 -3.002568380907177925e-03
-1.599179059267044067e-01 -8.352467417716979980e-02 3.153628110885620117e-02
-7.796133160591125488e-01 3.973418474197387695e-02 -1.785442829132080078e-01
6.758167147636413574e-01 2.747421152889728546e-02 -9.393729269504547119e-02
-3.937274813652038574e-01 1.727074757218360901e-02 8.252721279859542847e-02
1.096696555614471436e-01 -5.640899296849966049e-03 2.126411050558090210e-01
3.400057554244995117e-02 -1.370994299650192261e-01 -1.937308311462402344e-01
5.862598121166229248e-02 -1.911368407309055328e-02 -1.799944043159484863e-01
-2.925033867359161377e-02 -7.500861585140228271e-02 8.761576563119888306e-02
2.474822849035263062e-01 -1.391823142766952515e-01 -3.039651215076446533e-01
2.999497056007385254e-01 -5.568268150091171265e-02 -1.433462947607040405e-01
6.002335622906684875e-02 -3.184823319315910339e-02 9.415441751480102539e-02
1.111724898219108582e-01 -3.408930450677871704e-02 2.513193488121032715e-01
-7.528455555438995361e-02 2.822438487783074379e-03 5.066695809364318848e-01
-1.712814420461654663e-01 2.278114296495914459e-02 -6.777229309082031250e-01
1.065057814121246338e-01 -7.987425662577152252e-03 1.981137096881866455e-01
-1.464978605508804321e-01 2.233292907476425171e-02 -6.703932881355285645e-01
-7.719937562942504883e-01 1.919951289892196655e-01 -3.529879031702876091e-03
-2.577008679509162903e-02 5.057041719555854797e-02 7.585673779249191284e-02
-3.977086544036865234e-01 8.563657850027084351e-02 -4.524014890193939209e-02
-8.316784352064132690e-02 1.821990869939327240e-02 -6.377527713775634766e-01
-2.093269079923629761e-01 4.063061252236366272e-02 8.259561061859130859e-01
2.869515120983123779e-01 -6.158856302499771118e-02 1.085763648152351379e-01
8.206494152545928955e-02 1.948545314371585846e-02 -9.617836028337478638e-02
-2.419674545526504517e-01 8.318458497524261475e-02 4.253070801496505737e-02
2.983941435813903809e-01 -1.296643614768981934e-01 -2.404769212007522583e-01
2.640730515122413635e-02 1.537243369966745377e-02 5.522819161415100098e-01
-7.001145184040069580e-02 -4.111694172024726868e-03 -4.601017534732818604e-01
2.356441766023635864e-01 -9.042045101523399353e-03 -1.844501793384552002e-01
-6.028325557708740234e-01 -2.391220629215240479e-02 -3.730412572622299194e-02
8.656485676765441895e-01 1.331591885536909103e-02 -7.139475643634796143e-02
2.757197618484497070e-01 -4.658656567335128784e-02 1.749647706747055054e-01
-7.196580767631530762e-01 3.158723562955856323e-02 -9.174895286560058594e-02
-7.120912075042724609e-01 3.968145698308944702e-02 1.506030261516571045e-01
2.927255630493164062e-01 2.597137726843357086e-02 8.608655631542205811e-02
-7.185704261064529419e-02 1.381686702370643616e-02 -4.945351481437683105e-01
-8.354291319847106934e-01 3.439396917819976807e-01 -6.060970015823841095e-03
1.612933725118637085e-01 -9.542993269860744476e-03 -1.495158374309539795e-01
-3.435538411140441895e-01 3.469836711883544922e-02 8.173625916242599487e-02
1.492970436811447144e-01 -1.122367382049560547e-01 2.552214562892913818e-01
-9.405680745840072632e-02 2.135740593075752258e-02 -6.627736687660217285e-01
2.936747074127197266e-01 4.113155975937843323e-02 8.054980635643005371e-02
-8.680629730224609375e-02 2.848800504580140114e-03 -5.154694318771362305e-01
-6.192582845687866211e-01 1.344774942845106125e-02 -5.330800265073776245e-02
1.912709772586822510e-01 -6.011209264397621155e-02 2.390066534280776978e-01
-1.176539659500122070e-01 8.321094512939453125e-02 4.247797280550003052e-02
2.022126764059066772e-01 -9.288444370031356812e-02 2.697488367557525635e-01
2.782508730888366699e-01 -5.056776478886604309e-02 -2.338328212499618530e-01
5.164634585380554199e-01 -1.890275813639163971e-02 -9.507101029157638550e-02
2.546537220478057861e-01 -4.060159251093864441e-02 -2.852455973625183105e-01
4.404584318399429321e-02 -6.129854172468185425e-02 3.860224038362503052e-02
-7.702008485794067383e-01 3.116538375616073608e-02 -1.198018863797187805e-01
1.451644860208034515e-02 -4.347544163465499878e-02 9.170242398977279663e-02
-7.110629677772521973e-01 2.843272089958190918e-01 -1.054311078041791916e-02
2.341940701007843018e-01 -3.092544339597225189e-02 -2.892531454563140869e-01
7.745097577571868896e-02 -1.079655215144157410e-01 1.617029011249542236e-01
5.595710873603820801e-01 -3.936240822076797485e-02 7.886241376399993896e-02
1.726305484771728516e-01 -1.273322384804487228e-02 -1.134477853775024414e-01
4.243422448635101318e-01 -9.064337611198425293e-02 2.140265278285369277e-04
5.563017725944519043e-01 -9.064337611198425293e-02 1.876607857411727309e-04
-7.268559336662292480e-01 2.428398467600345612e-02 4.846294969320297241e-02
2.754101902246475220e-02 -1.510468125343322754e-01 -1.474329531192779541e-01
-2.835459113121032715e-01 -9.045881778001785278e-02 -1.030582096427679062e-02
2.950720787048339844e-01 1.553062628954648972e-02 -9.657384455204010010e-02
1.499298214912414551e-01 -6.050756201148033142e-02 2.575152516365051270e-01
-2.409655600786209106e-01 9.518089890480041504e-02 6.752678658813238144e-03
9.402893781661987305e-01 -2.649603039026260376e-02 -4.439645633101463318e-02
-8.047924637794494629e-01 3.396157324314117432e-01 8.281879127025604248e-03
2.486951202154159546e-01 -4.729843884706497192e-02 2.439106404781341553e-01
-1.469724327325820923e-01 3.949689492583274841e-02 -7.610380649566650391e-01
2.804196812212467194e-02 -3.399830311536788940e-03 -4.657703936100006104e-01
-4.216944426298141479e-02 2.715782634913921356e-02 5.851597785949707031e-01
-2.943489328026771545e-02 -1.099310256540775299e-02 -9.649474918842315674e-02
2.342995405197143555e-01 -1.068054512143135071e-01 3.109318017959594727e-01
2.310302108526229858e-01 -4.336997121572494507e-02 -2.627557814121246338e-01
-3.594718500971794128e-02 -2.069561369717121124e-02 2.792140841484069824e-01
-1.012545898556709290e-01 -1.844263053499162197e-03 4.567859470844268799e-01
-1.679330319166183472e-01 9.520726650953292847e-02 6.594485603272914886e-03
6.851764917373657227e-01 2.446853928267955780e-02 8.656113594770431519e-02
6.269086599349975586e-01 -8.895598351955413818e-02 1.532147638499736786e-02
2.962389960885047913e-02 1.439691055566072464e-02 -4.316797554492950439e-01
2.881379425525665283e-01 -4.880126938223838806e-02 2.546414136886596680e-01
2.210972085595130920e-02 -5.486534908413887024e-02 -1.476175189018249512e-01
-8.010945469141006470e-02 -4.492554068565368652e-02 -8.705588430166244507e-02
-1.434658169746398926e-01 3.493565693497657776e-02 7.090513706207275391e-01
-2.803820371627807617e-01 -6.114035099744796753e-02 -7.292395830154418945e-02
1.492970436811447144e-01 -1.122367382049560547e-01 2.552214562892913818e-01
-7.546911388635635376e-02 -1.923358999192714691e-03 4.237235784530639648e-01
7.473532855510711670e-02 -8.958875387907028198e-02 2.605224959552288055e-02
1.228524148464202881e-01 -3.553941100835800171e-02 2.267466634511947632e-01
1.676474511623382568e-01 5.597535520792007446e-02 -8.122910559177398682e-02
1.453949511051177979e-01 -7.366397231817245483e-02 -2.888049483299255371e-01
-8.052406311035156250e-01 2.376074939966201782e-01 -6.087335757911205292e-03
-3.378521278500556946e-02 -6.375052779912948608e-02 9.876838326454162598e-02
-1.290175020694732666e-01 -9.008969366550445557e-02 -1.415518764406442642e-02
-7.015450000762939453e-01 3.443470969796180725e-02 -1.109166964888572693e-01
8.253093361854553223e-01 7.284929603338241577e-02 3.019163757562637329e-02
-7.393307518213987350e-03 -5.610452219843864441e-02 1.334390640258789062e-01
-2.315266877412796021e-01 -8.154726773500442505e-02 -4.386914148926734924e-02
1.799670048058032990e-02 -6.469967961311340332e-02 -1.030070409178733826e-01
8.836630731821060181e-02 8.543759584426879883e-03 -4.590998888015747070e-01
-7.001145184040069580e-02 -4.111694172024726868e-03 -4.601017534732818604e-01
-7.528455555438995361e-02 2.822438487783074379e-03 5.066695809364318848e-01
1.839413642883300781e-01 8.073259145021438599e-02 -5.581272765994071960e-02
2.022126764059066772e-01 -7.896343618631362915e-02 -2.934452593326568604e-01
9.970807433128356934e-01 -2.503608993720263243e-05 -7.827461697161197662e-03
-1.428593993186950684e-01 2.723692357540130615e-02 6.545801758766174316e-01
1.607133299112319946e-01 5.523711815476417542e-02 7.345747202634811401e-02
-7.372702956199645996e-01 2.681507170200347900e-02 4.727650061249732971e-02
-3.953621089458465576e-01 -7.519316673278808594e-02 -2.739068493247032166e-02
2.060884088277816772e-01 -5.694821476936340332e-02 8.761576563119888306e-02
1.816475689411163330e-01 -7.068467140197753906e-02 2.271948754787445068e-01
-1.158542837947607040e-02 -1.370874699205160141e-02 -2.942362427711486816e-01
-1.844046451151371002e-02 6.528238207101821899e-02 -7.374129444360733032e-02
1.057675555348396301e-01 -1.784813962876796722e-02 -1.370449364185333252e-01
1.815157383680343628e-01 -2.397934906184673309e-03 -2.098929136991500854e-01
-4.920904338359832764e-02 -4.677112773060798645e-02 -1.738248467445373535e-01
1.558093428611755371e-01 -9.109158813953399658e-02 5.784908309578895569e-02
1.485851705074310303e-01 -4.545284807682037354e-02 -2.912041842937469482e-01
-2.682802379131317139e-01 -2.106473222374916077e-02 8.600746095180511475e-02
-1.956432014703750610e-01 -7.131743431091308594e-02 5.310328304767608643e-02
2.034323289990425110e-02 -3.188904374837875366e-03 8.890767395496368408e-02
-7.280687093734741211e-01 3.401286527514457703e-02 -1.148978918790817261e-01
3.481790795922279358e-02 9.496997296810150146e-02 -1.721359044313430786e-02
-2.704422473907470703e-01 5.776820704340934753e-02 -7.977899909019470215e-02
-1.448895633220672607e-01 -7.376942038536071777e-02 -5.839655175805091858e-02
5.568554401397705078e-01 -4.888036847114562988e-02 7.409024983644485474e-02
-1.569844782352447510e-02 2.347862580791115761e-03 -4.913449585437774658e-01
2.022126764059066772e-01 -4.816850274801254272e-02 -2.611211240291595459e-01
-6.234767436981201172e-01 3.456654027104377747e-02 -8.979789912700653076e-02
1.527509242296218872e-01 -3.488027304410934448e-02 -2.916787862777709961e-01
6.745453574694693089e-04 -1.418452262878417969e-01 -1.498849540948867798e-01
-1.316540539264678955e-01 9.626188874244689941e-02 -4.057189449667930603e-03
-1.316540539264678955e-01 9.626188874244689941e-02 -4.057189449667930603e-03
-5.633105635643005371e-01 5.370791628956794739e-02 4.996578767895698547e-02
-8.540891855955123901e-02 -3.162532579153776169e-03 4.307895600795745850e-01
-5.441691875457763672e-01 -4.845852404832839966e-02 -8.592061698436737061e-03
-4.141344130039215088e-01 6.056295335292816162e-02 -7.337217777967453003e-02
-6.201283335685729980e-01 1.233920156955718994e-01 -1.520980987697839737e-02
3.400057554244995117e-02 -3.991609066724777222e-02 2.069197893142700195e-01
1.888980716466903687e-01 -8.708402514457702637e-02 -8.523666858673095703e-02
-1.599179059267044067e-01 -8.352467417716979980e-02 3.153628110885620117e-02
-1.037593185901641846e-01 -1.923358999192714691e-03 4.690195620059967041e-01
-2.416178584098815918e-02 -6.274863332509994507e-02 -1.119185909628868103e-01
-6.893377304077148438e-01 2.387412190437316895e-01 -1.230960153043270111e-02
1.464232057332992554e-01 -4.843215271830558777e-02 -1.768041551113128662e-01
1.142836213111877441e-01 -1.524178087711334229e-01 -1.565817892551422119e-01
1.134399250149726868e-01 -6.129854172468185425e-02 -8.536849170923233032e-02
9.190611541271209717e-03 1.687526702880859375e-02 4.576824009418487549e-01
-7.603401541709899902e-01 9.576094150543212891e-02 7.385451346635818481e-03
1.596587151288986206e-01 -4.787848144769668579e-02 -1.793352514505386353e-01
-7.314435243606567383e-01 2.278114296495914459e-02 -4.758668318390846252e-02
9.345485270023345947e-02 -2.240937203168869019e-02 -1.200128123164176941e-01
-7.505322098731994629e-01 3.791496157646179199e-02 -1.996367126703262329e-01
-7.372702956199645996e-01 2.681507170200347900e-02 4.727650061249732971e-02
-1.158542837947607040e-02 -1.370874699205160141e-02 -2.942362427711486816e-01
-1.190249696373939514e-01 -4.903855919837951660e-02 -8.238918334245681763e-02
2.735841870307922363e-01 7.055549323558807373e-02 6.045926734805107117e-02
6.745843589305877686e-02 -2.338489703834056854e-02 -3.142213225364685059e-01
1.439975649118423462e-01 5.089879035949707031e-03 3.012029528617858887e-01
2.022126764059066772e-01 -6.868088245391845703e-02 -2.864320278167724609e-01
-8.107774257659912109e-01 4.076244309544563293e-02 1.868292540311813354e-01
1.343741714954376221e-01 -6.115475203841924667e-03 4.027102589607238770e-01
7.745097577571868896e-02 -1.079655215144157410e-01 1.617029011249542236e-01
-2.371357195079326630e-02 -4.300085455179214478e-02 -2.014822959899902344e-01
-4.195851832628250122e-02 -9.072245657444000244e-02 2.412756346166133881e-02
8.609886467456817627e-02 -8.958875387907028198e-02 5.036126822233200073e-02
1.656963974237442017e-01 -1.919277943670749664e-02 -2.746466398239135742e-01
3.481790795922279358e-02 9.496997296810150146e-02 -1.721359044313430786e-02
2.132334709167480469e-01 -1.420561671257019043e-01 2.639484405517578125e-01
-2.916928529739379883e-01 4.811841994524002075e-02 -8.542121946811676025e-02
9.092376381158828735e-02 -3.503846377134323120e-02 -3.298297226428985596e-01
1.630930416285991669e-02 -5.106871202588081360e-02 -1.742203384637832642e-01
1.428638696670532227e-01 3.745228052139282227e-03 3.428868651390075684e-01
-7.612102031707763672e-01 1.621493548154830933e-01 -3.292589215561747551e-03
1.646681427955627441e-01 3.704437694977968931e-04 -2.474110573530197144e-01
-7.592327594757080078e-01 3.941779583692550659e-02 -2.126612812280654907e-01
3.400057554244995117e-02 -1.370994299650192261e-01 -1.937308311462402344e-01
1.788000762462615967e-01 -7.063192874193191528e-02 -3.228428363800048828e-01
-9.405680745840072632e-02 2.135740593075752258e-02 -6.627736687660217285e-01
1.854178309440612793e-01 9.467995166778564453e-02 1.176213007420301437e-02
9.178259968757629395e-01 -4.062795639038085938e-02 4.005234688520431519e-02
-4.248583689332008362e-02 -2.755065076053142548e-02 -2.816071510314941406e-01
-4.251219704747200012e-02 2.649868652224540710e-02 -6.543630361557006836e-01
-7.198954224586486816e-01 1.569553464651107788e-01 -9.724225383251905441e-04
2.361187487840652466e-01 8.914319425821304321e-02 -3.854330629110336304e-02
3.356749713420867920e-01 -7.593140751123428345e-02 2.043359726667404175e-01
1.638508290052413940e-01 -8.028171211481094360e-02 2.874664962291717529e-01
1.466868668794631958e-01 -1.787450164556503296e-02 3.420431613922119141e-01
-4.920904338359832764e-02 -4.677112773060798645e-02 -1.738248467445373535e-01
1.765062808990478516e-01 -7.614231854677200317e-02 -3.294869661331176758e-01
9.458857029676437378e-02 -1.246957387775182724e-02 -3.935288190841674805e-01
1.986533254384994507e-01 -1.158488169312477112e-01 -2.345446646213531494e-01
1.597377955913543701e-01 -5.166313610970973969e-03 1.805542707443237305e-01
1.646945327520370483e-01 -1.391967292875051498e-02 1.015895009040832520e-01
-6.699590682983398438e-01 2.950435876846313477e-02 5.125769600272178650e-02
3.059083223342895508e-01 -5.737006664276123047e-02 1.267685741186141968e-01
-7.344228029251098633e-01 4.057788476347923279e-02 -2.472776733338832855e-02
9.392611384391784668e-01 4.215981066226959229e-02 -1.465613488107919693e-02
1.771126836538314819e-01 -3.493300452828407288e-02 2.447543293237686157e-01
-5.373405218124389648e-01 6.480780243873596191e-02 -5.721010267734527588e-02
6.637940406799316406e-01 -8.323465287685394287e-02 3.211631998419761658e-02
-6.717519164085388184e-01 1.875920891761779785e-01 1.769592752680182457e-03
9.879846572875976562e-01 3.007002407684922218e-03 -1.718722470104694366e-02
5.039993673563003540e-02 1.289407722651958466e-02 3.974635303020477295e-01
-7.142004966735839844e-01 2.636685781180858612e-02 8.310725539922714233e-02
-7.370066642761230469e-01 1.566653251647949219e-01 -1.974312821403145790e-03
1.381180733442306519e-01 -8.935146033763885498e-02 -7.962080836296081543e-02
1.816475689411163330e-01 -8.265461027622222900e-02 -3.151440918445587158e-01
1.170256361365318298e-01 5.959935020655393600e-03 2.961407601833343506e-01
2.040582597255706787e-01 -9.912110865116119385e-03 2.948224842548370361e-01
-1.362943947315216064e-01 -6.800976581871509552e-03 -4.874692261219024658e-01
-1.522455364465713501e-01 2.486401982605457306e-02 6.821057200431823730e-01
-8.161032795906066895e-01 5.146684497594833374e-02 2.811651229858398438e-01
1.926947236061096191e-01 -6.048120185732841492e-02 1.135858148336410522e-01
-5.962147712707519531e-01 -3.406294062733650208e-02 -2.211757749319076538e-02
-4.317729473114013672e-01 4.007693380117416382e-02 -8.302196115255355835e-02
1.705476641654968262e-01 -1.323800235986709595e-01 2.732027471065521240e-01
-9.708883613348007202e-02 8.517397567629814148e-03 5.519127845764160156e-01
3.155581057071685791e-01 -3.271830081939697266e-02 1.284032315015792847e-01
-6.188099980354309082e-01 1.331999897956848145e-01 1.484689582139253616e-02
-1.882344782352447510e-01 3.815225139260292053e-02 7.629424929618835449e-01
4.460410773754119873e-01 -6.008571013808250427e-02 6.541598588228225708e-02
-1.776091754436492920e-01 -7.888434827327728271e-02 4.086967930197715759e-02
-1.692513078451156616e-01 1.914270780980587006e-02 -6.451086997985839844e-01
2.192711830139160156e-01 -6.168209016323089600e-03 -1.842128783464431763e-01
-5.809422209858894348e-02 -8.355104178190231323e-02 -7.026103883981704712e-02
6.519100069999694824e-02 -9.069609642028808594e-02 -2.818164974451065063e-02
8.114214986562728882e-02 -3.382565453648567200e-02 -2.885149121284484863e-01
-2.395945489406585693e-01 5.956106260418891907e-02 6.997722387313842773e-02
7.616365551948547363e-01 5.597535520792007446e-02 -7.566597312688827515e-02
3.956370428204536438e-02 -2.668059431016445160e-02 -1.583219319581985474e-01
5.965423956513404846e-02 -6.828540563583374023e-02 -1.745103597640991211e-01
8.338322490453720093e-02 -2.436042018234729767e-02 1.110547184944152832e-01
6.081100106239318848e-01 9.167428314685821533e-02 -3.102912940084934235e-02
-7.077409029006958008e-01 1.245784610509872437e-01 -6.560361944139003754e-04
7.095909714698791504e-01 -9.032698720693588257e-02 -1.170319411903619766e-02
-6.834055185317993164e-01 2.540068626403808594e-01 -1.473367447033524513e-03
2.022126764059066772e-01 -1.084928363561630249e-01 -2.634412944316864014e-01
-7.052361965179443359e-01 2.494312450289726257e-02 7.103184610605239868e-02
-8.058997988700866699e-01 4.305623844265937805e-02 -2.317235618829727173e-01
1.389881372451782227e-01 -1.246957387775182724e-02 -1.433199346065521240e-01
2.706048786640167236e-01 -4.060159251093864441e-02 -2.771513760089874268e-01
-2.835459113121032715e-01 -9.045881778001785278e-02 -1.030582096427679062e-02
7.283701002597808838e-02 -6.129854172468185425e-02 -4.798216745257377625e-02
6.168106198310852051e-01 7.594597991555929184e-03 -9.736481308937072754e-02
-8.038432598114013672e-01 2.639203071594238281e-01 4.933456890285015106e-03
1.613460928201675415e-01 -1.185644790530204773e-01 -2.462246119976043701e-01
-6.281961202621459961e-01 1.125557869672775269e-01 1.521601341664791107e-02
-5.732240080833435059e-01 8.041620254516601562e-02 -4.268113989382982254e-03
1.802306249737739563e-02 2.048734948039054871e-02 5.238599181175231934e-01
-4.767983779311180115e-02 2.506054705008864403e-03 -4.976990222930908203e-01
-8.212445378303527832e-01 4.666831716895103455e-02 -2.489402592182159424e-01
1.729732900857925415e-01 -6.841757567599415779e-04 -2.342019230127334595e-01
1.020236462354660034e-01 -6.024392321705818176e-02 -2.705336213111877441e-01
-1.360043734312057495e-01 3.066444210708141327e-02 6.234424710273742676e-01
-7.517185807228088379e-01 3.243092820048332214e-02 9.955934435129165649e-02
9.136338233947753906e-01 -6.185220554471015930e-02 -2.507051825523376465e-02
-1.517709493637084961e-01 -4.898583516478538513e-02 7.403751462697982788e-02
-4.934682548046112061e-01 8.460832387208938599e-02 3.633480519056320190e-02
-1.679330319166183472e-01 9.520726650953292847e-02 6.594485603272914886e-03
1.466868668794631958e-01 -1.787450164556503296e-02 3.420431613922119141e-01
5.865234881639480591e-02 -6.129854172468185425e-02 7.598856836557388306e-02
6.053110584616661072e-03 -3.282375633716583252e-02 1.298269778490066528e-01
3.357277214527130127e-01 -8.666217327117919922e-02 -3.356828391551971436e-01
-7.546911388635635376e-02 -1.923358999192714691e-03 4.237235784530639648e-01
2.957116812467575073e-02 9.967496618628501892e-03 -3.942933976650238037e-01
2.968913018703460693e-01 -4.503099620342254639e-02 2.587808072566986084e-01
-6.848819851875305176e-01 2.897704951465129852e-02 1.184370666742324829e-01
-6.786861419677734375e-01 6.346315890550613403e-02 -1.270508393645286560e-02
-8.107774257659912109e-01 4.076244309544563293e-02 1.868292540311813354e-01
3.518634438514709473e-01 -9.109158813953399658e-02 -4.497649520635604858e-02
-2.850750982761383057e-01 -6.920819729566574097e-02 5.576620623469352722e-02
2.738214731216430664e-01 -1.392877846956253052e-01 -2.538442313671112061e-01
-2.480842471122741699e-01 4.384721070528030396e-02 -8.638372421264648438e-01
3.633588254451751709e-01 -3.023994341492652893e-02 8.629748225212097168e-02
-5.859516933560371399e-02 -2.051105909049510956e-02 3.224271833896636963e-01
1.194512620568275452e-01 -6.831177324056625366e-02 -7.297669351100921631e-02
3.262956812977790833e-02 1.240509212948381901e-03 -3.300406038761138916e-01
7.598173618316650391e-01 -7.110652327537536621e-02 5.036126822233200073e-02
1.694930493831634521e-01 -3.896693140268325806e-02 -2.903605103492736816e-01
-2.303929775953292847e-01 9.573456645011901855e-02 -9.725779294967651367e-03
2.523071765899658203e-01 -1.117765624076128006e-02 -1.369131058454513550e-01
2.454257905483245850e-01 8.542565256357192993e-02 -4.637386649847030640e-02
-4.387636203318834305e-03 -1.378784328699111938e-02 -3.831408023834228516e-01
-7.097182869911193848e-01 7.018637657165527344e-02 -5.480928346514701843e-03
1.405173242092132568e-01 -1.054608076810836792e-01 2.707771062850952148e-01
1.840204447507858276e-01 -7.829234004020690918e-03 1.415596455335617065e-01
1.992860883474349976e-01 -1.358866244554519653e-01 -3.031741678714752197e-01
1.791955679655075073e-01 -6.319684535264968872e-02 -3.039651215076446533e-01
2.060884088277816772e-01 -5.694821476936340332e-02 8.761576563119888306e-02
-7.926643490791320801e-01 2.380820810794830322e-01 7.728203199803829193e-03
-3.871097266674041748e-01 9.452176094055175781e-02 1.215761248022317886e-02
2.022126764059066772e-01 -6.868088245391845703e-02 -2.864320278167724609e-01
3.533926308155059814e-01 -2.069561369717121124e-02 8.761576563119888306e-02
2.582657933235168457e-01 -1.260139327496290207e-02 -9.633655846118927002e-02
-7.850446105003356934e-01 4.498092457652091980e-02 2.538240551948547363e-01
4.418226182460784912e-01 3.459290787577629089e-02 -9.156439453363418579e-02
-5.000001192092895508e-02 -7.680147141218185425e-02 8.060253411531448364e-02
-4.351408407092094421e-02 -2.718153223395347595e-02 -3.052043020725250244e-01
-5.331220626831054688e-01 -2.844707854092121124e-02 -5.546997487545013428e-02
8.692606687545776367e-01 7.018637657165527344e-02 6.647215690463781357e-03
6.679929792881011963e-02 -5.428530275821685791e-02 -1.502540707588195801e-01
-4.867450892925262451e-01 8.706031739711761475e-02 -4.107439517974853516e-02
-3.517575562000274658e-03 -4.463551566004753113e-02 -1.203291937708854675e-01
1.194512620568275452e-01 -6.293320655822753906e-02 6.196210160851478577e-02
-1.569844782352447510e-02 2.347862580791115761e-03 -4.913449585437774658e-01
2.627547457814216614e-02 -1.254866924136877060e-02 2.456507533788681030e-01
2.040582597255706787e-01 -9.912110865116119385e-03 2.948224842548370361e-01
7.959644794464111328e-01 8.642754703760147095e-02 -1.104249968193471432e-03
1.389881372451782227e-01 -1.246957387775182724e-02 -1.433199346065521240e-01
-1.308367252349853516e-01 -7.071103155612945557e-02 -6.221955269575119019e-02
4.722747802734375000e-01 -6.193131208419799805e-02 -7.229118794202804565e-02
-2.303929775953292847e-01 9.573456645011901855e-02 -9.725779294967651367e-03
-7.312062382698059082e-01 6.488689780235290527e-02 -8.565695956349372864e-03
4.077319502830505371e-01 4.121065512299537659e-02 8.049707114696502686e-02
7.236701846122741699e-01 -8.974694460630416870e-02 8.598265238106250763e-03
2.957116812467575073e-02 9.967496618628501892e-03 -3.942933976650238037e-01
1.791955679655075073e-01 -6.319684535264968872e-02 -3.039651215076446533e-01
3.206466436386108398e-01 -4.521556198596954346e-02 -2.643640935420989990e-01
6.867125630378723145e-02 -1.305871456861495972e-01 -1.721374690532684326e-01
3.695546984672546387e-01 -7.521953433752059937e-02 -8.803141117095947266e-02
2.619833350181579590e-01 -1.060935780405998230e-01 -3.356037437915802002e-01
-1.164938807487487793e-01 2.713146060705184937e-02 -7.114971876144409180e-01
-8.038432598114013672e-01 2.639203071594238281e-01 4.933456890285015106e-03
8.211963176727294922e-01 -7.798791676759719849e-02 1.619153842329978943e-02
9.160926192998886108e-02 -1.454045772552490234e-01 -1.885631829500198364e-01
2.881906628608703613e-01 -2.960716560482978821e-02 2.423550635576248169e-01
2.022126764059066772e-01 -5.096324533224105835e-02 2.363173663616180420e-01
-8.316784352064132690e-02 1.821990869939327240e-02 -6.377527713775634766e-01
-4.362023472785949707e-01 -7.028917968273162842e-02 -1.157136540859937668e-02
-1.827768385410308838e-01 2.433670870959758759e-02 -6.864499449729919434e-01
1.198731139302253723e-01 -1.041320574586279690e-04 4.212979674339294434e-01
7.977795787155628204e-03 -1.542634069919586182e-01 -1.620130985975265503e-01
-7.882348895072937012e-01 3.675488010048866272e-02 1.635221242904663086e-01
-6.631568074226379395e-01 1.316180676221847534e-01 2.692386740818619728e-03
1.564948260784149170e-01 3.165194299072027206e-03 -3.087900280952453613e-01
-1.316540539264678955e-01 9.626188874244689941e-02 -4.057189449667930603e-03
2.431319802999496460e-01 -2.019466646015644073e-02 2.685624063014984131e-01
3.117946349084377289e-02 9.730208665132522583e-03 8.877584338188171387e-02
6.627199053764343262e-02 -8.958875387907028198e-02 4.408627375960350037e-02
3.226045146584510803e-02 1.029583392664790154e-03 3.206079602241516113e-01
3.557128012180328369e-01 -4.550558328628540039e-02 7.683226466178894043e-02
-7.196580767631530762e-01 3.158723562955856323e-02 -9.174895286560058594e-02
-1.918201893568038940e-01 4.205434769392013550e-02 -8.473587632179260254e-01
-7.646113038063049316e-01 2.726328931748867035e-02 7.137459516525268555e-02
-6.191791296005249023e-01 1.986128836870193481e-01 -1.020035892724990845e-02
-2.916928529739379883e-01 4.811841994524002075e-02 -8.542121946811676025e-02
8.130493760108947754e-01 2.839700505137443542e-02 7.145369797945022583e-02
6.086705625057220459e-02 -1.620675921440124512e-01 -1.498058587312698364e-01
-5.751750469207763672e-01 8.078531920909881592e-02 -2.849803678691387177e-02
-8.714904636144638062e-02 6.280402094125747681e-02 6.736703962087631226e-02
9.504665136337280273e-01 2.415215596556663513e-02 -2.369950897991657257e-02
-1.838314533233642578e-01 2.578681893646717072e-02 6.906745433807373047e-01
6.539332866668701172e-01 -7.303118705749511719e-02 5.096767842769622803e-02
-5.809422209858894348e-02 -8.355104178190231323e-02 -7.026103883981704712e-02
7.895381003618240356e-02 -1.531033217906951904e-01 1.583017557859420776e-01
-5.727494359016418457e-01 8.985506743192672729e-02 -1.486705802381038666e-02
-6.439558416604995728e-02 -5.723823606967926025e-02 1.707990169525146484e-01
-2.511094696819782257e-02 -2.233027666807174683e-02 3.096926510334014893e-01
7.503214757889509201e-03 -5.921566486358642578e-02 -1.278433650732040405e-01
8.656485676765441895e-01 1.331591885536909103e-02 -7.139475643634796143e-02
-2.073426730930805206e-02 1.864176057279109955e-02 -5.009683370590209961e-01
2.508570849895477295e-01 -9.109158813953399658e-02 2.236107364296913147e-02
3.974494338035583496e-01 -2.636419981718063354e-02 8.424097299575805664e-02
-4.010570943355560303e-01 -5.599906295537948608e-02 5.162681266665458679e-02
9.161121845245361328e-01 -2.378038503229618073e-02 -5.496903508901596069e-02
-6.233713030815124512e-01 -1.631893403828144073e-02 -3.928153961896896362e-02
6.745453574694693089e-04 -1.418452262878417969e-01 -1.498849540948867798e-01
1.485851705074310303e-01 -4.545284807682037354e-02 -2.912041842937469482e-01
-7.051239162683486938e-02 2.098828740417957306e-02 5.489335060119628906e-01
-8.123593330383300781e-01 3.999783843755722046e-02 -1.890113949775695801e-01
1.815157383680343628e-01 -2.397934906184673309e-03 -2.098929136991500854e-01
-7.646113038063049316e-01 2.726328931748867035e-02 7.137459516525268555e-02
-7.322872281074523926e-01 3.504111990332603455e-02 1.166178509593009949e-01
-7.146155089139938354e-02 1.477797166444361210e-03 -4.444142878055572510e-01
-4.306587204337120056e-02 -9.912110865116119385e-03 -3.539541661739349365e-01
-7.196844816207885742e-01 3.572662174701690674e-02 -1.862957477569580078e-01
-7.305470705032348633e-01 1.144013777375221252e-01 9.679251350462436676e-03
8.658595085144042969e-01 -3.298195078969001770e-02 5.895642936229705811e-02
-1.362943947315216064e-01 -6.800976581871509552e-03 -4.874692261219024658e-01
1.816475689411163330e-01 -1.199091225862503052e-01 2.357636839151382446e-01
2.356441766023635864e-01 -9.042045101523399353e-03 -1.844501793384552002e-01
1.256207972764968872e-01 4.984411410987377167e-03 3.813014328479766846e-01
-6.199632585048675537e-02 2.057840814813971519e-03 5.005527138710021973e-01
-3.036100566387176514e-01 9.576094150543212891e-02 1.004992634989321232e-03
6.034960746765136719e-01 -3.071451932191848755e-02 8.279087394475936890e-02
1.607133299112319946e-01 5.523711815476417542e-02 7.345747202634811401e-02
-8.651627600193023682e-02 4.668027628213167191e-03 4.701269268989562988e-01
6.975223869085311890e-02 -6.050797528587281704e-04 2.766039073467254639e-01
-4.356681928038597107e-02 -5.990115925669670105e-02 8.629748225212097168e-02
-1.532737910747528076e-01 5.959935020655393600e-03 8.917133510112762451e-02
1.194512620568275452e-01 -7.274118810892105103e-02 -5.966209620237350464e-02
-8.105664849281311035e-01 1.816717535257339478e-02 -1.051674503833055496e-02
6.758167147636413574e-01 2.747421152889728546e-02 -9.393729269504547119e-02
1.654063761234283447e-01 -1.329073160886764526e-01 2.646075785160064697e-01
5.267460346221923828e-01 8.194539695978164673e-02 4.506180062890052795e-02
-6.521292030811309814e-02 8.943321555852890015e-02 2.934793941676616669e-02
-4.760074242949485779e-02 8.273637294769287109e-02 4.345350340008735657e-02
-3.035768307745456696e-02 -1.283869147300720215e-02 3.820396959781646729e-01
-7.268559336662292480e-01 2.428398467600345612e-02 4.846294969320297241e-02
-6.199632585048675537e-02 2.057840814813971519e-03 5.005527138710021973e-01
-6.852247714996337891e-01 3.654395416378974915e-02 -1.243367567658424377e-01
3.557128012180328369e-01 -4.550558328628540039e-02 7.683226466178894043e-02
1.023136675357818604e-01 8.450195891782641411e-04 2.642648220062255859e-01
-6.091074943542480469e-01 1.522886455059051514e-01 -1.420636661350727081e-03
-3.851059377193450928e-01 1.497695408761501312e-02 -9.182804822921752930e-02
7.388040423393249512e-01 8.278909325599670410e-02 3.931410983204841614e-02
3.377842605113983154e-01 -8.771679550409317017e-02 2.461253553628921509e-01
4.309668764472007751e-02 -1.805906556546688080e-02 3.406721651554107666e-01
1.802238225936889648e-01 -9.109158813953399658e-02 -6.881093978881835938e-02
3.647893667221069336e-02 -1.537097245454788208e-01 1.429570168256759644e-01
-4.227031767368316650e-01 -4.392365366220474243e-02 -6.796723604202270508e-02
-4.425036907196044922e-01 7.601315528154373169e-02 -5.829108878970146179e-02
-8.233537673950195312e-01 2.988282740116119385e-01 6.673581432551145554e-03
-2.136704511940479279e-02 -3.414199745748192072e-04 4.815695583820343018e-01
-7.447317838668823242e-01 3.936506807804107666e-02 -1.654142439365386963e-01
-8.596260100603103638e-02 2.242394955828785896e-03 -4.965389370918273926e-01
1.065057814121246338e-01 -7.987425662577152252e-03 1.981137096881866455e-01
-1.031001880764961243e-01 1.350048277527093887e-02 -6.001554727554321289e-01
3.050909936428070068e-01 -1.120258271694183350e-01 2.059970051050186157e-01
1.547019779682159424e-01 -8.515933901071548462e-02 8.091892302036285400e-02
8.994823694229125977e-02 -6.501608341932296753e-02 9.302069246768951416e-02
-7.470255494117736816e-01 3.970781713724136353e-02 -2.190944701433181763e-01
-6.799516677856445312e-01 2.773786522448062897e-02 3.891862928867340088e-02
-5.655252933502197266e-01 8.596493862569332123e-03 -6.485610455274581909e-02
3.444879129528999329e-02 -7.292573899030685425e-02 8.761576563119888306e-02
-6.069455146789550781e-01 8.007344603538513184e-02 -1.618533395230770111e-02
7.020240426063537598e-01 4.740655422210693359e-02 -8.576397597789764404e-02
2.961003184318542480e-01 -2.784067206084728241e-02 -1.631204485893249512e-01
6.954131275415420532e-02 -8.776953816413879395e-02 1.569834649562835693e-01
-7.519295811653137207e-01 1.677388548851013184e-01 -9.040275588631629944e-03
-7.564116716384887695e-01 1.997202187776565552e-01 2.613290213048458099e-03
1.303929686546325684e-01 -6.261680275201797485e-02 -1.124195232987403870e-01
3.028235435485839844e-01 -1.448245346546173096e-01 -2.768086194992065430e-01
-5.825242400169372559e-02 -3.915148600935935974e-02 2.979072630405426025e-01
2.553919553756713867e-01 6.443868577480316162e-02 6.604876369237899780e-02
-8.163932561874389648e-01 3.609718084335327148e-01 7.965492084622383118e-03
2.128907144069671631e-01 -1.339883059263229370e-01 2.482345849275588989e-01
-4.752164706587791443e-02 -9.411163628101348877e-03 4.093016088008880615e-01
1.061434950679540634e-02 1.663797907531261444e-02 -4.631865620613098145e-01
-1.521664410829544067e-01 4.105246067047119141e-02 -7.815504074096679688e-01
3.205636050552129745e-03 -3.756955638527870178e-02 2.175187319517135620e-01
1.366152316331863403e-01 5.959935020655393600e-03 3.187623918056488037e-01
-6.844074726104736328e-01 4.055151715874671936e-02 -1.586119532585144043e-01
3.623305261135101318e-01 -3.622491285204887390e-02 -2.801834046840667725e-01
-7.190976291894912720e-02 9.462722390890121460e-02 -2.079930156469345093e-02
3.317944938316941261e-04 1.307863090187311172e-02 5.853443145751953125e-01
1.181066185235977173e-01 -6.433057039976119995e-02 -9.425368160009384155e-02
1.957531124353408813e-01 -8.725661784410476685e-03 -1.344083845615386963e-01
2.341677099466323853e-01 -1.191589236259460449e-02 -8.188824355602264404e-02
-7.196580767631530762e-01 3.158723562955856323e-02 -9.174895286560058594e-02
2.040582597255706787e-01 -9.912110865116119385e-03 2.948224842548370361e-01
-7.972518801689147949e-01 4.735382273793220520e-02 4.037028644233942032e-03
-6.953755021095275879e-01 9.589277207851409912e-02 -1.199321541935205460e-02
-1.048139408230781555e-01 5.750455334782600403e-02 -7.998992502689361572e-02
1.211386695504188538e-01 -2.314760908484458923e-02 -2.917578816413879395e-01
2.307929098606109619e-01 -5.884653702378273010e-02 1.210736259818077087e-01
1.453949511051177979e-01 -7.366397231817245483e-02 -2.888049483299255371e-01
2.417346090078353882e-01 -1.298752874135971069e-01 2.957189083099365234e-01
5.757136270403862000e-02 -1.750538311898708344e-02 1.821361929178237915e-01
-6.837747097015380859e-01 2.261384874582290649e-01 -1.315174275077879429e-03
-1.691127009689807892e-02 -5.473351851105690002e-02 -3.091855049133300781e-01
1.845214068889617920e-01 -1.375476419925689697e-01 2.625510692596435547e-01
-1.854661107063293457e-01 -8.821775019168853760e-02 1.753618195652961731e-02
-6.515032649040222168e-01 5.687177926301956177e-02 3.201085701584815979e-02
-7.140950560569763184e-01 3.831044584512710571e-02 1.996692717075347900e-01
-7.459904998540878296e-02 -2.697061561048030853e-02 8.403004705905914307e-02
3.593775928020477295e-01 4.292441532015800476e-02 -8.800505101680755615e-02
-7.796133160591125488e-01 3.973418474197387695e-02 -1.785442829132080078e-01
-1.346070021390914917e-01 2.164742723107337952e-02 6.563730239868164062e-01
-5.852203369140625000e-01 1.301415860652923584e-01 -1.262443489395081997e-03
-6.766296029090881348e-01 1.235765740275382996e-01 1.379227545112371445e-02
-7.195790410041809082e-01 3.101918101310729980e-01 9.916542097926139832e-03
1.839413642883300781e-01 8.073259145021438599e-02 -5.581272765994071960e-02
-2.621830068528652191e-02 8.294728398323059082e-02 -5.135695263743400574e-02
-1.406446993350982666e-01 2.897704951465129852e-02 7.197557687759399414e-01
-8.105137348175048828e-01 4.790750145912170410e-02 2.491046488285064697e-01
1.323967427015304565e-01 -8.236458897590637207e-02 2.708825767040252686e-01
2.614560127258300781e-01 -4.595379531383514404e-02 -2.378667443990707397e-01
1.353496760129928589e-01 -1.383913457393646240e-01 1.786823123693466187e-01
4.565414041280746460e-02 -9.109158813953399658e-02 3.633480519056320190e-02
1.293119788169860840e-01 -5.062049999833106995e-02 -9.599380940198898315e-02
5.342074632644653320e-01 4.221254587173461914e-02 7.999612390995025635e-02
1.876852661371231079e-01 -1.239047758281230927e-02 3.269093036651611328e-01
3.257615566253662109e-01 -5.167511850595474243e-02 2.581480145454406738e-01
-1.521664410829544067e-01 1.769259944558143616e-02 6.101279258728027344e-01
-3.003407418727874756e-01 4.325271584093570709e-03 8.932952582836151123e-02
-7.129876613616943359e-01 2.963618375360965729e-02 1.171451583504676819e-01
-3.201149106025695801e-01 9.441629797220230103e-02 -2.269762195646762848e-02
2.242610976099967957e-02 9.504906833171844482e-02 -1.650172099471092224e-02
-4.696797579526901245e-02 2.578681893646717072e-02 -5.804867744445800781e-01
1.037901416420936584e-01 -1.392877846956253052e-01 -1.919643431901931763e-01
-1.190249696373939514e-01 -4.903855919837951660e-02 -8.238918334245681763e-02
2.761679887771606445e-01 -5.307249352335929871e-02 1.471755057573318481e-01
-1.303094178438186646e-01 2.193744853138923645e-02 -6.672557592391967773e-01
3.378106057643890381e-01 -4.313268512487411499e-02 -1.133423298597335815e-01
4.165380597114562988e-01 -3.432659059762954712e-02 -8.971880376338958740e-02
-2.315266877412796021e-01 -8.154726773500442505e-02 -4.386914148926734924e-02
-8.184277452528476715e-03 -1.958825998008251190e-02 -3.369219899177551270e-01
-6.642377972602844238e-01 3.461926802992820740e-02 -1.017678529024124146e-01
1.975196003913879395e-01 -3.308741748332977295e-02 2.609427571296691895e-01
2.056138366460800171e-01 -4.876291844993829727e-03 -1.813654005527496338e-01
1.052402481436729431e-01 -1.906095072627067566e-02 1.210208907723426819e-01
7.925067096948623657e-03 -9.109158813953399658e-02 -2.433228492736816406e-02
1.580836065113544464e-02 6.988192442804574966e-03 -5.484526753425598145e-01
3.647893667221069336e-02 -1.537097245454788208e-01 1.429570168256759644e-01
-6.307008862495422363e-01 -2.950170636177062988e-02 -4.320845007896423340e-03
4.269260764122009277e-01 9.291346371173858643e-02 1.898628473281860352e-02
-2.925033867359161377e-02 -7.500861585140228271e-02 8.761576563119888306e-02
-8.825638890266418457e-02 3.382830321788787842e-02 -6.974970698356628418e-01
-2.808302342891693115e-01 -8.798045665025711060e-02 1.824804954230785370e-02
6.271263957023620605e-02 5.248071160167455673e-03 -3.322553336620330811e-01
-1.090060770511627197e-01 3.390740230679512024e-02 6.820530295372009277e-01
8.996074199676513672e-01 -2.107913140207529068e-03 -6.203499436378479004e-02
-6.852247714996337891e-01 3.654395416378974915e-02 -1.243367567658424377e-01
-7.140950560569763184e-01 3.831044584512710571e-02 1.996692717075347900e-01
-7.470255494117736816e-01 3.970781713724136353e-02 -2.190944701433181763e-01
4.998004138469696045e-01 9.370442479848861694e-02 -2.499142289161682129e-02
-7.517185807228088379e-01 3.243092820048332214e-02 9.955934435129165649e-02
-6.231076121330261230e-01 5.700360611081123352e-02 -4.597838595509529114e-02
6.785392016172409058e-02 -9.109158813953399658e-02 -1.312693301588296890e-02
3.831329345703125000e-01 8.181357383728027344e-02 -5.365075543522834778e-02
1.174211278557777405e-01 -1.315363198518753052e-01 1.410850584506988525e-01
1.538650877773761749e-02 -3.358836472034454346e-02 -9.599380940198898315e-02
-2.383553534746170044e-01 4.089426621794700623e-02 -8.281646370887756348e-01
-4.460366964340209961e-01 6.377954781055450439e-02 6.103930622339248657e-02
-5.097885131835937500e-01 3.786223381757736206e-02 -7.582417130470275879e-02
-2.176320552825927734e-01 3.699216991662979126e-02 -8.012454509735107422e-01
4.855434969067573547e-02 -6.667710840702056885e-02 -9.404275566339492798e-02
-6.766296029090881348e-01 1.235765740275382996e-01 1.379227545112371445e-02
1.356924325227737427e-01 -3.577670082449913025e-02 -2.889631390571594238e-01
-4.988204538822174072e-01 9.336168318986892700e-02 1.218397822231054306e-02
2.104914337396621704e-01 -1.107339113950729370e-01 3.005174398422241211e-01
-4.195851832628250122e-02 -9.072245657444000244e-02 2.412756346166133881e-02
-6.554054021835327148e-01 3.174542635679244995e-02 -1.346193104982376099e-01
-6.241095066070556641e-01 -2.736609615385532379e-02 -2.193301916122436523e-02
3.309555649757385254e-01 -3.648857399821281433e-02 -2.561644315719604492e-01
-7.617902159690856934e-01 1.326990574598312378e-01 -3.872631117701530457e-03
2.148944884538650513e-01 -6.393507868051528931e-02 8.761576563119888306e-02
-3.497166186571121216e-02 1.661161705851554871e-02 6.164029240608215332e-01
8.399949073791503906e-01 7.590769231319427490e-02 1.450414489954710007e-02
1.049238517880439758e-01 5.486800149083137512e-02 7.369476556777954102e-02
1.607201620936393738e-02 9.504874469712376595e-04 3.362427651882171631e-01
-7.505322098731994629e-01 3.791496157646179199e-02 -1.996367126703262329e-01
1.348223835229873657e-01 3.982525784522294998e-03 2.727545201778411865e-01
-7.678015828132629395e-01 3.583208471536636353e-02 -1.717683374881744385e-01
3.430573344230651855e-01 -5.072595551609992981e-02 2.180460542440414429e-01
-6.875448822975158691e-01 1.188307777047157288e-01 -1.317966356873512268e-02
8.404167890548706055e-01 -1.554241287522017956e-03 7.050453871488571167e-02
1.086413934826850891e-01 -1.903458870947360992e-02 -2.726165056228637695e-01
1.367997825145721436e-01 -6.352762691676616669e-03 8.861765265464782715e-02
2.756738662719726562e-02 -1.223227567970752716e-02 3.869963884353637695e-01
-4.899616837501525879e-01 -5.594633147120475769e-02 2.307294495403766632e-02
-2.835459113121032715e-01 -9.045881778001785278e-02 -1.030582096427679062e-02
4.351853206753730774e-02 -7.943803071975708008e-02 8.587563782930374146e-02
-5.852203369140625000e-01 1.301415860652923584e-01 -1.262443489395081997e-03
-3.972868025302886963e-01 6.525601446628570557e-02 6.209393218159675598e-02
-4.539727270603179932e-01 -5.858287960290908813e-02 -4.086347296833992004e-02
3.880105614662170410e-01 -9.064337611198425293e-02 -3.574855625629425049e-02
-3.036100566387176514e-01 9.576094150543212891e-02 1.004992634989321232e-03
-9.587602317333221436e-02 2.317663282155990601e-02 -5.079551935195922852e-01
-6.766296029090881348e-01 1.235765740275382996e-01 1.379227545112371445e-02
-3.253088891506195068e-01 3.008439764380455017e-02 8.471556007862091064e-02
7.761376500129699707e-01 -3.308741748332977295e-02 -8.602762967348098755e-02
9.123418927192687988e-01 -1.188953034579753876e-02 -5.779014527797698975e-02
2.331130802631378174e-01 -5.362616479396820068e-02 -1.532070040702819824e-01
6.724750995635986328e-02 -1.590882837772369385e-01 1.662905067205429077e-01
-4.753551483154296875e-01 -4.265810921788215637e-02 4.928028210997581482e-02
5.212092399597167969e-01 -9.056426584720611572e-02 1.084089279174804688e-03
-5.440305545926094055e-02 8.833781816065311432e-03 5.545229911804199219e-01
2.745597064495086670e-01 -6.272227317094802856e-02 1.034878119826316833e-01
7.753007113933563232e-02 7.779161911457777023e-03 -3.430388271808624268e-01
2.139785140752792358e-02 4.958049394190311432e-03 -5.323169827461242676e-01
6.057371497154235840e-01 2.834427729249000549e-02 8.529558777809143066e-02
-7.153078317642211914e-01 2.814797461032867432e-01 1.173576433211565018e-02
1.451644860208034515e-02 -4.347544163465499878e-02 9.170242398977279663e-02
1.547019779682159424e-01 -8.515933901071548462e-02 8.091892302036285400e-02
-9.513778984546661377e-02 2.496948651969432831e-02 -6.061140894889831543e-01
-3.722132146358489990e-01 -5.694821476936340332e-02 5.750632658600807190e-02
4.842252284288406372e-02 -4.049612581729888916e-02 3.084007203578948975e-01
4.587229192256927490e-01 9.502270817756652832e-02 8.466437458992004395e-03
-2.811466455459594727e-01 3.973418474197387695e-02 -8.961334824562072754e-02
1.453949511051177979e-01 -7.366397231817245483e-02 -2.888049483299255371e-01
-7.636358141899108887e-01 5.091317370533943176e-02 -2.721419334411621094e-01
3.152417242527008057e-01 -1.204100549221038818e-01 2.119819819927215576e-01
1.195567250251770020e-01 -5.535431206226348877e-03 2.063661068677902222e-01
-2.286792099475860596e-01 -7.395399361848831177e-02 4.980759322643280029e-02
-7.396627962589263916e-02 3.198271617293357849e-02 -6.814668178558349609e-01
-7.546911388635635376e-02 -1.923358999192714691e-03 4.237235784530639648e-01
