-6.826509833335876465e-01 1.579978466033935547e-01 -3.911382053047418594e-03
1.496434956789016724e-01 -7.918726652860641479e-02 -2.180359326303005219e-02
1.004999056458473206e-01 -3.769654035568237305e-02 -1.750206649303436279e-01
3.619501590728759766e-01 -8.140046894550323486e-02 4.904529452323913574e-02
7.291804552078247070e-01 -1.455132290720939636e-02 8.658961206674575806e-02
1.577763110399246216e-01 3.093914873898029327e-02 -8.809276670217514038e-02
-1.495910733938217163e-01 4.541824758052825928e-02 -6.896283626556396484e-01
8.229879140853881836e-01 -6.596142798662185669e-02 2.861991152167320251e-02
2.232388705015182495e-01 -9.165000170469284058e-03 2.272207885980606079e-01
1.937740594148635864e-01 -2.713720686733722687e-02 -2.940265238285064697e-01
-1.658608764410018921e-02 2.773935534060001373e-02 5.476006865501403809e-01
1.062328740954399109e-01 -7.449422776699066162e-02 3.172151446342468262e-01
-6.097222566604614258e-01 6.514021661132574081e-03 6.437766551971435547e-02
1.652158349752426147e-01 -1.038790643215179443e-01 -3.446366786956787109e-01
-3.805140405893325806e-02 -1.161817368119955063e-02 -2.636284530162811279e-01
-3.250508755445480347e-02 -3.431008756160736084e-02 -9.099925309419631958e-02
1.017531603574752808e-01 -4.097633808851242065e-02 -1.560351699590682983e-01
1.656424850225448608e-01 -8.500023931264877319e-02 -3.884716657921671867e-03
-5.687689408659934998e-02 2.467287890613079071e-02 4.637393355369567871e-01
1.092993542551994324e-01 -8.289370685815811157e-02 4.434761591255664825e-03
-3.080344796180725098e-01 -8.041387051343917847e-02 -1.375076547265052795e-02
-7.062228322029113770e-01 5.333775281906127930e-02 1.897564828395843506e-01
3.097934722900390625e-01 -6.094841286540031433e-02 -8.337306976318359375e-02
1.072994768619537354e-01 -8.212042599916458130e-02 6.059123575687408447e-02
2.189458161592483521e-01 -5.473547801375389099e-02 2.796441614627838135e-01
1.210052818059921265e-01 -1.321808062493801117e-02 9.296254813671112061e-02
2.348648309707641602e-01 -4.870918765664100647e-02 -3.074123561382293701e-01
-8.278418779373168945e-01 3.022021651268005371e-01 1.821592217311263084e-03
2.624364197254180908e-01 -8.001389354467391968e-02 7.453703135251998901e-02
-1.022073924541473389e-01 4.120517522096633911e-02 -6.508575081825256348e-01
1.174588426947593689e-01 -8.710677921772003174e-02 3.293964266777038574e-02
-6.120687723159790039e-01 1.875426769256591797e-01 5.794676486402750015e-03
4.128002822399139404e-01 -5.625537782907485962e-02 -6.604082137346267700e-02
2.310517132282257080e-01 1.101075187325477600e-01 -1.089761033654212952e-02
1.911342293024063110e-01 -6.636141240596771240e-02 -3.097855448722839355e-01
-7.263548970222473145e-01 2.843264304101467133e-02 -7.505358755588531494e-02
-7.869911193847656250e-01 4.960464686155319214e-02 -2.201378345489501953e-01
1.911342293024063110e-01 -6.636141240596771240e-02 -3.097855448722839355e-01
2.641696333885192871e-01 -9.974598139524459839e-02 -2.847204506397247314e-01
8.668251633644104004e-01 3.083249367773532867e-02 4.061916097998619080e-02
-4.293109849095344543e-02 -3.988306969404220581e-02 8.829617500305175781e-02
7.999039255082607269e-03 1.474337768740952015e-03 -3.750880956649780273e-01
2.651562392711639404e-01 -7.774736732244491577e-02 -2.796007692813873291e-01
2.547035813331604004e-01 -9.618304669857025146e-03 -2.797341048717498779e-01
2.706492543220520020e-01 -1.153817959129810333e-02 1.534120887517929077e-01
2.818485498428344727e-01 -8.564019948244094849e-02 -2.359768450260162354e-01
6.756904721260070801e-01 -7.260102778673171997e-02 4.331232234835624695e-02
-6.248412728309631348e-01 -3.519003465771675110e-02 1.835388876497745514e-02
3.592836856842041016e-01 -8.172044157981872559e-02 -2.729658223688602448e-02
2.695026397705078125e-01 -8.294703066349029541e-02 -1.401741430163383484e-02
8.842066675424575806e-02 1.728667691349983215e-02 3.576659560203552246e-01
2.189458161592483521e-01 -5.473547801375389099e-02 2.796441614627838135e-01
1.918808519840240479e-01 5.859075114130973816e-02 -7.915999740362167358e-02
6.927827596664428711e-01 -6.417489051818847656e-02 -4.852191731333732605e-02
2.592899501323699951e-01 1.048545166850090027e-01 3.696605563163757324e-02
-6.810285151004791260e-02 2.307298220694065094e-02 -5.264919400215148926e-01
-7.942706942558288574e-01 7.927268743515014648e-03 1.608736440539360046e-02
2.503571808338165283e-01 -7.751753553748130798e-03 -3.051991760730743408e-01
4.994881749153137207e-01 1.203367114067077637e-02 9.674897044897079468e-02
-3.216336071491241455e-01 8.594904094934463501e-02 -5.921458452939987183e-02
5.175670981407165527e-01 9.165535122156143188e-02 5.989794805645942688e-02
-7.481935620307922363e-01 5.859075114130973816e-02 -2.284573167562484741e-01
4.690101146697998047e-01 1.111207976937294006e-01 8.007870987057685852e-03
1.666290909051895142e-01 -6.865459680557250977e-02 -8.427967876195907593e-02
-8.083497881889343262e-01 6.160389631986618042e-02 3.062025010585784912e-01
7.338735461235046387e-01 -7.585414499044418335e-02 2.781996317207813263e-02
9.023695588111877441e-01 -5.550875887274742126e-02 3.208171809092164040e-03
-7.263548970222473145e-01 2.843264304101467133e-02 -7.505358755588531494e-02
1.832413822412490845e-01 -4.846919700503349304e-02 3.308409750461578369e-01
-1.744428575038909912e-01 1.002414748072624207e-01 -3.942915797233581543e-02
1.306538842618465424e-02 -7.628078758716583252e-02 -7.284039258956909180e-02
-7.450245320796966553e-02 7.821618765592575073e-02 7.355042546987533569e-02
8.476755768060684204e-02 9.472181648015975952e-02 -4.830860346555709839e-02
2.405177950859069824e-01 9.714833647012710571e-02 5.205843597650527954e-02
7.882967591285705566e-01 7.013669610023498535e-02 -4.270895197987556458e-02
-6.033226847648620605e-01 -1.532461494207382202e-02 5.568487942218780518e-02
5.187136530876159668e-01 1.113341152667999268e-01 4.994726274162530899e-03
-3.970955908298492432e-01 8.165597170591354370e-02 2.168236998841166496e-03
-5.685023218393325806e-02 9.706833958625793457e-02 -4.494880884885787964e-02
1.756418645381927490e-01 -4.060303047299385071e-02 -2.819739580154418945e-01
-3.490985631942749023e-01 -4.796256870031356812e-02 -6.612081825733184814e-02
-8.242955207824707031e-01 4.893802851438522339e-02 2.126037329435348511e-02
-4.350132048130035400e-01 7.552302628755569458e-02 7.352375984191894531e-02
5.048745274543762207e-01 8.370918035507202148e-02 -6.150777265429496765e-02
-8.336281776428222656e-01 3.516390323638916016e-01 6.034661550074815750e-03
-6.911571621894836426e-01 4.101852327585220337e-02 -8.206648379564285278e-02
-4.773079976439476013e-02 2.419291250407695770e-02 -4.487634897232055664e-01
-7.737119793891906738e-01 4.387167841196060181e-02 1.560252606868743896e-01
2.176925539970397949e-01 9.410387137904763222e-04 -1.977925598621368408e-01
-6.993966102600097656e-01 2.069014459848403931e-01 1.067436952143907547e-02
1.647850684821605682e-02 -8.294703066349029541e-02 4.405894130468368530e-02
-5.476461052894592285e-01 2.427290752530097961e-02 7.795014977455139160e-02
-6.977967023849487305e-01 1.784765720367431641e-01 1.064770575612783432e-02
-8.933232165873050690e-03 -8.276037871837615967e-02 8.083223947323858738e-04
1.507900804281234741e-01 7.847264409065246582e-03 -3.211714923381805420e-01
-1.192729771137237549e-01 5.211116001009941101e-02 -7.079471945762634277e-01
-2.047342807054519653e-01 7.040334492921829224e-02 -8.065277338027954102e-01
-4.992758631706237793e-01 -2.204419113695621490e-02 -6.489422917366027832e-02
2.286785244941711426e-01 2.677941322326660156e-02 9.608235210180282593e-02
5.439198575913906097e-03 1.747332699596881866e-02 -3.813010454177856445e-01
1.130324453115463257e-01 -1.279143709689378738e-02 -2.955464422702789307e-01
-1.154640223830938339e-02 -4.518940672278404236e-02 9.466911107301712036e-02
2.359806001186370850e-02 -8.150713145732879639e-02 6.592423468828201294e-02
-4.049350917339324951e-01 7.869616150856018066e-02 1.024773065000772476e-02
1.921208202838897705e-01 -5.885202437639236450e-03 -2.867469787597656250e-01
-2.324925512075424194e-01 -1.321808062493801117e-02 9.293588250875473022e-02
8.892729878425598145e-02 -7.801402360200881958e-02 7.848344743251800537e-02
-3.665908277034759521e-01 -6.193502992391586304e-02 5.680480971932411194e-02
7.999039255082607269e-03 1.474337768740952015e-03 -3.750880956649780273e-01
2.504371702671051025e-01 -8.220040798187255859e-02 -5.246833711862564087e-02
-5.290873050689697266e-01 9.344190359115600586e-02 1.416748482733964920e-02
3.744294047355651855e-01 9.581508487462997437e-02 5.395165458321571350e-02
-7.356876730918884277e-01 7.506972551345825195e-02 1.595403999090194702e-02
-3.141182288527488708e-02 3.691211342811584473e-02 -5.236121416091918945e-01
-1.845755428075790405e-01 5.340757779777050018e-03 9.632233530282974243e-02
-2.591883577406406403e-02 2.243301644921302795e-02 -4.274848103523254395e-01
7.855461537837982178e-02 -1.890342173282988369e-05 3.686252534389495850e-01
-1.199129298329353333e-01 -4.414947330951690674e-02 -8.062656968832015991e-02
2.357714325189590454e-01 -2.153755351901054382e-02 -2.828539013862609863e-01
2.884614467620849609e-01 -5.993514135479927063e-02 6.360438466072082520e-02
-8.778163045644760132e-02 2.163307368755340576e-02 5.068832635879516602e-01
7.483259439468383789e-01 -7.778414990752935410e-03 -7.788007706403732300e-02
1.436971873044967651e-01 -8.657348901033401489e-02 -3.197582662105560303e-01
2.016669064760208130e-01 -1.259310096502304077e-01 3.334807753562927246e-01
-4.482657015323638916e-01 9.168200939893722534e-02 5.672481656074523926e-02
2.854216396808624268e-01 -1.165982559323310852e-01 -2.891468405723571777e-01
2.800353169441223145e-01 -7.348095625638961792e-02 8.621630072593688965e-02
2.329716086387634277e-01 -1.185714676976203918e-01 -3.381570875644683838e-01
-3.652575612068176270e-01 1.104008406400680542e-01 1.670065894722938538e-02
-3.770476207137107849e-02 4.487481433898210526e-03 3.383605182170867920e-01
7.483259439468383789e-01 -7.778414990752935410e-03 -7.788007706403732300e-02
1.487368792295455933e-01 -3.673660010099411011e-02 -3.391169905662536621e-01
7.012434303760528564e-03 -1.280908882617950439e-01 1.447992920875549316e-01
7.753109335899353027e-01 -5.894854664802551270e-02 -4.433551430702209473e-02
2.759822309017181396e-01 3.560553118586540222e-02 -8.721282333135604858e-02
-1.773267984390258789e-02 -8.257372677326202393e-02 4.165909439325332642e-02
-4.092281460762023926e-01 1.084809601306915283e-01 2.582008577883243561e-02
2.819552123546600342e-01 -1.209979802370071411e-01 3.402803838253021240e-01
-6.936636567115783691e-01 3.075249865651130676e-02 1.252805143594741821e-01
6.730239987373352051e-01 1.048278510570526123e-01 -1.764385215938091278e-02
-6.987566947937011719e-01 4.147182777523994446e-02 -1.786471009254455566e-01
5.322286859154701233e-02 -2.872058423236012459e-03 -3.546360433101654053e-01
2.270786464214324951e-01 -2.727053500711917877e-02 3.329208195209503174e-01
-1.079670265316963196e-01 3.032585605978965759e-02 -5.724357366561889648e-01
-7.560064196586608887e-01 2.414592951536178589e-01 -1.298212329857051373e-03
5.578270927071571350e-02 1.086142808198928833e-01 -1.807049289345741272e-02
7.545655369758605957e-01 3.213907405734062195e-02 8.269651979207992554e-02
-1.589771509170532227e-01 5.747082456946372986e-02 7.120437026023864746e-01
-8.494138717651367188e-01 3.203609883785247803e-01 2.914856886491179466e-03
7.572399452328681946e-03 -1.780446060001850128e-02 1.614115834236145020e-01
-4.430927038192749023e-01 -3.265685588121414185e-02 7.488366961479187012e-02
-5.716446042060852051e-01 1.013614088296890259e-01 -1.804847386665642262e-03
-6.410002708435058594e-01 -1.129819639027118683e-02 4.944527149200439453e-02
3.558172285556793213e-01 -6.236167252063751221e-02 6.096454709768295288e-02
-6.736382246017456055e-01 2.197971194982528687e-02 6.733748316764831543e-02
5.058303102850914001e-02 2.144641242921352386e-02 -8.921269327402114868e-02
2.832084596157073975e-01 -4.185627773404121399e-02 -3.524228632450103760e-01
9.951329976320266724e-02 -6.113506481051445007e-02 6.227113306522369385e-02
-4.271777719259262085e-02 1.411354448646306992e-02 4.634993374347686768e-01
1.254316866397857666e-01 -7.934725284576416016e-02 -2.135028690099716187e-02
2.117196023464202881e-01 -8.311714045703411102e-03 3.115888237953186035e-01
1.543365269899368286e-01 -5.281559377908706665e-02 1.091748699545860291e-01
5.590577721595764160e-01 -7.766736298799514771e-02 3.333961591124534607e-02
-3.156872987747192383e-01 7.053667306900024414e-02 -7.233376055955886841e-02
-1.826597936451435089e-02 -2.924374118447303772e-02 1.125613227486610413e-01
-5.019956827163696289e-01 -6.145506352186203003e-02 1.342086493968963623e-02
-6.656653881072998047e-01 5.728416889905929565e-02 -4.462883248925209045e-02
-2.768630981445312500e-01 1.827328093349933624e-02 -8.939935266971588135e-02
-1.741270348429679871e-02 -5.111920181661844254e-03 3.247613310813903809e-01
4.706099927425384521e-01 1.106141582131385803e-01 -7.991125807166099548e-03
-1.150332465767860413e-01 -5.729531496763229370e-02 8.605630695819854736e-02
-5.986295938491821289e-01 1.052545011043548584e-01 1.323421020060777664e-02
-4.690418764948844910e-02 2.611278742551803589e-02 4.671257734298706055e-01
1.840680092573165894e-01 1.108807995915412903e-01 1.128766592592000961e-02
1.439451356418430805e-03 -9.526626020669937134e-02 -1.452358514070510864e-01
1.439451356418430805e-03 4.587155207991600037e-02 -8.435966819524765015e-02
2.459041327238082886e-01 -2.105758711695671082e-02 3.070290982723236084e-01
7.271806001663208008e-01 -3.833650425076484680e-02 7.635024935007095337e-02
-5.917233824729919434e-01 3.827202692627906799e-02 5.099184066057205200e-02
-6.391337513923645020e-01 4.101852327585220337e-02 7.624359428882598877e-02
-1.373784989118576050e-01 -7.998722791671752930e-02 5.224509164690971375e-02
-2.591842114925384521e-01 -8.100048452615737915e-02 -1.388408988714218140e-02
-8.018209785223007202e-02 -1.855107955634593964e-02 -8.398636430501937866e-02
2.951810359954833984e-01 -9.190648049116134644e-02 -3.391436636447906494e-01
4.478914439678192139e-01 1.058144569396972656e-01 -2.700326591730117798e-02
6.138810515403747559e-01 1.082943007349967957e-01 2.603340893983840942e-02
-2.802228927612304688e-01 5.891073495149612427e-02 8.624297380447387695e-02
-5.626359954476356506e-02 4.610626783687621355e-04 -3.336506783962249756e-01
2.440642416477203369e-01 -6.054845452308654785e-02 9.576236456632614136e-02
-5.183146595954895020e-01 8.780544623732566833e-03 -7.318703830242156982e-02
-1.653275452554225922e-02 -1.153183504939079285e-01 1.814903318881988525e-01
3.048070967197418213e-01 -5.294891819357872009e-02 3.488398492336273193e-01
4.673568904399871826e-01 1.094041205942630768e-02 -8.945267647504806519e-02
6.087572127580642700e-02 1.470017619431018829e-02 -3.381837308406829834e-01
1.315912902355194092e-01 -2.855045348405838013e-02 -2.197378575801849365e-01
-4.286136031150817871e-01 -7.121443003416061401e-02 -1.473736856132745743e-02
5.143631994724273682e-02 -1.070521995425224304e-01 -1.582750380039215088e-01
1.507900804281234741e-01 7.847264409065246582e-03 -3.211714923381805420e-01
-2.592108547687530518e-01 1.044278815388679504e-01 -3.094968572258949280e-02
5.906250327825546265e-02 -8.294703066349029541e-02 5.187178775668144226e-02
2.762447483837604523e-02 -4.852253943681716919e-02 1.579718142747879028e-01
2.753956019878387451e-01 -6.764134019613265991e-02 3.497731387615203857e-01
-7.858220487833023071e-02 1.779331453144550323e-02 4.537932872772216797e-01
1.976938098669052124e-01 -8.654680848121643066e-02 3.578526377677917480e-01
-6.238546967506408691e-01 1.718002185225486755e-02 -3.814923390746116638e-02
2.105196863412857056e-01 -2.167087979614734650e-02 -3.110121488571166992e-01
8.192281723022460938e-01 -2.617726475000381470e-02 6.419101357460021973e-02
-7.351584732532501221e-02 -5.121568590402603149e-02 -6.510754674673080444e-02
2.173151075839996338e-02 -7.953392714262008667e-02 -1.369697004556655884e-01
3.370409458875656128e-02 -1.141717433929443359e-01 -1.159576848149299622e-01
-1.685273833572864532e-02 3.525888547301292419e-02 5.151761174201965332e-01
2.664628326892852783e-01 8.224260807037353516e-02 -6.294768303632736206e-02
-4.340265989303588867e-01 -6.358826160430908203e-02 4.157910123467445374e-02
-1.957256533205509186e-02 -1.377804111689329147e-02 -2.607219517230987549e-01
2.015602439641952515e-01 -3.772321343421936035e-02 1.622648686170578003e-01
-5.232476592063903809e-01 6.754004862159490585e-03 7.933673262596130371e-02
3.592836856842041016e-01 -8.172044157981872559e-02 -2.729658223688602448e-02
-7.031564116477966309e-01 2.923259697854518890e-02 1.081615909934043884e-01
-1.427115052938461304e-01 -8.500023931264877319e-02 1.166097447276115417e-02
-4.725082963705062866e-02 -2.820380590856075287e-02 1.533054262399673462e-01
2.629430592060089111e-01 -7.076112926006317139e-02 -2.588554024696350098e-01
2.650229334831237793e-01 -6.046845018863677979e-02 2.948698699474334717e-01
-5.823680758476257324e-02 6.647339090704917908e-03 -3.778345882892608643e-01
-7.330211400985717773e-01 2.611278742551803589e-02 4.955193027853965759e-02
3.290455937385559082e-01 -5.236228927969932556e-02 7.133723050355911255e-02
1.144723668694496155e-01 1.113874390721321106e-01 4.114781972020864487e-03
3.381649851799011230e-01 5.528429150581359863e-02 8.794952183961868286e-02
2.272919565439224243e-01 -4.231972154229879379e-03 -3.051458299160003662e-01
-1.687898635864257812e-01 1.083742976188659668e-01 -1.919042505323886871e-02
6.653444766998291016e-01 -8.190711587667465210e-02 -5.511281080543994904e-03
1.918808519840240479e-01 5.859075114130973816e-02 -7.915999740362167358e-02
2.924612164497375488e-01 -2.852378226816654205e-02 -2.762143015861511230e-01
-7.200886011123657227e-01 2.968590147793292999e-02 -9.401239454746246338e-02
2.688093483448028564e-01 -3.916312009096145630e-02 2.693514823913574219e-01
3.068602979183197021e-01 -1.117185726761817932e-01 3.413469791412353516e-01
2.633430361747741699e-01 -6.705470383167266846e-02 3.315075933933258057e-01
-2.438251674175262451e-01 -8.738357573747634888e-03 9.410914033651351929e-02
7.567787170410156250e-01 -6.054845452308654785e-02 1.080769579857587814e-02
-6.597991585731506348e-01 8.338920027017593384e-02 2.803328260779380798e-02
-1.724963039159774780e-01 6.595028936862945557e-02 -7.688767313957214355e-01
-4.626422747969627380e-02 -8.631701581180095673e-03 2.672182917594909668e-01
7.467527389526367188e-01 9.554844349622726440e-02 2.200699225068092346e-02
5.668706297874450684e-01 -5.620205774903297424e-02 -6.046783924102783203e-02
-2.450250983238220215e-01 7.538969814777374268e-02 -8.512715697288513184e-01
9.226042032241821289e-02 -7.604081183671951294e-02 -3.068303689360618591e-02
2.535569965839385986e-01 -2.868377044796943665e-02 8.706958591938018799e-02
-6.784113049507141113e-01 5.072458088397979736e-02 -4.478881880640983582e-02
2.655295431613922119e-01 -4.418632481247186661e-03 9.936214238405227661e-02
5.122299492359161377e-02 -3.065698780119419098e-02 2.010090798139572144e-01
-1.840344397351145744e-03 2.293965406715869904e-02 4.270216226577758789e-01
2.280119210481643677e-01 -4.436279460787773132e-02 -9.153255075216293335e-02
3.279336262494325638e-03 -3.239021077752113342e-02 1.604249775409698486e-01
7.753109335899353027e-01 -5.894854664802551270e-02 -4.433551430702209473e-02
4.487672820687294006e-02 -3.618679009377956390e-03 2.239143252372741699e-01
-5.128216743469238281e-01 1.107372902333736420e-02 8.157658576965332031e-02
1.533765941858291626e-01 -1.511129364371299744e-02 2.745778262615203857e-01
1.327912211418151855e-01 -4.238958656787872314e-02 9.840220212936401367e-02
-6.999832391738891602e-01 -1.439133472740650177e-02 -1.844380423426628113e-02
1.348977535963058472e-01 9.687153622508049011e-03 2.826039791107177734e-01
5.570271611213684082e-02 -3.593665361404418945e-02 1.079749390482902527e-01
-1.192729771137237549e-01 5.211116001009941101e-02 -7.079471945762634277e-01
4.442342370748519897e-02 -3.417675942182540894e-02 -1.680344343185424805e-01
5.045545697212219238e-01 -7.124111056327819824e-02 4.765871167182922363e-02
-6.329208016395568848e-01 1.498916894197463989e-01 1.286089979112148285e-02
5.118607878684997559e-01 -8.140046894550323486e-02 -1.201753970235586166e-02
6.647537648677825928e-02 6.389708817005157471e-02 -7.646682858467102051e-02
-1.427914947271347046e-01 4.861804470419883728e-02 -7.074939012527465820e-01
8.566124439239501953e-01 -6.102841719985008240e-02 -1.900376938283443451e-02
2.014269083738327026e-01 -1.543127093464136124e-02 -3.260245323181152344e-01
5.356193184852600098e-01 2.003316581249237061e-02 -8.929269015789031982e-02
1.459370553493499756e-01 -1.239311397075653076e-01 -2.919733226299285889e-01
-3.125675320625305176e-01 6.352377682924270630e-02 8.405642956495285034e-02
4.583666473627090454e-02 -2.281747199594974518e-02 2.996162474155426025e-01
-6.026826500892639160e-01 -3.420343250036239624e-02 3.400624170899391174e-02
-5.434371903538703918e-02 3.016586601734161377e-02 4.954173266887664795e-01
8.874064683914184570e-02 -3.025700710713863373e-02 2.215411365032196045e-01
-7.538239657878875732e-02 1.515348069369792938e-02 4.199020564556121826e-01
2.428376525640487671e-01 -6.041512638330459595e-02 -2.342169433832168579e-01
-1.871928386390209198e-02 1.382022909820079803e-02 -4.630825519561767578e-01
2.405177950859069824e-01 9.714833647012710571e-02 5.205843597650527954e-02
2.688093483448028564e-01 -3.916312009096145630e-02 2.693514823913574219e-01
6.703574657440185547e-01 6.331045925617218018e-02 -7.441362738609313965e-02
1.844679713249206543e-01 5.447423551231622696e-03 2.402866482734680176e-01
3.824555277824401855e-01 -6.188168376684188843e-02 -5.425489321351051331e-02
-6.826509833335876465e-01 1.579978466033935547e-01 -3.911382053047418594e-03
-6.613378878682851791e-03 -1.033190935850143433e-01 -1.730207800865173340e-01
1.582296192646026611e-01 -8.294703066349029541e-02 -3.148298338055610657e-02
4.453049302101135254e-01 -5.524210259318351746e-02 6.875072419643402100e-02
-7.330211400985717773e-01 2.611278742551803589e-02 4.955193027853965759e-02
-6.747048497200012207e-01 1.845028549432754517e-01 -4.284691531211137772e-03
-3.284065425395965576e-01 -1.145818550139665604e-02 -8.606622368097305298e-02
2.039600908756256104e-01 -3.988306969404220581e-02 -2.423231005668640137e-01
7.961629033088684082e-01 -8.385363966226577759e-02 2.208698913455009460e-02
2.154793739318847656e-01 7.194991409778594971e-02 7.853677868843078613e-02
-1.653275452554225922e-02 -1.153183504939079285e-01 1.814903318881988525e-01
-6.341207027435302734e-01 6.437705457210540771e-02 -4.636205732822418213e-02
2.718758285045623779e-01 -8.286704868078231812e-02 -4.532212018966674805e-02
-1.358319371938705444e-01 -8.182711154222488403e-02 -2.822985500097274780e-02
4.258353635668754578e-02 1.287677558138966560e-03 -2.535224258899688721e-01
1.543365269899368286e-01 -5.281559377908706665e-02 1.091748699545860291e-01
3.370409458875656128e-02 -1.141717433929443359e-01 -1.159576848149299622e-01
1.840680092573165894e-01 1.108807995915412903e-01 1.128766592592000961e-02
-8.172025680541992188e-01 5.675086751580238342e-02 -2.529891133308410645e-01
-8.007235527038574219e-01 3.435227274894714355e-02 3.019314631819725037e-02
-8.446674942970275879e-01 5.485765263438224792e-02 8.349873241968452930e-04
2.327582985162734985e-01 -1.335838586091995239e-01 -2.894667983055114746e-01
1.902809441089630127e-01 -3.265685588121414185e-02 -3.449299931526184082e-01
-9.583444148302078247e-02 -6.113506481051445007e-02 8.696291595697402954e-02
-4.533094912767410278e-02 -3.991989418864250183e-03 3.164951801300048828e-01
2.693118713796138763e-02 -8.284038305282592773e-02 1.592250615358352661e-01
7.523790597915649414e-01 7.980591617524623871e-03 8.605630695819854736e-02
-8.548001646995544434e-01 3.496391773223876953e-01 2.514882013201713562e-03
1.072994768619537354e-01 -8.212042599916458130e-02 6.059123575687408447e-02
-6.024160385131835938e-01 2.541949972510337830e-02 7.563029229640960693e-02
-8.160026073455810547e-01 1.971318945288658142e-02 -1.364410389214754105e-02
2.189458161592483521e-01 -5.473547801375389099e-02 2.796441614627838135e-01
-1.965256035327911377e-02 1.091742515563964844e-01 -1.537732966244220734e-02
-5.711687728762626648e-02 -7.236103713512420654e-02 4.549885168671607971e-02
2.673694491386413574e-01 -7.116110622882843018e-02 4.787203669548034668e-02
1.159122809767723083e-01 -8.252041041851043701e-02 3.222548067569732666e-01
3.066736459732055664e-01 -6.356159597635269165e-02 2.560189664363861084e-01
1.475369632244110107e-01 -8.285053074359893799e-03 3.154819011688232422e-01
-6.626522541046142578e-01 -2.793715149164199829e-02 9.927750565111637115e-03
-4.143744707107543945e-01 8.352252840995788574e-02 -2.684792038053274155e-03
-1.074337139725685120e-01 4.600487649440765381e-02 -6.763491630554199219e-01
6.400393843650817871e-01 -7.751753553748130798e-03 9.440245479345321655e-02
-3.216336071491241455e-01 8.594904094934463501e-02 -5.921458452939987183e-02
2.517437636852264404e-01 4.610626783687621355e-04 9.946881234645843506e-02
3.636567294597625732e-01 -7.697408646345138550e-02 6.891071796417236328e-02
1.795882880687713623e-01 -8.222708851099014282e-02 1.438080519437789917e-02
1.765484809875488281e-01 -7.700074464082717896e-02 3.637988865375518799e-01
6.488388180732727051e-01 6.594015751034021378e-03 -8.923936635255813599e-02
1.543365269899368286e-01 -5.281559377908706665e-02 1.091748699545860291e-01
2.592899501323699951e-01 1.048545166850090027e-01 3.696605563163757324e-02
-7.384341955184936523e-01 4.384500905871391296e-02 -1.980058699846267700e-01
6.649444699287414551e-01 8.728229254484176636e-02 -5.414823442697525024e-02
-7.529399394989013672e-01 7.274986803531646729e-02 -5.671271122992038727e-03
9.850003570318222046e-02 -2.103092521429061890e-02 9.898883104324340820e-02
-5.317045748233795166e-02 -1.193816121667623520e-02 2.529258430004119873e-01
8.916728943586349487e-02 1.704669371247291565e-02 -3.481564223766326904e-01
-7.977637648582458496e-01 2.780169844627380371e-01 3.816823591478168964e-04
2.898747026920318604e-01 -1.361805200576782227e-02 -2.716279327869415283e-01
-3.354994356632232666e-01 -1.703116856515407562e-02 -8.419968187808990479e-02
-7.316879034042358398e-01 5.709751695394515991e-02 2.235943526029586792e-01
-2.798762321472167969e-01 8.352252840995788574e-02 9.030184149742126465e-01
-1.878820061683654785e-01 5.003129318356513977e-02 7.205232381820678711e-01
2.285185456275939941e-01 -4.285305272787809372e-03 1.119480282068252563e-01
-4.738640785217285156e-01 6.611028313636779785e-02 7.565695792436599731e-02
6.920361518859863281e-01 -7.502754032611846924e-02 -2.900314331054687500e-02
2.255320847034454346e-01 -9.574624896049499512e-02 -2.870936393737792969e-01
2.656095623970031738e-01 -5.510877817869186401e-02 3.068158030509948730e-01
5.956913903355598450e-02 -7.318765670061111450e-02 -7.953330874443054199e-02
5.471610650420188904e-02 -3.428342565894126892e-02 -1.730207800865173340e-01
7.961629033088684082e-01 -8.385363966226577759e-02 2.208698913455009460e-02
1.640425920486450195e-01 -2.729719504714012146e-02 -2.584287524223327637e-01
-1.589771509170532227e-01 5.747082456946372986e-02 7.120437026023864746e-01
1.850279420614242554e-01 4.834120161831378937e-03 2.259675264358520508e-01
-7.138223648071289062e-01 7.493639737367630005e-02 -1.889710873365402222e-02
3.503734618425369263e-02 -1.857774145901203156e-02 1.312534809112548828e-01
-7.012939453125000000e-02 4.453830420970916748e-02 -8.481297641992568970e-02
1.327912211418151855e-01 -4.238958656787872314e-02 9.840220212936401367e-02
-9.962087124586105347e-02 -2.393740415573120117e-02 8.930944651365280151e-02
7.271806001663208008e-01 -3.833650425076484680e-02 7.635024935007095337e-02
7.545655369758605957e-01 3.213907405734062195e-02 8.269651979207992554e-02
2.001203447580337524e-01 1.954303821548819542e-03 1.891165077686309814e-01
4.666102528572082520e-01 -2.388407103717327118e-02 8.933610469102859497e-02
-3.359835222363471985e-02 -2.241750061511993408e-02 1.693310886621475220e-01
7.953492604428902268e-05 1.102408468723297119e-01 1.747394353151321411e-02
2.571834325790405273e-01 -6.993452459573745728e-02 -8.257311582565307617e-02
1.543365269899368286e-01 -5.281559377908706665e-02 1.091748699545860291e-01
2.359806001186370850e-02 -8.150713145732879639e-02 6.592423468828201294e-02
4.423451423645019531e-01 1.256697066128253937e-02 9.677564352750778198e-02
3.636567294597625732e-01 -7.697408646345138550e-02 6.891071796417236328e-02
-4.617848396301269531e-01 6.693689525127410889e-02 -8.177780546247959137e-03
2.753956019878387451e-01 -6.764134019613265991e-02 3.497731387615203857e-01
-7.757118344306945801e-01 1.698637753725051880e-01 1.794927171431481838e-03
1.925741285085678101e-01 -7.700074464082717896e-02 2.686048746109008789e-01
-5.560989379882812500e-01 9.322858601808547974e-02 -6.231236271560192108e-03
1.786816716194152832e-01 -2.969704568386077881e-02 3.148953020572662354e-01
7.646715641021728516e-01 -1.272161491215229034e-03 -7.574687898159027100e-02
7.436820864677429199e-02 -1.412468962371349335e-02 3.051892220973968506e-01
-2.442559413611888885e-02 3.020901698619127274e-03 -3.547160327434539795e-01
1.993737220764160156e-01 -4.722080484498292208e-04 2.577522099018096924e-01
-5.010623931884765625e-01 5.403104051947593689e-02 1.427414547652006149e-02
2.060932815074920654e-01 -1.294241100549697876e-01 2.819373309612274170e-01
4.720765650272369385e-01 -2.212418429553508759e-02 -8.283976465463638306e-02
-9.013226255774497986e-03 1.616674661636352539e-02 -3.806610703468322754e-01
-8.131495118141174316e-01 2.184474021196365356e-01 3.928126767277717590e-03
1.515367031097412109e-01 -1.039158739149570465e-02 -2.861603796482086182e-01
3.761892914772033691e-01 -8.036053180694580078e-02 -4.305559769272804260e-02
-7.701388597488403320e-01 5.355106666684150696e-02 3.264632448554039001e-02
-3.511825576424598694e-02 -5.271908827126026154e-03 -3.063724339008331299e-01
3.290455937385559082e-01 -5.236228927969932556e-02 7.133723050355911255e-02
2.353981137275695801e-01 -7.297433167695999146e-02 -2.456295639276504517e-01
1.038330271840095520e-01 -1.858793315477669239e-03 -1.864066123962402344e-01
4.234355315566062927e-02 1.120705623179674149e-02 -4.301779866218566895e-01
8.842066675424575806e-02 1.728667691349983215e-02 3.576659560203552246e-01
2.833417952060699463e-01 5.874056834727525711e-03 -9.131922572851181030e-02
1.524699926376342773e-01 -5.516212061047554016e-02 3.254279792308807373e-01
-6.999832391738891602e-01 3.013920597732067108e-02 1.180276349186897278e-01
7.876793295145034790e-02 1.896656863391399384e-02 3.731049895286560059e-01
4.897288084030151367e-01 8.700550533831119537e-03 -8.931936323642730713e-02
9.820672124624252319e-02 -6.817463040351867676e-02 -3.077856600284576416e-01
-5.427397489547729492e-01 4.811141267418861389e-02 -6.822735071182250977e-02
2.062799483537673950e-01 -7.700074464082717896e-02 3.517949953675270081e-02
1.744419485330581665e-01 -9.107985347509384155e-02 3.602257668972015381e-01
-6.354539394378662109e-01 4.280507937073707581e-02 1.139478981494903564e-01
2.709425389766693115e-01 -9.147983044385910034e-02 2.624185979366302490e-01
-1.804957985877990723e-01 5.411103367805480957e-02 7.021510601043701172e-01
-2.464649975299835205e-01 6.483036279678344727e-02 -8.192468881607055664e-01
2.060932815074920654e-01 -1.294241100549697876e-01 2.819373309612274170e-01
2.184391766786575317e-01 -1.025826018303632736e-02 1.005087345838546753e-01
5.954247340559959412e-02 1.443352177739143372e-02 3.440135121345520020e-01
-9.596776962280273438e-02 -5.686867237091064453e-02 -5.972121655941009521e-02
8.621321320533752441e-01 -5.398885533213615417e-02 3.437955304980278015e-02
-4.614115655422210693e-01 8.224260807037353516e-02 6.523095071315765381e-02
3.015006482601165771e-01 -1.240378022193908691e-01 -2.745077610015869141e-01
7.392864823341369629e-01 8.800224214792251587e-02 -3.766926378011703491e-02
-1.878820061683654785e-01 5.003129318356513977e-02 7.205232381820678711e-01
7.796572446823120117e-01 4.632485657930374146e-02 -6.369430571794509888e-02
1.830014139413833618e-01 -1.112119257450103760e-01 -3.421834707260131836e-01
-1.488977819681167603e-01 4.379168152809143066e-02 -6.772291660308837891e-01
2.924612164497375488e-01 -2.852378226816654205e-02 -2.762143015861511230e-01
-3.216336071491241455e-01 8.594904094934463501e-02 -5.921458452939987183e-02
-3.586487472057342529e-02 -1.165495719760656357e-03 -3.343439698219299316e-01
-5.684714913368225098e-01 7.997608184814453125e-02 -5.697936285287141800e-03
-5.716446042060852051e-01 1.013614088296890259e-01 -1.804847386665642262e-03
1.522833257913589478e-01 -2.898719860240817070e-03 -2.963197231292724609e-01
-1.539908051490783691e-01 3.448560088872909546e-02 5.761855840682983398e-01
1.119658499956130981e-01 1.198033895343542099e-02 3.075357675552368164e-01
-7.754451632499694824e-01 5.419102683663368225e-02 -2.602686285972595215e-01
-6.399644911289215088e-02 4.147182777523994446e-02 5.717858672142028809e-01
-1.962814778089523315e-01 6.917675584554672241e-02 8.032380342483520508e-01
-2.454517334699630737e-01 6.403040885925292969e-02 -7.900221347808837891e-01
1.030330806970596313e-01 -1.993765495717525482e-02 -3.087189197540283203e-01
-5.919633507728576660e-01 -1.935102418065071106e-02 -4.790862649679183960e-02
-2.057475596666336060e-01 7.090998440980911255e-02 8.180370926856994629e-01
-6.414269804954528809e-01 1.622109264135360718e-01 1.262091472744941711e-02
-8.826571516692638397e-03 1.419353857636451721e-02 -4.647891223430633545e-01
1.998536884784698486e-01 -2.569729834794998169e-02 2.914300858974456787e-01
-3.386913565918803215e-03 -7.223629654617980123e-05 2.882836163043975830e-01
-5.534324645996093750e-01 -3.700325265526771545e-02 -3.993579000234603882e-02
8.039758205413818359e-01 -6.201501190662384033e-02 -3.382950648665428162e-02
-4.429101198911666870e-02 1.536679267883300781e-02 4.743786454200744629e-01
2.636630237102508545e-01 -1.204481720924377441e-02 3.154285848140716553e-01
-5.727686360478401184e-02 4.192513227462768555e-02 6.291155815124511719e-01
6.477722525596618652e-01 -8.238708227872848511e-02 1.184763014316558838e-02
8.025358319282531738e-01 -5.302892252802848816e-02 5.171179398894309998e-02
-7.556596994400024414e-01 7.226989418268203735e-02 3.448156872764229774e-03
-1.683365702629089355e-01 1.078041363507509232e-02 9.666897356510162354e-02
1.992403864860534668e-01 -4.102966189384460449e-02 1.500256359577178955e-01
1.467369943857192993e-01 -1.244111061096191406e-01 3.057758510112762451e-01
6.248403191566467285e-01 9.989483654499053955e-02 -3.881585970520973206e-02
8.474397063255310059e-01 -1.663119532167911530e-02 -5.196170508861541748e-02
-7.858220487833023071e-02 1.779331453144550323e-02 4.537932872772216797e-01
-7.626648992300033569e-03 2.635277993977069855e-02 4.516067206859588623e-01
-7.008098959922790527e-01 -5.271908827126026154e-03 -3.078969754278659821e-02
1.119925081729888916e-01 -2.353743091225624084e-02 8.949609845876693726e-02
1.813481748104095459e-01 -2.260415069758892059e-02 3.410536646842956543e-01
3.440846204757690430e-01 1.064010933041572571e-01 -2.535003609955310822e-02
3.253924548625946045e-01 6.987004727125167847e-02 -7.262707501649856567e-02
1.823347657918930054e-01 -4.028305038809776306e-02 -1.529153734445571899e-01
3.958680331707000732e-01 3.576552122831344604e-02 -8.715949207544326782e-02
-1.596704274415969849e-01 -4.852253943681716919e-02 7.456369698047637939e-02
3.349118828773498535e-01 1.001348197460174561e-01 -3.966914117336273193e-02
5.472718477249145508e-01 6.541699171066284180e-02 8.272318542003631592e-02
-5.105284452438354492e-01 5.925737693905830383e-02 7.499033212661743164e-02
-5.872703194618225098e-01 9.260511025786399841e-03 -6.230772286653518677e-02
-1.820957064628601074e-01 6.843013316392898560e-02 8.031579852104187012e-01
-4.308001399040222168e-01 5.571093410253524780e-02 1.544740423560142517e-02
-1.540707945823669434e-01 -8.142712712287902832e-02 -3.084302507340908051e-02
1.652158349752426147e-01 -1.038790643215179443e-01 -3.446366786956787109e-01
2.301184535026550293e-01 -1.255691749975085258e-04 -9.273247420787811279e-02
8.503994941711425781e-01 3.792538493871688843e-02 -3.958914428949356079e-02
-8.586588315665721893e-03 -8.001389354467391968e-02 2.592674829065799713e-02
4.018368571996688843e-02 -8.113381266593933105e-02 -6.249437853693962097e-02
8.472264409065246582e-01 4.139183089137077332e-02 4.632546752691268921e-02
7.646715641021728516e-01 -1.272161491215229034e-03 -7.574687898159027100e-02
3.391741216182708740e-02 -5.645219236612319946e-03 2.186879813671112061e-01
-4.034459590911865234e-02 2.163307368755340576e-02 -4.296713173389434814e-01
-7.093347609043121338e-03 -7.245115935802459717e-03 9.800223261117935181e-02
3.103000819683074951e-01 -1.007161010056734085e-02 -9.150589257478713989e-02
-1.767893582582473755e-01 4.741812124848365784e-02 -6.950680017471313477e-01
3.381649851799011230e-01 5.528429150581359863e-02 8.794952183961868286e-02
4.220263957977294922e-01 9.912154078483581543e-02 4.880531132221221924e-02
5.471385717391967773e-01 1.081876456737518311e-01 2.731332741677761078e-02
-7.431580126285552979e-02 -8.030720800161361694e-02 -7.511156145483255386e-03
9.198964573442935944e-03 -1.220480538904666901e-02 -2.862403392791748047e-01
2.800086736679077148e-01 -1.895105279982089996e-02 1.457325667142868042e-01
-1.674607768654823303e-02 -1.055856198072433472e-01 -1.621414572000503540e-01
-4.901297390460968018e-01 -2.999036200344562531e-02 6.877738982439041138e-02
1.962005794048309326e-01 -4.673598334193229675e-02 3.292677104473114014e-01
6.420885026454925537e-02 -1.713783293962478638e-02 -2.876269221305847168e-01
-4.236005842685699463e-01 7.500625215470790863e-03 -8.510629087686538696e-02
-5.128216743469238281e-01 1.107372902333736420e-02 8.157658576965332031e-02
-2.403853833675384521e-01 6.296381354331970215e-02 7.880656123161315918e-01
1.855837740004062653e-02 -6.862793117761611938e-02 -1.275036185979843140e-01
1.531366109848022461e-01 -9.670617431402206421e-02 -2.902934253215789795e-01
2.759822309017181396e-01 3.560553118586540222e-02 -8.721282333135604858e-02
4.536777436733245850e-01 1.085876151919364929e-01 -1.823048479855060577e-02
-2.970485091209411621e-01 -6.868127733469009399e-02 -4.433551430702209473e-02
2.459041327238082886e-01 -2.873710356652736664e-02 2.772976458072662354e-01
7.165412902832031250e-01 1.368690095841884613e-02 9.162929654121398926e-02
6.816901564598083496e-01 -3.734990209341049194e-02 -7.409364730119705200e-02
1.929207891225814819e-01 -1.027857884764671326e-01 -3.133853375911712646e-01
3.283522725105285645e-01 7.504305243492126465e-02 7.621692866086959839e-02
1.863837242126464844e-02 -1.825776509940624237e-02 -2.536023855209350586e-01
-3.295798003673553467e-01 2.549949288368225098e-02 -8.897271007299423218e-02
2.543036043643951416e-01 -3.273685276508331299e-02 2.457263022661209106e-01
7.437129020690917969e-01 9.818827360868453979e-02 8.034535683691501617e-03
3.592836856842041016e-01 -8.172044157981872559e-02 -2.729658223688602448e-02
7.668848037719726562e-01 -1.265176385641098022e-01 -3.271422116085886955e-03
1.853171177208423615e-02 -9.724960662424564362e-03 2.040755748748779297e-01
5.570271611213684082e-02 -3.593665361404418945e-02 1.079749390482902527e-01
7.439487427473068237e-02 -3.798985853791236877e-02 1.075216382741928101e-01
-7.474202513694763184e-01 3.211241215467453003e-02 8.650961518287658691e-02
1.626826673746109009e-01 -7.321432232856750488e-02 2.747378051280975342e-01
-6.983566880226135254e-01 -1.332473661750555038e-02 2.883323282003402710e-02
-1.255125999450683594e-01 -7.457423210144042969e-02 4.123245552182197571e-02
1.378042250871658325e-01 9.741497784852981567e-02 -4.444217681884765625e-02
-1.875620335340499878e-01 -2.951038628816604614e-02 -7.945331186056137085e-02
4.822892844676971436e-01 -6.022845581173896790e-02 -5.606811493635177612e-02
1.603094935417175293e-01 -2.713720686733722687e-02 -2.162980735301971436e-01
1.514525711536407471e-02 -4.018650855869054794e-03 -3.413035571575164795e-01
-8.160026073455810547e-01 1.971318945288658142e-02 -1.364410389214754105e-02
2.369446754455566406e-01 -6.025513634085655212e-02 2.540991008281707764e-01
-3.216336071491241455e-01 8.594904094934463501e-02 -5.921458452939987183e-02
1.671090573072433472e-01 -5.964182317256927490e-02 -5.670807138085365295e-02
-6.143661215901374817e-02 2.299298718571662903e-02 5.354948043823242188e-01
-3.079853020608425140e-02 -1.218828605487942696e-03 -2.950931191444396973e-01
1.812148541212081909e-01 5.527418106794357300e-03 -2.296305745840072632e-01
2.913412749767303467e-01 -1.300640851259231567e-01 3.147619664669036865e-01
1.203386634588241577e-01 -1.564459316432476044e-02 -7.961330562829971313e-02
2.039334326982498169e-01 4.821806773543357849e-02 9.082935005426406860e-02
2.115329355001449585e-01 -9.915935248136520386e-02 3.154552578926086426e-01
-6.977967023849487305e-01 1.784765720367431641e-01 1.064770575612783432e-02
-6.480398774147033691e-01 2.488620020449161530e-02 9.058936685323715210e-02
-2.463891543447971344e-02 -2.564396522939205170e-02 1.408262103796005249e-01
7.730136066675186157e-02 9.877489507198333740e-02 4.949859902262687683e-02
1.436971873044967651e-01 -8.657348901033401489e-02 -3.197582662105560303e-01
-1.150332465767860413e-01 -5.729531496763229370e-02 8.605630695819854736e-02
1.734286695718765259e-01 -4.814922064542770386e-02 1.278936862945556641e-01
-1.820957064628601074e-01 -3.633662685751914978e-02 8.312316238880157471e-02
7.199010848999023438e-01 9.864157438278198242e-02 2.853991650044918060e-02
-6.636963039636611938e-02 3.947195410728454590e-02 6.294622421264648438e-01
-2.128404378890991211e-01 5.341774597764015198e-02 8.882947266101837158e-02
3.096068203449249268e-01 -6.897459179162979126e-02 -3.458366096019744873e-01
8.638920187950134277e-01 8.380573242902755737e-03 -4.585541784763336182e-02
3.349118828773498535e-01 1.001348197460174561e-01 -3.966914117336273193e-02
2.313450425863265991e-01 -2.175087481737136841e-02 -8.294642716646194458e-02
7.892379537224769592e-03 -2.364408783614635468e-02 -8.222647011280059814e-02
-5.738044977188110352e-01 -2.769716829061508179e-02 5.179178714752197266e-02
-7.977637648582458496e-01 2.780169844627380371e-01 3.816823591478168964e-04
1.755885183811187744e-01 -7.618426345288753510e-03 -9.515898674726486206e-02
6.087572127580642700e-02 1.470017619431018829e-02 -3.381837308406829834e-01
7.822437882423400879e-01 -8.518689125776290894e-02 2.354891970753669739e-03
2.745956778526306152e-01 5.288444831967353821e-02 -8.187983185052871704e-02
-1.546840816736221313e-01 3.381897509098052979e-02 -5.729423761367797852e-01
2.536903023719787598e-01 -1.112652719020843506e-01 -2.697880566120147705e-01
-7.945640087127685547e-01 5.207430571317672729e-03 7.314580958336591721e-03
2.964609563350677490e-01 1.065077483654022217e-01 -2.505672350525856018e-02
-4.886098206043243408e-01 4.048522189259529114e-02 -7.628018409013748169e-02
4.077031835913658142e-02 -1.271309256553649902e-01 1.642647385597229004e-01
2.810444496572017670e-02 -2.673722617328166962e-02 -2.970130145549774170e-01
9.439362585544586182e-02 -4.966912046074867249e-02 -9.937205910682678223e-02
3.933615386486053467e-01 -7.942725718021392822e-02 2.835326269268989563e-02
-6.869440674781799316e-01 4.939133301377296448e-02 1.530387848615646362e-01
2.451308369636535645e-01 -1.260110139846801758e-01 3.352140188217163086e-01
-7.263548970222473145e-01 2.843264304101467133e-02 -7.505358755588531494e-02
-2.128404378890991211e-01 5.341774597764015198e-02 8.882947266101837158e-02
7.876793295145034790e-02 1.896656863391399384e-02 3.731049895286560059e-01
2.001203447580337524e-01 1.954303821548819542e-03 1.891165077686309814e-01
-6.120687723159790039e-01 1.875426769256591797e-01 5.794676486402750015e-03
-6.919570565223693848e-01 9.250862151384353638e-02 8.087865076959133148e-03
-7.414472699165344238e-01 1.730902343988418579e-01 8.167861029505729675e-03
1.722287386655807495e-01 -1.263843178749084473e-01 2.826039791107177734e-01
-6.636388897895812988e-01 3.253905475139617920e-02 -1.275569647550582886e-01
3.269390463829040527e-01 -3.039033338427543640e-02 9.634900093078613281e-02
-3.979755342006683350e-01 -3.988306969404220581e-02 7.640358060598373413e-02
-7.737119793891906738e-01 4.387167841196060181e-02 1.560252606868743896e-01
1.524433046579360962e-01 -5.396219342947006226e-02 -3.174117207527160645e-01
-8.705858588218688965e-01 3.992525860667228699e-02 9.954415261745452881e-03
2.592899501323699951e-01 1.048545166850090027e-01 3.696605563163757324e-02
3.701896667480468750e-01 -7.108112424612045288e-02 7.693687826395034790e-02
-3.117675483226776123e-01 -7.284100353717803955e-02 -3.604270145297050476e-02
6.254536509513854980e-01 -6.118840724229812622e-02 6.232446059584617615e-02
2.692704321816563606e-03 1.600675657391548157e-02 3.809178173542022705e-01
8.916728943586349487e-02 1.704669371247291565e-02 -3.481564223766326904e-01
1.843613237142562866e-01 -8.129379898309707642e-02 6.936402618885040283e-02
1.499901413917541504e-01 -8.614684641361236572e-02 3.285477459430694580e-01
-2.374522387981414795e-01 -6.697469949722290039e-02 -4.729533195495605469e-02
-7.998969554901123047e-01 3.120148479938507080e-01 7.207921240478754044e-03
7.822437882423400879e-01 -8.518689125776290894e-02 2.354891970753669739e-03
2.272919565439224243e-01 -4.231972154229879379e-03 -3.051458299160003662e-01
-8.278418779373168945e-01 3.022021651268005371e-01 1.821592217311263084e-03
6.300666928291320801e-01 4.835139587521553040e-02 -8.334639668464660645e-02
5.970246717333793640e-02 -8.294703066349029541e-02 -2.135028690099716187e-02
-2.693623304367065430e-03 2.088645286858081818e-02 -8.923936635255813599e-02
2.439801208674907684e-02 1.840660721063613892e-02 -3.789545297622680664e-01
7.995227575302124023e-01 -2.817714400589466095e-02 -6.116112694144248962e-02
3.438179790973663330e-01 -7.945392280817031860e-02 -5.684139952063560486e-02
4.249595701694488525e-01 3.339233249425888062e-02 9.485575556755065918e-02
7.223501056432723999e-02 -3.076364472508430481e-02 2.114884406328201294e-01
2.627030909061431885e-01 -8.830670267343521118e-02 2.931899726390838623e-01
4.673568904399871826e-01 1.094041205942630768e-02 -8.945267647504806519e-02
-8.132869005203247070e-02 -8.228041231632232666e-02 3.981921076774597168e-02
3.019806146621704102e-01 3.720542788505554199e-02 -8.689283579587936401e-02
-5.851371288299560547e-01 7.208324223756790161e-02 -5.054846033453941345e-02
1.487368792295455933e-01 -3.673660010099411011e-02 -3.391169905662536621e-01
1.875077933073043823e-01 -3.512023249641060829e-03 3.104155659675598145e-01
5.002348423004150391e-01 1.040545701980590820e-01 3.920591250061988831e-02
3.656299114227294922e-01 1.632673479616641998e-02 9.674897044897079468e-02
7.623783946037292480e-01 -6.246831640601158142e-02 -4.241563752293586731e-02
-4.667445123195648193e-01 8.741562068462371826e-02 5.944464355707168579e-02
2.428376525640487671e-01 -6.041512638330459595e-02 -2.342169433832168579e-01
1.582296192646026611e-01 -8.294703066349029541e-02 -3.148298338055610657e-02
6.426217406988143921e-02 8.426914364099502563e-02 6.811076402664184570e-02
-2.706767916679382324e-01 3.307235613465309143e-02 -8.769278973340988159e-02
-4.773079976439476013e-02 2.419291250407695770e-02 -4.487634897232055664e-01
1.626826673746109009e-01 -7.321432232856750488e-02 2.747378051280975342e-01
2.855549752712249756e-01 -2.471068501472473145e-02 3.087890148162841797e-01
1.159122809767723083e-01 -8.252041041851043701e-02 3.222548067569732666e-01
1.929207891225814819e-01 -1.027857884764671326e-01 -3.133853375911712646e-01
2.736890614032745361e-01 -2.009764499962329865e-02 -8.347972482442855835e-02
8.056823611259460449e-01 7.544302940368652344e-02 -2.527004294097423553e-02
-6.826509833335876465e-01 1.579978466033935547e-01 -3.911382053047418594e-03
1.175388321280479431e-01 -8.273372054100036621e-02 5.440495908260345459e-02
-7.012364864349365234e-01 2.451288886368274689e-02 5.075185745954513550e-02
