1.576749086380004883e-01 -1.044329777359962463e-01 -2.391098141670227051e-01
-3.701233565807342529e-01 -1.940827816724777222e-02 8.341878652572631836e-02
1.022982075810432434e-01 -7.393179833889007568e-02 2.825029492378234863e-01
4.351716041564941406e-01 6.433663517236709595e-02 -9.940163046121597290e-02
-2.837655842304229736e-01 2.146435715258121490e-02 1.006690040230751038e-01
8.203519135713577271e-02 -1.023533493280410767e-01 2.945516258478164673e-02
1.009384542703628540e-01 -1.943493634462356567e-02 9.698966890573501587e-02
1.646336615085601807e-01 -1.178438961505889893e-01 -2.966727912425994873e-01
-1.644271016120910645e-01 1.086219921708106995e-01 5.771674588322639465e-02
1.025914847850799561e-01 -4.540359973907470703e-02 -1.371814906597137451e-01
-6.380751132965087891e-01 1.268853694200515747e-01 4.526319913566112518e-03
2.777332663536071777e-01 -4.385721683502197266e-02 2.870621085166931152e-01
-8.210821747779846191e-01 9.969026595354080200e-02 -1.619770228862762451e-01
-4.186249896883964539e-02 6.263028085231781006e-02 9.320368617773056030e-02
-7.028101682662963867e-01 1.547203510999679565e-01 -1.144413836300373077e-02
-4.561345577239990234e-01 -5.281559005379676819e-02 1.241823192685842514e-02
8.715063333511352539e-03 -9.859402477741241455e-02 -1.821600645780563354e-01
-5.895275250077247620e-02 2.527700550854206085e-02 1.018687933683395386e-01
-8.364660143852233887e-01 1.257389187812805176e-01 -3.731923401355743408e-01
1.795376241207122803e-01 -4.657672345638275146e-02 1.382355839014053345e-01
-4.970605075359344482e-01 -4.530964884907007217e-03 7.176754623651504517e-02
6.723021864891052246e-01 7.852075248956680298e-02 -7.668571919202804565e-02
-7.054497003555297852e-01 2.924022078514099121e-01 -1.128416694700717926e-02
-7.898877263069152832e-01 4.293375909328460693e-01 -8.857937529683113098e-03
1.200816780328750610e-01 -3.305915743112564087e-02 -2.957662642002105713e-01
-3.911632299423217773e-02 -5.780135840177536011e-02 1.949186921119689941e-01
-1.095303073525428772e-01 4.130078479647636414e-02 9.986914694309234619e-02
7.848916947841644287e-02 8.273332566022872925e-02 -9.089650213718414307e-02
-8.220152854919433594e-01 1.197133362293243408e-01 -2.930734157562255859e-01
1.621541082859039307e-01 -7.283864915370941162e-02 9.469675272703170776e-02
2.663183398544788361e-02 -9.766086190938949585e-02 1.602582782506942749e-01
1.465835720300674438e-01 -1.112584099173545837e-01 -2.989656925201416016e-01
6.361220479011535645e-01 -2.804673276841640472e-02 9.059081971645355225e-02
-5.464649200439453125e-01 1.653851121664047241e-01 -1.536343246698379517e-02
3.611582517623901367e-01 -1.998084597289562225e-03 1.014421954751014709e-01
2.280089110136032104e-01 -4.750988632440567017e-02 -2.739301919937133789e-01
2.483252584934234619e-01 -9.147529304027557373e-02 -2.367102354764938354e-01
-8.445712924003601074e-01 1.305913627147674561e-01 3.661412000656127930e-01
2.644023597240447998e-01 -8.398332446813583374e-02 2.057967483997344971e-01
6.435837596654891968e-02 -2.887324057519435883e-02 3.190296888351440430e-01
9.253997355699539185e-02 -8.870247006416320801e-02 2.707183659076690674e-01
-6.524192094802856445e-01 2.280938178300857544e-01 2.500017406418919563e-03
1.163756772875785828e-01 -6.905266642570495605e-02 2.832227945327758789e-01
5.618954300880432129e-01 -3.068624623119831085e-02 9.360361099243164062e-02
8.113704919815063477e-01 -7.227876782417297363e-02 -5.071706324815750122e-02
-6.460470557212829590e-01 1.774096041917800903e-01 2.873283810913562775e-03
2.706678807735443115e-01 -9.299501776695251465e-02 -3.020051419734954834e-01
-1.039313152432441711e-01 7.786818780004978180e-03 -6.430370807647705078e-01
-7.282455563545227051e-01 3.149315118789672852e-01 6.070248200558125973e-04
-2.837655842304229736e-01 2.146435715258121490e-02 1.006690040230751038e-01
4.489521309733390808e-02 -2.985973842442035675e-02 3.000730872154235840e-01
2.567504048347473145e-01 -4.575019702315330505e-02 -1.233973130583763123e-01
6.304963827133178711e-01 -4.854970052838325500e-02 8.248561620712280273e-02
1.462902873754501343e-01 -1.272555142641067505e-01 -2.332175374031066895e-01
3.990714251995086670e-01 4.628655314445495605e-02 -1.070269197225570679e-01
7.440226078033447266e-01 9.619756788015365601e-02 -3.200043737888336182e-02
6.182185374200344086e-03 -2.268769033253192902e-02 2.693852782249450684e-01
-7.331780195236206055e-01 1.017698943614959717e-01 1.394086927175521851e-01
2.993294000625610352e-01 -1.354266703128814697e-02 -1.094264909625053406e-01
4.500186070799827576e-02 4.735302552580833435e-02 9.797615557909011841e-02
7.646286487579345703e-02 -4.284406080842018127e-02 -1.591775417327880859e-01
1.953747719526290894e-01 -5.126921087503433228e-02 -9.542901068925857544e-02
2.241695970296859741e-01 7.692103832960128784e-02 -9.358934313058853149e-02
-2.423900179564952850e-02 -9.512798488140106201e-02 -7.145999372005462646e-02
-7.657624036073684692e-02 -1.116316616535186768e-01 1.058414131402969360e-01
-1.850367188453674316e-01 5.756452307105064392e-02 9.586986899375915527e-02
6.561451554298400879e-01 -6.606653332710266113e-02 -8.041837811470031738e-02
2.407799512147903442e-01 -7.163886725902557373e-02 -2.757698893547058105e-01
-2.985629439353942871e-01 -7.587812095880508423e-02 -4.101214930415153503e-02
-8.789650797843933105e-01 4.677839577198028564e-01 -5.285247694700956345e-03
-5.855512619018554688e-01 1.240592077374458313e-01 2.244309149682521820e-02
6.137224659323692322e-02 -4.049780964851379395e-02 -1.826133131980895996e-01
4.910815358161926270e-01 -9.880731254816055298e-02 -3.072312567383050919e-03
3.145000040531158447e-01 -8.174373209476470947e-02 -3.128298521041870117e-01
2.882114052772521973e-01 -1.213899105787277222e-01 3.065786063671112061e-01
1.511427462100982666e-01 -4.049780964851379395e-02 2.040903717279434204e-01
-7.292054295539855957e-01 3.164512217044830322e-01 -1.067094411700963974e-02
7.755903005599975586e-01 3.840867429971694946e-03 -8.684389293193817139e-02
8.630109578371047974e-02 -4.156430065631866455e-02 1.687100827693939209e-01
3.627846240997314453e-01 -6.268049031496047974e-02 -8.593739569187164307e-02
-1.249941885471343994e-01 8.400039747357368469e-03 -7.220361232757568359e-01
5.136108398437500000e-01 -2.668697759509086609e-02 -1.066803112626075745e-01
-5.817954987287521362e-02 -3.767166659235954285e-02 -2.094884812831878662e-01
1.505295187234878540e-01 -2.476731874048709869e-02 -2.142342776060104370e-01
2.428559213876724243e-02 -2.836667187511920929e-02 -3.212549984455108643e-01
-3.533033654093742371e-02 -1.327605359256267548e-02 -3.972413539886474609e-01
6.031947135925292969e-01 7.102876901626586914e-02 -8.865690231323242188e-02
-7.597865462303161621e-01 8.675926178693771362e-02 4.430582374334335327e-02
-4.259800016880035400e-01 7.084213197231292725e-02 -9.641550481319427490e-02
1.235210597515106201e-01 -8.398332446813583374e-02 2.915413081645965576e-01
-1.246475800871849060e-01 1.225928142666816711e-01 2.969511970877647400e-02
2.406732887029647827e-01 -5.004276707768440247e-02 -1.225174665451049805e-01
3.316702246665954590e-01 -8.169039338827133179e-02 7.590013742446899414e-02
2.285687923431396484e-01 -3.180605545639991760e-02 -2.644385695457458496e-01
3.347363471984863281e-01 -9.664770960807800293e-02 3.886433783918619156e-03
8.939386904239654541e-02 -1.024599820375442505e-01 3.379859495908021927e-03
5.771956965327262878e-02 -2.708689309656620026e-02 -3.497565686702728271e-01
-2.940037548542022705e-01 5.265874043107032776e-02 -1.070535778999328613e-01
2.773866951465606689e-01 -3.543206676840782166e-02 -8.591072261333465576e-02
-6.380751132965087891e-01 1.268853694200515747e-01 4.526319913566112518e-03
6.755282878875732422e-01 -5.304156336933374405e-03 9.243048727512359619e-02
8.382154256105422974e-02 1.252856701612472534e-01 -1.221733167767524719e-02
3.953617811203002930e-02 -5.052267760038375854e-02 -1.009213551878929138e-01
1.163756772875785828e-01 -6.905266642570495605e-02 2.832227945327758789e-01
-5.852615833282470703e-02 -2.967309020459651947e-02 -2.568132579326629639e-01
1.796709448099136353e-01 4.346039891242980957e-02 -1.086266338825225830e-01
3.170328736305236816e-01 -9.790080785751342773e-02 -3.096062503755092621e-02
7.762301564216613770e-01 2.855641022324562073e-02 -8.279128372669219971e-02
4.500186070799827576e-02 4.735302552580833435e-02 9.797615557909011841e-02
-6.642171181738376617e-03 -2.504662610590457916e-03 -5.064483284950256348e-01
4.351716041564941406e-01 6.433663517236709595e-02 -9.940163046121597290e-02
5.908502340316772461e-01 -9.051547944545745850e-02 4.329267516732215881e-02
-8.443579673767089844e-01 1.135810986161231995e-01 -2.797691524028778076e-01
-8.806714415550231934e-01 1.272586435079574585e-01 -3.615677952766418457e-01
-8.234283924102783203e-01 1.106749549508094788e-01 2.598670125007629395e-01
6.358021497726440430e-01 1.019298657774925232e-01 4.075979441404342651e-02
-4.604840651154518127e-02 -2.756680361926555634e-02 -2.937133014202117920e-01
-1.949684345163404942e-03 4.548107972368597984e-04 5.401098132133483887e-01
1.265605092048645020e-01 5.985744670033454895e-02 -1.035342216491699219e-01
6.366517394781112671e-02 -5.132252722978591919e-02 -2.658783197402954102e-01
-4.626400470733642578e-01 -4.850904922932386398e-03 -8.841694891452789307e-02
1.614075750112533569e-01 -7.667797058820724487e-02 2.970869839191436768e-01
-3.054416775703430176e-01 -6.353367865085601807e-02 -6.439460068941116333e-02
1.325327754020690918e-01 -1.059527024626731873e-01 -3.013919293880462646e-01
-8.555559515953063965e-01 1.128079071640968323e-01 2.495755255222320557e-01
6.058608889579772949e-01 1.043294370174407959e-01 4.014657065272331238e-02
-6.871595978736877441e-01 1.006767675280570984e-01 -1.394744217395782471e-01
-7.614396214485168457e-01 7.908064872026443481e-02 3.222799673676490784e-02
-5.263388901948928833e-02 -3.263256326317787170e-02 -2.222595065832138062e-01
4.269864261150360107e-01 -4.380387812852859497e-02 -9.878840297460556030e-02
-7.366173863410949707e-01 3.103596344590187073e-02 9.058836847543716431e-03
-4.194248467683792114e-02 -3.625857457518577576e-02 3.759527206420898438e-01
1.120031252503395081e-01 -2.522057108581066132e-02 -2.056491523981094360e-01
-7.832223176956176758e-01 9.993023425340652466e-02 1.941988170146942139e-01
-4.268901795148849487e-02 -1.572893932461738586e-02 -4.518448710441589355e-01
-7.399004697799682617e-02 -3.721841424703598022e-02 3.890170753002166748e-01
9.741909056901931763e-02 -9.486135840415954590e-02 -2.467350810766220093e-01
-7.496017217636108398e-01 2.238812446594238281e-01 -9.604469873011112213e-03
3.207655251026153564e-01 -9.736758470535278320e-02 -4.386496543884277344e-02
-2.833656668663024902e-01 -2.706023491919040680e-02 8.840455114841461182e-02
1.009384542703628540e-01 -1.943493634462356567e-02 9.698966890573501587e-02
3.836305812001228333e-02 -3.412562981247901917e-02 -2.541204392910003662e-01
-1.082505360245704651e-01 -8.690212853252887726e-03 4.765213131904602051e-01
-5.263388901948928833e-02 -3.263256326317787170e-02 -2.222595065832138062e-01
5.444852709770202637e-01 1.180602982640266418e-01 5.912736058235168457e-03
-8.806714415550231934e-01 1.272586435079574585e-01 -3.615677952766418457e-01
-1.664533913135528564e-01 2.533033303916454315e-02 8.367497920989990234e-01
-4.589340388774871826e-01 -4.185756295919418335e-02 -5.351655930280685425e-02
-3.679674118757247925e-02 -1.079523339867591858e-01 -1.036941930651664734e-01
2.372569218277931213e-02 -4.257743805646896362e-02 2.516551315784454346e-01
5.894371271133422852e-01 8.867891877889633179e-02 6.451551616191864014e-02
3.128469586372375488e-01 3.007614426314830780e-02 1.007756516337394714e-01
2.072126418352127075e-01 -3.009968437254428864e-02 9.475006908178329468e-02
1.797242611646652222e-01 -6.046754866838455200e-02 2.868221402168273926e-01
-6.932651996612548828e-01 9.873044490814208984e-02 -1.236905902624130249e-01
1.247438695281744003e-02 -4.521697014570236206e-02 -8.956340700387954712e-02
2.422463297843933105e-01 -1.184037774801254272e-01 -3.044846951961517334e-01
-1.442173868417739868e-01 6.613702513277530670e-03 -6.520221233367919922e-01
4.715783055871725082e-03 -1.914165355265140533e-02 -4.290223121643066406e-01
6.406012773513793945e-01 9.446454793214797974e-02 5.211775377392768860e-02
1.076572462916374207e-01 1.057958453893661499e-01 5.646363273262977600e-02
-2.218604087829589844e-02 -1.637023091316223145e-01 -1.685891747474670410e-01
1.213881149888038635e-01 -7.670462876558303833e-02 2.695185840129852295e-01
-5.655318126082420349e-02 -4.177758842706680298e-02 8.021935820579528809e-02
-5.937897562980651855e-01 1.593595296144485474e-01 -1.507015246897935867e-02
-9.339988231658935547e-02 -7.097233086824417114e-02 -1.013746112585067749e-01
1.308530718088150024e-01 -1.346268225461244583e-02 -1.089465841650962830e-01
-6.314629912376403809e-01 1.479888707399368286e-02 4.395922273397445679e-02
5.963922291994094849e-02 -2.727354131639003754e-02 3.371597230434417725e-01
-7.822891473770141602e-01 8.539950847625732422e-02 4.478573799133300781e-02
-8.158831000328063965e-01 1.133144870400428772e-01 -1.301718782633543015e-02
-4.327254295349121094e-01 -5.710816010832786560e-02 -4.885319154709577560e-03
7.491647452116012573e-02 8.334654569625854492e-02 8.032599836587905884e-02
9.005278348922729492e-01 -2.399412915110588074e-02 -4.663779959082603455e-02
-7.761569023132324219e-01 1.313912272453308105e-01 -3.312269458547234535e-03
2.506181597709655762e-01 7.225520908832550049e-02 -9.633551537990570068e-02
-8.085510730743408203e-01 2.048979997634887695e-01 -5.738499108701944351e-03
-5.532674118876457214e-02 -3.401897475123405457e-02 1.904928386211395264e-01
-6.942250132560729980e-01 1.945265233516693115e-01 -1.163077168166637421e-02
2.422730177640914917e-01 -1.015534773468971252e-01 -3.144295811653137207e-01
-5.252723768353462219e-02 -1.562229637056589127e-02 -4.480588734149932861e-01
-3.779619634151458740e-01 1.039561703801155090e-01 6.566198170185089111e-02
-1.103301644325256348e-01 -2.642035484313964844e-02 -3.941485881805419922e-01
8.342463374137878418e-01 -8.467652648687362671e-02 4.206377547234296799e-03
-1.023582667112350464e-01 2.493039891123771667e-02 -1.120393574237823486e-01
4.436197504401206970e-02 -1.796853728592395782e-02 3.046855926513671875e-01
4.269864261150360107e-01 -4.380387812852859497e-02 -9.878840297460556030e-02
-1.444040387868881226e-01 5.081275012344121933e-04 -6.082167029380798340e-01
1.558352410793304443e-01 -3.844485804438591003e-02 2.295524477958679199e-01
-5.098049044609069824e-01 -3.647188097238540649e-02 2.860198169946670532e-02
3.814975917339324951e-02 -1.268949080258607864e-02 3.672076463699340820e-01
1.823104768991470337e-01 -1.084322482347488403e-01 3.132973909378051758e-01
-3.135735690593719482e-01 -7.705122232437133789e-02 1.996353827416896820e-02
-7.841821312904357910e-01 9.718405455350875854e-02 -1.308892816305160522e-01
2.626160085201263428e-01 -1.280287057161331177e-01 2.196342647075653076e-01
1.356521993875503540e-01 -5.572174862027168274e-02 2.261930704116821289e-01
-7.396834492683410645e-01 3.038935065269470215e-01 -1.043098699301481247e-02
-2.911812439560890198e-02 -3.241927549242973328e-02 1.791348755359649658e-01
-7.294186949729919434e-01 7.996048778295516968e-02 6.238257139921188354e-02
2.015300281345844269e-02 -2.210112847387790680e-02 2.688520550727844238e-01
-3.746825456619262695e-01 8.763910830020904541e-02 -8.969671279191970825e-02
-9.555949270725250244e-02 6.414390518330037594e-04 6.255877614021301270e-01
-8.109239935874938965e-01 1.106749549508094788e-01 2.653593719005584717e-01
2.716141520068049431e-03 1.259522140026092529e-01 6.552620790898799896e-03
-1.007852181792259216e-01 7.980052381753921509e-02 8.451191335916519165e-02
-3.917461335659027100e-01 3.799471631646156311e-02 -1.048406511545181274e-01
1.202416419982910156e-01 -4.612347483634948730e-02 1.242647618055343628e-01
-6.476200819015502930e-01 8.092031627893447876e-02 8.072593063116073608e-02
3.145000040531158447e-01 -8.174373209476470947e-02 -3.128298521041870117e-01
-7.841821312904357910e-01 9.718405455350875854e-02 -1.308892816305160522e-01
5.015063285827636719e-01 -9.894062578678131104e-02 -2.437514252960681915e-02
1.859098225831985474e-01 1.220329180359840393e-01 -2.613482624292373657e-02
3.969118297100067139e-01 9.641086310148239136e-02 6.352902948856353760e-02
-4.136621952056884766e-01 9.603759646415710449e-02 7.243409007787704468e-02
6.391081809997558594e-01 3.095597773790359497e-02 9.251046925783157349e-02
-8.262546062469482422e-01 1.242725104093551636e-01 -3.606345951557159424e-01
1.798042505979537964e-01 -1.373337060213088989e-01 -2.460418939590454102e-01
-7.337681949138641357e-02 1.255929749459028244e-02 6.825109124183654785e-01
1.202416419982910156e-01 -4.612347483634948730e-02 1.242647618055343628e-01
9.789900481700897217e-02 -3.044630214571952820e-02 -1.230773627758026123e-01
1.364253908395767212e-01 -2.780676819384098053e-02 1.427414268255233765e-01
1.511427462100982666e-01 -4.049780964851379395e-02 2.040903717279434204e-01
2.478719949722290039e-01 -7.145223766565322876e-02 2.690653502941131592e-01
-1.343525052070617676e-01 -7.275867462158203125e-02 -9.244288504123687744e-02
-2.263929322361946106e-02 -9.863329119980335236e-03 4.155989289283752441e-01
2.809327244758605957e-01 1.039968430995941162e-02 -1.122793108224868774e-01
1.614075750112533569e-01 -7.667797058820724487e-02 2.970869839191436768e-01
-5.126843452453613281e-01 -1.975489594042301178e-02 -6.391468644142150879e-02
6.898417486809194088e-04 -6.217392161488533020e-02 1.490602940320968628e-01
-1.413912475109100342e-01 7.626848760992288589e-03 6.935222744941711426e-01
-2.332680225372314453e-01 5.067310295999050140e-03 1.006956622004508972e-01
8.598114550113677979e-02 -1.895502582192420959e-02 2.862089276313781738e-01
-3.261846303939819336e-01 1.310446262359619141e-01 -8.378024213016033173e-03
-5.495347455143928528e-02 6.665621697902679443e-02 9.149732440710067749e-02
2.959966659545898438e-01 -7.411842793226242065e-02 -2.386032193899154663e-01
1.200816780328750610e-01 -3.305915743112564087e-02 -2.957662642002105713e-01
1.733787357807159424e-01 -5.324218422174453735e-02 2.237401753664016724e-01
2.406732887029647827e-01 -5.004276707768440247e-02 -1.225174665451049805e-01
5.969255045056343079e-02 -3.487216308712959290e-02 -2.539871335029602051e-01
1.807640641927719116e-01 -9.328830242156982422e-02 -2.313511967658996582e-01
6.875757873058319092e-02 -3.225930780172348022e-02 2.791968584060668945e-01
1.763648688793182373e-01 -9.600783139467239380e-02 6.672845035791397095e-02
4.795767832547426224e-03 -1.092981174588203430e-02 3.945893645286560059e-01
6.602243781089782715e-01 1.035295873880386353e-01 -4.429155588150024414e-02
1.393048763275146484e-01 -5.917377769947052002e-03 -1.105729490518569946e-01
-7.749304771423339844e-01 1.134477928280830383e-01 -2.409228086471557617e-01
2.733874022960662842e-01 -1.310414969921112061e-01 2.256065011024475098e-01
2.231831103563308716e-01 -1.238161399960517883e-01 -3.173623681068420410e-01
3.332396596670150757e-02 -2.828667871654033661e-02 -3.261341154575347900e-01
1.830303221940994263e-01 1.957136578857898712e-02 1.020021066069602966e-01
-7.832223176956176758e-01 9.993023425340652466e-02 1.941988170146942139e-01
1.061641797423362732e-01 -1.751528680324554443e-02 -3.249876797199249268e-01
5.750627815723419189e-02 -4.780316725373268127e-02 -7.903195917606353760e-02
3.207655251026153564e-01 -9.736758470535278320e-02 -4.386496543884277344e-02
6.726451963186264038e-02 -2.948646247386932373e-02 -1.545383632183074951e-01
-9.921216219663619995e-02 -2.183450385928153992e-02 9.525664895772933960e-02
-3.054416775703430176e-01 -6.353367865085601807e-02 -6.439460068941116333e-02
-6.897458434104919434e-01 7.548129558563232422e-02 4.326600953936576843e-02
-2.684350311756134033e-01 -8.305014669895172119e-02 3.404060262255370617e-04
1.935314759612083435e-02 -8.520977199077606201e-02 1.432480067014694214e-01
-1.054243817925453186e-01 -2.871327102184295654e-02 3.776857554912567139e-01
1.953978091478347778e-02 -2.599376253783702850e-02 2.250732779502868652e-01
-9.478629380464553833e-02 -9.691433608531951904e-02 -1.706979237496852875e-02
5.933564305305480957e-01 -1.002204045653343201e-01 7.005872204899787903e-03
2.444556169211864471e-02 1.251523494720458984e-01 -2.069580554962158203e-02
7.329010218381881714e-02 -2.004815638065338135e-02 -2.855280935764312744e-01
4.732980728149414062e-01 1.199266314506530762e-01 -1.240396499633789062e-02
4.416237771511077881e-01 9.035861492156982422e-02 6.958127021789550781e-02
-8.226552009582519531e-01 1.225128248333930969e-01 -3.131764531135559082e-01
2.928239107131958008e-01 -1.314147710800170898e-01 2.292858511209487915e-01
5.348870158195495605e-01 3.734214231371879578e-03 -1.119860336184501648e-01
-8.555559515953063965e-01 1.128079071640968323e-01 2.495755255222320557e-01
-3.231984972953796387e-01 9.413195773959159851e-03 9.858937561511993408e-02
-4.802368581295013428e-01 8.483961224555969238e-02 7.795310020446777344e-02
-4.589340388774871826e-01 -4.185756295919418335e-02 -5.351655930280685425e-02
6.636904478073120117e-01 2.788987196981906891e-02 -1.015079170465469360e-01
-1.388316899538040161e-01 1.810495927929878235e-02 -7.623755335807800293e-01
-1.391249746084213257e-01 -5.917377769947052002e-03 -5.683038830757141113e-01
-6.582048535346984863e-01 2.969347238540649414e-01 -1.152412407100200653e-02
2.785598039627075195e-01 -1.191236525774002075e-01 -2.894473969936370850e-01
1.505295187234878540e-01 -2.476731874048709869e-02 -2.142342776060104370e-01
4.910815358161926270e-01 -9.880731254816055298e-02 -3.072312567383050919e-03
-1.158225089311599731e-01 -2.594044618308544159e-02 5.586131811141967773e-01
8.192855119705200195e-02 1.103016957640647888e-01 -6.018202379345893860e-02
5.915434360504150391e-01 5.892427638173103333e-02 -9.673544019460678101e-02
3.804311528801918030e-02 -1.986152864992618561e-02 -4.312352240085601807e-01
7.968131303787231445e-01 -3.340575471520423889e-02 6.771494448184967041e-02
-3.917461335659027100e-01 3.799471631646156311e-02 -1.048406511545181274e-01
2.955700755119323730e-01 -1.351474374532699585e-01 2.828761935234069824e-01
3.937620669603347778e-02 5.625809356570243835e-02 9.522999078035354614e-02
3.004455380141735077e-02 8.619936555624008179e-02 -8.871022611856460571e-02
-2.681683897972106934e-01 1.278718560934066772e-01 -2.789450995624065399e-02
-4.897551834583282471e-01 8.662594854831695557e-02 -8.607070147991180420e-02
3.101007938385009766e-01 -4.801645502448081970e-02 -2.474549561738967896e-01
-4.909282922744750977e-01 -3.809823840856552124e-02 3.764035552740097046e-02
-7.366707324981689453e-01 1.261121779680252075e-01 -1.344377826899290085e-02
5.650948882102966309e-01 2.791653014719486237e-02 9.832276403903961182e-02
6.137794256210327148e-01 5.623142421245574951e-02 8.613829314708709717e-02
-4.327254295349121094e-01 -5.710816010832786560e-02 -4.885319154709577560e-03
-1.282736063003540039e-01 3.360947594046592712e-03 6.012188196182250977e-01
-3.132269680500030518e-01 -6.217392161488533020e-02 5.497057363390922546e-02
6.173521280288696289e-01 1.145142689347267151e-01 -5.738499108701944351e-03
-3.186429664492607117e-02 -2.884658239781856537e-02 2.744510471820831299e-01
-2.021269649267196655e-01 2.274412661790847778e-02 8.245652914047241211e-01
3.287070989608764648e-02 -1.548898406326770782e-02 3.355067074298858643e-01
-1.660268008708953857e-01 -1.804852299392223358e-02 5.564002394676208496e-01
-1.115566045045852661e-01 -5.917377769947052002e-03 9.973584860563278198e-02
2.587233781814575195e-01 9.843716770410537720e-02 6.336905807256698608e-02
8.203519135713577271e-02 -1.023533493280410767e-01 2.945516258478164673e-02
1.294399946928024292e-01 -9.880731254816055298e-02 5.641031265258789062e-02
-7.217134237289428711e-01 2.000188678503036499e-01 5.270392284728586674e-04
-7.806894779205322266e-01 3.561507463455200195e-01 -9.127012453973293304e-04
6.151391863822937012e-01 -9.355492144823074341e-02 3.724042698740959167e-02
-3.481540083885192871e-01 9.545103460550308228e-02 -8.439099788665771484e-02
-5.277482867240905762e-01 1.264054626226425171e-01 -3.461330011487007141e-02
1.777779310941696167e-01 -4.756320267915725708e-02 -1.367549002170562744e-01
2.609363198280334473e-01 -7.451836764812469482e-02 3.010595738887786865e-01
-7.814893126487731934e-01 8.342653512954711914e-02 -6.260825693607330322e-02
7.833755612373352051e-01 2.879637479782104492e-02 7.080771774053573608e-02
-3.135735690593719482e-01 -7.705122232437133789e-02 1.996353827416896820e-02
-1.298199892044067383e-01 1.276052445173263550e-01 -1.832289993762969971e-02
-7.331780195236206055e-01 1.017698943614959717e-01 1.394086927175521851e-01
-6.314629912376403809e-01 1.479888707399368286e-02 4.395922273397445679e-02
7.031766772270202637e-01 9.539771825075149536e-02 3.982662782073020935e-02
-4.194248467683792114e-02 -3.625857457518577576e-02 3.759527206420898438e-01
-8.042052388191223145e-01 8.827898651361465454e-02 7.267404347658157349e-02
5.258486270904541016e-01 -4.734991490840911865e-02 8.744472265243530273e-02
-7.282455563545227051e-01 3.149315118789672852e-01 6.070248200558125973e-04
4.049903750419616699e-01 -2.234109304845333099e-02 9.738959372043609619e-02
5.412325263023376465e-01 1.068089902400970459e-01 -5.426309257745742798e-02
-7.894345521926879883e-01 7.196193188428878784e-02 -2.016256749629974365e-02
-7.761569023132324219e-01 8.222674578428268433e-02 -3.226705640554428101e-02
-7.019303441047668457e-01 8.670594543218612671e-02 -3.669292479753494263e-02
1.794309765100479126e-01 -1.025932952761650085e-01 -5.431641638278961182e-02
-7.219266891479492188e-01 9.297148138284683228e-02 7.459370046854019165e-02
-6.101601719856262207e-01 1.939133107662200928e-01 3.433182369917631149e-03
8.247814178466796875e-01 6.137717142701148987e-02 -4.623787477612495422e-02
1.205882504582405090e-01 -5.604168772697448730e-02 2.526682913303375244e-01
3.128469586372375488e-01 3.007614426314830780e-02 1.007756516337394714e-01
5.278712511062622070e-02 -8.523643016815185547e-02 -8.937677741050720215e-02
1.424243152141571045e-01 -1.285886168479919434e-01 2.254465371370315552e-01
8.247814178466796875e-01 6.137717142701148987e-02 -4.623787477612495422e-02
-1.208615973591804504e-01 1.974534941837191582e-03 6.308401823043823242e-01
2.483252584934234619e-01 -9.147529304027557373e-02 -2.367102354764938354e-01
4.536215960979461670e-01 -3.487216308712959290e-02 9.315036237239837646e-02
2.194238007068634033e-01 9.137176722288131714e-02 -8.180479705333709717e-02
8.616548180580139160e-01 2.223754860460758209e-02 4.667872935533523560e-02
-8.483572602272033691e-01 1.312046051025390625e-01 -3.811642527580261230e-01
2.111319303512573242e-01 -5.545512586832046509e-02 2.505086958408355713e-01
1.339725106954574585e-01 3.756812214851379395e-02 9.992247074842453003e-02
1.346923708915710449e-01 -7.945079356431961060e-02 -2.601193487644195557e-01
-6.553822755813598633e-02 4.924602434039115906e-02 -1.079867556691169739e-01
-8.346530199050903320e-01 1.003834828734397888e-01 -1.712557044811546803e-03
-6.700427532196044922e-01 8.803904056549072266e-02 -1.316624879837036133e-01
-8.299338817596435547e-01 4.547996520996093750e-01 -2.325780224055051804e-03
1.038445979356765747e-01 -6.771957129240036011e-02 2.455762475728988647e-01
-3.245085850358009338e-02 -3.735172748565673828e-02 1.152530461549758911e-01
5.278712511062622070e-02 -8.523643016815185547e-02 -8.937677741050720215e-02
-7.943403124809265137e-01 1.015299409627914429e-01 -1.963974982500076294e-01
4.732980728149414062e-01 1.199266314506530762e-01 -1.240396499633789062e-02
9.597934037446975708e-02 -9.670102596282958984e-02 6.160937249660491943e-02
-4.149152934551239014e-01 1.299781501293182373e-01 1.671079173684120178e-02
5.617887973785400391e-01 -2.058140374720096588e-02 9.672305732965469360e-02
5.610156059265136719e-01 2.641082974150776863e-03 1.001357734203338623e-01
2.277422845363616943e-01 -9.582117944955825806e-02 2.257131636142730713e-01
-1.214748248457908630e-01 9.066588245332241058e-03 6.517964005470275879e-01
-7.142480611801147461e-01 3.813995420932769775e-01 -8.937923237681388855e-03
5.183299779891967773e-01 3.210244700312614441e-02 -1.100930422544479370e-01
1.879361122846603394e-01 -5.364212021231651306e-02 -2.611325085163116455e-01
-6.058409214019775391e-01 2.576884925365447998e-01 -8.804612793028354645e-03
8.477906584739685059e-01 5.815108492970466614e-02 -1.888279803097248077e-02
2.104120850563049316e-01 -5.278893187642097473e-02 -8.020509034395217896e-02
8.120867609977722168e-02 -3.164608776569366455e-02 -1.134790927171707153e-01
-2.232431620359420776e-01 1.002235114574432373e-01 6.883473694324493408e-02
6.769111007452011108e-02 -1.618220098316669464e-02 -1.079600825905799866e-01
-9.894921444356441498e-03 -3.964464366436004639e-02 1.440745145082473755e-01
-6.067474484443664551e-01 1.375501155853271484e-01 -1.563005149364471436e-02
-8.348166942596435547e-02 -6.073417142033576965e-02 1.899062693119049072e-01
2.840521335601806641e-01 -8.427660912275314331e-02 2.621599137783050537e-01
-4.541882574558258057e-01 1.628789007663726807e-01 1.966779818758368492e-03
5.100077763199806213e-02 -5.729478970170021057e-02 -5.708925053477287292e-02
1.274136900901794434e-01 -8.747602999210357666e-02 2.176346033811569214e-01
-3.014957308769226074e-01 9.222494810819625854e-02 -8.737713098526000977e-02
3.004455380141735077e-02 8.619936555624008179e-02 -8.871022611856460571e-02
5.672811269760131836e-01 -7.225210964679718018e-02 -7.764554768800735474e-02
-8.039119243621826172e-01 9.427791088819503784e-02 1.308768987655639648e-01
-5.922700762748718262e-01 5.164558440446853638e-02 6.646183133125305176e-02
2.354475706815719604e-01 -1.341876089572906494e-01 2.910613715648651123e-01
1.862297654151916504e-01 -9.558123350143432617e-02 6.816819310188293457e-02
2.441890165209770203e-02 -2.138125337660312653e-02 -2.853148281574249268e-01
-1.302999109029769897e-01 9.253226220607757568e-03 7.196775674819946289e-01
3.515866398811340332e-01 6.433663517236709595e-02 -1.000148579478263855e-01
-2.473721504211425781e-01 -8.035729825496673584e-02 -4.463816061615943909e-02
3.248981237411499023e-01 -9.523461759090423584e-02 4.235950857400894165e-02
1.514626890420913696e-01 -4.873633012175559998e-02 2.314987778663635254e-01
-2.728342413902282715e-01 1.121413633227348328e-01 -6.506114453077316284e-02
1.514626890420913696e-01 -4.873633012175559998e-02 2.314987778663635254e-01
5.915434360504150391e-01 5.892427638173103333e-02 -9.673544019460678101e-02
-7.223035395145416260e-02 5.440576467663049698e-03 -7.027596235275268555e-01
-6.871595978736877441e-01 1.006767675280570984e-01 -1.394744217395782471e-01
1.044844761490821838e-01 -4.081776738166809082e-02 -1.965841352939605713e-01
7.941202521324157715e-01 -2.679361216723918915e-02 -8.025840669870376587e-02
5.745065212249755859e-01 -5.422868207097053528e-02 8.152578026056289673e-02
-9.302661567926406860e-02 6.422999501228332520e-02 -1.029476597905158997e-01
-5.820585489273071289e-01 -2.140793204307556152e-02 -7.258225232362747192e-03
-7.563204765319824219e-01 1.068089902400970459e-01 1.793748438358306885e-01
9.056698530912399292e-02 -6.881272047758102417e-02 -1.048673093318939209e-01
-7.864750623703002930e-01 1.135810986161231995e-01 -2.967261075973510742e-01
8.414184451103210449e-01 -3.495215624570846558e-02 5.518386512994766235e-02
-2.400934696197509766e-01 3.308893367648124695e-02 1.009356305003166199e-01
-2.071127444505691528e-01 1.690518483519554138e-02 -7.892240285873413086e-01
-7.761569023132324219e-01 1.313912272453308105e-01 -3.312269458547234535e-03
1.388746406883001328e-02 -1.447723805904388428e-01 -1.553915441036224365e-01
-7.710645198822021484e-01 8.598607033491134644e-02 -5.386316403746604919e-02
1.565017849206924438e-01 -1.221364438533782959e-01 2.383775413036346436e-01
1.435441225767135620e-01 -3.201934322714805603e-02 -1.048673093318939209e-01
1.056576073169708252e-01 1.261654943227767944e-01 -4.565376788377761841e-03
1.009384542703628540e-01 -1.943493634462356567e-02 9.698966890573501587e-02
-4.575476348400115967e-01 1.228327676653862000e-01 3.852019831538200378e-02
3.702631918713450432e-03 -1.571168154478073120e-01 -1.644565761089324951e-01
1.369586437940597534e-01 -2.324759587645530701e-02 2.295791357755661011e-01
-2.626760601997375488e-01 4.180736467242240906e-02 -1.096131205558776855e-01
-8.065514564514160156e-01 1.073422208428382874e-01 2.151817232370376587e-01
-6.687362790107727051e-01 2.574751675128936768e-01 -1.211068499833345413e-02
-3.818316012620925903e-02 -6.665310263633728027e-02 -1.048673093318939209e-01
-1.001986488699913025e-01 7.040285971015691757e-03 -7.142775654792785645e-01
-3.469008803367614746e-01 3.415540605783462524e-02 -1.081200614571571350e-01
2.248094677925109863e-01 -1.402131766080856323e-01 -2.749699950218200684e-01
5.837315320968627930e-01 -1.255617942661046982e-02 9.712298214435577393e-02
7.882280349731445312e-01 -4.385721683502197266e-02 -7.585920393466949463e-02
4.947075545787811279e-01 3.935446962714195251e-02 9.845607727766036987e-02
6.677963733673095703e-01 1.087286397814750671e-01 -2.794783189892768860e-02
1.816705763339996338e-01 -2.474066056311130524e-02 -2.726770937442779541e-01
-5.219093561172485352e-01 1.757565736770629883e-01 4.339686594903469086e-03
1.983875632286071777e-01 -2.889989875257015228e-02 1.180525422096252441e-01
3.249247968196868896e-01 -3.651120467111468315e-03 -1.112661585211753845e-01
-7.331780195236206055e-01 1.017698943614959717e-01 1.394086927175521851e-01
2.742672264575958252e-01 -1.324545890092849731e-01 -2.680645883083343506e-01
1.308530718088150024e-01 -1.346268225461244583e-02 -1.089465841650962830e-01
4.049600660800933838e-02 -2.119462564587593079e-02 -2.810755968093872070e-01
5.222358740866184235e-03 -1.322272699326276779e-02 -1.085999757051467896e-01
1.435441225767135620e-01 -3.201934322714805603e-02 -1.048673093318939209e-01
2.025965042412281036e-02 -4.585685208439826965e-02 1.862269192934036255e-01
-7.565871477127075195e-01 4.152067899703979492e-01 -9.311188943684101105e-03
-5.867243409156799316e-01 4.873944818973541260e-02 -7.753890007734298706e-02
-1.760516613721847534e-01 1.522548031061887741e-02 -1.122259870171546936e-01
3.953617811203002930e-02 -5.052267760038375854e-02 -1.009213551878929138e-01
-7.947669029235839844e-01 3.605499565601348877e-01 -1.445938949473202229e-03
1.840434819459915161e-01 -3.071290440857410431e-02 2.060100436210632324e-01
-1.771981269121170044e-01 1.182202696800231934e-01 -5.207682028412818909e-02
-3.720697164535522461e-01 -6.819950044155120850e-02 1.220493484288454056e-02
5.133975148200988770e-01 1.175003945827484131e-01 1.609756797552108765e-02
5.650948882102966309e-01 2.791653014719486237e-02 9.832276403903961182e-02
-7.612262368202209473e-01 3.890248537063598633e-01 -4.861112684011459351e-04
1.348523497581481934e-01 -7.806438207626342773e-02 2.743977308273315430e-01
-1.234211400151252747e-01 -4.284406080842018127e-02 -3.915090560913085938e-01
1.118698194622993469e-01 -1.831514574587345123e-02 3.086048960685729980e-01
2.457657158374786377e-01 -4.492368921637535095e-02 9.411019086837768555e-02
6.163886934518814087e-02 -1.020867228507995605e-01 -4.461149498820304871e-02
7.942232489585876465e-02 -7.062572985887527466e-02 -2.831018865108489990e-01
7.848916947841644287e-02 8.273332566022872925e-02 -9.089650213718414307e-02
1.794309765100479126e-01 -1.025932952761650085e-01 -5.431641638278961182e-02
1.804974675178527832e-01 -6.985253840684890747e-02 -1.048673093318939209e-01
1.308760792016983032e-02 -5.224171094596385956e-03 4.604175388813018799e-01
4.475693404674530029e-01 -9.819409251213073730e-02 -2.040252462029457092e-02
-6.362621188163757324e-01 2.606479525566101074e-01 -1.224399358034133911e-02
-7.376038432121276855e-01 9.334474802017211914e-02 -1.691490709781646729e-01
2.379804402589797974e-01 -1.076857149600982666e-01 -2.738235592842102051e-01
-4.935813602060079575e-03 2.561097964644432068e-03 1.013888791203498840e-01
1.949215233325958252e-01 1.615293003851547837e-04 1.014421954751014709e-01
7.781897205859422684e-03 -1.315480917692184448e-01 -1.460598856210708618e-01
6.915788054466247559e-01 -1.001937240362167358e-01 1.625753939151763916e-02
1.620474457740783691e-01 3.414274426177144051e-03 1.016554981470108032e-01
5.039592385292053223e-01 1.183002516627311707e-01 -2.232217788696289062e-02
-2.985629439353942871e-01 -7.587812095880508423e-02 -4.101214930415153503e-02
-1.534424126148223877e-01 9.599824436008930206e-03 6.739258170127868652e-01
-2.563838660717010498e-01 5.849769338965415955e-02 9.549660235643386841e-02
-3.006425499916076660e-01 6.668288260698318481e-02 9.237717092037200928e-02
-9.382646530866622925e-02 -1.732865907251834869e-02 3.891770243644714355e-01
1.702059805393218994e-01 -1.271488815546035767e-01 -2.748100459575653076e-01
-2.919811010360717773e-02 -3.951133042573928833e-02 1.335697472095489502e-01
1.574882715940475464e-01 -8.624958246946334839e-02 -2.913404107093811035e-01
-8.789650797843933105e-01 4.677839577198028564e-01 -5.285247694700956345e-03
-2.597202360630035400e-02 -3.553869947791099548e-02 1.893197149038314819e-01
2.626160085201263428e-01 -1.280287057161331177e-01 2.196342647075653076e-01
3.197523951530456543e-01 -7.342521101236343384e-02 -3.122966289520263672e-01
-4.581342041492462158e-01 -3.153943270444869995e-02 5.785005167126655579e-02
2.444556169211864471e-02 1.251523494720458984e-01 -2.069580554962158203e-02
2.236630320549011230e-01 -1.004336923360824585e-01 -2.273519337177276611e-01
6.471601128578186035e-01 9.006533026695251465e-02 -6.722075492143630981e-02
-6.314629912376403809e-01 1.479888707399368286e-02 4.395922273397445679e-02
-2.021306008100509644e-02 1.206198409199714661e-01 3.116152249276638031e-02
2.184106409549713135e-01 3.668828681111335754e-02 9.986914694309234619e-02
-3.186429664492607117e-02 -2.884658239781856537e-02 2.744510471820831299e-01
5.298693431541323662e-04 -4.095105826854705811e-02 -1.439536064863204956e-01
-8.063914775848388672e-01 1.040094941854476929e-01 -2.247923910617828369e-01
-6.551920175552368164e-01 4.735302552580833435e-02 5.251767858862876892e-02
-4.256867170333862305e-01 -4.017786681652069092e-02 -6.556772440671920776e-02
-1.400314718484878540e-01 -1.716868765652179718e-02 -1.068136245012283325e-01
1.103500872850418091e-01 -1.012335419654846191e-01 2.682921588420867920e-01
4.295725822448730469e-01 -5.745476111769676208e-02 8.003272861242294312e-02
1.341058164834976196e-01 -6.641315668821334839e-02 -2.785426974296569824e-01
-4.327254295349121094e-01 -5.710816010832786560e-02 -4.885319154709577560e-03
2.289687395095825195e-01 -4.969616979360580444e-02 2.983933985233306885e-01
-2.066631242632865906e-02 -1.009402573108673096e-01 -1.978930085897445679e-02
-8.039385676383972168e-01 1.903139501810073853e-01 -4.325420130044221878e-03
6.858198046684265137e-01 -1.660878397524356842e-02 9.024421125650405884e-02
-2.759839966893196106e-02 -3.929802402853965759e-02 7.853966206312179565e-02
2.579501867294311523e-01 -9.342161566019058228e-02 2.153416872024536133e-01
-1.295800358057022095e-01 -1.882171444594860077e-02 -5.720632076263427734e-01
-8.379324674606323242e-01 1.193133965134620667e-01 -3.307999372482299805e-01
1.374385505914688110e-01 -7.430505752563476562e-02 2.138486206531524658e-01
-3.898798227310180664e-01 6.260361522436141968e-02 9.069746732711791992e-02
5.761595368385314941e-01 6.160451099276542664e-03 9.925592690706253052e-02
-5.424656867980957031e-01 -2.202115207910537720e-02 3.793363273143768311e-02
-5.461716651916503906e-01 1.279518455266952515e-01 -2.698800526559352875e-02
-8.189225196838378906e-01 1.091552302241325378e-01 2.499487847089767456e-01
1.465835720300674438e-01 -1.112584099173545837e-01 -2.989656925201416016e-01
2.702946364879608154e-01 -1.103519052267074585e-01 2.438165545463562012e-01
2.638157904148101807e-01 -5.241567641496658325e-02 8.797796070575714111e-02
3.145000040531158447e-01 -8.174373209476470947e-02 -3.128298521041870117e-01
-4.204876422882080078e-01 -3.724507242441177368e-02 6.019629910588264465e-02
5.369362980127334595e-02 1.221662163734436035e-01 2.313630096614360809e-02
6.058608889579772949e-01 1.043294370174407959e-01 4.014657065272331238e-02
5.116075277328491211e-02 -2.244772575795650482e-02 -2.637986838817596436e-01
6.129226088523864746e-02 -8.515643328428268433e-02 -9.705538302659988403e-02
-5.450022220611572266e-02 -3.908473625779151917e-02 -1.333421915769577026e-01
1.346923708915710449e-01 -7.945079356431961060e-02 -2.601193487644195557e-01
1.755383610725402832e-01 -1.046729236841201782e-01 -3.104569613933563232e-01
-4.596842080354690552e-02 -1.575560681521892548e-02 3.675809204578399658e-01
-8.077245950698852539e-01 2.709927558898925781e-01 -3.205621847882866859e-03
7.059229016304016113e-01 8.198679238557815552e-02 5.713018029928207397e-02
7.148812413215637207e-01 -9.998043626546859741e-02 2.478933706879615784e-02
-1.537090092897415161e-01 -8.371670544147491455e-02 -6.186172366142272949e-02
-2.036733627319335938e-01 -3.601862862706184387e-02 -9.828183054924011230e-02
7.940936684608459473e-01 7.466878741979598999e-03 -8.236470073461532593e-02
-7.657624036073684692e-02 -9.566120803356170654e-02 5.539716035127639771e-02
3.153798580169677734e-01 -6.044089049100875854e-02 2.342182844877243042e-01
-6.990774273872375488e-01 3.235433101654052734e-01 -1.101754885166883469e-02
5.014529824256896973e-01 -9.894062578678131104e-02 2.233399311080574989e-03
-3.048018217086791992e-01 -7.851763069629669189e-02 1.743066124618053436e-02
2.882913947105407715e-01 8.425305038690567017e-02 7.728654891252517700e-02
-4.396878555417060852e-02 -1.180964615195989609e-02 -1.087866052985191345e-01
1.422643512487411499e-01 3.228907287120819092e-02 -1.109462156891822815e-01
-7.822358012199401855e-01 2.583550214767456055e-01 -8.271376602351665497e-03
3.996276855468750000e-02 -1.764859817922115326e-02 4.468199908733367920e-01
-4.259800016880035400e-01 7.084213197231292725e-02 -9.641550481319427490e-02
-2.919811010360717773e-02 -3.951133042573928833e-02 1.335697472095489502e-01
-7.279523015022277832e-01 2.928555011749267578e-01 6.603489746339619160e-04
1.160824000835418701e-01 -4.910960420966148376e-02 2.703984379768371582e-01
4.884420037269592285e-01 1.197399944067001343e-01 1.273571630008518696e-03
2.961832880973815918e-01 -5.113589763641357422e-02 -2.717972397804260254e-01
-5.764631554484367371e-02 -8.903509005904197693e-03 4.418608844280242920e-01
-1.296066939830780029e-01 -4.744251724332571030e-03 5.354173779487609863e-01
4.980936050415039062e-01 -9.888730943202972412e-02 1.241823192685842514e-02
9.056698530912399292e-02 -6.881272047758102417e-02 -1.048673093318939209e-01
-7.582135200500488281e-01 2.146562337875366211e-01 -1.046010991558432579e-03
6.769111007452011108e-02 -1.618220098316669464e-02 -1.079600825905799866e-01
-7.951402068138122559e-01 1.122480183839797974e-01 2.249666303396224976e-01
-6.167989373207092285e-01 5.147295072674751282e-03 -5.050377175211906433e-02
1.413578391075134277e-01 -4.199087247252464294e-02 2.740778028964996338e-01
7.942232489585876465e-02 -7.062572985887527466e-02 -2.831018865108489990e-01
-8.584087491035461426e-01 4.439749419689178467e-01 -6.298398133367300034e-03
3.252410888671875000e-02 -2.223443984985351562e-02 -3.954283297061920166e-01
2.917574346065521240e-01 -5.081595852971076965e-02 2.520284056663513184e-01
-7.710111737251281738e-01 8.270666003227233887e-02 2.286968380212783813e-02
1.747384965419769287e-01 -1.281087100505828857e-01 2.604002356529235840e-01
6.058608889579772949e-01 1.043294370174407959e-01 4.014657065272331238e-02
2.187039256095886230e-01 -4.868301376700401306e-02 2.500821053981781006e-01
3.565190732479095459e-01 -8.230361342430114746e-02 -6.652755290269851685e-02
-7.167045772075653076e-02 -2.407410368323326111e-02 -3.183755278587341309e-01
-1.893026083707809448e-01 2.106443233788013458e-02 8.435752987861633301e-01
-2.696214942261576653e-03 -2.487397193908691406e-02 3.788855373859405518e-01
2.285687923431396484e-01 -3.180605545639991760e-02 -2.644385695457458496e-01
-2.253264375030994415e-02 -1.237361654639244080e-01 -1.115327775478363037e-01
4.220236465334892273e-02 -4.655006527900695801e-02 -8.889685571193695068e-02
3.252410888671875000e-02 -2.223443984985351562e-02 -3.954283297061920166e-01
4.947075545787811279e-01 3.935446962714195251e-02 9.845607727766036987e-02
-7.552273869514465332e-01 1.253123283386230469e-01 -1.408366300165653229e-02
1.487964987754821777e-01 -1.254425197839736938e-01 2.773305177688598633e-01
-7.556806206703186035e-01 8.547950536012649536e-02 -1.026810333132743835e-01
3.144466578960418701e-01 -8.448989689350128174e-02 -8.703052252531051636e-02
4.121587425470352173e-02 -6.534668058156967163e-02 -2.840108610689640045e-02
1.263738721609115601e-01 -9.275507181882858276e-02 -2.403629124164581299e-01
-2.757403850555419922e-01 -8.023665286600589752e-03 -1.065470129251480103e-01
8.032919168472290039e-01 7.300174236297607422e-02 -4.159870743751525879e-02
-7.606966048479080200e-02 9.481115639209747314e-02 -8.244468271732330322e-02
2.139314413070678711e-01 -9.078209847211837769e-02 8.013936877250671387e-02
5.505338311195373535e-02 -3.396565839648246765e-02 7.963279634714126587e-02
-2.640358209609985352e-01 -8.251692354679107666e-02 2.028348110616207123e-02
1.291467100381851196e-01 -4.012455046176910400e-02 -2.138077020645141602e-01
2.207265608012676239e-02 -1.689813584089279175e-01 -1.071069091558456421e-01
2.354475706815719604e-01 -1.341876089572906494e-01 2.910613715648651123e-01
2.617894709110260010e-01 -1.004870086908340454e-01 -2.853414714336395264e-01
3.503032401204109192e-02 -2.519391290843486786e-02 2.262463867664337158e-01
-1.158225089311599731e-01 8.659929037094116211e-02 -8.996333181858062744e-02
-1.798376441001892090e-01 3.367549553513526917e-02 -1.113461405038833618e-01
3.872869014739990234e-01 8.745247870683670044e-02 7.323394715785980225e-02
-7.864750623703002930e-01 1.135810986161231995e-01 -2.967261075973510742e-01
-3.151769191026687622e-02 7.040285971015691757e-03 -1.118527203798294067e-01
2.440326809883117676e-01 -8.467652648687362671e-02 -3.077107965946197510e-01
-7.898877263069152832e-01 4.293375909328460693e-01 -8.857937529683113098e-03
-7.710111737251281738e-01 8.270666003227233887e-02 2.286968380212783813e-02
-7.526981085538864136e-02 -2.175452932715415955e-02 3.312941491603851318e-01
-1.725589632987976074e-01 8.240070194005966187e-03 6.747789382934570312e-01
2.073956280946731567e-02 -7.377183437347412109e-02 1.460208445787429810e-01
3.145533204078674316e-01 -1.294684559106826782e-01 -3.001654744148254395e-01
2.437660545110702515e-01 -4.809644818305969238e-02 -2.748633623123168945e-01
2.665086388587951660e-01 -1.346675306558609009e-01 2.595470547676086426e-01
7.869482636451721191e-01 8.827898651361465454e-02 4.472995642572641373e-03
1.646336615085601807e-01 -1.178438961505889893e-01 -2.966727912425994873e-01
4.519152641296386719e-01 -5.950773134827613831e-02 -8.887019753456115723e-02
3.083944320678710938e-01 -1.133380383253097534e-01 3.077250421047210693e-01
5.943962335586547852e-01 -5.417534708976745605e-02 8.075258880853652954e-02
-7.276359200477600098e-02 -3.864416852593421936e-03 5.005970001220703125e-01
2.305151075124740601e-01 -6.769291311502456665e-02 -1.047873273491859436e-01
-8.158831000328063965e-01 1.133144870400428772e-01 -1.301718782633543015e-02
6.746217608451843262e-01 -9.144863486289978027e-02 -5.157024413347244263e-02
-7.331780195236206055e-01 1.017698943614959717e-01 1.394086927175521851e-01
3.040752112865447998e-01 -1.374136954545974731e-01 2.617599964141845703e-01
-3.203723430633544922e-01 5.881224060431122780e-04 9.693634510040283203e-02
2.094522416591644287e-01 -1.049128919839859009e-01 2.074764519929885864e-01
3.004455380141735077e-02 8.619936555624008179e-02 -8.871022611856460571e-02
6.961076706647872925e-02 -2.887324057519435883e-02 1.514065414667129517e-01
3.199656903743743896e-01 -4.758987948298454285e-02 -2.564933300018310547e-01
-7.938337326049804688e-01 2.572885453701019287e-01 -2.539074979722499847e-03
-3.207989335060119629e-01 1.199532896280288696e-01 -5.279669165611267090e-02
