2.677373588085174561e-01 -2.203219570219516754e-02 -1.920520067214965820e-01
-8.677599430084228516e-01 8.667113631963729858e-02 -1.792885065078735352e-01
2.209823578596115112e-01 -1.377314180135726929e-01 3.504500091075897217e-01
2.495533674955368042e-01 -1.652610599994659424e-01 3.212915658950805664e-01
-2.809274196624755859e-02 -2.929511107504367828e-02 2.869529426097869873e-01
-2.752987146377563477e-01 7.438827306032180786e-02 7.950607687234878540e-02
1.395416259765625000e-01 -6.504892557859420776e-02 -2.786996066570281982e-01
-6.956129670143127441e-01 2.472028136253356934e-01 -4.124200902879238129e-03
1.173256784677505493e-01 -1.469969898462295532e-01 2.662856876850128174e-01
5.924588441848754883e-01 1.978293992578983307e-02 1.014817208051681519e-01
8.533682674169540405e-02 -1.020577102899551392e-01 -3.363756537437438965e-01
-5.768163204193115234e-01 9.708486497402191162e-02 -4.380318894982337952e-02
3.220009431242942810e-02 -2.211230061948299408e-02 2.702375650405883789e-01
-1.669691950082778931e-01 3.687214106321334839e-02 -7.931646704673767090e-01
1.572983711957931519e-01 -7.968155294656753540e-02 3.062317073345184326e-01
2.570031881332397461e-01 -6.646411865949630737e-02 3.405435979366302490e-01
-6.438646912574768066e-01 -2.107092551887035370e-02 1.793154887855052948e-02
3.702725172042846680e-01 2.963593415915966034e-02 9.894504398107528687e-02
-6.152936816215515137e-01 1.921168416738510132e-01 -1.240398269146680832e-03
-7.544639110565185547e-01 3.592706024646759033e-01 -1.990251475945115089e-04
2.059492170810699463e-01 4.301357641816139221e-02 -9.178645908832550049e-02
9.716575592756271362e-02 -8.827955275774002075e-02 2.513593435287475586e-01
7.161206752061843872e-02 -3.428835794329643250e-02 -1.545358598232269287e-01
-3.952114656567573547e-02 -9.263195842504501343e-02 -7.557842135429382324e-02
6.677902489900588989e-02 -5.589018017053604126e-02 1.229500249028205872e-01
2.896595895290374756e-01 -1.538593471050262451e-01 2.917592823505401611e-01
7.708540558815002441e-01 -3.185849264264106750e-02 -8.222718536853790283e-02
9.831394255161285400e-02 -8.301928639411926270e-02 -3.321834802627563477e-01
6.010355427861213684e-02 -2.507621608674526215e-02 2.252182066440582275e-01
-7.744635939598083496e-01 2.815414369106292725e-01 -3.696970641613006592e-03
-1.434982568025588989e-01 1.013304740190505981e-01 -4.826239868998527527e-02
7.708540558815002441e-01 -3.185849264264106750e-02 -8.222718536853790283e-02
2.838652729988098145e-01 8.328000456094741821e-02 -6.703381985425949097e-02
-1.218697279691696167e-01 2.995635382831096649e-02 -9.520429372787475586e-02
6.275184154510498047e-01 -8.691775798797607422e-02 7.704730611294507980e-03
4.429283142089843750e-01 9.906081110239028931e-02 -5.098599195480346680e-02
-7.810055613517761230e-01 6.493581086397171021e-02 -6.003792956471443176e-02
9.716575592756271362e-02 -8.827955275774002075e-02 2.513593435287475586e-01
-3.535352349281311035e-01 6.717877089977264404e-02 8.837109804153442383e-02
-2.330563366413116455e-01 -7.952134311199188232e-02 3.592861071228981018e-02
7.745923399925231934e-01 -8.280567824840545654e-02 -1.050594821572303772e-02
-5.655694007873535156e-02 1.057896837592124939e-01 -3.128001093864440918e-02
-4.669914841651916504e-01 -2.275315113365650177e-02 -7.317525148391723633e-02
-1.115628108382225037e-01 3.249303624033927917e-02 -8.194393515586853027e-01
2.759348154067993164e-01 -8.486171066761016846e-02 -2.585397064685821533e-01
6.803401559591293335e-02 -1.384523808956146240e-01 1.436706781387329102e-01
-3.310255408287048340e-01 -3.273964673280715942e-02 -8.684660494327545166e-02
8.348851799964904785e-01 5.935512110590934753e-02 -5.597924068570137024e-02
-2.781291007995605469e-01 -6.958824396133422852e-02 5.747703090310096741e-02
-4.342549741268157959e-01 1.109431535005569458e-01 -1.106668822467327118e-02
-7.377218008041381836e-01 3.329409658908843994e-02 5.125549435615539551e-02
3.166818916797637939e-01 -7.743859291076660156e-02 -2.480725497007369995e-01
8.291710019111633301e-01 -7.228513062000274658e-02 3.956006839871406555e-02
6.861824393272399902e-01 -8.398054540157318115e-02 1.779804006218910217e-02
1.137209236621856689e-01 -1.912168785929679871e-02 2.095175087451934814e-01
6.763348728418350220e-02 -6.285936385393142700e-02 -1.116793528199195862e-01
-3.281684219837188721e-01 3.073070570826530457e-02 9.931886196136474609e-02
2.429313063621520996e-01 -1.039802506566047668e-01 2.357387393712997437e-01
-1.397599875926971436e-01 1.778030395507812500e-02 -6.572520732879638672e-01
-2.349254786968231201e-01 5.820694193243980408e-02 9.146851301193237305e-02
-6.574292778968811035e-01 2.292858660221099854e-01 -2.041454426944255829e-03
1.646147072315216064e-01 -6.203161552548408508e-02 -2.575784027576446533e-01
-8.456508517265319824e-01 6.207871437072753906e-02 3.696998581290245056e-02
-7.045847773551940918e-01 7.051650434732437134e-02 9.595443308353424072e-02
-1.218697279691696167e-01 2.995635382831096649e-02 -9.520429372787475586e-02
-1.288389116525650024e-01 -3.153966274112462997e-03 6.193112134933471680e-01
-8.035686612129211426e-01 2.160150259733200073e-01 -3.189635230228304863e-03
-1.874708570539951324e-02 -4.779950529336929321e-02 2.502645552158355713e-01
2.211425602436065674e-01 -5.615720152854919434e-02 3.281272351741790771e-01
8.859445154666900635e-02 -9.626341611146926880e-02 4.343184456229209900e-02
3.681951761245727539e-02 -1.063049864023923874e-02 3.513578772544860840e-01
8.626284599304199219e-01 -2.806847915053367615e-03 -7.106580585241317749e-02
2.045873999595642090e-01 -9.626341611146926880e-02 -1.854541478678584099e-03
2.622634470462799072e-01 1.115572899580001831e-01 -9.277662262320518494e-03
3.446975350379943848e-02 -1.084411516785621643e-02 -4.947177469730377197e-01
5.473648011684417725e-02 -7.346163969486951828e-03 5.058282613754272461e-01
-8.414853215217590332e-01 7.134426385164260864e-02 -1.264722049236297607e-01
1.453893482685089111e-01 -9.041570127010345459e-02 2.563259005546569824e-01
-1.397599875926971436e-01 1.778030395507812500e-02 -6.572520732879638672e-01
1.676053106784820557e-01 -9.108494035899639130e-03 -3.796860575675964355e-01
1.139345318078994751e-01 -9.276547282934188843e-02 -3.456144630908966064e-01
3.594048619270324707e-01 9.999537467956542969e-02 5.368536338210105896e-02
1.525454521179199219e-01 -1.637657582759857178e-01 2.882346510887145996e-01
-7.337699532508850098e-01 2.088856101036071777e-01 8.852911181747913361e-03
2.978570759296417236e-01 -8.219151198863983154e-02 -2.425986677408218384e-01
4.696623235940933228e-02 -1.410424560308456421e-01 -1.634275913238525391e-01
-2.659797668457031250e-01 -8.467479795217514038e-02 1.627603359520435333e-02
6.651783478446304798e-04 -4.686494171619415283e-02 -1.470326483249664307e-01
-4.412508904933929443e-01 7.198511064052581787e-02 -7.699361443519592285e-02
-8.356642723083496094e-01 8.373393863439559937e-02 -1.482609212398529053e-01
5.285612940788269043e-01 -7.228513062000274658e-02 5.542098358273506165e-02
7.595058083534240723e-01 6.034309044480323792e-02 -7.920987159013748169e-02
9.617778658866882324e-02 -1.576777398586273193e-01 -1.253507137298583984e-01
-1.669691950082778931e-01 3.687214106321334839e-02 -7.931646704673767090e-01
2.045340090990066528e-01 -9.054921567440032959e-02 -2.368577718734741211e-01
-7.802525162696838379e-02 -8.942773938179016113e-02 1.603571511805057526e-02
3.852843865752220154e-02 -2.462228387594223022e-02 4.240938127040863037e-01
-3.394633531570434570e-01 1.588446274399757385e-02 -9.961010515689849854e-02
-1.810677796602249146e-01 3.615118563175201416e-02 8.017383813858032227e-01
-4.780193865299224854e-01 9.209000505506992340e-03 -8.310835063457489014e-02
4.622605144977569580e-01 1.015173867344856262e-01 -4.751474410295486450e-02
-4.200442135334014893e-02 -8.440945297479629517e-03 -4.525554776191711426e-01
7.716550827026367188e-01 4.608428478240966797e-02 8.610144257545471191e-02
-9.191076755523681641e-01 9.115705639123916626e-02 -2.729319930076599121e-01
-8.288286328315734863e-01 1.321444362401962280e-01 3.325622528791427612e-03
8.272004872560501099e-02 1.956932246685028076e-02 1.015885323286056519e-01
-1.344463229179382324e-01 2.178558520972728729e-02 -7.112700343132019043e-01
1.683529615402221680e-01 -1.487609371542930603e-02 1.959262490272521973e-01
-6.675706058740615845e-02 -6.974845379590988159e-02 -8.278793096542358398e-02
1.420516073703765869e-01 -1.491865217685699463e-01 -2.589668929576873779e-01
-7.944098711013793945e-01 2.843718230724334717e-01 6.663356907665729523e-03
6.512350589036941528e-02 -9.776032529771327972e-03 -4.825951159000396729e-01
2.781777679920196533e-01 -1.342334747314453125e-01 -3.321567773818969727e-01
1.146287843585014343e-01 3.494961187243461609e-02 -9.389590471982955933e-02
3.859999179840087891e-01 1.086467802524566650e-01 -2.033223956823348999e-02
-5.092872977256774902e-01 -5.065660551190376282e-02 -1.290911808609962463e-02
3.136912882328033447e-01 -1.606149375438690186e-01 -2.691403329372406006e-01
-3.527554869651794434e-02 1.417555008083581924e-02 -6.738874316215515137e-01
7.050072550773620605e-01 -8.358002454042434692e-02 -1.467144209891557693e-02
8.039698004722595215e-02 -6.245882809162139893e-02 2.788355648517608643e-01
1.804489046335220337e-01 -2.945532277226448059e-02 -2.926913797855377197e-01
-2.302793562412261963e-01 7.027618587017059326e-02 -7.982401549816131592e-02
5.380190908908843994e-02 -6.435467302799224854e-02 -1.014258340001106262e-01
-3.805254399776458740e-02 5.177012644708156586e-03 6.079629063606262207e-01
-4.139027372002601624e-02 2.239972539246082306e-02 -7.220576405525207520e-01
-5.631085950881242752e-04 -2.200549840927124023e-02 3.025735318660736084e-01
1.356164515018463135e-01 -5.938811972737312317e-02 -3.025710880756378174e-01
-2.074972726404666901e-02 -1.767978817224502563e-02 -3.596596717834472656e-01
-7.282693982124328613e-01 7.121075689792633057e-02 -1.028677374124526978e-01
-8.922989368438720703e-01 8.165118843317031860e-02 1.757930368185043335e-01
-7.535560131072998047e-01 9.823142550885677338e-03 2.540807239711284637e-02
-2.061621844768524170e-02 1.404203847050666809e-02 6.677483916282653809e-01
-5.906211733818054199e-01 1.379120498895645142e-01 -3.483355976641178131e-03
6.353954672813415527e-01 2.878147736191749573e-02 -9.459014981985092163e-02
1.653147861361503601e-03 -2.005625888705253601e-02 3.122930228710174561e-01
-6.744917631149291992e-01 2.043997198343276978e-01 -5.753015633672475815e-03
-6.471223235130310059e-01 6.963533908128738403e-02 6.396558135747909546e-02
9.251108765602111816e-01 2.357460185885429382e-02 1.963826827704906464e-03
-6.616961956024169922e-02 2.146515436470508575e-02 -6.271590590476989746e-01
2.750803828239440918e-01 -5.466189607977867126e-02 -3.215828239917755127e-01
2.220504283905029297e-01 -1.694532632827758789e-01 -3.060156106948852539e-01
8.559262156486511230e-01 6.942173093557357788e-02 2.183002419769763947e-02
2.176713198423385620e-01 -2.886787801980972290e-02 1.032974421977996826e-01
9.124541878700256348e-01 1.652531325817108154e-02 -3.496486693620681763e-02
-7.751578688621520996e-01 1.642934978008270264e-01 7.411010097712278366e-03
7.695723772048950195e-01 -9.580948203802108765e-02 2.642274461686611176e-02
2.494465559720993042e-01 -1.874786056578159332e-02 1.220154613256454468e-01
5.850357413291931152e-01 -9.644132223911583424e-04 9.963929653167724609e-02
8.966999650001525879e-01 -6.387404352426528931e-02 -2.465794421732425690e-02
1.670979708433151245e-01 -6.576985865831375122e-02 3.062317073345184326e-01
-8.491753935813903809e-01 3.190559148788452148e-02 -3.937287721782922745e-03
-6.520087718963623047e-01 1.563096344470977783e-01 1.133618596941232681e-02
2.760950326919555664e-01 -9.626341611146926880e-02 -6.196046248078346252e-02
4.784418046474456787e-01 -7.938782870769500732e-02 -3.274861350655555725e-02
2.142801880836486816e-01 9.417437016963958740e-02 5.953307077288627625e-02
1.132135912775993347e-01 -7.119034230709075928e-02 -3.345332145690917969e-01
-8.073068857192993164e-01 7.775271683931350708e-02 -8.430993556976318359e-02
7.612467557191848755e-02 -1.032860130071640015e-01 1.549655795097351074e-01
1.336939334869384766e-01 -1.036347541958093643e-02 2.744297683238983154e-01
-6.163029745221138000e-02 -5.071000382304191589e-02 2.447372823953628540e-01
-7.848505973815917969e-01 7.991556823253631592e-02 -1.408378034830093384e-01
-6.408686935901641846e-02 3.008986450731754303e-02 -7.728979587554931641e-01
2.297405749559402466e-01 -7.394064962863922119e-02 -3.225974738597869873e-01
-3.059524595737457275e-01 9.884719550609588623e-02 5.499375611543655396e-02
-3.310255408287048340e-01 -3.273964673280715942e-02 -8.684660494327545166e-02
2.345736324787139893e-01 -8.769211173057556152e-02 -2.377656251192092896e-01
5.615167692303657532e-02 6.618912797421216965e-03 4.750409722328186035e-01
6.405543535947799683e-02 -4.387433081865310669e-02 -2.392876297235488892e-01
1.658429801464080811e-01 -1.582117676734924316e-01 2.662055790424346924e-01
-7.949439287185668945e-01 3.315006196498870850e-01 -2.949318382889032364e-03
2.265096455812454224e-01 1.112368628382682800e-01 1.421998813748359680e-02
2.790109254419803619e-02 -5.095032975077629089e-02 2.377948015928268433e-01
8.002315461635589600e-02 -7.185954134911298752e-03 3.485541939735412598e-01
-6.366552114486694336e-01 2.037588506937026978e-01 5.915705114603042603e-03
5.372660756111145020e-01 -7.946792244911193848e-02 -3.242819011211395264e-02
1.137209236621856689e-01 -1.912168785929679871e-02 2.095175087451934814e-01
4.368135929107666016e-01 -8.082971721887588501e-02 3.397937491536140442e-02
-7.618281990289688110e-02 9.289267659187316895e-02 6.081476062536239624e-02
6.005553063005208969e-03 1.278536627069115639e-03 -5.787218809127807617e-01
-1.069166809320449829e-01 4.122455045580863953e-02 8.385335803031921387e-01
-1.043266057968139648e-01 1.625829003751277924e-02 1.024429872632026672e-01
7.473618537187576294e-02 -7.121706008911132812e-02 -2.664434313774108887e-01
-8.808438777923583984e-01 3.139575123786926270e-01 2.417758805677294731e-03
2.755396626889705658e-02 -9.626341611146926880e-02 -1.627355441451072693e-02
-7.813526988029479980e-01 3.412201404571533203e-01 7.090587634593248367e-03
-7.364935278892517090e-01 2.432242333889007568e-01 -5.058766808360815048e-03
1.587669849395751953e-01 -9.626341611146926880e-02 -7.029144465923309326e-02
1.160706952214241028e-01 1.022917404770851135e-01 4.826487973332405090e-02
2.601540088653564453e-01 -8.510202914476394653e-02 3.525594472885131836e-01
5.631134510040283203e-01 9.687125682830810547e-02 5.680948123335838318e-02
-2.406075783073902130e-02 -6.496880948543548584e-02 2.385958433151245117e-01
1.879575289785861969e-02 -4.929481074213981628e-02 1.892240792512893677e-01
-5.235936492681503296e-03 -6.443478167057037354e-02 -9.963680803775787354e-02
1.387405842542648315e-01 -1.410691589117050171e-01 -3.144534230232238770e-01
5.006577968597412109e-01 6.101063638925552368e-02 9.072086215019226074e-02
1.602889895439147949e-01 -2.032327279448509216e-02 -3.668424785137176514e-01
1.819709092378616333e-01 -2.197878994047641754e-02 -3.432112932205200195e-01
1.266179382801055908e-01 -2.967057982459664345e-03 3.978458642959594727e-01
-8.114190101623535156e-01 2.792701125144958496e-02 2.570179477334022522e-02
2.079785466194152832e-01 7.743228971958160400e-02 -7.266791164875030518e-02
2.694195806980133057e-01 6.360071897506713867e-02 9.005331248044967651e-02
2.919559478759765625e-01 5.174508690834045410e-02 -8.949010074138641357e-02
9.831394255161285400e-02 -8.301928639411926270e-02 -3.321834802627563477e-01
2.383919805288314819e-01 -1.258757859468460083e-01 3.364315629005432129e-01
-2.128697186708450317e-01 7.163798063993453979e-02 -7.846222072839736938e-02
-5.663704499602317810e-02 3.182548657059669495e-02 -7.582386136054992676e-01
2.756144106388092041e-01 8.707167208194732666e-02 -6.297513097524642944e-02
-8.498429656028747559e-01 2.893383800983428955e-01 4.340293817222118378e-03
5.766780376434326172e-01 -4.638431221246719360e-02 8.129510283470153809e-02
7.810808420181274414e-01 -8.446118980646133423e-02 -2.762404968962073326e-03
-6.215152740478515625e-01 7.564326375722885132e-02 -6.126621738076210022e-02
4.786554574966430664e-01 2.077090740203857422e-02 -9.760746359825134277e-02
2.790109254419803619e-02 -5.095032975077629089e-02 2.377948015928268433e-01
-8.721925020217895508e-01 2.775361537933349609e-01 1.189472503028810024e-03
1.343614757061004639e-01 -1.898818649351596832e-02 -1.866048276424407959e-01
-6.723769009113311768e-02 6.458702497184276581e-03 -5.273741483688354492e-01
3.260809481143951416e-01 1.027723699808120728e-01 -4.278851673007011414e-02
3.199394941329956055e-01 -1.492666453123092651e-01 3.206773996353149414e-01
2.560686171054840088e-01 -6.478190422058105469e-02 -2.526652812957763672e-01
2.536441199481487274e-02 -4.189839214086532593e-02 -1.531206667423248291e-01
-7.054659724235534668e-01 1.975640505552291870e-01 -6.180244963616132736e-03
2.234923392534255981e-01 -2.937521599233150482e-02 -2.703953087329864502e-01
9.251108765602111816e-01 2.357460185885429382e-02 1.963826827704906464e-03
5.473648011684417725e-02 -7.346163969486951828e-03 5.058282613754272461e-01
-5.556897446513175964e-02 1.086467802524566650e-01 -2.041234448552131653e-02
6.926229596138000488e-02 -1.809884607791900635e-01 1.574488431215286255e-01
7.432443499565124512e-01 -6.464999169111251831e-03 9.440571814775466919e-02
7.390254139900207520e-01 -1.287596076726913452e-01 -2.465794421732425690e-02
1.492397952824831009e-02 -7.239360827952623367e-03 -5.162127614021301270e-01
-8.272532224655151367e-01 7.569666951894760132e-02 -4.954408854246139526e-02
-8.034248603507876396e-04 -9.322100318968296051e-03 3.845216035842895508e-01
2.760950326919555664e-01 -9.626341611146926880e-02 -6.196046248078346252e-02
5.379602909088134766e-01 8.773921430110931396e-02 6.599492579698562622e-02
7.956067323684692383e-01 4.082241095602512360e-03 9.365806728601455688e-02
1.740137487649917603e-01 -5.540955066680908203e-02 1.032974421977996826e-01
-8.066126704216003418e-01 7.561656087636947632e-02 5.523407086730003357e-02
3.029838204383850098e-01 -1.416565924882888794e-01 -3.262289464473724365e-01
-5.052231997251510620e-02 2.045048773288726807e-02 -6.112180352210998535e-01
2.519832253456115723e-01 -7.706475257873535156e-02 1.019089519977569580e-01
4.408990144729614258e-01 -7.797262072563171387e-02 -3.998481854796409607e-02
2.300342917442321777e-01 -1.515363007783889771e-01 -2.957620918750762939e-01
1.917171031236648560e-01 -3.781300783157348633e-02 -9.963680803775787354e-02
-8.370527625083923340e-01 4.362772032618522644e-02 3.328512609004974365e-02
2.125979810953140259e-01 -6.069651991128921509e-02 -1.272732466459274292e-01
1.867772489786148071e-01 -6.945472955703735352e-02 3.062317073345184326e-01
2.002617120742797852e-01 -4.147116094827651978e-02 -2.227858603000640869e-01
-6.665024906396865845e-02 1.057079527527093887e-02 6.411800384521484375e-01
3.062468208372592926e-02 2.712596021592617035e-02 -9.595194458961486816e-02
1.704624146223068237e-01 -3.602398186922073364e-02 1.032974421977996826e-01
8.442308306694030762e-01 -6.844005733728408813e-02 4.308471456170082092e-02
5.975856184959411621e-01 -3.669152036309242249e-02 9.013342857360839844e-02
-7.918198108673095703e-01 7.711187005043029785e-02 -1.655103415250778198e-01
7.422884553670883179e-02 8.114219643175601959e-03 5.253472924232482910e-01
8.626284599304199219e-01 -2.806847915053367615e-03 -7.106580585241317749e-02
9.513641148805618286e-02 -1.864105835556983948e-02 -4.161341190338134766e-01
2.366029620170593262e-01 -9.474141150712966919e-02 -2.534930408000946045e-01
3.333438634872436523e-01 -3.605068102478981018e-02 1.032974421977996826e-01
2.625304758548736572e-01 -1.970913074910640717e-02 -1.010787039995193481e-01
2.782579064369201660e-01 -1.124180480837821960e-01 -3.394730389118194580e-01
-2.971141338348388672e-01 7.054320722818374634e-02 8.380507677793502808e-02
-1.902265399694442749e-01 1.025320589542388916e-01 -4.369638115167617798e-02
3.532421216368675232e-02 -1.941541023552417755e-02 -4.000329077243804932e-01
8.122473955154418945e-02 -9.626341611146926880e-02 -5.400330573320388794e-02
-8.053843975067138672e-01 2.270963191986083984e-01 -3.189635230228304863e-03
-6.778295636177062988e-01 1.924105733633041382e-01 1.074874401092529297e-02
5.766780376434326172e-01 -4.638431221246719360e-02 8.129510283470153809e-02
-5.138266086578369141e-01 4.485600069165229797e-02 8.353806287050247192e-02
-3.527554869651794434e-02 1.417555008083581924e-02 -6.738874316215515137e-01
5.323529243469238281e-01 1.038938537240028381e-01 4.215015470981597900e-02
-2.461936622858047485e-01 -1.741277426481246948e-02 9.531358629465103149e-02
-5.693076923489570618e-02 7.663123309612274170e-02 -7.346897572278976440e-02
-4.913969933986663818e-01 -5.492889881134033203e-02 -1.023892965167760849e-02
-6.366552114486694336e-01 2.037588506937026978e-01 5.915705114603042603e-03
-7.799854874610900879e-02 -2.379452623426914215e-02 9.801047295331954956e-02
-1.191995367407798767e-01 3.177208080887794495e-02 -7.276382446289062500e-01
-1.191995367407798767e-01 3.177208080887794495e-02 -7.276382446289062500e-01
-8.721925020217895508e-01 2.775361537933349609e-01 1.189472503028810024e-03
3.152399957180023193e-01 1.140405684709548950e-01 3.512535709887742996e-03
-8.456508517265319824e-01 6.207871437072753906e-02 3.696998581290245056e-02
-7.443171739578247070e-01 7.428146898746490479e-02 -1.320261806249618530e-01
5.719305202364921570e-02 -3.063019923865795135e-02 -1.907436251640319824e-01
-2.798593230545520782e-02 -4.675813019275665283e-02 -1.764047145843505859e-01
2.653074860572814941e-01 7.089033722877502441e-02 -7.923657447099685669e-02
-8.978796601295471191e-01 7.935482263565063477e-02 -1.652700155973434448e-01
5.353489518165588379e-02 -2.112601418048143387e-03 -5.310590267181396484e-01
-7.150786519050598145e-01 1.471241861581802368e-01 -5.886524915695190430e-03
3.248259723186492920e-01 3.254644200205802917e-02 9.817068278789520264e-02
1.968972682952880859e-01 -3.068360500037670135e-02 2.844429612159729004e-01
-2.781291007995605469e-01 -6.958824396133422852e-02 5.747703090310096741e-02
2.324641793966293335e-01 -4.707854986190795898e-02 3.042824566364288330e-01
-8.342758417129516602e-01 3.899510502815246582e-01 -1.747733796946704388e-03
-2.042717188596725464e-01 4.979584738612174988e-02 -8.665680885314941406e-01
3.939304053783416748e-01 8.939472585916519165e-02 -6.067877262830734253e-02
-5.032793879508972168e-01 2.384162507951259613e-02 8.724962174892425537e-02
3.199128210544586182e-01 -7.177778333425521851e-02 2.709318101406097412e-01
-6.140654087066650391e-01 -5.343529395759105682e-03 5.576810613274574280e-02
-8.754768371582031250e-01 9.641733020544052124e-02 3.117055892944335938e-01
6.597796827554702759e-02 -1.729244887828826904e-01 1.522152870893478394e-01
1.063778996467590332e-01 -3.193859755992889404e-02 3.396624326705932617e-01
-7.083764672279357910e-01 6.875418126583099365e-02 -7.806169241666793823e-02
-8.207646608352661133e-01 8.835335075855255127e-02 2.401178479194641113e-01
2.045873999595642090e-01 -9.626341611146926880e-02 -1.854541478678584099e-03
7.840714454650878906e-01 6.101063638925552368e-02 7.384527474641799927e-02
2.211425602436065674e-01 -5.615720152854919434e-02 3.281272351741790771e-01
1.042684540152549744e-01 -1.210694611072540283e-01 3.333340883255004883e-01
8.458917587995529175e-02 -4.707854986190795898e-02 -2.061239033937454224e-01
-3.090498745441436768e-01 1.103824079036712646e-01 1.739751175045967102e-02
-5.567364692687988281e-01 1.079792380332946777e-01 -2.185424789786338806e-02
2.399139851331710815e-01 4.445547610521316528e-02 -9.141263365745544434e-02
7.019365429878234863e-01 6.378597579896450043e-03 9.897174686193466187e-02
1.737200319766998291e-01 8.330669999122619629e-02 -6.676679849624633789e-02
7.254662364721298218e-02 8.568150922656059265e-03 -5.293768048286437988e-01
3.623687624931335449e-01 1.026922687888145447e-01 -4.310893639922142029e-02
-3.332630917429924011e-02 2.474948950111865997e-02 -6.418451070785522461e-01
1.285671740770339966e-01 -9.626341611146926880e-02 3.801136091351509094e-02
2.399139851331710815e-01 4.445547610521316528e-02 -9.141263365745544434e-02
3.702725172042846680e-01 -5.095032975077629089e-02 -8.727384358644485474e-02
1.066449210047721863e-01 -6.224684417247772217e-03 -3.457213044166564941e-01
-6.120306998491287231e-02 2.266673929989337921e-02 7.393894791603088379e-01
-7.553717494010925293e-01 1.661359220743179321e-01 8.105258457362651825e-03
7.393992543220520020e-01 2.288035675883293152e-02 -9.229379892349243164e-02
-4.142819941043853760e-01 -5.952163040637969971e-02 -4.810218885540962219e-02
1.737200319766998291e-01 8.330669999122619629e-02 -6.676679849624633789e-02
5.794069916009902954e-02 -1.776774376630783081e-01 1.678625941276550293e-01
-6.952925920486450195e-01 6.963533908128738403e-02 7.558090239763259888e-02
5.432205796241760254e-01 -1.178029808215796947e-03 -9.592524915933609009e-02
-2.691785991191864014e-02 1.615148596465587616e-02 -5.683615207672119141e-01
-7.530487179756164551e-01 2.537447810173034668e-01 8.131960406899452209e-03
3.782297074794769287e-01 -4.259265214204788208e-02 9.411200135946273804e-02
1.926249712705612183e-01 9.636392444372177124e-02 5.734351649880409241e-02
-8.585745096206665039e-01 7.198511064052581787e-02 6.527397781610488892e-02
6.699801888316869736e-03 -2.894798293709754944e-02 2.534954845905303955e-01
-7.337699532508850098e-01 2.088856101036071777e-01 8.852911181747913361e-03
-8.342758417129516602e-01 3.899510502815246582e-01 -1.747733796946704388e-03
7.810808420181274414e-01 -8.446118980646133423e-02 -2.762404968962073326e-03
6.006296277046203613e-01 -2.131125144660472870e-02 -9.042466431856155396e-02
-7.458070665597915649e-02 -9.284556657075881958e-02 4.129185981582850218e-05
8.940298557281494141e-01 1.129174046218395233e-02 -5.213417112827301025e-02
-8.790815472602844238e-01 8.178469538688659668e-02 2.178484797477722168e-01
3.027755953371524811e-02 -1.781329885125160217e-02 2.982478439807891846e-01
9.834064543247222900e-02 -1.400277763605117798e-01 2.809984087944030762e-01
6.944920867681503296e-02 -3.175167739391326904e-02 -1.719989031553268433e-01
-1.143932119011878967e-01 1.135332286357879639e-01 5.381667055189609528e-03
6.595126539468765259e-02 -5.930802598595619202e-02 -1.323466151952743530e-01
1.601554751396179199e-01 -5.738548561930656433e-02 -1.623595207929611206e-01
-6.074913963675498962e-02 -8.547749370336532593e-03 9.934557229280471802e-02
7.393992543220520020e-01 2.288035675883293152e-02 -9.229379892349243164e-02
7.659142017364501953e-01 -1.409089416265487671e-01 -7.889165543019771576e-03
2.306751459836959839e-01 -3.554335236549377441e-02 -2.930118143558502197e-01
-1.809342801570892334e-01 9.235864132642745972e-02 -5.771486461162567139e-02
-8.539016842842102051e-01 7.139766961336135864e-02 1.205468550324440002e-01
-5.782849192619323730e-01 4.215911030769348145e-02 -7.453704625368118286e-02
1.481663435697555542e-01 -1.536724418401718140e-01 3.285811543464660645e-01
-7.621807456016540527e-01 2.859205305576324463e-01 7.784835528582334518e-03
-6.849321722984313965e-01 8.191820234060287476e-02 -5.029174312949180603e-02
-8.498429656028747559e-01 2.893383800983428955e-01 4.340293817222118378e-03
2.931041121482849121e-01 -2.406153827905654907e-02 -1.206244826316833496e-01
1.005034893751144409e-01 -2.982914820313453674e-02 3.524793684482574463e-01
3.442382216453552246e-01 3.417525067925453186e-02 -9.410952031612396240e-02
-1.996790021657943726e-01 1.076054051518440247e-01 2.802485600113868713e-02
-2.594110965728759766e-01 1.049069035798311234e-02 -9.896925836801528931e-02
2.523036599159240723e-01 -3.223231807351112366e-02 1.032974421977996826e-01
3.885633051395416260e-01 1.117709055542945862e-01 -8.503308519721031189e-03
-8.289888501167297363e-01 8.141086995601654053e-02 2.131489515304565430e-01
7.610812187194824219e-01 9.879378974437713623e-02 2.668976224958896637e-02
-2.126026898622512817e-01 -7.065631449222564697e-02 5.702309682965278625e-02
-8.791616559028625488e-01 5.777971073985099792e-02 -2.524538524448871613e-02
-5.746480450034141541e-02 -5.783941596746444702e-02 -2.384865880012512207e-01
5.814576745033264160e-01 1.133463084697723389e-01 6.102617364376783371e-03
6.515234112739562988e-01 -8.382033556699752808e-02 -1.576621830463409424e-02
-2.554859220981597900e-01 3.390823677182197571e-02 9.782356768846511841e-02
9.517059326171875000e-01 6.378597579896450043e-03 1.681007072329521179e-02
2.750803828239440918e-01 -5.466189607977867126e-02 -3.215828239917755127e-01
4.421806931495666504e-01 -8.622350543737411499e-02 1.176341529935598373e-02
1.057370603084564209e-01 7.668463885784149170e-02 7.707620412111282349e-02
2.997795939445495605e-01 -7.850666344165802002e-02 3.282340466976165771e-01
-4.200442135334014893e-02 -8.440945297479629517e-03 -4.525554776191711426e-01
7.414019107818603516e-01 -1.653678715229034424e-01 1.093565765768289566e-02
-1.212502177804708481e-02 -4.374082013964653015e-02 1.805726736783981323e-01
1.220252066850662231e-01 -2.828043513000011444e-02 3.502898216247558594e-01
2.695263922214508057e-01 -1.454749852418899536e-01 -3.214760124683380127e-01
1.285671740770339966e-01 -9.626341611146926880e-02 3.801136091351509094e-02
1.317446976900100708e-01 -3.151136264204978943e-02 -3.213692009449005127e-01
-6.541983485221862793e-01 9.876549243927001953e-03 6.057444587349891663e-02
4.110463261604309082e-01 1.494990196079015732e-02 -9.912947565317153931e-02
2.957476079463958740e-01 -1.101216897368431091e-01 -2.357362806797027588e-01
-2.824014127254486084e-01 -3.933501243591308594e-02 8.757004141807556152e-02
-3.623681515455245972e-02 -7.212652359157800674e-03 -4.181100726127624512e-01
7.631158828735351562e-02 1.100085750222206116e-01 1.883941330015659332e-02
-2.456809394061565399e-02 -1.129804737865924835e-02 3.874054253101348877e-01
-1.935909688472747803e-01 3.308047726750373840e-02 7.873461246490478516e-01
2.142801880836486816e-01 9.417437016963958740e-02 5.953307077288627625e-02
-7.390835881233215332e-01 7.441497594118118286e-02 -1.017195582389831543e-01
5.766780376434326172e-01 -4.638431221246719360e-02 8.129510283470153809e-02
8.207920193672180176e-02 -6.536934524774551392e-02 -3.155481815338134766e-01
-4.472801089286804199e-02 -9.199111908674240112e-02 -5.627296492457389832e-02
7.743307203054428101e-02 6.565515883266925812e-03 -4.842773377895355225e-01
1.303828954696655273e-01 -7.239360827952623367e-03 -3.274038136005401611e-01
3.239181041717529297e-01 7.401444762945175171e-02 -7.608575373888015747e-02
3.724674880504608154e-02 4.266645014286041260e-02 9.552720189094543457e-02
1.063245013356208801e-01 1.041058544069528580e-02 1.032974421977996826e-01
1.509166359901428223e-01 -1.291067153215408325e-01 3.306639194488525391e-01
-4.052567481994628906e-01 1.109965443611145020e-01 -1.114679500460624695e-02
-7.503464072942733765e-02 3.564385697245597839e-02 -7.488930225372314453e-01
8.362790197134017944e-02 -1.411492675542831421e-01 3.052170276641845703e-01
1.926783621311187744e-01 -6.179128959774971008e-02 1.359805464744567871e-01
2.379113584756851196e-01 -1.797351054847240448e-02 1.363810747861862183e-01
-8.852229714393615723e-01 7.591028511524200439e-02 1.422020792961120605e-01
2.695263922214508057e-01 -1.454749852418899536e-01 -3.214760124683380127e-01
-7.722473144531250000e-01 7.948833703994750977e-02 -1.469258368015289307e-01
-4.675789475440979004e-01 -9.482311084866523743e-03 -7.961040735244750977e-02
2.222373634576797485e-01 -1.453414708375930786e-01 -2.738932669162750244e-01
-1.448600441217422485e-01 7.628411054611206055e-02 -7.381609827280044556e-02
2.064298391342163086e-01 -5.148437619209289551e-02 -3.175241351127624512e-01
1.926783621311187744e-01 -1.415514852851629257e-02 -2.016913890838623047e-01
3.939304053783416748e-01 8.939472585916519165e-02 -6.067877262830734253e-02
3.930759429931640625e-01 -7.928101718425750732e-02 -7.282812893390655518e-02
2.342799007892608643e-01 -2.403484098613262177e-02 -2.710094451904296875e-01
7.549130320549011230e-01 1.025587543845176697e-01 1.809176057577133179e-02
-3.821329176425933838e-01 4.838065057992935181e-02 -9.090529382228851318e-02
8.619128167629241943e-02 -8.064281195402145386e-02 3.002771735191345215e-01
9.271401762962341309e-01 -1.052368525415658951e-02 -4.372308403253555298e-02
-6.990788131952285767e-02 -8.886699378490447998e-02 5.368536338210105896e-02
-7.159009575843811035e-02 1.433575991541147232e-02 -5.820595622062683105e-01
1.901683956384658813e-01 6.125095859169960022e-02 -8.700682967901229858e-02
-4.037614464759826660e-01 -1.428864989429712296e-02 -8.751415461301803589e-02
-1.859275251626968384e-01 1.159363985061645508e-01 1.830317545682191849e-03
-7.015140652656555176e-01 1.957215964794158936e-01 1.000109221786260605e-02
1.692608296871185303e-01 -1.047028880566358566e-02 2.725072205066680908e-01
2.256017923355102539e-01 -9.626341611146926880e-02 5.042773485183715820e-02
-1.906750723719596863e-02 7.286461070179939270e-03 -5.038498044013977051e-01
7.116827368736267090e-01 6.154467537999153137e-02 -8.305494487285614014e-02
9.451372623443603516e-01 -5.084351450204849243e-02 -1.816938817501068115e-02
-8.272532224655151367e-01 7.569666951894760132e-02 -4.954408854246139526e-02
9.639140218496322632e-02 -1.175197865813970566e-02 -2.850546538829803467e-01
3.293385803699493408e-01 -3.581037372350692749e-02 -1.136285886168479919e-01
-6.528899669647216797e-01 2.193260639905929565e-01 6.129319779574871063e-03
7.631158828735351562e-02 1.100085750222206116e-01 1.883941330015659332e-02
-8.718186616897583008e-01 8.068992197513580322e-02 -2.119449079036712646e-01
3.973749279975891113e-01 -3.532973304390907288e-02 9.651517122983932495e-02
2.498737871646881104e-01 -4.117744043469429016e-02 -1.850561201572418213e-01
-8.492822647094726562e-01 6.247923895716667175e-02 -3.266850486397743225e-02
8.250856399536132812e-01 -7.514223456382751465e-02 -2.722132392227649689e-02
1.992737352848052979e-01 -1.027786657214164734e-01 3.570186793804168701e-01
7.956067323684692383e-01 4.082241095602512360e-03 9.365806728601455688e-02
-5.716361403465270996e-01 1.063771247863769531e-01 3.082855418324470520e-02
1.535868346691131592e-01 -6.518405862152576447e-03 4.067108631134033203e-01
9.994274377822875977e-02 1.865979866124689579e-03 4.997669160366058350e-01
-1.556475907564163208e-01 -4.988225549459457397e-02 -7.608575373888015747e-02
-5.423388257622718811e-02 -8.798583596944808960e-02 8.070766180753707886e-02
1.001029759645462036e-01 -9.626341611146926880e-02 5.582151189446449280e-02
8.291710019111633301e-01 -7.228513062000274658e-02 3.956006839871406555e-02
1.236273199319839478e-01 -1.406419426202774048e-01 2.785151600837707520e-01
2.666158676147460938e-01 -7.826633751392364502e-02 -2.427054792642593384e-01
5.771853923797607422e-01 -6.155096367001533508e-02 6.615513563156127930e-02
-1.448600441217422485e-01 7.628411054611206055e-02 -7.381609827280044556e-02
-9.057512134313583374e-02 2.581756189465522766e-02 6.743437051773071289e-01
-2.290243506431579590e-01 1.101420894265174866e-01 -1.472484599798917770e-02
-1.207749545574188232e-01 -6.085672974586486816e-02 7.149551063776016235e-02
-8.169195652008056641e-01 3.408195972442626953e-01 5.835598800331354141e-03
3.724674880504608154e-02 4.266645014286041260e-02 9.552720189094543457e-02
2.982362732291221619e-02 -2.077720500528812408e-02 -3.797394931316375732e-01
3.151331841945648193e-01 -9.626341611146926880e-02 4.874551668763160706e-02
5.497679486870765686e-02 2.905683650169521570e-04 1.032974421977996826e-01
3.407936990261077881e-01 -1.808032393455505371e-02 1.032974421977996826e-01
2.191666364669799805e-01 -3.306007757782936096e-02 -2.512500584125518799e-01
7.759328186511993408e-02 -1.193071305751800537e-01 1.454864144325256348e-01
6.007685139775276184e-02 -5.191158875823020935e-02 -9.963680803775787354e-02
1.873113065958023071e-01 -6.571646779775619507e-02 -1.054311171174049377e-01
1.084072515368461609e-01 -8.905390650033950806e-02 3.062317073345184326e-01
2.320102453231811523e-01 -6.384734064340591431e-02 3.384074568748474121e-01
9.753959625959396362e-02 -9.626341611146926880e-02 -4.382989183068275452e-02
-7.902711629867553711e-01 2.745455205440521240e-01 6.823568139225244522e-03
-8.723739534616470337e-02 3.737948089838027954e-02 8.150092363357543945e-01
-5.716361403465270996e-01 1.063771247863769531e-01 3.082855418324470520e-02
4.583086371421813965e-01 7.094373553991317749e-02 -7.915647327899932861e-02
1.031202822923660278e-01 -3.228571638464927673e-02 -1.362183839082717896e-01
1.281933337450027466e-01 1.124117448925971985e-01 9.707371704280376434e-03
-6.438646912574768066e-01 -2.107092551887035370e-02 1.793154887855052948e-02
3.612526878714561462e-02 -4.723875969648361206e-02 1.140583008527755737e-01
-7.697907686233520508e-01 3.039710223674774170e-01 7.517817430198192596e-03
9.879457205533981323e-02 -7.586316764354705811e-02 -2.992600500583648682e-01
-7.121146917343139648e-01 6.143786385655403137e-02 -5.397660285234451294e-02
6.192675232887268066e-01 2.859455905854701996e-02 -9.499068558216094971e-02
4.110463261604309082e-01 1.494990196079015732e-02 -9.912947565317153931e-02
2.989518344402313232e-01 -9.626341611146926880e-02 5.178952962160110474e-02
-7.599377632141113281e-01 6.424156576395034790e-02 -4.994462057948112488e-02
-2.040848135948181152e-01 -8.584968745708465576e-02 -8.156184107065200806e-03
3.735893871635198593e-03 -9.268703870475292206e-03 4.866295754909515381e-01
3.975084722042083740e-01 2.643170394003391266e-02 9.979950636625289917e-02
-1.754871010780334473e-01 -2.590397372841835022e-02 9.309732913970947266e-02
9.879457205533981323e-02 -7.586316764354705811e-02 -2.992600500583648682e-01
-2.290243506431579590e-01 -6.988196074962615967e-02 -5.413681268692016602e-02
2.306751459836959839e-01 -3.554335236549377441e-02 -2.930118143558502197e-01
6.307760477066040039e-01 1.067242473363876343e-01 -2.738153748214244843e-02
-2.131046541035175323e-02 -1.268654037266969681e-02 4.228120744228363037e-01
7.369481027126312256e-02 -2.243272028863430023e-02 -2.244413793087005615e-01
1.957224011421203613e-01 -3.479569777846336365e-02 -2.569375634193420410e-01
7.017015665769577026e-02 -4.432826116681098938e-02 2.419068813323974609e-01
7.116827368736267090e-01 6.154467537999153137e-02 -8.305494487285614014e-02
-1.658423244953155518e-02 -9.548906236886978149e-02 2.361904643476009369e-02
-3.871261775493621826e-01 9.775242209434509277e-02 5.579480901360511780e-02
-1.458159368485212326e-02 1.919386559166014194e-03 -9.931638836860656738e-02
3.724674880504608154e-02 4.266645014286041260e-02 9.552720189094543457e-02
1.303828954696655273e-01 -7.239360827952623367e-03 -3.274038136005401611e-01
-8.567855358123779297e-01 6.976885348558425903e-02 9.945237636566162109e-02
-2.781291007995605469e-01 -6.958824396133422852e-02 5.747703090310096741e-02
3.332637548446655273e-01 -1.525158178992569447e-03 -9.963680803775787354e-02
-6.665024906396865845e-02 1.057079527527093887e-02 6.411800384521484375e-01
-4.756429195404052734e-01 1.101687848567962646e-01 1.755772344768047333e-02
2.811684012413024902e-01 -1.241401731967926025e-01 2.380084097385406494e-01
8.328024148941040039e-01 8.368052542209625244e-02 1.269578118808567524e-03
-8.610310554504394531e-01 9.115705639123916626e-02 2.962185144424438477e-01
4.517720639705657959e-02 -2.120443806052207947e-02 -9.963680803775787354e-02
-5.544134378433227539e-01 1.105426177382469177e-01 -1.253529172390699387e-02
1.061642915010452271e-01 -9.281887114048004150e-02 3.368854522705078125e-01
-1.216027066111564636e-01 3.105113469064235687e-02 8.173056244850158691e-01
7.108015418052673340e-01 -8.582298457622528076e-02 -5.405891221016645432e-03
1.434668004512786865e-01 -9.626341611146926880e-02 2.110907062888145447e-02
-5.392467975616455078e-01 1.035467237234115601e-01 4.198993742465972900e-02
1.953485608100891113e-01 -5.522261932492256165e-02 -1.653501242399215698e-01
1.915569007396697998e-01 -1.247292384505271912e-02 3.257240653038024902e-01
2.811684012413024902e-01 -1.241401731967926025e-01 2.380084097385406494e-01
2.881433581933379173e-03 1.791380718350410461e-02 5.813144445419311523e-01
-1.599679328501224518e-02 -5.711846053600311279e-02 -1.299701333045959473e-01
2.307018488645553589e-01 -5.853365361690521240e-02 2.608652114868164062e-01
4.907567799091339111e-02 -1.523373425006866455e-01 -1.727198511362075806e-01
-1.663016527891159058e-01 2.757989242672920227e-02 -7.303351163864135742e-01
-1.074507087469100952e-01 3.308047726750373840e-02 7.333816289901733398e-01
9.366781264543533325e-02 -5.399433895945549011e-02 -9.963680803775787354e-02
2.042936980724334717e-01 -1.255302876234054565e-02 2.428147494792938232e-01
-9.226857423782348633e-01 9.299948066473007202e-02 -2.954683899879455566e-01
8.357129096984863281e-01 7.759250700473785400e-02 2.391276881098747253e-02
-3.453644216060638428e-01 1.046147942543029785e-01 -3.573922067880630493e-02
1.670979708433151245e-01 -6.576985865831375122e-02 3.062317073345184326e-01
-1.514233369380235672e-02 2.456258051097393036e-02 6.806988120079040527e-01
-3.806643486022949219e-01 -6.782591342926025391e-02 4.922614991664886475e-02
-9.409978240728378296e-02 6.752424407750368118e-03 -9.800799936056137085e-02
-7.364935278892517090e-01 2.432242333889007568e-01 -5.058766808360815048e-03
-2.794908881187438965e-01 9.956654161214828491e-03 -9.872894734144210815e-02
-1.058753058314323425e-01 2.643170394003391266e-02 -7.769833207130432129e-01
-5.743272136896848679e-03 -5.104815936647355556e-04 -5.716992616653442383e-01
-4.249894618988037109e-01 -6.908089667558670044e-02 -7.034705486148595810e-03
-8.733881637454032898e-03 -1.252633053809404373e-02 3.676460087299346924e-01
-8.057047724723815918e-01 1.831984221935272217e-01 -2.255069557577371597e-03
1.872578859329223633e-01 -4.769269004464149475e-02 2.907178997993469238e-01
-1.506222877651453018e-02 -1.279334351420402527e-02 -4.259070158004760742e-01
1.608764380216598511e-01 -8.825285732746124268e-02 2.572604715824127197e-01
2.701138257980346680e-01 -8.400726318359375000e-02 2.711454331874847412e-01
-2.919072806835174561e-01 3.324068710207939148e-02 -9.459014981985092163e-02
-1.370043121278285980e-02 -3.348730131983757019e-02 2.439362108707427979e-01
-5.647683516144752502e-02 1.038221642374992371e-03 -5.408051609992980957e-01
8.680542558431625366e-02 -5.172467976808547974e-02 -1.791283041238784790e-01
-7.810055613517761230e-01 6.493581086397171021e-02 -6.003792956471443176e-02
8.569943308830261230e-01 -6.144417077302932739e-02 -4.292202368378639221e-02
9.451372623443603516e-01 -5.084351450204849243e-02 -1.816938817501068115e-02
9.401493519544601440e-02 -5.815983563661575317e-02 1.458068341016769409e-01
-8.328338861465454102e-01 6.624420732259750366e-02 -7.977061718702316284e-02
3.973749279975891113e-01 -3.532973304390907288e-02 9.651517122983932495e-02
-9.191076755523681641e-01 9.115705639123916626e-02 -2.729319930076599121e-01
2.243468016386032104e-01 -8.181770145893096924e-02 3.316251933574676514e-01
8.207920193672180176e-02 -6.536934524774551392e-02 -3.155481815338134766e-01
5.516049861907958984e-01 7.785952091217041016e-02 -7.221398502588272095e-02
6.450936198234558105e-02 -2.865426242351531982e-02 3.377933204174041748e-01
9.076744914054870605e-01 -5.599699169397354126e-02 -3.055905923247337341e-02
-5.097044631838798523e-04 -4.013606533408164978e-02 -9.963680803775787354e-02
-3.090498745441436768e-01 1.103824079036712646e-01 1.739751175045967102e-02
7.733106613159179688e-01 -8.056271821260452271e-02 -2.276211045682430267e-02
1.849615275859832764e-01 -7.212492078542709351e-02 -3.217430114746093750e-01
2.954806089401245117e-01 -9.626341611146926880e-02 -1.253529172390699387e-02
5.656501650810241699e-01 3.748628124594688416e-02 -9.322835505008697510e-02
-8.209782838821411133e-01 8.448158204555511475e-02 1.787836402654647827e-01
1.879575289785861969e-02 -4.929481074213981628e-02 1.892240792512893677e-01
-3.451775312423706055e-01 1.075520142912864685e-01 -2.457783930003643036e-02
2.518764138221740723e-01 -8.982826024293899536e-02 -8.879584819078445435e-02
2.345736324787139893e-01 -8.769211173057556152e-02 -2.377656251192092896e-01
2.570031881332397461e-01 -6.646411865949630737e-02 3.405435979366302490e-01
2.477109432220458984e-01 -1.537525653839111328e-01 -2.531459033489227295e-01
1.734797209501266479e-01 -6.932122260332107544e-02 -3.409950435161590576e-01
-7.760123014450073242e-01 5.844725668430328369e-02 -4.519168660044670105e-02
-7.367338538169860840e-01 1.964692473411560059e-01 -5.085468292236328125e-03
5.191354751586914062e-01 5.016967654228210449e-02 9.357796609401702881e-02
2.613555788993835449e-01 -3.658472746610641479e-02 -2.011573612689971924e-01
-1.594926714897155762e-01 3.508311137557029724e-02 -8.325232267379760742e-01
-5.539061427116394043e-01 -4.000255092978477478e-02 -1.990500837564468384e-02
2.453878670930862427e-01 -1.306287199258804321e-01 -2.573381066322326660e-01
2.805809378623962402e-01 -5.271265655755996704e-02 1.129902303218841553e-01
-1.288389116525650024e-01 -3.153966274112462997e-03 6.193112134933471680e-01
1.236273199319839478e-01 -1.406419426202774048e-01 2.785151600837707520e-01
7.479171156883239746e-01 -1.543934047222137451e-01 -2.158722840249538422e-02
1.185326371341943741e-02 -6.104363873600959778e-02 1.032974421977996826e-01
7.359547615051269531e-01 -6.184468790888786316e-02 -5.985101312398910522e-02
3.622352778911590576e-01 -9.279216825962066650e-02 -7.285482436418533325e-02
-5.969228148460388184e-01 5.145136639475822449e-02 -7.015793770551681519e-02
2.982842922210693359e-01 -5.380742996931076050e-02 -2.758157849311828613e-01
3.216484487056732178e-01 8.325330168008804321e-02 -6.684690713882446289e-02
7.050072550773620605e-01 -8.358002454042434692e-02 -1.467144209891557693e-02
-8.453837633132934570e-01 7.863387465476989746e-02 1.928555220365524292e-01
-7.687760591506958008e-01 7.871398329734802246e-02 1.420685648918151855e-01
6.967296600341796875e-01 5.142466723918914795e-02 -8.671310544013977051e-02
2.625304758548736572e-01 -1.970913074910640717e-02 -1.010787039995193481e-01
-6.665024906396865845e-02 1.057079527527093887e-02 6.411800384521484375e-01
-4.942215979099273682e-03 1.009015552699565887e-02 -5.145572423934936523e-01
-1.569559872150421143e-01 3.019666858017444611e-02 -7.428850531578063965e-01
-7.661592960357666016e-01 6.819344311952590942e-02 8.831769227981567383e-02
2.330515980720520020e-01 -5.880067870020866394e-02 1.233238503336906433e-01
2.706211507320404053e-01 -2.294006012380123138e-02 2.027886211872100830e-01
1.922244280576705933e-01 -1.474242210388183594e-01 -3.068433701992034912e-01
8.624468743801116943e-02 1.967613585293292999e-02 -9.787448495626449585e-02
1.009307205677032471e-01 -1.330852955579757690e-01 -3.223838806152343750e-01
-9.842549264430999756e-02 7.419972680509090424e-03 -5.822465419769287109e-01
-5.188732147216796875e-01 8.918111771345138550e-02 5.889222770929336548e-02
-7.872003912925720215e-01 1.370842903852462769e-01 6.529847625643014908e-03
1.590073108673095703e-01 -1.650741547346115112e-01 -3.011024594306945801e-01
9.420184046030044556e-02 -3.658472746610641479e-02 2.961650788784027100e-01
-1.412766147404909134e-02 -9.161728620529174805e-02 -8.633928000926971436e-02
-1.936122961342334747e-02 -5.388754606246948242e-02 1.288511455059051514e-01
-7.530487179756164551e-01 2.537447810173034668e-01 8.131960406899452209e-03
3.228019922971725464e-02 -2.221911400556564331e-02 3.696753680706024170e-01
-3.059524595737457275e-01 9.884719550609588623e-02 5.499375611543655396e-02
2.149210423231124878e-01 -3.952192142605781555e-02 2.947231829166412354e-01
-7.060800790786743164e-01 1.131844893097877502e-02 -4.166704043745994568e-02
9.972913563251495361e-02 -7.241864502429962158e-02 3.330937922000885010e-01
-8.029544949531555176e-01 7.721868157386779785e-02 8.401869237422943115e-02
7.879486680030822754e-02 -6.053631007671356201e-02 2.888220548629760742e-01
-2.461936622858047485e-01 -1.741277426481246948e-02 9.531358629465103149e-02
1.109439358115196228e-01 -2.494270354509353638e-02 -1.730936765670776367e-01
