-7.635908126831054688e-01 1.091528385877609253e-01 2.524645924568176270e-01
4.085193276405334473e-01 1.605939678847789764e-02 -1.384868323802947998e-01
1.284651644527912140e-02 -5.032228305935859680e-02 2.068672776222229004e-01
-4.452860355377197266e-02 -2.489351853728294373e-02 -9.866294264793395996e-02
-7.271796464920043945e-01 1.918027997016906738e-01 3.533208742737770081e-02
1.528715789318084717e-01 -8.265353739261627197e-02 3.233623802661895752e-01
-6.591814160346984863e-01 9.819614887237548828e-02 -4.195497557520866394e-02
-2.227353155612945557e-01 6.609583646059036255e-02 8.250354528427124023e-01
-7.342144101858139038e-02 -1.005640029907226562e-01 2.866946756839752197e-01
-7.579969763755798340e-01 3.093242943286895752e-01 3.779542073607444763e-02
1.113284975290298462e-01 -2.232754230499267578e-02 3.303674757480621338e-01
2.703674137592315674e-01 -9.550903737545013428e-02 2.082785665988922119e-01
1.427103281021118164e-01 -6.117634475231170654e-02 3.397333025932312012e-01
-3.232700824737548828e-01 -8.663078397512435913e-02 -2.952207578346133232e-03
-1.617462188005447388e-02 7.551295310258865356e-02 -9.745693951845169067e-02
-6.521506905555725098e-01 -1.309004146605730057e-02 6.591846793889999390e-02
5.712276101112365723e-01 -7.485298067331314087e-02 -1.095939800143241882e-01
8.202511072158813477e-02 -1.246841400861740112e-01 -1.391796320676803589e-01
2.449602633714675903e-02 -7.575106620788574219e-02 8.167353272438049316e-02
-2.550152242183685303e-01 7.330622524023056030e-02 1.038691848516464233e-01
-4.724853858351707458e-02 -7.813741266727447510e-02 -2.717633843421936035e-01
7.943347841501235962e-02 -8.339766412973403931e-02 -3.638561069965362549e-01
1.760936230421066284e-01 4.017952829599380493e-02 -1.201401203870773315e-01
5.210884809494018555e-01 1.179284602403640747e-01 1.482997555285692215e-02
5.741744115948677063e-02 1.262100040912628174e-02 -1.126988083124160767e-01
8.761892467737197876e-02 -1.314839720726013184e-01 2.540298402309417725e-01
1.093013808131217957e-01 -3.405402973294258118e-02 -2.953959703445434570e-01
-7.774727344512939453e-01 3.847895264625549316e-01 5.793829262256622314e-02
-1.143486946821212769e-01 -9.112775325775146484e-03 -3.814330101013183594e-01
2.070648968219757080e-01 -1.190646588802337646e-01 3.181021511554718018e-01
-3.778010234236717224e-02 -7.654650509357452393e-02 2.996271550655364990e-01
-6.765787005424499512e-01 1.508432347327470779e-02 -8.263769559562206268e-03
-4.786396622657775879e-01 2.737532928586006165e-02 -6.751205027103424072e-02
2.968739271163940430e-01 -9.127519279718399048e-02 -7.515864074230194092e-02
8.192246407270431519e-02 1.942081563174724579e-02 3.711407780647277832e-01
6.162563338875770569e-02 -4.855176806449890137e-02 1.655551493167877197e-01
-3.636881709098815918e-02 2.972941147163510323e-03 -3.105608820915222168e-01
6.435366868972778320e-01 -1.683569848537445068e-01 1.340963393449783325e-01
6.545703411102294922e-01 -9.032578766345977783e-02 -1.080408040434122086e-02
-6.988041102886199951e-02 4.174477234482765198e-02 5.686179399490356445e-01
2.083992063999176025e-01 6.042504310607910156e-02 7.815815508365631104e-02
-1.439086794853210449e-01 1.456922739744186401e-01 5.233241710811853409e-03
5.204727053642272949e-01 -9.938365966081619263e-02 -2.830400504171848297e-02
-1.560970395803451538e-01 5.126452073454856873e-02 6.792112588882446289e-01
5.480015277862548828e-02 -3.210388123989105225e-02 8.144259452819824219e-02
5.672760009765625000e-01 3.874258324503898621e-02 5.426895990967750549e-02
-1.876841485500335693e-01 2.160189114511013031e-02 -4.788372814655303955e-01
-6.473265886306762695e-01 1.743028610944747925e-01 5.024038255214691162e-02
6.083571910858154297e-01 7.633406668901443481e-02 -1.494435071945190430e-01
-9.107533097267150879e-02 -1.070367731153964996e-02 4.127608537673950195e-01
-4.240871071815490723e-01 2.206377126276493073e-02 -7.382433861494064331e-02
6.742472946643829346e-02 -9.709993749856948853e-02 4.351753368973731995e-02
2.326733022928237915e-01 -9.122388064861297607e-02 3.150742948055267334e-01
-2.382121421396732330e-02 -1.716993190348148346e-02 1.474650502204895020e-01
-1.446528136730194092e-01 2.999261766672134399e-02 6.638924479484558105e-01
-8.020803928375244141e-01 8.113243430852890015e-02 2.391351386904716492e-02
1.509984284639358521e-01 -3.505476191639900208e-02 2.691690921783447266e-01
-9.913651272654533386e-03 -8.291012048721313477e-02 -3.721185028553009033e-01
7.922820001840591431e-02 -1.496510356664657593e-01 2.877980172634124756e-01
-3.384349644184112549e-01 -7.752818055450916290e-03 1.124908477067947388e-01
-7.922054827213287354e-02 4.677407443523406982e-02 -1.026658639311790466e-01
9.929408878087997437e-02 -5.201582983136177063e-02 -3.436875641345977783e-01
7.099953293800354004e-01 -6.266459822654724121e-02 3.026506165042519569e-03
-6.749364733695983887e-01 3.079130053520202637e-01 4.141344130039215088e-02
-6.367075443267822266e-02 1.916422322392463684e-02 6.029763221740722656e-01
-4.266787469387054443e-01 1.088192611932754517e-01 9.532450139522552490e-02
-7.083197832107543945e-01 8.480177819728851318e-02 -8.546025492250919342e-03
-7.327477931976318359e-01 3.610286414623260498e-01 4.469788447022438049e-02
-3.121121227741241455e-02 -5.301656201481819153e-02 -3.476135134696960449e-01
1.266729980707168579e-01 -1.335367411375045776e-01 -2.676064968109130859e-01
-4.422470927238464355e-03 -1.268139034509658813e-01 3.075560033321380615e-01
8.602803200483322144e-02 -5.619836598634719849e-02 -1.673283427953720093e-01
1.147669032216072083e-01 -1.085441708564758301e-01 -3.475878536701202393e-01
-8.183783292770385742e-02 3.691413905471563339e-03 -5.137858390808105469e-01
-5.920596420764923096e-02 -7.929209619760513306e-02 2.863097488880157471e-01
1.821749806404113770e-01 -1.112384498119354248e-01 2.332711368799209595e-01
3.973316848278045654e-01 -9.908235631883144379e-03 6.540527939796447754e-02
7.984443902969360352e-01 4.682539403438568115e-02 -5.915138171985745430e-04
-5.866711214184761047e-02 -6.651356816291809082e-02 -2.827200889587402344e-01
2.469657659530639648e-01 8.841979503631591797e-02 5.165166780352592468e-02
7.345476001501083374e-02 8.156207390129566193e-03 -2.405611723661422729e-01
2.553821504116058350e-01 6.591622531414031982e-02 7.002402096986770630e-02
5.495411157608032227e-02 -4.611409083008766174e-02 -2.213163822889328003e-01
-2.931712567806243896e-01 -9.622751176357269287e-02 1.434244029223918915e-02
1.502799540758132935e-01 -9.137783199548721313e-02 5.498743429780006409e-02
-9.107533097267150879e-02 -1.070367731153964996e-02 4.127608537673950195e-01
8.761892467737197876e-02 -1.314839720726013184e-01 2.540298402309417725e-01
6.118942052125930786e-02 -7.913814485073089600e-02 4.823892191052436829e-02
8.446278423070907593e-02 -1.190646588802337646e-01 3.297260105609893799e-01
1.781207472085952759e-01 4.677407443523406982e-02 8.672849833965301514e-02
3.845275044441223145e-01 9.550186991691589355e-02 -1.305579692125320435e-01
1.576442867517471313e-01 -5.360673367977142334e-02 -3.326538801193237305e-01
-4.661177098751068115e-01 1.186982542276382446e-01 8.639492094516754150e-02
1.866397708654403687e-01 -1.004100441932678223e-01 3.166908621788024902e-01
-2.985597848892211914e-01 -8.942768722772598267e-02 -9.084879420697689056e-03
-5.890533924102783203e-01 6.268309801816940308e-02 -4.439265280961990356e-02
-1.530948579311370850e-01 8.643734268844127655e-03 -5.333128571510314941e-01
-8.050312995910644531e-01 1.046367362141609192e-01 7.528426498174667358e-02
1.155880168080329895e-01 -8.090867847204208374e-02 -3.577747642993927002e-01
1.810716092586517334e-01 -1.371804177761077881e-01 -3.520013093948364258e-01
-3.087763674557209015e-02 -9.633015841245651245e-02 2.545309625566005707e-02
-7.398998830467462540e-03 -4.853270482271909714e-03 -1.761039644479751587e-01
-9.985096007585525513e-02 5.923801101744174957e-03 4.343663454055786133e-01
6.465644836425781250e-01 1.159461401402950287e-02 4.297868534922599792e-02
4.140577837824821472e-02 -4.036631062626838684e-02 -2.566754519939422607e-01
-1.387510746717453003e-01 -7.875325530767440796e-02 -3.071994483470916748e-01
-1.626146137714385986e-01 3.443175554275512695e-02 -9.653318673372268677e-02
1.386304348707199097e-01 -1.012568175792694092e-01 3.361665904521942139e-01
-8.344629406929016113e-01 1.207510381937026978e-01 -2.971151769161224365e-01
-4.700949788093566895e-01 1.434598863124847412e-01 3.307403251528739929e-02
6.006079912185668945e-01 -4.167495295405387878e-02 3.494719043374061584e-02
9.072375297546386719e-02 -8.583533763885498047e-02 3.028602600097656250e-01
-7.531312294304370880e-04 -5.828344728797674179e-03 4.528156518936157227e-01
6.824624538421630859e-01 -1.683569848537445068e-01 1.705331206321716309e-01
3.468333780765533447e-01 -1.049840822815895081e-02 7.525860518217086792e-02
-6.590274572372436523e-01 2.714439295232295990e-02 1.020730063319206238e-01
-1.616908758878707886e-01 3.171182051301002502e-02 -5.031113624572753906e-01
4.374081268906593323e-02 7.848292589187622070e-03 2.611119151115417480e-01
-3.569869399070739746e-01 -8.052377402782440186e-02 4.036139324307441711e-02
-7.497602105140686035e-01 9.886329621076583862e-02 8.677981793880462646e-02
2.011631578207015991e-01 8.759868144989013672e-02 6.489207595586776733e-02
-6.747568845748901367e-01 2.439689785242080688e-01 4.834156483411788940e-02
4.204727336764335632e-02 -1.215536519885063171e-01 -2.690177857875823975e-01
-3.948606848716735840e-01 1.332729756832122803e-01 -2.229963243007659912e-02
2.649748511612415314e-02 -8.819603174924850464e-02 6.548225879669189453e-02
2.781936526298522949e-01 1.043031513690948486e-01 4.929097369313240051e-02
-7.834811508655548096e-02 2.901755273342132568e-02 -5.354426503181457520e-01
-2.844726145267486572e-01 1.350178271532058716e-01 5.275503545999526978e-02
-7.478870153427124023e-01 3.438109457492828369e-01 5.378142371773719788e-02
6.820518970489501953e-01 -1.590168625116348267e-01 -4.934497177600860596e-02
4.427966848015785217e-02 -1.382068097591400146e-01 3.013207018375396729e-01
-9.430845081806182861e-02 2.321845851838588715e-02 4.639263153076171875e-01
2.390625625848770142e-01 7.428128272294998169e-02 5.691190436482429504e-02
-4.910332858562469482e-01 -5.950847268104553223e-02 4.013045132160186768e-02
3.922510743141174316e-01 3.987161442637443542e-02 -1.323284804821014404e-01
-3.857555240392684937e-02 -1.067223399877548218e-01 -3.486912250518798828e-01
4.628409743309020996e-01 1.176462024450302124e-01 -1.030251011252403259e-01
-7.706985473632812500e-01 1.253441274166107178e-01 5.134374648332595825e-02
1.636743247509002686e-01 -4.888533800840377808e-02 -1.046929806470870972e-01
3.679769933223724365e-01 1.342737078666687012e-01 6.644526030868291855e-03
-3.216062486171722412e-02 -9.861387312412261963e-02 1.683143340051174164e-02
7.458379119634628296e-02 -9.648410975933074951e-02 3.120977580547332764e-01
-1.371088624000549316e-01 -2.005036221817135811e-03 -4.017041921615600586e-01
1.754224486649036407e-02 -1.068249866366386414e-01 -3.749667406082153320e-01
2.530727684497833252e-01 -4.708916693925857544e-02 1.119519993662834167e-01
-7.218424677848815918e-01 1.132327392697334290e-01 2.821785509586334229e-01
9.824205189943313599e-02 -1.176533699035644531e-01 2.285753935575485229e-01
-6.519453525543212891e-01 6.627546250820159912e-02 -7.441450655460357666e-02
7.600061297416687012e-01 1.095310971140861511e-02 -1.412067562341690063e-01
2.092932723462581635e-02 1.380970031023025513e-01 1.939740404486656189e-02
-7.806801795959472656e-01 9.444982558488845825e-02 1.893416941165924072e-01
-5.584157109260559082e-01 1.711467206478118896e-01 3.217594325542449951e-02
2.232048809528350830e-01 -1.396694034337997437e-01 3.326511979103088379e-01
9.639454632997512817e-02 -1.519412733614444733e-02 3.605946600437164307e-01
-3.624051809310913086e-02 -1.563036069273948669e-02 3.491760492324829102e-01
-3.717412650585174561e-01 1.080238223075866699e-01 -5.173132568597793579e-02
-2.815770730376243591e-02 1.570016145706176758e-02 3.645205795764923096e-01
1.982595957815647125e-02 -1.179356276988983154e-01 -3.505900204181671143e-01
-5.409671068191528320e-01 -2.915302291512489319e-02 8.221238851547241211e-02
-3.857555240392684937e-02 -1.067223399877548218e-01 -3.486912250518798828e-01
-7.383199781179428101e-02 -6.376797705888748169e-02 -2.999890744686126709e-01
3.532226383686065674e-01 1.417150199413299561e-01 -4.575260728597640991e-02
-5.602632164955139160e-01 -3.864712640643119812e-02 5.875940993428230286e-02
8.346205204725265503e-02 -1.665351539850234985e-01 1.448477655649185181e-01
4.263744875788688660e-02 -9.063370525836944580e-02 -3.249302804470062256e-01
2.025744467973709106e-01 -6.561548262834548950e-02 -1.250924468040466309e-01
3.372879624366760254e-01 8.167128264904022217e-02 5.737378820776939392e-02
9.213504195213317871e-02 1.207510381937026978e-01 4.495448246598243713e-02
-1.099865436553955078e-01 -1.079283431172370911e-01 -3.189516067504882812e-01
-1.127361599355936050e-02 -5.751356948167085648e-03 -2.938050925731658936e-01
-2.592234313488006592e-01 -9.430303424596786499e-02 -1.716769114136695862e-02
-6.749364733695983887e-01 3.079130053520202637e-01 4.141344130039215088e-02
-6.808824837207794189e-03 -1.115976944565773010e-01 -2.623206079006195068e-01
6.665791273117065430e-01 1.090502068400382996e-01 5.104942712932825089e-03
1.021423265337944031e-01 -4.978342354297637939e-02 1.825675219297409058e-01
-4.298605322837829590e-01 -7.097835838794708252e-02 9.107857942581176758e-03
7.183820009231567383e-02 -1.258644908666610718e-01 -2.559826672077178955e-01
1.247228756546974182e-01 9.971363469958305359e-04 -1.414120346307754517e-01
-9.441109001636505127e-02 8.566766045987606049e-03 5.153996944427490234e-01
-6.852517127990722656e-01 1.003772169351577759e-01 -6.371441483497619629e-02
-7.071394324302673340e-01 9.003635495901107788e-02 9.504224359989166260e-02
6.780962646007537842e-02 -1.788840442895889282e-02 3.726803362369537354e-01
1.195139512419700623e-01 -4.054594039916992188e-02 -3.305754363536834717e-01
6.185954213142395020e-01 -1.683569848537445068e-01 2.027104198932647705e-01
-8.247379064559936523e-01 1.182620376348495483e-01 3.982630968093872070e-01
8.109663128852844238e-01 7.102250307798385620e-02 -2.781647257506847382e-02
-4.701759666204452515e-02 -8.244824409484863281e-02 -3.444830179214477539e-01
-1.181246992200613022e-02 -3.736413642764091492e-02 -3.136400282382965088e-01
-2.875774204730987549e-01 5.136716738343238831e-02 -6.820878982543945312e-01
5.736909508705139160e-01 1.325545012950897217e-01 -8.488367497920989990e-02
3.172804135829210281e-03 1.213412135839462280e-01 5.085621401667594910e-02
1.535643935203552246e-01 3.355932608246803284e-02 8.329010009765625000e-02
4.606342017650604248e-01 6.898875348269939423e-03 6.643166393041610718e-02
1.481501907110214233e-01 -1.199370920658111572e-01 3.023470938205718994e-01
3.581196442246437073e-02 -1.267625689506530762e-01 -3.266238272190093994e-01
-5.864104628562927246e-01 -3.310461342334747314e-02 1.169949024915695190e-02
-5.051717758178710938e-01 -2.304601483047008514e-02 -3.987653926014900208e-02
5.705347657203674316e-01 7.796961348503828049e-03 5.044566094875335693e-02
-6.730890274047851562e-01 1.038925945758819580e-01 -9.576339274644851685e-02
6.970844417810440063e-02 1.105575449764728546e-02 -2.977823317050933838e-01
2.753967344760894775e-01 -3.910899534821510315e-02 -1.245279386639595032e-01
2.783989012241363525e-01 -1.829896308481693268e-02 7.123003154993057251e-02
6.848744750022888184e-01 1.249848902225494385e-01 -3.725924715399742126e-02
-6.995697617530822754e-01 9.850405901670455933e-02 -4.798500612378120422e-02
-2.102133929729461670e-01 4.526014998555183411e-02 7.313774824142456055e-01
-1.894290149211883545e-01 3.363630175590515137e-02 -9.455738961696624756e-02
-6.723448634147644043e-01 1.900835931301116943e-01 5.177996307611465454e-02
2.062140963971614838e-02 -5.340798292309045792e-03 -1.478782892227172852e-01
4.580682218074798584e-01 6.021976470947265625e-02 5.593684315681457520e-02
-7.383199781179428101e-02 -6.376797705888748169e-02 -2.999890744686126709e-01
-8.344629406929016113e-01 1.207510381937026978e-01 -2.971151769161224365e-01
-7.736750245094299316e-01 1.408425867557525635e-01 4.261944815516471863e-02
7.101709395647048950e-02 8.823348209261894226e-03 -2.555207610130310059e-01
4.371555745601654053e-01 1.007621213793754578e-01 4.885475710034370422e-02
-3.147510886192321777e-01 6.963688135147094727e-02 -7.718575745820999146e-02
8.588730096817016602e-01 -5.437651649117469788e-02 -6.389403343200683594e-02
1.212588101625442505e-01 -8.958164602518081665e-02 -2.716094255447387695e-01
-7.469376325607299805e-01 1.114878803491592407e-01 3.621855378150939941e-01
1.555658578872680664e-01 2.151824068278074265e-03 1.496461182832717896e-01
-2.996118068695068359e-01 8.754736930131912231e-02 -7.110440731048583984e-02
8.105813860893249512e-01 2.021626755595207214e-02 -1.317639797925949097e-01
7.930517941713333130e-02 -1.385147124528884888e-01 3.072480857372283936e-01
2.673652470111846924e-01 -1.023601964116096497e-01 3.417090773582458496e-01
3.274346292018890381e-01 -1.201234105974435806e-02 7.028061896562576294e-02
-6.104536056518554688e-01 1.804355233907699585e-01 3.368986770510673523e-02
1.271092146635055542e-01 -6.990063935518264771e-02 3.167935013771057129e-01
5.060262680053710938e-01 1.358646005392074585e-01 -7.474809139966964722e-02
1.525380015373229980e-01 -5.506933480501174927e-02 -1.847769618034362793e-01
-6.212563514709472656e-01 8.349312841892242432e-02 1.078464388847351074e-01
2.234358042478561401e-01 -1.711861975491046906e-02 7.577180117368698120e-02
-7.190712094306945801e-01 8.149167150259017944e-02 -1.456715464591979980e-01
-4.465906918048858643e-01 1.351974457502365112e-01 6.476378440856933594e-02
-6.749364733695983887e-01 3.079130053520202637e-01 4.141344130039215088e-02
-2.900447696447372437e-02 -2.232754230499267578e-02 2.232125252485275269e-01
8.117104172706604004e-01 -6.848937273025512695e-02 -8.118867874145507812e-02
-7.365967631340026855e-01 3.490455150604248047e-01 6.391701102256774902e-02
-1.807343773543834686e-02 -1.239913254976272583e-01 -2.831049859523773193e-01
6.762270927429199219e-01 -4.003274068236351013e-02 2.576101385056972504e-02
-6.548705697059631348e-01 9.911988675594329834e-02 -8.113735914230346680e-02
7.068905234336853027e-01 9.211479127407073975e-02 9.800670668482780457e-03
1.084546223282814026e-01 -1.002817451953887939e-01 3.299055993556976318e-01
-7.937409281730651855e-01 9.342344105243682861e-02 1.829403638839721680e-02
-7.162743210792541504e-01 2.549513578414916992e-01 3.333063051104545593e-02
1.960312277078628540e-01 -1.289436519145965576e-01 2.680144011974334717e-01
1.233885735273361206e-01 -1.340499371290206909e-01 2.679373919963836670e-01
-5.743544176220893860e-02 -5.494755227118730545e-03 3.043228983879089355e-01
-3.785707801580429077e-02 -4.834649711847305298e-02 -3.135117292404174805e-01
-1.317972987890243530e-01 2.013928815722465515e-02 5.017230510711669922e-01
1.386304348707199097e-01 -1.012568175792694092e-01 3.361665904521942139e-01
-6.823008060455322266e-01 1.231887042522430420e-01 1.264890003949403763e-02
-6.395003795623779297e-01 2.244419455528259277e-01 4.369715228676795959e-02
3.858361542224884033e-01 6.658337265253067017e-02 -1.307119280099868774e-01
-2.143486216664314270e-02 -5.930969957262277603e-03 4.539960026741027832e-01
-2.204002887010574341e-01 1.084600314497947693e-01 8.136561512947082520e-02
1.944916397333145142e-01 -3.962218016386032104e-02 1.979890316724777222e-01
-1.659247130155563354e-01 6.257390603423118591e-03 -4.400397837162017822e-01
-7.481949925422668457e-01 2.260328382253646851e-01 5.852847546339035034e-02
-2.252499759197235107e-01 -2.794702351093292236e-02 1.023296043276786804e-01
-8.666401505470275879e-01 1.150802373886108398e-01 -2.874927818775177002e-01
6.594713330268859863e-01 1.305787116289138794e-01 -2.681574225425720215e-02
-1.404959261417388916e-01 5.588327348232269287e-02 1.033046692609786987e-01
-7.615637183189392090e-01 9.462943673133850098e-02 1.593198329210281372e-01
-6.708350032567977905e-02 -6.920784711837768555e-02 -2.865690290927886963e-01
7.780961990356445312e-01 4.972494021058082581e-02 1.039084419608116150e-02
-8.666401505470275879e-01 1.150802373886108398e-01 -2.874927818775177002e-01
2.270025014877319336e-01 -4.010972753167152405e-02 6.584149599075317383e-02
3.372879624366760254e-01 8.167128264904022217e-02 5.737378820776939392e-02
3.443187177181243896e-01 -1.683569848537445068e-01 3.257744014263153076e-01
-1.626146137714385986e-01 3.443175554275512695e-02 -9.653318673372268677e-02
-1.840661317110061646e-01 -8.075469732284545898e-02 6.381437182426452637e-02
-4.523641169071197510e-01 7.653935253620147705e-02 1.156726554036140442e-01
2.704700529575347900e-01 -1.670806109905242920e-02 -1.261188387870788574e-01
4.166237637400627136e-02 -8.314106613397598267e-02 2.304485589265823364e-01
-3.014850020408630371e-01 6.524907797574996948e-02 -7.933997511863708496e-01
2.482960559427738190e-02 -2.689496055245399475e-02 -3.431743383407592773e-01
2.041140496730804443e-01 -4.975776746869087219e-02 2.822555303573608398e-01
2.701877951622009277e-01 -1.488555818796157837e-01 2.971894741058349609e-01
5.136471986770629883e-01 -1.683569848537445068e-01 1.618344783782958984e-01
-3.785707801580429077e-02 -4.834649711847305298e-02 -3.135117292404174805e-01
-6.438922882080078125e-02 -1.837593317031860352e-02 -3.553370535373687744e-01
1.202837377786636353e-01 -5.766096711158752441e-02 2.646786272525787354e-01
-6.889723539352416992e-01 1.282436698675155640e-01 5.385840311646461487e-02
1.780437529087066650e-01 -4.816686362028121948e-02 2.307821363210678101e-01
-7.147346735000610352e-01 7.684726268053054810e-02 9.796745330095291138e-02
-1.032636910676956177e-01 1.228741090744733810e-02 -3.650877475738525391e-01
1.525380015373229980e-01 -5.506933480501174927e-02 -1.847769618034362793e-01
1.960312277078628540e-01 -1.289436519145965576e-01 2.680144011974334717e-01
-9.271754324436187744e-02 -2.371315471827983856e-02 -2.131052613258361816e-01
2.190736532211303711e-01 -4.767933860421180725e-02 -3.345014154911041260e-01
6.868205964565277100e-02 -7.998491823673248291e-02 -3.568766713142395020e-01
9.334103763103485107e-02 -1.277633011341094971e-01 2.485899925231933594e-01
6.665493547916412354e-02 -9.173706173896789551e-02 -3.813047111034393311e-01
1.637769639492034912e-01 7.525636255741119385e-02 7.382166385650634766e-02
5.177013874053955078e-01 1.408682614564895630e-01 -5.542632564902305603e-02
-7.681581974029541016e-01 1.000693067908287048e-01 2.004266977310180664e-01
2.405508309602737427e-01 1.410925853997468948e-02 7.690082490444183350e-02
3.249456286430358887e-01 -4.939854145050048828e-02 -1.163938045501708984e-01
-6.968498826026916504e-01 1.973196268081665039e-01 4.149041697382926941e-02
2.653637826442718506e-01 -7.215870171785354614e-02 3.355250954627990723e-01
-2.908549271523952484e-03 3.717070212587714195e-03 5.057259798049926758e-01
7.850972563028335571e-02 -8.301275968551635742e-02 3.268521130084991455e-01
4.152934849262237549e-01 -1.683569848537445068e-01 3.329847753047943115e-01
3.819831833243370056e-02 -5.034793913364410400e-02 1.491329222917556763e-01
-5.761506035923957825e-02 -1.212970688939094543e-01 -3.241348862648010254e-01
-6.708350032567977905e-02 -6.920784711837768555e-02 -2.865690290927886963e-01
3.497842252254486084e-01 -5.912356823682785034e-02 -1.141100972890853882e-01
1.750928908586502075e-01 -5.807152763009071350e-02 3.154848515987396240e-01
2.628747820854187012e-01 -8.691304177045822144e-02 3.246710300445556641e-01
1.270579099655151367e-01 -3.400269895792007446e-02 2.799461483955383301e-01
-1.317972987890243530e-01 2.013928815722465515e-02 5.017230510711669922e-01
6.737340986728668213e-02 -6.302385032176971436e-02 -1.177281141281127930e-01
8.805514872074127197e-02 -1.230419278144836426e-01 -3.224156796932220459e-01
-5.892370641231536865e-02 -1.006219349801540375e-02 -2.453082203865051270e-01
-7.689793705940246582e-01 8.018302172422409058e-02 1.248588338494300842e-01
-9.928644448518753052e-02 -2.201962843537330627e-02 -4.223345816135406494e-01
-7.569449543952941895e-01 2.919013202190399170e-01 5.806659534573554993e-02
-2.330761998891830444e-01 2.229470759630203247e-02 -5.842730402946472168e-01
8.346205204725265503e-02 -1.665351539850234985e-01 1.448477655649185181e-01
-3.513715043663978577e-02 3.699772059917449951e-02 5.293329358100891113e-01
1.117863506078720093e-02 -1.401569545269012451e-01 3.120208084583282471e-01
-7.916625142097473145e-01 1.131044402718544006e-01 -2.615508139133453369e-01
1.380915790796279907e-01 4.127628635615110397e-03 -2.559826672077178955e-01
-1.437803804874420166e-01 2.131964266300201416e-02 -6.082648634910583496e-01
1.138175055384635925e-01 -7.726497948169708252e-02 3.196417391300201416e-01
-3.084387779235839844e-01 8.559722453355789185e-02 -7.118139415979385376e-02
6.185954213142395020e-01 -1.683569848537445068e-01 2.027104198932647705e-01
-5.385550856590270996e-01 -4.449753090739250183e-02 6.387928500771522522e-03
-5.209822207689285278e-02 3.563775494694709778e-02 5.055463314056396484e-01
4.508065283298492432e-01 -1.683569848537445068e-01 2.254449278116226196e-01
1.780437529087066650e-01 -4.816686362028121948e-02 2.307821363210678101e-01
-6.526895165443420410e-01 1.293470412492752075e-01 5.886204540729522705e-02
-3.954508602619171143e-01 6.445362418889999390e-02 -7.310586422681808472e-02
5.306595563888549805e-01 1.382253021001815796e-01 -2.666178531944751740e-02
2.060641795396804810e-01 -7.508390396833419800e-02 -2.740984261035919189e-01
-2.101620584726333618e-01 5.093095079064369202e-02 -6.595586538314819336e-01
-6.823008060455322266e-01 1.231887042522430420e-01 1.264890003949403763e-02
5.852377414703369141e-01 1.002745777368545532e-01 -1.263497769832611084e-01
1.077361479401588440e-01 -8.704134076833724976e-02 -9.720034152269363403e-02
-3.737940490245819092e-01 1.389181017875671387e-01 4.623746871948242188e-02
8.692611753940582275e-02 -1.621986627578735352e-01 -1.286334842443466187e-01
-1.127361599355936050e-02 -5.751356948167085648e-03 -2.938050925731658936e-01
-7.485028505325317383e-01 1.060223579406738281e-01 -1.199605092406272888e-01
-2.372330576181411743e-01 5.439501628279685974e-02 -6.875534653663635254e-01
1.666981354355812073e-02 -1.634881459176540375e-02 3.912323713302612305e-01
7.825866937637329102e-01 -6.892558932304382324e-02 -2.363393828272819519e-02
-2.119069397449493408e-01 3.810108825564384460e-02 -5.664908885955810547e-01
-6.325722932815551758e-01 9.606638550758361816e-02 -5.424598231911659241e-02
1.316766589879989624e-01 -3.595284745097160339e-02 -2.962171137332916260e-01
-4.619649052619934082e-02 1.451981719583272934e-02 5.739038586616516113e-01
1.351366937160491943e-02 -1.191929653286933899e-01 3.196930587291717529e-01
6.624438613653182983e-02 -8.480893820524215698e-02 -1.439010202884674072e-01
-6.571543216705322266e-01 6.986781209707260132e-02 1.074615493416786194e-01
7.516667246818542480e-01 1.011726707220077515e-01 -1.013315543532371521e-01
7.153028249740600586e-02 -1.394128203392028809e-01 3.189489245414733887e-01
-6.962083578109741211e-01 -4.724970087409019470e-03 4.554465413093566895e-02
8.153757452964782715e-02 -1.476239114999771118e-01 2.665261030197143555e-01
8.153757452964782715e-02 -1.476239114999771118e-01 2.665261030197143555e-01
-1.466029435396194458e-01 -1.041820198297500610e-01 3.950255922973155975e-03
1.960312277078628540e-01 -1.289436519145965576e-01 2.680144011974334717e-01
1.391436457633972168e-01 -1.277889609336853027e-01 3.123030662536621094e-01
2.787068188190460205e-01 -6.140728667378425598e-02 6.422492116689682007e-02
3.042639195919036865e-01 1.229321137070655823e-01 -8.557648211717605591e-02
-2.905282974243164062e-01 5.662740021944046021e-02 -7.133927345275878906e-01
8.551482856273651123e-02 -8.342332392930984497e-02 1.182899549603462219e-01
1.754224486649036407e-02 -1.068249866366386414e-01 -3.749667406082153320e-01
4.262501895427703857e-01 -6.366533041000366211e-02 -1.148798763751983643e-01
-5.592151731252670288e-02 3.322574496269226074e-02 6.310993432998657227e-01
3.845275044441223145e-01 9.550186991691589355e-02 -1.305579692125320435e-01
-7.375462055206298828e-01 8.734208345413208008e-02 -1.724859476089477539e-01
-5.922865271568298340e-01 4.497789219021797180e-02 -4.372549057006835938e-02
5.700985789299011230e-01 -9.445699304342269897e-02 -1.470435783267021179e-02
-7.147346735000610352e-01 7.684726268053054810e-02 9.796745330095291138e-02
4.687129706144332886e-02 -7.451938837766647339e-02 3.354737758636474609e-01
1.371894683688879013e-02 -1.319458335638046265e-01 -2.816423773765563965e-01
-2.200667113065719604e-01 -5.463311821222305298e-02 -7.302888482809066772e-02
1.374500989913940430e-01 -4.249607026576995850e-02 -2.528521716594696045e-01
6.360143423080444336e-02 -4.064856842160224915e-02 -3.222103714942932129e-01
1.646493971347808838e-01 -9.858822077512741089e-02 2.513311570510268211e-03
1.212588101625442505e-01 -8.958164602518081665e-02 -2.716094255447387695e-01
2.778047136962413788e-02 -5.414559319615364075e-02 -3.416860997676849365e-01
5.225984379649162292e-02 -6.187571678310632706e-03 -1.123139113187789917e-01
-7.148116827011108398e-01 9.716975688934326172e-02 1.301704049110412598e-01
5.772535502910614014e-02 -6.115068495273590088e-02 9.596599638462066650e-02
-1.617462188005447388e-02 7.551295310258865356e-02 -9.745693951845169067e-02
9.762621670961380005e-02 -1.411063522100448608e-01 -3.429177999496459961e-01
4.262501895427703857e-01 -6.366533041000366211e-02 -1.148798763751983643e-01
1.316766589879989624e-01 -3.595284745097160339e-02 -2.962171137332916260e-01
2.107085734605789185e-01 -7.804130669683218002e-03 1.710463315248489380e-01
-7.028286457061767578e-01 1.703446172177791595e-02 3.693659091368317604e-03
1.682417541742324829e-01 1.340684294700622559e-01 2.247657068073749542e-02
1.048582326620817184e-02 -1.699031889438629150e-02 -3.973420560359954834e-01
-6.387603282928466797e-02 -8.093433082103729248e-02 -2.717633843421936035e-01
1.278276890516281128e-01 -7.672613859176635742e-02 -1.105433851480484009e-01
9.318708628416061401e-02 -1.259414702653884888e-01 -3.039406538009643555e-01
-7.705702781677246094e-01 1.130017936229705811e-01 -1.849822252988815308e-01
2.775264978408813477e-01 4.030782729387283325e-02 -1.288644373416900635e-01
-1.761116236448287964e-01 3.584303334355354309e-02 -9.553245455026626587e-02
-3.232700824737548828e-01 -8.663078397512435913e-02 -2.952207578346133232e-03
3.758248314261436462e-02 -1.504721492528915405e-01 2.514125406742095947e-01
2.787068188190460205e-01 -6.140728667378425598e-02 6.422492116689682007e-02
6.824624538421630859e-01 -1.683569848537445068e-01 1.705331206321716309e-01
1.264123897999525070e-02 -3.390668891370296478e-03 -1.094143614172935486e-01
-1.809869706630706787e-01 1.652126945555210114e-02 -5.822715759277343750e-01
-1.404959261417388916e-01 5.588327348232269287e-02 1.033046692609786987e-01
9.282784909009933472e-02 -1.158828586339950562e-01 -3.377858400344848633e-01
6.521839499473571777e-01 -1.683569848537445068e-01 3.147150576114654541e-01
-1.568708755075931549e-02 -6.168954446911811829e-02 -2.874927818775177002e-01
6.444820016622543335e-02 -8.786246180534362793e-02 -3.581852912902832031e-01
1.854337751865386963e-01 -4.349680244922637939e-02 2.022485285997390747e-01
6.444820016622543335e-02 -8.786246180534362793e-02 -3.581852912902832031e-01
-8.043127655982971191e-01 1.157730445265769958e-01 4.023943245410919189e-01
-7.065235972404479980e-01 3.248227238655090332e-01 4.803364723920822144e-02
2.510969638824462891e-01 -1.289949715137481689e-01 3.101476430892944336e-01
5.741744115948677063e-02 1.262100040912628174e-02 -1.126988083124160767e-01
-5.051717758178710938e-01 -2.304601483047008514e-02 -3.987653926014900208e-02
1.190520823001861572e-01 -1.389766037464141846e-01 2.478971779346466064e-01
5.156702548265457153e-02 -8.911976963281631470e-02 -3.580313622951507568e-01
-1.143486946821212769e-01 -9.112775325775146484e-03 -3.814330101013183594e-01
-6.591814160346984863e-01 9.819614887237548828e-02 -4.195497557520866394e-02
1.373217999935150146e-01 1.440500617027282715e-01 -2.430109120905399323e-02
-4.845927059650421143e-01 1.303734183311462402e-01 -1.668015494942665100e-02
5.562126263976097107e-02 1.265244781970977783e-01 4.133646190166473389e-02
2.413462847471237183e-01 -1.542184799909591675e-01 2.602394819259643555e-01
-2.561699151992797852e-01 -9.212196618318557739e-02 4.839288443326950073e-02
7.490237951278686523e-01 6.080993637442588806e-02 -1.358951926231384277e-01
1.221568956971168518e-01 -1.030273362994194031e-01 -2.063175104558467865e-02
4.132879897952079773e-02 -5.473576486110687256e-02 -1.535490751266479492e-01
2.018303275108337402e-01 -9.148047864437103271e-02 4.829024150967597961e-02
1.595944315195083618e-01 -5.335013195872306824e-02 -1.924235373735427856e-01
-4.244206845760345459e-01 -5.188753083348274231e-02 8.018527179956436157e-02
-6.463515758514404297e-01 9.090878069400787354e-02 1.981429755687713623e-01
7.992141246795654297e-01 -5.442785099148750305e-02 -1.106973513960838318e-01
1.084505859762430191e-02 1.144065614789724350e-02 3.084540963172912598e-01
9.185278415679931641e-02 -6.063748523592948914e-02 -2.874414622783660889e-01
-4.369426369667053223e-01 -2.448295988142490387e-02 1.053574532270431519e-01
-4.523641169071197510e-01 7.653935253620147705e-02 1.156726554036140442e-01
-7.399325966835021973e-01 8.326218277215957642e-02 2.262403666973114014e-01
4.377970695495605469e-01 -8.753548376262187958e-03 6.242874264717102051e-02
4.125222563743591309e-01 8.952315896749496460e-02 -1.230653300881385803e-01
-7.194817662239074707e-01 2.226904965937137604e-02 8.246897906064987183e-02
8.230736851692199707e-02 -2.738250792026519775e-02 -1.075155511498451233e-01
-7.378797531127929688e-01 2.133312821388244629e-01 3.648677468299865723e-02
7.040125876665115356e-02 -1.254282742738723755e-01 2.476918846368789673e-01
3.306637331843376160e-02 -5.745567753911018372e-02 -1.342786252498626709e-01
8.692611753940582275e-02 -1.621986627578735352e-01 -1.286334842443466187e-01
5.095672607421875000e-01 1.027122512459754944e-01 3.281743451952934265e-02
2.402942478656768799e-01 4.310474172234535217e-02 -1.261188387870788574e-01
-6.367075443267822266e-02 1.916422322392463684e-02 6.029763221740722656e-01
1.036305874586105347e-01 8.695066906511783600e-03 2.211854010820388794e-01
-1.810126304626464844e-01 1.423821747303009033e-01 -6.672867108136415482e-03
5.646803602576255798e-02 -3.164201229810714722e-02 2.934944927692413330e-01
6.651678085327148438e-01 1.041235402226448059e-01 -1.196525841951370239e-01
1.636743247509002686e-01 -4.888533800840377808e-02 -1.046929806470870972e-01
1.237734556198120117e-01 -7.646954059600830078e-02 3.227722048759460449e-01
-3.086953759193420410e-01 -4.411263018846511841e-02 9.699238091707229614e-02
-2.372330576181411743e-01 5.439501628279685974e-02 -6.875534653663635254e-01
1.145687769167125225e-03 1.050986051559448242e-01 6.876669824123382568e-02
1.687509194016456604e-02 -7.804130669683218002e-03 -1.187031790614128113e-01
-1.111412346363067627e-01 -3.057098481804132462e-03 -4.609268009662628174e-01
-5.209822207689285278e-02 3.563775494694709778e-02 5.055463314056396484e-01
9.998691082000732422e-02 -1.264803111553192139e-01 -3.206451535224914551e-01
7.992101460695266724e-02 -6.310081481933593750e-02 -2.534680068492889404e-01
3.541463911533355713e-01 -1.683569848537445068e-01 3.574128448963165283e-01
1.682377234101295471e-02 -5.768662318587303162e-02 -2.851833999156951904e-01
-7.591516375541687012e-01 8.616174012422561646e-02 -1.548064053058624268e-01
-4.729985445737838745e-02 -4.539562016725540161e-02 -2.199307531118392944e-01
-5.769203975796699524e-02 8.346746861934661865e-02 8.562512695789337158e-02
2.040627151727676392e-01 4.923740401864051819e-02 7.228208333253860474e-02
2.036264985799789429e-01 -4.018669575452804565e-02 2.913903892040252686e-01
-1.294622570276260376e-01 1.852273009717464447e-02 -5.912011861801147461e-01
5.320924893021583557e-02 -9.930668771266937256e-02 -2.669650018215179443e-01
7.994666695594787598e-02 -4.855176806449890137e-02 -3.098423779010772705e-01
-7.243314385414123535e-01 7.648802548646926880e-02 1.889824718236923218e-01
-1.809869706630706787e-01 1.652126945555210114e-02 -5.822715759277343750e-01
-1.612289845943450928e-01 6.086125969886779785e-02 7.915751934051513672e-01
5.374810099601745605e-02 8.156207390129566193e-03 -2.495420724153518677e-01
8.738798648118972778e-02 -1.182692199945449829e-01 2.354522198438644409e-01
-2.172184735536575317e-01 2.029324509203433990e-02 -5.068320631980895996e-01
-6.589761376380920410e-01 5.711494013667106628e-02 1.071536391973495483e-01
7.784257084131240845e-02 -1.239400133490562439e-01 -3.191055357456207275e-01
-7.534808516502380371e-01 8.072187751531600952e-02 2.031209617853164673e-01
2.044989317655563354e-01 -8.929938822984695435e-02 -2.786401808261871338e-01
8.226671218872070312e-01 6.427399814128875732e-02 -3.690001368522644043e-02
-6.549475789070129395e-01 8.893299102783203125e-02 -9.786748886108398438e-02
-2.115476876497268677e-01 4.885251075029373169e-02 -6.293315291404724121e-01
-1.364930272102355957e-01 1.906158030033111572e-02 5.190690159797668457e-01
7.101709395647048950e-02 8.823348209261894226e-03 -2.555207610130310059e-01
-4.020197391510009766e-01 3.468834608793258667e-02 -7.587711513042449951e-02
4.193220436573028564e-01 1.785557903349399567e-02 -1.436444222927093506e-01
-8.043127655982971191e-01 1.157730445265769958e-01 4.023943245410919189e-01
-7.706985473632812500e-01 1.253441274166107178e-01 5.134374648332595825e-02
-7.606912255287170410e-01 9.521961212158203125e-02 2.951623499393463135e-01
7.800206542015075684e-01 1.046558283269405365e-02 1.234098337590694427e-02
-1.193523332476615906e-01 4.512530751526355743e-03 -5.200467705726623535e-01
-7.406253218650817871e-01 7.443524152040481567e-02 -4.888753755949437618e-04
2.542274594306945801e-01 -5.322182923555374146e-02 -1.323028355836868286e-01
5.179795995354652405e-02 -3.923729807138442993e-02 2.960861325263977051e-01
1.574903279542922974e-01 -1.310477554798126221e-01 -3.358613550662994385e-01
2.739557437598705292e-02 7.194625586271286011e-02 -1.021526604890823364e-01
2.457597404718399048e-01 -2.940962463617324829e-02 -1.575263291597366333e-01
-3.747178316116333008e-01 9.193517267704010010e-02 1.039974838495254517e-01
-9.613029658794403076e-02 4.710765182971954346e-02 6.885001063346862793e-01
9.639454632997512817e-02 -1.519412733614444733e-02 3.605946600437164307e-01
5.957286059856414795e-02 -1.105199754238128662e-01 2.966763079166412354e-01
-4.760777577757835388e-02 -4.144402965903282166e-02 -1.160345673561096191e-01
-1.705178171396255493e-01 1.341644208878278732e-02 -9.596867114305496216e-02
-6.054756641387939453e-01 5.259883403778076172e-02 -4.095424339175224304e-02
-2.184501588344573975e-01 1.949779503047466278e-02 -5.408824682235717773e-01
-5.043034255504608154e-02 2.904320880770683289e-02 -4.944640398025512695e-01
-3.205244839191436768e-01 1.396109312772750854e-01 3.969423845410346985e-02
-1.922812499105930328e-02 2.459738170728087425e-03 2.839490771293640137e-01
5.880306661128997803e-02 -2.255846746265888214e-02 3.488168418407440186e-01
-7.700570821762084961e-01 2.434301227331161499e-01 6.432756781578063965e-02
1.421971470117568970e-01 1.372502297163009644e-01 1.339303143322467804e-02
-1.275121271610260010e-01 1.554620452225208282e-02 -5.801931619644165039e-01
-8.494995236396789551e-01 1.099739447236061096e-01 -2.177753448486328125e-01
-6.964650154113769531e-01 3.060141503810882568e-01 5.411499738693237305e-02
-7.633599042892456055e-01 8.698285371065139771e-02 2.396860569715499878e-01
2.050634473562240601e-01 -8.496291190385818481e-02 2.488722354173660278e-01
1.104817390441894531e-01 -8.311540633440017700e-02 4.028441384434700012e-02
2.775264978408813477e-01 4.030782729387283325e-02 -1.288644373416900635e-01
4.230427145957946777e-01 4.795442521572113037e-02 6.350645422935485840e-02
3.955828025937080383e-02 9.901725500822067261e-02 7.194849848747253418e-02
5.661982893943786621e-01 6.073295697569847107e-02 -1.436700820922851562e-01
-1.746490150690078735e-01 -2.512444555759429932e-02 -8.832207322120666504e-02
8.790118247270584106e-02 -6.207443028688430786e-02 9.935308247804641724e-02
2.284137904644012451e-01 -6.145860254764556885e-02 3.135090470314025879e-01
-4.347655549645423889e-02 -2.399541251361370087e-02 -3.217998445034027100e-01
2.781936526298522949e-01 1.043031513690948486e-01 4.929097369313240051e-02
3.065435774624347687e-02 -1.216562911868095398e-01 -3.373752534389495850e-01
-1.347225159406661987e-01 -7.918947190046310425e-02 -2.963197231292724609e-01
-8.472671508789062500e-01 4.937406480312347412e-01 4.923965036869049072e-02
-2.119069397449493408e-01 3.810108825564384460e-02 -5.664908885955810547e-01
5.154433250427246094e-01 7.240812480449676514e-02 4.721253365278244019e-02
2.326733022928237915e-01 -9.122388064861297607e-02 3.150742948055267334e-01
-1.822740025818347931e-02 4.313039779663085938e-02 -1.071306467056274414e-01
1.768634170293807983e-01 -4.154667258262634277e-02 2.413539588451385498e-01
-7.689793705940246582e-01 8.018302172422409058e-02 1.248588338494300842e-01
1.850745230913162231e-01 6.701958924531936646e-02 -1.200118213891983032e-01
4.090838432312011719e-01 -9.010150097310543060e-03 -1.385124772787094116e-01
-5.117150545120239258e-01 1.277561336755752563e-01 -1.496095489710569382e-02
7.984443902969360352e-01 4.682539403438568115e-02 -5.915138171985745430e-04
-2.097771763801574707e-01 2.796550095081329346e-02 -5.212784409523010254e-01
6.130529642105102539e-01 9.396229684352874756e-02 -1.319179385900497437e-01
-1.312111504375934601e-02 -1.286870688199996948e-01 -3.407366871833801270e-01
-6.549475789070129395e-01 8.893299102783203125e-02 -9.786748886108398438e-02
-4.244206845760345459e-01 -5.188753083348274231e-02 8.018527179956436157e-02
5.485147237777709961e-02 -8.157581835985183716e-02 -3.794058859348297119e-01
-4.405093193054199219e-01 3.135258331894874573e-02 -7.228475809097290039e-02
2.375999689102172852e-01 1.426900923252105713e-01 -3.566834703087806702e-02
2.783732712268829346e-01 -7.492995262145996094e-02 3.689733147621154785e-02
7.335212081670761108e-02 -3.266839683055877686e-02 -3.130755126476287842e-01
-3.431603685021400452e-02 -4.952684044837951660e-02 -2.869539558887481689e-01
2.170208841562271118e-01 -1.835027523338794708e-02 -1.812872141599655151e-01
3.167345225811004639e-01 -5.624967813491821289e-02 -1.129040867090225220e-01
1.599793285131454468e-01 -1.290206313133239746e-01 -3.697578310966491699e-01
-4.167227745056152344e-01 -4.724312201142311096e-02 -4.005615785717964172e-02
4.907587170600891113e-01 -5.663457885384559631e-02 3.928368166089057922e-02
1.466835662722587585e-02 -6.610300391912460327e-02 -3.021444678306579590e-01
1.819440275430679321e-01 -9.389247745275497437e-02 4.300434142351150513e-02
-5.802561715245246887e-02 2.629761956632137299e-02 -4.161506295204162598e-01
4.132407009601593018e-01 -1.683569848537445068e-01 3.166138827800750732e-01
-3.954508602619171143e-01 6.445362418889999390e-02 -7.310586422681808472e-02
6.487712264060974121e-01 -2.681799232959747314e-02 -1.451840102672576904e-01
7.096576690673828125e-02 -1.064914017915725708e-01 -3.559015691280364990e-01
2.924307435750961304e-02 -6.130464375019073486e-02 9.378492087125778198e-02
-1.103970855474472046e-01 -8.137054741382598877e-02 -5.604216083884239197e-02
-4.173169657588005066e-02 -6.533322483301162720e-02 6.984440237283706665e-02
-7.213292717933654785e-01 1.284746080636978149e-01 4.682764038443565369e-02
1.528418995440006256e-02 -1.932534947991371155e-02 -3.844351768493652344e-01
7.117105275392532349e-02 -1.354612112045288086e-01 -3.035814166069030762e-01
-7.436788678169250488e-01 2.525136768817901611e-01 5.819489434361457825e-02
5.979906320571899414e-01 -2.635611966252326965e-02 -1.435161232948303223e-01
5.898308753967285156e-01 -4.109141416847705841e-03 -1.516759097576141357e-01
8.335941284894943237e-02 -5.491537600755691528e-02 2.874131500720977783e-01
-6.739614009857177734e-01 1.271659582853317261e-01 1.901250891387462616e-02
1.735276430845260620e-01 -9.396946430206298828e-02 1.944872364401817322e-02
-8.362591266632080078e-01 1.190318390727043152e-01 5.388405919075012207e-02
1.466835662722587585e-02 -6.610300391912460327e-02 -3.021444678306579590e-01
-2.256092131137847900e-01 3.838334605097770691e-02 -9.191443771123886108e-02
1.006797254085540771e-01 -4.703783243894577026e-02 -2.315802723169326782e-01
4.014629125595092773e-01 1.027892380952835083e-01 -1.147515848278999329e-01
-6.600578874349594116e-02 -1.196548342704772949e-01 -3.220564424991607666e-01
9.729263931512832642e-02 1.205648481845855713e-02 3.604150116443634033e-01
-2.225597389042377472e-02 3.306511556729674339e-03 -4.700616598129272461e-01
1.682417541742324829e-01 -5.255468934774398804e-02 -3.115359246730804443e-01
2.449602633714675903e-02 -7.575106620788574219e-02 8.167353272438049316e-02
2.043706327676773071e-01 -7.985661178827285767e-02 6.830482184886932373e-02
1.309838443994522095e-01 -2.776739001274108887e-02 -3.179508447647094727e-01
5.806447267532348633e-01 -1.611788943409919739e-02 -1.469032019376754761e-01
4.761840105056762695e-01 1.161322891712188721e-01 2.180941589176654816e-02
-7.706985473632812500e-01 1.253441274166107178e-01 5.134374648332595825e-02
1.776588708162307739e-01 -1.484450399875640869e-01 2.339382767677307129e-01
2.758842706680297852e-01 -8.827299624681472778e-02 2.175160646438598633e-01
1.854081004858016968e-01 -1.855556480586528778e-02 2.718120217323303223e-01
2.704700529575347900e-01 -1.670806109905242920e-02 -1.261188387870788574e-01
-4.701759666204452515e-02 -8.244824409484863281e-02 -3.444830179214477539e-01
-4.468472898006439209e-01 -3.582454845309257507e-02 -4.552167281508445740e-02
3.859131336212158203e-01 -1.683569848537445068e-01 2.350160032510757446e-01
-5.167700052261352539e-01 4.048744216561317444e-02 1.197782084345817566e-01
-8.976668864488601685e-02 3.789581730961799622e-02 5.467559099197387695e-01
-4.661177098751068115e-01 1.186982542276382446e-01 8.639492094516754150e-02
6.909044981002807617e-01 -8.945336192846298218e-02 -8.511461317539215088e-02
-6.142768859863281250e-01 8.028566092252731323e-02 1.482605040073394775e-01
7.763729989528656006e-02 -1.659192889928817749e-01 1.005077660083770752e-01
2.617714107036590576e-01 -1.428512036800384521e-01 3.194621205329895020e-01
1.802761554718017578e-01 -2.884510904550552368e-02 2.812034785747528076e-01
4.426467418670654297e-01 -4.095648229122161865e-02 -1.285565048456192017e-01
-8.131397366523742676e-01 1.369936317205429077e-01 5.229315534234046936e-02
-1.210202202200889587e-01 1.446849480271339417e-02 -5.739834904670715332e-01
-4.240871071815490723e-01 2.206377126276493073e-02 -7.382433861494064331e-02
5.057439804077148438e-01 -6.240801885724067688e-02 -1.205763369798660278e-01
-7.378797531127929688e-01 2.133312821388244629e-01 3.648677468299865723e-02
-8.069813847541809082e-01 1.609854698181152344e-01 5.044566094875335693e-02
4.152934849262237549e-01 -1.683569848537445068e-01 3.329847753047943115e-01
-3.086953759193420410e-01 -4.411263018846511841e-02 9.699238091707229614e-02
-2.352059334516525269e-01 1.360185593366622925e-01 4.539069533348083496e-02
-7.681581974029541016e-01 1.000693067908287048e-01 2.004266977310180664e-01
1.138175055384635925e-01 -7.726497948169708252e-02 3.196417391300201416e-01
1.410167962312698364e-01 -7.323640584945678711e-02 -8.344673365354537964e-02
1.851258575916290283e-01 5.023813620209693909e-02 7.356505841016769409e-02
-1.060646306723356247e-02 -3.977613896131515503e-02 1.673513203859329224e-01
6.006039306521415710e-02 -1.025911197066307068e-01 2.150527387857437134e-01
3.123466968536376953e-01 -6.943877041339874268e-02 -1.002025306224822998e-01
1.283152401447296143e-01 -1.573233157396316528e-01 2.601881921291351318e-01
-6.589761376380920410e-01 5.711494013667106628e-02 1.071536391973495483e-01
-7.873003482818603516e-01 8.421160280704498291e-02 -1.076695024967193604e-01
