5.106341838836669922e-02 -2.907860651612281799e-02 -1.907923072576522827e-01
-8.647382259368896484e-01 6.140241026878356934e-02 8.973082527518272400e-03
6.756434589624404907e-02 -1.205687597393989563e-02 7.596356421709060669e-02
-1.459335535764694214e-01 -6.123074144124984741e-02 -6.240303069353103638e-02
4.174005091190338135e-01 -3.154552355408668518e-02 -6.084065139293670654e-02
-6.035739779472351074e-01 1.053683459758758545e-01 1.352317165583372116e-02
1.007032543420791626e-01 -6.010692939162254333e-02 4.430480673909187317e-02
-7.712694406509399414e-01 2.367727607488632202e-01 4.094069357961416245e-03
2.136880159378051758e-01 -5.281582474708557129e-02 -3.647099435329437256e-01
-6.260228753089904785e-01 1.046282649040222168e-01 9.967189980670809746e-04
3.998969867825508118e-02 -2.600866369903087616e-02 2.011732906103134155e-01
-1.456320583820343018e-01 1.072097942233085632e-02 -6.491453647613525391e-01
1.146824508905410767e-01 -8.027579635381698608e-03 -3.701371252536773682e-01
-5.788773894309997559e-01 -2.134393202140927315e-03 -7.534063607454299927e-02
-5.788773894309997559e-01 -2.134393202140927315e-03 -7.534063607454299927e-02
7.510920763015747070e-01 4.252183251082897186e-03 8.092480897903442383e-02
-1.417398005723953247e-01 1.073966994881629944e-01 3.539649769663810730e-02
5.791205763816833496e-01 4.131074622273445129e-02 8.964124321937561035e-02
3.321822285652160645e-01 -7.721088826656341553e-02 -9.784440696239471436e-02
2.858706377446651459e-02 -3.445099666714668274e-02 1.470655649900436401e-01
1.360349804162979126e-01 -2.121188305318355560e-02 -2.698706984519958496e-01
6.940514445304870605e-01 1.042171046137809753e-01 2.807797864079475403e-02
-6.846807003021240234e-01 9.613110870122909546e-02 4.532632417976856232e-03
9.544049948453903198e-02 -6.657078396528959274e-03 -3.798677623271942139e-01
6.372691690921783447e-02 -4.352377355098724365e-02 -5.481041222810745239e-02
1.253724247217178345e-01 1.195443794131278992e-02 -9.883116185665130615e-02
1.360075771808624268e-01 -1.011075451970100403e-02 -3.069292604923248291e-01
-8.436322808265686035e-01 2.637169659137725830e-01 -6.376619916409254074e-03
-3.631592392921447754e-01 -6.887819617986679077e-02 4.479818791151046753e-02
-2.151168733835220337e-01 3.593834489583969116e-02 -7.722719907760620117e-01
2.118241339921951294e-01 -3.086026757955551147e-02 8.089739829301834106e-02
3.416661322116851807e-01 -3.220336511731147766e-02 -5.481041222810745239e-02
3.697890043258666992e-01 -1.257270923815667629e-03 -9.715914726257324219e-02
-1.344854594208300114e-03 -8.505018800497055054e-02 1.823424845933914185e-01
-3.023518621921539307e-02 1.324271969497203827e-02 -5.717115998268127441e-01
4.281179010868072510e-01 8.302903920412063599e-02 6.790497153997421265e-02
1.367202401161193848e-01 5.211535375565290451e-03 -3.056409657001495361e-01
-6.454293131828308105e-01 1.982116326689720154e-02 5.907889828085899353e-02
-7.968979477882385254e-01 6.367745250463485718e-02 -2.131864279508590698e-01
3.412001729011535645e-01 9.911882132291793823e-02 5.006094276905059814e-02
-9.267558157444000244e-02 2.234290353953838348e-02 6.522352695465087891e-01
-8.312976956367492676e-01 6.203284114599227905e-02 1.566865444183349609e-01
-2.574656009674072266e-01 -6.238197907805442810e-02 5.433693528175354004e-02
-7.996938228607177734e-01 7.266799360513687134e-02 1.615455001592636108e-02
7.628078013658523560e-02 -9.812485426664352417e-02 -7.432646304368972778e-02
-2.036594301462173462e-01 8.204227685928344727e-02 -7.528581470251083374e-02
9.927792102098464966e-02 -7.041316479444503784e-02 -3.055239841341972351e-02
-7.121731042861938477e-01 -2.381585352122783661e-02 -1.676508039236068726e-02
-4.959067404270172119e-01 -6.739803403615951538e-02 -1.632651500403881073e-02
5.664570927619934082e-01 -8.154170215129852295e-02 -1.742292381823062897e-02
-3.678189814090728760e-01 7.664246857166290283e-02 7.281139492988586426e-02
2.676586806774139404e-01 -7.647081464529037476e-02 -3.650040924549102783e-02
1.875935196876525879e-01 -1.120715960860252380e-02 -8.169979602098464966e-02
1.799460649490356445e-01 -1.011125594377517700e-01 2.724123299121856689e-01
6.043653488159179688e-01 -4.514096677303314209e-02 -7.791719585657119751e-02
1.752041280269622803e-01 1.182239851914346218e-03 -2.603319585323333740e-01
1.812891811132431030e-01 -3.647935017943382263e-02 -1.727016121149063110e-01
-7.358006834983825684e-01 -4.080514423549175262e-03 2.917438745498657227e-02
-4.783252254128456116e-02 1.340718008577823639e-02 5.629876852035522461e-01
1.183005943894386292e-01 -2.285649068653583527e-02 -3.254037201404571533e-01
-4.283954799175262451e-01 -5.890087783336639404e-02 -5.818186327815055847e-02
-3.274986147880554199e-01 9.624075144529342651e-02 -6.037468090653419495e-02
-6.210616230964660645e-01 2.982587553560733795e-02 -4.790304601192474365e-02
-3.575675785541534424e-01 1.220112759619951248e-02 9.213557094335556030e-02
1.759558171033859253e-02 -8.137227036058902740e-03 -2.408981174230575562e-01
2.686022222042083740e-02 -8.886021375656127930e-02 1.383491456508636475e-01
-6.976456642150878906e-01 3.179941326379776001e-02 -5.919604003429412842e-02
6.037623286247253418e-01 9.914623200893402100e-02 -5.667430162429809570e-02
2.252551168203353882e-01 -5.443301424384117126e-02 3.608376085758209229e-01
-8.460444211959838867e-01 5.835988000035285950e-02 1.486005485057830811e-01
2.411255985498428345e-01 -9.351994097232818604e-02 -2.793272137641906738e-01
-2.455147653818130493e-01 8.171335607767105103e-02 6.886433064937591553e-02
-6.595065444707870483e-02 8.933338522911071777e-02 -6.895406544208526611e-02
1.310463249683380127e-01 8.829681202769279480e-03 -3.567061722278594971e-01
9.612575918436050415e-02 2.141592092812061310e-03 2.721108198165893555e-01
-6.398924589157104492e-01 1.894901990890502930e-01 -6.266979034990072250e-03
4.980138540267944336e-01 -7.150956988334655762e-02 -4.801268503069877625e-02
-9.423796087503433228e-02 -8.494056016206741333e-02 1.709383795969188213e-03
6.049251928925514221e-02 1.098361983895301819e-01 2.972258999943733215e-02
3.347314000129699707e-01 -7.046797871589660645e-02 -2.539928629994392395e-02
6.663239747285842896e-02 -4.059088602662086487e-02 1.245618090033531189e-01
2.765669524669647217e-01 -7.074208557605743408e-02 -2.474144287407398224e-02
-1.207436099648475647e-01 3.127861768007278442e-02 -7.502067685127258301e-01
-3.030761480331420898e-01 -4.028937220573425293e-02 7.483974844217300415e-02
5.960326790809631348e-01 -2.148597873747348785e-02 -9.129337221384048462e-02
2.599563896656036377e-01 -1.266588419675827026e-01 3.217506706714630127e-01
-7.046352624893188477e-01 5.504324659705162048e-02 -9.652871638536453247e-02
-6.210068464279174805e-01 1.580781191587448120e-01 2.257587155327200890e-03
-4.503784477710723877e-01 1.114808171987533569e-01 -3.208737075328826904e-02
-8.596009016036987305e-02 3.177200630307197571e-02 6.444233655929565430e-01
1.581549942493438721e-01 -1.287918444722890854e-02 7.736148685216903687e-02
-3.710807859897613525e-01 5.227481573820114136e-02 -9.249941259622573853e-02
1.537535712122917175e-02 2.196415327489376068e-03 3.220521807670593262e-01
3.596040233969688416e-02 -1.405283957719802856e-01 1.674039363861083984e-01
-8.545690178871154785e-01 3.793605268001556396e-01 -7.774538826197385788e-03
-6.415737792849540710e-03 8.848366886377334595e-02 6.332747638225555420e-02
2.618477046489715576e-01 -1.003176644444465637e-01 -2.476885169744491577e-02
7.090838998556137085e-02 -2.106986707076430321e-03 -4.226824641227722168e-01
7.532300949096679688e-01 -1.280293613672256470e-01 -1.273578312247991562e-02
-6.675218939781188965e-01 1.897917091846466064e-01 4.340760875493288040e-03
-6.872572302818298340e-01 1.523493826389312744e-01 -1.350326742976903915e-02
2.114129662513732910e-01 -6.268349289894104004e-02 -2.745030224323272705e-01
1.007032543420791626e-01 -6.010692939162254333e-02 4.430480673909187317e-02
-3.914191126823425293e-01 -3.201149776577949524e-02 7.892386615276336670e-02
-3.163310885429382324e-02 -1.575725153088569641e-02 -2.321542799472808838e-01
3.161746859550476074e-01 -1.093306392431259155e-02 -7.350414991378784180e-02
7.444587945938110352e-01 -1.278374940156936646e-01 -2.098624780774116516e-02
-7.979121208190917969e-01 4.191377013921737671e-02 9.331420809030532837e-02
-5.175217613577842712e-02 -6.076476722955703735e-02 -4.310626164078712463e-02
1.759558171033859253e-02 -8.137227036058902740e-03 -2.408981174230575562e-01
-2.811205983161926270e-01 8.105550706386566162e-02 6.933030486106872559e-02
-2.084929496049880981e-03 -7.844434678554534912e-02 8.295316249132156372e-02
7.027953267097473145e-01 -3.436876833438873291e-02 7.607320696115493774e-02
1.443950831890106201e-01 -3.987821191549301147e-02 -8.178203552961349487e-02
3.617852330207824707e-01 -3.771280869841575623e-02 -2.865086793899536133e-01
1.159433126449584961e-01 -9.974204748868942261e-02 -5.897676199674606323e-02
1.973789483308792114e-01 -3.954929113388061523e-02 -2.715701162815093994e-01
9.239407181739807129e-01 -4.741601645946502686e-02 -3.553371410816907883e-03
5.092636495828628540e-02 1.220112759619951248e-02 -4.021248519420623779e-01
2.966312170028686523e-01 -1.020445004105567932e-01 2.790456116199493408e-01
-3.697809204459190369e-02 -1.290659140795469284e-02 -2.828905284404754639e-01
-4.468034952878952026e-02 8.089601993560791016e-03 4.999991059303283691e-01
-7.125020027160644531e-01 4.824551939964294434e-02 1.301808953285217285e-01
6.173303723335266113e-01 6.491091102361679077e-02 -8.712702244520187378e-02
-3.784360829740762711e-03 -3.175985533744096756e-03 -9.693986922502517700e-02
-2.309325486421585083e-01 -8.219953626394271851e-02 -1.257132180035114288e-02
-5.968584418296813965e-01 4.517558217048645020e-02 -3.156657516956329346e-02
-8.708506226539611816e-01 8.670200407505035400e-02 -3.029547929763793945e-01
-2.765156924724578857e-01 1.159212589263916016e-01 3.052482614293694496e-03
8.664183318614959717e-02 -8.225435018539428711e-02 9.125845134258270264e-02
6.721507310867309570e-01 8.820956945419311523e-02 -6.511663645505905151e-02
2.895593941211700439e-01 -4.949918016791343689e-02 4.814223572611808777e-02
-8.632306456565856934e-01 6.367745250463485718e-02 1.904558986425399780e-01
8.852649331092834473e-01 -1.688107289373874664e-02 4.189271107316017151e-02
-8.669857978820800781e-01 6.367745250463485718e-02 -1.895862817764282227e-01
1.749300211668014526e-01 -9.182050824165344238e-02 8.785958588123321533e-02
-7.236579656600952148e-01 1.926149427890777588e-01 -1.095412019640207291e-02
-6.693741679191589355e-02 1.053957492113113403e-01 4.002882167696952820e-02
-8.674792051315307617e-01 7.277763634920120239e-02 2.221694737672805786e-01
1.022108122706413269e-01 1.376351621001958847e-02 -4.407458007335662842e-01
-6.206505298614501953e-01 1.334363669157028198e-01 7.876673713326454163e-03
-6.641778945922851562e-01 1.896272450685501099e-01 -1.062519755214452744e-02
7.106072306632995605e-01 9.933810681104660034e-02 -4.124236851930618286e-02
-4.883141517639160156e-01 8.716797828674316406e-02 6.069609895348548889e-02
4.255687594413757324e-01 -8.315888792276382446e-02 -7.397012412548065186e-02
4.743314385414123535e-01 -1.430450938642024994e-02 -9.414403140544891357e-02
-5.405463278293609619e-02 2.856501005589962006e-02 -6.081945896148681641e-01
-9.650139138102531433e-03 4.783437028527259827e-02 -9.406179934740066528e-02
-7.427354454994201660e-01 6.367745250463485718e-02 1.699530780315399170e-01
-8.113157749176025391e-01 3.074361979961395264e-01 2.888021524995565414e-03
6.570044904947280884e-02 -8.466145955026149750e-03 -1.984123587608337402e-01
3.391718268394470215e-01 -9.160123765468597412e-02 3.551636636257171631e-01
-5.010324716567993164e-01 3.215573728084564209e-02 8.311761915683746338e-02
-7.735993266105651855e-01 6.397896260023117065e-02 1.484086811542510986e-01
1.958439797163009644e-01 -1.147624221630394459e-03 -2.346760183572769165e-01
1.246597543358802795e-01 -5.221279710531234741e-02 -6.434915959835052490e-02
4.278553649783134460e-02 -4.525061324238777161e-02 6.305336952209472656e-02
1.835094094276428223e-01 -4.281110316514968872e-02 1.348132193088531494e-01
-7.629915475845336914e-01 3.303287178277969360e-02 -5.412515625357627869e-02
-9.126237034797668457e-01 4.991753771901130676e-02 -2.402143552899360657e-03
-2.455147653818130493e-01 8.171335607767105103e-02 6.886433064937591553e-02
3.075952827930450439e-01 -1.044566035270690918e-01 2.795390188694000244e-01
2.452645450830459595e-01 -1.033053696155548096e-01 -3.372449278831481934e-01
-5.100049544125795364e-03 -4.193396866321563721e-02 -6.747391074895858765e-02
-6.046861782670021057e-02 2.023231238126754761e-02 5.222561955451965332e-01
-6.684812307357788086e-01 2.143238037824630737e-01 4.485153767745941877e-04
2.324365824460983276e-01 1.089590713381767273e-01 3.177835419774055481e-02
2.855027019977569580e-01 -7.189330458641052246e-02 3.469954431056976318e-01
-8.285567164421081543e-01 6.335347425192594528e-03 1.037100050598382950e-02
-3.105317354202270508e-01 5.328899621963500977e-02 8.522821217775344849e-02
4.330633580684661865e-02 4.410658404231071472e-02 -9.554194658994674683e-02
-1.711783260107040405e-01 3.522568196058273315e-02 -9.707692265510559082e-02
-2.441261895000934601e-03 -1.359234899282455444e-01 -1.844879835844039917e-01
-1.354902833700180054e-01 -7.679972797632217407e-02 -3.576033562421798706e-02
4.304751455783843994e-01 -6.186117231845855713e-02 7.311291247606277466e-02
4.664921462535858154e-01 -2.765327133238315582e-02 4.186530038714408875e-02
-1.567057669162750244e-01 3.566424921154975891e-02 7.142096161842346191e-01
-9.650139138102531433e-03 2.448089048266410828e-02 5.485425591468811035e-01
-8.351352214813232422e-01 6.471903622150421143e-02 1.478403992950916290e-02
3.253571093082427979e-01 6.143481004983186722e-03 9.145031124353408813e-02
8.053094148635864258e-01 1.310566626489162445e-02 -7.462797313928604126e-02
7.164846360683441162e-02 -6.978273391723632812e-02 2.541919238865375519e-02
1.142829097807407379e-02 -1.644250750541687012e-02 7.250988483428955078e-02
1.193421781063079834e-01 -7.167402654886245728e-02 -4.765635356307029724e-02
1.667617857456207275e-01 -9.461634606122970581e-02 -3.283366262912750244e-01
-5.278670191764831543e-01 -4.026195406913757324e-02 5.387096107006072998e-02
-2.024807780981063843e-01 -8.047270029783248901e-02 -2.520741522312164307e-02
3.911257535219192505e-02 -1.000435575842857361e-01 4.954015463590621948e-02
-1.766877919435501099e-01 3.769259899854660034e-02 7.443882822990417480e-01
4.777419567108154297e-02 -3.486214578151702881e-02 -1.574067324399948120e-01
-5.804945826530456543e-01 9.308858215808868408e-02 -4.954765737056732178e-02
-7.999678850173950195e-01 1.473881453275680542e-01 -4.012003773823380470e-04
-1.672312766313552856e-01 2.807163074612617493e-02 -6.965924501419067383e-01
-2.445163764059543610e-02 2.004538895562291145e-03 -4.388544559478759766e-01
6.016359478235244751e-02 4.361819475889205933e-03 3.807099759578704834e-01
3.893598616123199463e-01 1.145781651139259338e-01 -1.947868801653385162e-02
2.120160013437271118e-01 -5.599539354443550110e-02 -1.177167892456054688e-01
4.941216111183166504e-01 -5.380258336663246155e-02 1.464698929339647293e-02
2.868458032608032227e-01 -3.938483074307441711e-02 -7.161284983158111572e-02
1.540160626173019409e-01 -1.263249479234218597e-02 -3.345039188861846924e-01
7.489266395568847656e-01 -1.181616857647895813e-01 1.045323163270950317e-02
5.409930348396301270e-01 -4.667593911290168762e-02 -7.676596939563751221e-02
2.826794385910034180e-01 -7.819765061140060425e-02 2.620238959789276123e-01
2.101521044969558716e-01 -3.228559345006942749e-02 -2.743385732173919678e-01
6.104072183370590210e-02 5.430818535387516022e-03 3.195852935314178467e-01
1.682967543601989746e-01 -8.576285839080810547e-02 3.313716650009155273e-01
5.350292474031448364e-02 -2.329505607485771179e-02 -5.853819474577903748e-02
1.245227009057998657e-01 -2.378843538463115692e-02 -1.035457178950309753e-01
1.183005943894386292e-01 -2.285649068653583527e-02 -3.254037201404571533e-01
2.106180787086486816e-01 -3.113436512649059296e-02 3.155011534690856934e-01
3.426803350448608398e-01 -2.822889201343059540e-02 -1.042857989668846130e-01
-1.485101282596588135e-01 2.612549811601638794e-02 9.155995398759841919e-02
1.209045574069023132e-01 9.186008013784885406e-03 -4.185709357261657715e-01
-4.136372357606887817e-02 9.599405527114868164e-02 -6.062136963009834290e-02
-1.724392324686050415e-01 8.281478658318519592e-03 -6.461851000785827637e-01
-1.832114160060882568e-01 4.213305562734603882e-02 7.930961251258850098e-01
2.912862598896026611e-01 -6.150484830141067505e-02 3.281646668910980225e-01
2.559545040130615234e-01 -7.890537381172180176e-03 -2.065257579088211060e-01
-4.059623554348945618e-02 -3.014759533107280731e-02 -1.491562575101852417e-01
2.178934030234813690e-02 -1.556538511067628860e-02 -1.794719099998474121e-01
-6.855029463768005371e-01 -1.339998096227645874e-02 -4.116014018654823303e-02
1.954054087400436401e-01 2.146577090024948120e-02 9.216297417879104614e-02
-1.032285019755363464e-01 -3.661640360951423645e-02 -8.419412374496459961e-02
7.458135485649108887e-02 -1.030263118445873260e-02 -3.471674025058746338e-01
1.954054087400436401e-01 2.146577090024948120e-02 9.216297417879104614e-02
1.537535712122917175e-02 2.196415327489376068e-03 3.220521807670593262e-01
1.601011157035827637e-01 -1.446898002177476883e-02 3.145143985748291016e-01
-2.732970751821994781e-02 -1.318667829036712646e-01 -1.390144973993301392e-01
-6.449633240699768066e-01 -2.244534157216548920e-02 3.915169090032577515e-02
2.123449146747589111e-01 -1.033003721386194229e-02 -7.599848508834838867e-02
-3.357922658324241638e-02 -2.850298769772052765e-02 -1.647800654172897339e-01
-6.680037081241607666e-02 9.789033792912960052e-03 4.977514445781707764e-01
1.624035686254501343e-01 -3.510884568095207214e-02 -1.781562268733978271e-01
6.013618409633636475e-02 -2.584420330822467804e-02 9.125845134258270264e-02
-2.450645901262760162e-02 -2.545542782172560692e-03 3.218328952789306641e-01
3.430366516113281250e-01 -1.762114278972148895e-02 -9.732361137866973877e-02
-8.686462044715881348e-02 -7.167402654886245728e-02 -1.495600771158933640e-02
-7.143933176994323730e-01 2.401716262102127075e-01 -1.026886515319347382e-02
1.824129819869995117e-01 -1.033327952027320862e-01 2.763941697776317596e-02
1.670358926057815552e-01 -1.668420387431979179e-03 -2.231637537479400635e-01
5.007664859294891357e-02 7.212480064481496811e-03 -3.491135239601135254e-01
-4.945636689662933350e-01 1.680604182183742523e-02 8.418662101030349731e-02
6.721507310867309570e-01 8.820956945419311523e-02 -6.511663645505905151e-02
-3.363404795527458191e-02 -2.524117752909660339e-02 -8.981322497129440308e-02
2.512673735618591309e-01 -6.827516853809356689e-02 -5.360436439514160156e-02
5.624394118785858154e-02 -5.476193502545356750e-02 6.384826451539993286e-02
-3.631592392921447754e-01 -6.887819617986679077e-02 4.479818791151046753e-02
-5.867534782737493515e-03 -1.255076229572296143e-01 -1.574889570474624634e-01
-8.064092993736267090e-01 3.909051790833473206e-02 -7.871209084987640381e-02
3.486831784248352051e-01 -1.887703547254204750e-03 -8.638694137334823608e-02
1.690094172954559326e-01 -3.321753814816474915e-02 -8.663363009691238403e-02
3.161746859550476074e-01 -1.093306392431259155e-02 -7.350414991378784180e-02
1.654186993837356567e-01 -4.437347874045372009e-02 -7.849280536174774170e-02
8.392822742462158203e-02 -1.164572592824697495e-02 3.100739419460296631e-01
2.826520502567291260e-01 5.570108816027641296e-02 8.426885306835174561e-02
5.969372391700744629e-01 5.531734600663185120e-02 -9.110149741172790527e-02
2.471284419298171997e-01 -8.321370184421539307e-02 3.640445768833160400e-01
5.102661848068237305e-01 8.254062384366989136e-03 9.169700741767883301e-02
1.787948459386825562e-01 -4.516837373375892639e-02 2.832942008972167969e-01
-8.775660991668701172e-01 6.636364758014678955e-02 2.098623216152191162e-01
1.575793921947479248e-01 4.361819475889205933e-03 3.280276060104370117e-01
-9.590997546911239624e-02 -1.874496415257453918e-02 8.572158962488174438e-02
5.633871555328369141e-01 -5.870901048183441162e-02 5.891443416476249695e-02
2.262692898511886597e-01 -7.063243538141250610e-02 2.658887207508087158e-01
2.050106041133403778e-02 -1.649733074009418488e-02 -2.798205912113189697e-01
2.388231456279754639e-01 -6.410881876945495605e-02 3.290217369794845581e-02
7.232707738876342773e-01 8.733243495225906372e-02 5.033504590392112732e-02
-7.603875994682312012e-01 6.869351863861083984e-02 -1.987960934638977051e-01
2.966312170028686523e-01 -1.020445004105567932e-01 2.790456116199493408e-01
-8.394385576248168945e-01 5.468691512942314148e-02 1.540003418922424316e-01
2.895319759845733643e-01 2.121908031404018402e-02 9.219039231538772583e-02
-8.737013339996337891e-01 7.113301753997802734e-02 -2.247261255979537964e-01
-6.249696761369705200e-02 1.348940934985876083e-02 -4.750632941722869873e-01
1.693931668996810913e-01 -5.402187630534172058e-02 -6.240303069353103638e-02
3.219034075736999512e-01 -1.119121685624122620e-01 3.157752454280853271e-01
-6.385493874549865723e-01 7.173604518175125122e-02 -5.708545818924903870e-02
8.836866915225982666e-02 -1.603135839104652405e-02 -9.345877170562744141e-02
-7.669544219970703125e-02 -6.684984266757965088e-02 2.015643566846847534e-02
-3.826637193560600281e-02 -5.176919978111982346e-03 -9.666576236486434937e-02
-7.431191802024841309e-01 8.215191215276718140e-02 -2.353539317846298218e-02
-6.745821237564086914e-02 -7.581297308206558228e-02 -3.803537786006927490e-02
-6.791164278984069824e-01 1.434684842824935913e-01 7.410701364278793335e-03
2.928212285041809082e-01 -3.291602432727813721e-02 -3.056683838367462158e-01
4.615308940410614014e-01 9.021547622978687286e-03 9.180665016174316406e-02
-6.803498864173889160e-01 4.396953061223030090e-02 1.007971912622451782e-01
8.456846475601196289e-01 5.512547492980957031e-02 -3.869322314858436584e-02
-2.475157082080841064e-01 1.132400520145893097e-02 -9.874893724918365479e-02
4.825271070003509521e-01 -4.596328362822532654e-02 3.199763596057891846e-02
-1.483730673789978027e-01 1.124949902296066284e-01 2.358270995318889618e-02
-7.569887638092041016e-01 6.367745250463485718e-02 1.669653654098510742e-01
5.535101052373647690e-03 -1.134421303868293762e-02 -2.264529615640640259e-01
-4.829965829849243164e-01 -7.643837016075849533e-03 8.095221966505050659e-02
2.471284419298171997e-01 -8.321370184421539307e-02 3.640445768833160400e-01
3.228901922702789307e-01 -5.374776944518089294e-02 -6.695312261581420898e-02
2.436747550964355469e-01 -4.793176893144845963e-03 -2.038121670484542847e-01
3.196009695529937744e-01 5.830505490303039551e-02 -8.992286026477813721e-02
1.901152580976486206e-01 -5.001998692750930786e-02 -3.587344884872436523e-01
2.674942016601562500e-01 -3.724188311025500298e-03 3.064283728599548340e-01
-1.314609795808792114e-01 -4.779975116252899170e-02 6.930289417505264282e-02
-8.674792051315307617e-01 7.277763634920120239e-02 2.221694737672805786e-01
-5.297034978866577148e-01 7.639577239751815796e-02 -7.109206169843673706e-02
3.334704935550689697e-01 -2.027993649244308472e-02 3.290966153144836426e-01
6.236621141433715820e-01 -4.949918016791343689e-02 -7.479243725538253784e-02
5.550386384129524231e-02 -3.154552355408668518e-02 1.715702861547470093e-01
1.123799905180931091e-01 -3.099731169641017914e-02 9.816581010818481445e-02
-6.206505298614501953e-01 1.334363669157028198e-01 7.876673713326454163e-03
4.253884777426719666e-02 -2.304836735129356384e-02 -9.066294133663177490e-02
6.125884056091308594e-01 -7.811541110277175903e-02 2.607703767716884613e-02
-6.641778945922851562e-01 1.896272450685501099e-01 -1.062519755214452744e-02
1.916228234767913818e-01 -5.084228515625000000e-02 9.287565201520919800e-02
-2.598660811781883240e-02 -1.046709064394235611e-02 2.604340910911560059e-01
1.712022423744201660e-01 -9.998874366283416748e-02 3.040437102317810059e-01
-9.266397915780544281e-03 -3.275156766176223755e-02 -8.975839614868164062e-02
-3.949983045458793640e-02 -8.304924517869949341e-02 -6.458850577473640442e-03
6.167821884155273438e-01 4.432586580514907837e-02 8.865448087453842163e-02
8.017303049564361572e-02 6.006427574902772903e-03 3.165975511074066162e-01
3.996228799223899841e-02 -7.808296941220760345e-03 3.531627357006072998e-01
3.000026941299438477e-01 -9.549348056316375732e-02 3.614406287670135498e-01
-3.886939585208892822e-02 -2.907860651612281799e-02 1.466270089149475098e-01
-5.471247807145118713e-02 -4.107931163161993027e-03 3.409377932548522949e-01
-9.650139138102531433e-03 2.448089048266410828e-02 5.485425591468811035e-01
-8.609829545021057129e-01 6.367745250463485718e-02 -2.024416476488113403e-01
3.585076332092285156e-02 -1.287694275379180908e-01 -1.709473580121994019e-01
-3.826637193560600281e-02 1.088543888181447983e-02 5.368109941482543945e-01
-3.763435482978820801e-01 1.075063347816467285e-01 -4.198244586586952209e-02
4.304751455783843994e-01 -6.186117231845855713e-02 7.311291247606277466e-02
1.001276373863220215e-01 -4.681298881769180298e-02 -1.038746461272239685e-01
-6.249696761369705200e-02 6.225710734724998474e-03 4.137392640113830566e-01
-8.304206132888793945e-01 2.022359222173690796e-01 -1.442787237465381622e-03
1.615264564752578735e-01 -5.114379897713661194e-02 7.083786278963088989e-02
-2.505856454372406006e-01 4.465478658676147461e-02 8.682274818420410156e-01
2.938627898693084717e-01 -9.272504597902297974e-02 -3.693696558475494385e-01
-8.242533802986145020e-01 6.132017448544502258e-02 1.980211138725280762e-01
5.350292474031448364e-02 -2.329505607485771179e-02 -5.853819474577903748e-02
-7.151491940021514893e-02 -3.598596900701522827e-02 -6.643232703208923340e-02
2.674942016601562500e-01 -3.724188311025500298e-03 3.064283728599548340e-01
1.435179561376571655e-01 -4.758047685027122498e-02 -3.200861513614654541e-01
-8.362041711807250977e-01 7.505267858505249023e-02 -2.292488068342208862e-01
-6.745821237564086914e-02 -7.581297308206558228e-02 -3.803537786006927490e-02
3.228901922702789307e-01 -5.374776944518089294e-02 -6.695312261581420898e-02
1.170945465564727783e-01 -4.436850547790527344e-03 1.989256441593170166e-01
5.633871555328369141e-01 -5.870901048183441162e-02 5.891443416476249695e-02
9.027803898788988590e-04 -3.831583261489868164e-02 1.142555847764015198e-01
1.518506556749343872e-01 3.566927276551723480e-03 2.798953354358673096e-01
2.324365824460983276e-01 1.089590713381767273e-01 3.177835419774055481e-02
-5.405463278293609619e-02 2.856501005589962006e-02 -6.081945896148681641e-01
-7.573450803756713867e-01 3.958390653133392334e-02 -9.833778440952301025e-02
7.631525993347167969e-01 9.349973499774932861e-02 2.388422191143035889e-02
4.077795445919036865e-01 -5.092452466487884521e-02 8.333690464496612549e-02
-2.386441454291343689e-03 -5.665325373411178589e-02 -6.815917044878005981e-02
1.678581982851028442e-01 4.361819475889205933e-03 3.143773376941680908e-01
7.847359776496887207e-02 -4.716931656002998352e-02 8.429627120494842529e-02
5.957311391830444336e-01 -6.712392717599868774e-02 -5.505710095167160034e-02
-7.999678850173950195e-01 1.473881453275680542e-01 -4.012003773823380470e-04
-6.855029463768005371e-01 -1.339998096227645874e-02 -4.116014018654823303e-02
3.145026564598083496e-01 -4.253699630498886108e-02 -1.233084648847579956e-01
4.952844604849815369e-02 1.485992129892110825e-02 4.261012375354766846e-01
-8.096711039543151855e-01 -2.161799697205424309e-03 -5.170572083443403244e-03
-3.060912787914276123e-01 1.100006550550460815e-01 -3.606184571981430054e-02
8.982141315937042236e-02 -2.545542782172560692e-03 2.300910353660583496e-01
2.181832939386367798e-01 -1.940280385315418243e-02 3.065928518772125244e-01
2.359724938869476318e-01 -8.137227036058902740e-03 -9.630943834781646729e-02
9.283652901649475098e-02 5.413871258497238159e-02 8.489928394556045532e-02
-2.468578666448593140e-01 3.454042598605155945e-02 -9.718655794858932495e-02
-3.023518621921539307e-02 1.324271969497203827e-02 -5.717115998268127441e-01
-8.310943096876144409e-02 2.368599921464920044e-02 6.687635779380798340e-01
-1.556915938854217529e-01 7.130249869078397751e-03 9.155995398759841919e-02
3.400763571262359619e-01 -4.072792828083038330e-02 9.504105150699615479e-02
3.559194505214691162e-01 -5.273358523845672607e-02 2.715626358985900879e-01
-1.727017015218734741e-02 -3.417690098285675049e-02 -9.365063905715942383e-02
-5.641033053398132324e-01 9.237591922283172607e-02 4.594941809773445129e-02
-6.376448273658752441e-01 1.164968758821487427e-01 1.168668922036886215e-02
9.475524723529815674e-02 -6.920710951089859009e-02 -5.245313793420791626e-02
1.414621919393539429e-01 -2.858521789312362671e-02 8.180193603038787842e-02
-1.088359858840703964e-02 -9.206225164234638214e-03 2.539652884006500244e-01
3.095414340496063232e-01 -9.554828703403472900e-02 -2.587147653102874756e-01
1.751218885183334351e-01 -1.071378029882907867e-02 -1.147564798593521118e-01
3.026340603828430176e-01 -9.420520812273025513e-02 2.506212294101715088e-01
1.940897405147552490e-01 -3.146328404545783997e-02 3.394850790500640869e-01
1.836738735437393188e-01 -7.693678140640258789e-02 -1.099322959780693054e-01
-4.634805321693420410e-01 -7.200294733047485352e-02 -1.676508039236068726e-02
-9.590997546911239624e-02 -1.874496415257453918e-02 8.572158962488174438e-02
8.364199995994567871e-01 5.896290019154548645e-02 3.443714231252670288e-02
-6.901900768280029297e-01 1.743049621582031250e-01 1.161180087365210056e-03
7.164846360683441162e-02 -6.978273391723632812e-02 2.541919238865375519e-02
9.020515531301498413e-02 -9.705585241317749023e-02 2.925661765038967133e-02
-8.116330206394195557e-02 2.711226791143417358e-02 7.030262351036071777e-01
-7.621418237686157227e-01 6.444493681192398071e-02 1.507385373115539551e-01
4.551717340946197510e-01 -6.627422571182250977e-02 1.297496818006038666e-02
-5.136137604713439941e-01 1.141396015882492065e-01 -7.637488190084695816e-03
-1.441244930028915405e-01 -3.283379599452018738e-02 -8.679809421300888062e-02
8.638301491737365723e-01 1.897144690155982971e-02 -5.300134047865867615e-02
3.145026564598083496e-01 -4.253699630498886108e-02 -1.233084648847579956e-01
3.243155181407928467e-01 -3.878180682659149170e-02 3.342497050762176514e-01
-1.770989596843719482e-01 1.145507469773292542e-01 -1.964314840734004974e-02
8.961373940110206604e-03 -1.559279207140207291e-02 -1.898877918720245361e-01
2.914232909679412842e-01 1.130157783627510071e-01 -2.907225117087364197e-02
-6.699339747428894043e-01 3.111415728926658630e-02 4.940310120582580566e-02
-2.330979555845260620e-01 4.174931347370147705e-02 -8.436480760574340820e-01
-2.812028229236602783e-01 6.408860534429550171e-02 -8.759299665689468384e-02
2.328109927475452423e-03 -1.852568238973617554e-02 -2.548773288726806641e-01
2.037107050418853760e-01 -9.206225164234638214e-03 -1.288727223873138428e-01
2.118241339921951294e-01 -3.086026757955551147e-02 8.089739829301834106e-02
3.919638693332672119e-01 4.046102985739707947e-02 -9.641907364130020142e-02
4.369988143444061279e-01 -7.537440955638885498e-02 6.384826451539993286e-02
4.084647893905639648e-01 -2.362397685647010803e-02 -6.621304899454116821e-02
7.516402602195739746e-01 -9.519196301698684692e-02 2.073204889893531799e-02
-5.469993352890014648e-01 4.539486020803451538e-02 -3.893991559743881226e-02
-8.325037360191345215e-01 3.465007245540618896e-02 2.975000068545341492e-02
2.298326045274734497e-01 -3.127141669392585754e-02 -2.001940011978149414e-01
3.078145682811737061e-01 -4.111167043447494507e-02 2.528962790966033936e-01
3.300010412931442261e-02 -1.140501722693443298e-01 -1.813083887100219727e-01
-8.553638458251953125e-01 7.973981648683547974e-02 2.883102595806121826e-01
-2.587264776229858398e-01 4.651867970824241638e-02 -8.950421810150146484e-01
-1.585422456264495850e-01 4.320204257965087891e-02 8.001131415367126465e-01
-8.064092993736267090e-01 3.909051790833473206e-02 -7.871209084987640381e-02
-1.985336989164352417e-01 1.013938635587692261e-01 4.721028730273246765e-02
2.598193585872650146e-01 -5.451525375247001648e-02 -2.723650336265563965e-01
3.486831784248352051e-01 -1.887703547254204750e-03 -8.638694137334823608e-02
-2.445163764059543610e-02 2.004538895562291145e-03 -4.388544559478759766e-01
8.658701181411743164e-02 -2.557009644806385040e-02 -2.262884974479675293e-01
5.567812919616699219e-01 1.063276976346969604e-01 3.789082542061805725e-02
-8.349981307983398438e-01 5.117841064929962158e-02 -1.190598830580711365e-01
-5.175217613577842712e-02 -6.076476722955703735e-02 -4.310626164078712463e-02
1.598544269800186157e-01 -6.172411888837814331e-02 3.177762031555175781e-01
3.429270386695861816e-01 -3.308048471808433533e-02 3.208461403846740723e-01
-8.929706215858459473e-01 3.395335078239440918e-01 -2.347323345020413399e-03
9.091781824827194214e-02 5.293765105307102203e-03 3.060446381568908691e-01
9.952461719512939453e-02 -2.847055671736598015e-03 4.099017977714538574e-01
8.366666436195373535e-01 -2.979084965772926807e-04 5.916112661361694336e-02
5.464479909278452396e-04 1.521624717861413956e-02 4.440275132656097412e-01
1.467797756195068359e-01 4.115129821002483368e-03 -3.809915482997894287e-01
3.108845055103302002e-01 -3.425913304090499878e-02 -7.292854040861129761e-02
-2.656222134828567505e-02 -3.017501160502433777e-02 -1.345192193984985352e-01
1.907730996608734131e-01 -4.190656170248985291e-02 -8.030188083648681641e-02
3.384043276309967041e-01 -8.173356205224990845e-02 -1.591536402702331543e-02
-7.669544219970703125e-02 1.792985387146472931e-02 6.064328551292419434e-01
6.302405595779418945e-01 1.147974506020545959e-01 -8.898356929421424866e-03
-6.210068464279174805e-01 1.580781191587448120e-01 2.257587155327200890e-03
-1.406159847974777222e-01 1.897144690155982971e-02 5.751304030418395996e-01
-6.557081341743469238e-01 4.764249920845031738e-02 7.634730637073516846e-02
5.361256375908851624e-02 -1.434612870216369629e-01 -1.298869103193283081e-01
-8.560217022895812988e-01 8.601675182580947876e-02 3.028924763202667236e-01
6.959269940853118896e-02 -1.093306392431259155e-02 -3.084642291069030762e-01
1.324990689754486084e-01 -3.642453625798225403e-02 1.609625369310379028e-01
-2.793273143470287323e-02 -1.223554611206054688e-01 1.291667222976684570e-01
-6.811606138944625854e-02 -3.003796003758907318e-02 8.122632652521133423e-02
2.257210910320281982e-01 -1.003176644444465637e-01 3.112051077187061310e-02
4.097256362438201904e-01 -9.615131467580795288e-02 5.143145471811294556e-02
8.442044258117675781e-01 6.998179852962493896e-02 -8.624254725873470306e-03
4.549524784088134766e-01 -6.835738569498062134e-02 5.326793715357780457e-02
7.246412634849548340e-01 9.931068867444992065e-02 -3.641818091273307800e-02
6.654078364372253418e-01 1.022984012961387634e-01 -4.557318240404129028e-02
3.142011463642120361e-01 -2.641981281340122223e-02 2.554728686809539795e-01
-1.587067097425460815e-01 1.146055683493614197e-01 1.259122602641582489e-02
-4.265590012073516846e-01 -4.442831501364707947e-02 6.738418340682983398e-02
4.056531190872192383e-02 5.348588805645704269e-03 4.898299276828765869e-01
1.844961792230606079e-01 -3.113436512649059296e-02 -7.668373733758926392e-02
2.141265869140625000e-01 -1.832880196161568165e-03 2.264180630445480347e-01
-8.743591904640197754e-01 6.148463860154151917e-02 -1.084448024630546570e-02
-1.199487075209617615e-01 1.143862903118133545e-01 -2.079437673091888428e-02
-2.724747732281684875e-02 -9.428742527961730957e-02 -9.665842168033123016e-03
4.507313072681427002e-01 -7.359273731708526611e-02 -4.318849369883537292e-02
2.849270701408386230e-01 -1.224650889635086060e-01 -2.832742929458618164e-01
2.516511082649230957e-01 -3.891886025667190552e-02 -7.336710393428802490e-02
3.266453742980957031e-01 -1.383853703737258911e-02 -3.075596988201141357e-01
-7.066636085510253906e-01 -2.329505607485771179e-02 1.368763204663991928e-02
3.834118843078613281e-01 3.119638748466968536e-02 -9.759770333766937256e-02
2.133042663335800171e-01 -9.743958711624145508e-02 2.601051926612854004e-01
-7.675964236259460449e-01 2.636621594429016113e-01 4.176300019025802612e-03
-5.867534782737493515e-03 -1.255076229572296143e-01 -1.574889570474624634e-01
-1.222511678934097290e-01 -6.961825489997863770e-02 -5.193233862519264221e-02
-8.657249212265014648e-01 2.550553381443023682e-01 -3.525960957631468773e-03
4.920384287834167480e-01 9.114246070384979248e-02 6.001084297895431519e-02
-7.306475639343261719e-01 -2.126670628786087036e-02 1.517512253485620022e-03
-7.306475639343261719e-01 -2.126670628786087036e-02 1.517512253485620022e-03
5.095377564430236816e-02 -6.711891386657953262e-03 3.658262491226196289e-01
2.916425764560699463e-01 -4.256442189216613770e-02 2.797308564186096191e-01
-2.350166589021682739e-01 1.035044565796852112e-01 4.441444575786590576e-02
-6.872572302818298340e-01 1.523493826389312744e-01 -1.350326742976903915e-02
-5.594593659043312073e-02 4.468220099806785583e-02 -9.532266855239868164e-02
-1.042426750063896179e-01 1.107681393623352051e-01 2.758459746837615967e-02
-2.317548543214797974e-01 4.810846969485282898e-02 8.873323202133178711e-01
1.946379244327545166e-01 -7.381203025579452515e-02 -4.266769811511039734e-02
8.313490748405456543e-01 -5.569387972354888916e-02 -4.220172762870788574e-02
-5.321704149246215820e-01 3.432114422321319580e-02 3.588988259434700012e-02
2.671926915645599365e-01 -3.828842565417289734e-02 3.583158850669860840e-01
1.351030319929122925e-01 -5.012961477041244507e-02 -8.816860616207122803e-02
-8.483743071556091309e-01 3.657650649547576904e-01 -8.377564139664173126e-03
1.253724247217178345e-01 1.195443794131278992e-02 -9.883116185665130615e-02
3.004138469696044922e-01 -2.932529710233211517e-02 2.605163156986236572e-01
2.515140473842620850e-01 5.924197845160961151e-03 -9.806367754936218262e-02
6.158776283264160156e-01 -2.764825709164142609e-03 -9.702209383249282837e-02
-1.885564029216766357e-01 3.750073164701461792e-02 9.013462811708450317e-02
2.106180787086486816e-01 -3.113436512649059296e-02 3.155011534690856934e-01
-7.237128019332885742e-01 2.268502712249755859e-01 -1.183124631643295288e-02
2.916425764560699463e-01 -4.256442189216613770e-02 2.797308564186096191e-01
4.825271070003509521e-01 -4.596328362822532654e-02 3.199763596057891846e-02
1.835916340351104736e-01 -5.188388004899024963e-02 -5.568753555417060852e-02
-6.948772072792053223e-01 -2.833852730691432953e-02 -1.514787878841161728e-02
6.165535654872655869e-03 5.975779518485069275e-02 -8.931983262300491333e-02
-8.519375920295715332e-01 2.297557443380355835e-01 -2.703655743971467018e-03
-1.589966006577014923e-02 -4.111167043447494507e-02 -7.947957515716552734e-02
-6.549954414367675781e-01 1.122208833694458008e-01 -1.808076724410057068e-02
4.024345576763153076e-01 1.138106808066368103e-01 1.845700666308403015e-02
7.151141017675399780e-02 -1.129537671804428101e-01 -1.789237111806869507e-01
3.613741099834442139e-01 -4.113907739520072937e-02 2.755096852779388428e-01
1.105435118079185486e-01 -3.735648095607757568e-02 1.523831486701965332e-01
1.860037446022033691e-01 -9.702844917774200439e-02 2.848839759826660156e-01
-8.925594687461853027e-01 7.247611880302429199e-02 2.417677640914916992e-01
6.875552535057067871e-01 -7.507289201021194458e-02 2.933884970843791962e-02
-6.306097842752933502e-03 2.376822754740715027e-02 -5.458912253379821777e-01
1.712022423744201660e-01 -9.998874366283416748e-02 3.040437102317810059e-01
-4.248321652412414551e-01 8.952525258064270020e-02 6.201178580522537231e-02
1.130926534533500671e-01 -5.569387972354888916e-02 -6.936521828174591064e-02
3.258894756436347961e-02 -3.425913304090499878e-02 -1.552687287330627441e-01
4.278553649783134460e-02 -4.525061324238777161e-02 6.305336952209472656e-02
3.825896084308624268e-01 -3.784986212849617004e-02 8.950419723987579346e-02
2.243231534957885742e-01 -6.172411888837814331e-02 5.513183027505874634e-02
4.037776589393615723e-01 9.048461169004440308e-02 6.086055934429168701e-02
2.676586806774139404e-01 -7.647081464529037476e-02 -3.650040924549102783e-02
1.400094479322433472e-01 -7.040821015834808350e-03 1.626345664262771606e-01
1.637192666530609131e-01 -1.252284832298755646e-02 -6.207410991191864014e-02
-3.420966491103172302e-02 2.777007757686078548e-04 4.001163840293884277e-01
-1.450174208730459213e-02 -1.204641461372375488e-01 -1.819114238023757935e-01
5.464202165603637695e-01 1.095072776079177856e-01 -3.715825453400611877e-02
-8.460444211959838867e-01 6.726818531751632690e-02 2.268840372562408447e-01
3.292493522167205811e-01 2.683817222714424133e-02 9.147772192955017090e-02
3.289204239845275879e-01 -6.934416294097900391e-02 3.044000267982482910e-01
7.232707738876342773e-01 8.733243495225906372e-02 5.033504590392112732e-02
1.307996362447738647e-01 -1.257767155766487122e-02 -1.224313378334045410e-01
1.916228234767913818e-01 -5.084228515625000000e-02 9.287565201520919800e-02
-1.055583655834197998e-01 3.898088261485099792e-02 7.537350654602050781e-01
2.964119613170623779e-01 -9.425498545169830322e-03 -3.136995732784271240e-01
2.424961179494857788e-01 -3.562963381409645081e-02 3.309604823589324951e-01
4.397123754024505615e-01 3.865196183323860168e-02 -9.666576236486434937e-02
-6.803773045539855957e-01 4.969825968146324158e-02 -6.166295707225799561e-02
-5.846767127513885498e-02 -1.890942454338073730e-02 -9.233495593070983887e-02
-1.819231361150741577e-01 3.876159712672233582e-02 -8.236111998558044434e-01
-5.278670191764831543e-01 -4.026195406913757324e-02 5.387096107006072998e-02
-8.497447967529296875e-01 9.405290707945823669e-03 -6.075107958167791367e-03
9.612575918436050415e-02 2.141592092812061310e-03 2.721108198165893555e-01
3.003590106964111328e-01 -1.003176644444465637e-01 -4.395597800612449646e-02
1.793430596590042114e-01 -2.189216436818242073e-03 2.110135257244110107e-01
-4.111702740192413330e-02 6.116074509918689728e-03 4.760974049568176270e-01
-6.881617903709411621e-01 9.734210558235645294e-03 -5.226126313209533691e-02
1.670358926057815552e-01 -1.668420387431979179e-03 -2.231637537479400635e-01
2.592437267303466797e-01 -9.944052994251251221e-02 -7.335976697504520416e-03
-4.216525554656982422e-01 1.131528317928314209e-01 -2.347323345020413399e-03
-6.836275011301040649e-02 -8.115794509649276733e-02 1.344094146043062210e-02
-1.055583655834197998e-01 3.898088261485099792e-02 7.537350654602050781e-01
3.152427375316619873e-01 -3.442358970642089844e-02 7.914315164089202881e-02
-6.450181603431701660e-01 1.954107880592346191e-01 -5.930715124122798443e-04
4.037776589393615723e-01 9.048461169004440308e-02 6.086055934429168701e-02
4.560214579105377197e-01 6.628142297267913818e-02 8.007509261369705200e-02
-8.979867100715637207e-01 8.371429890394210815e-02 2.860900163650512695e-01
-1.107937097549438477e-01 -6.553414463996887207e-02 4.575754702091217041e-02
2.136880159378051758e-01 -5.281582474708557129e-02 -3.647099435329437256e-01
2.783760428428649902e-01 -2.137634158134460449e-02 -9.134818613529205322e-02
4.816225767135620117e-01 5.690713599324226379e-02 8.380287885665893555e-02
1.943364292383193970e-01 -3.395258449018001556e-03 -2.029624432325363159e-01
2.794082742184400558e-03 2.565952576696872711e-02 -5.762069225311279297e-01
3.152153193950653076e-01 -9.831672161817550659e-02 -1.703918166458606720e-02
7.164846360683441162e-02 -6.978273391723632812e-02 2.541919238865375519e-02
7.754165679216384888e-02 4.361819475889205933e-03 4.239358305931091309e-01
1.130926534533500671e-01 -5.569387972354888916e-02 -6.936521828174591064e-02
-8.441256880760192871e-01 4.029656946659088135e-02 -3.186808899044990540e-02
-2.024807780981063843e-01 -8.047270029783248901e-02 -2.520741522312164307e-02
5.544788241386413574e-01 -9.009345667436718941e-04 9.054577350616455078e-02
-3.619257807731628418e-01 3.402467351406812668e-03 9.101174771785736084e-02
-9.083910286426544189e-02 3.286841139197349548e-02 -6.644402742385864258e-01
1.697220951318740845e-01 -5.572130903601646423e-02 2.789359688758850098e-01
-5.021014213562011719e-01 1.096991524100303650e-01 -3.151175752282142639e-02
6.460404396057128906e-02 -9.672198444604873657e-03 1.825617700815200806e-01
1.928836852312088013e-01 -1.036343052983283997e-01 2.696713209152221680e-01
1.749300211668014526e-01 -9.182050824165344238e-02 8.785958588123321533e-02
7.136498093605041504e-01 -6.136779487133026123e-02 -5.730473622679710388e-02
-6.563659310340881348e-01 3.629468008875846863e-02 7.185204327106475830e-02
-6.563111543655395508e-01 1.128239110112190247e-01 1.135776657611131668e-02
-1.819231361150741577e-01 3.876159712672233582e-02 -8.236111998558044434e-01
1.653090566396713257e-01 -9.338288754224777222e-02 3.080455958843231201e-01
1.863052546977996826e-01 -1.605876535177230835e-02 3.200786709785461426e-01
-3.197963535785675049e-01 1.096991524100303650e-01 3.010633215308189392e-02
4.037776589393615723e-01 9.048461169004440308e-02 6.086055934429168701e-02
-4.268878996372222900e-01 -7.781391590833663940e-02 -4.923880565911531448e-03
-9.332635998725891113e-01 8.919633179903030396e-02 -3.319821655750274658e-01
-8.362041711807250977e-01 7.505267858505249023e-02 -2.292488068342208862e-01
3.534799516201019287e-01 -9.922125935554504395e-02 -3.425076901912689209e-01
2.903543114662170410e-01 -7.896513491868972778e-02 2.804161310195922852e-01
7.810146547853946686e-03 -5.446083960123360157e-04 3.056883215904235840e-01
-6.814346462488174438e-02 9.816450066864490509e-03 5.082769393920898438e-01
-2.298635542392730713e-01 7.705362141132354736e-02 7.229059934616088867e-02
2.238023728132247925e-01 -1.244061812758445740e-02 8.824332803487777710e-02
-1.183040961623191833e-01 6.082679703831672668e-02 -8.890867978334426880e-02
-6.989887952804565430e-01 4.577860236167907715e-02 -4.450418055057525635e-02
-5.216332897543907166e-02 -8.713337033987045288e-02 5.748910829424858093e-02
6.158776283264160156e-01 -2.764825709164142609e-03 -9.702209383249282837e-02
1.678307950496673584e-01 -3.313028486445546150e-03 -2.035380601882934570e-01
6.576687563210725784e-03 -1.158592477440834045e-01 1.407338231801986694e-01
-8.024622201919555664e-01 6.439011543989181519e-02 1.567961871623992920e-01
2.696870267391204834e-01 -9.809241630136966705e-03 -7.799942791461944580e-02
2.493486553430557251e-01 -1.185180321335792542e-01 -3.450019955635070801e-01
-6.882871687412261963e-02 1.444876194000244141e-02 5.677022337913513184e-01
-1.798125505447387695e-01 -4.955401271581649780e-02 -7.465538382530212402e-02
4.708893969655036926e-02 -3.730165958404541016e-02 -6.826881319284439087e-02
1.247968077659606934e-01 -1.422228012233972549e-02 -1.031619757413864136e-01
-6.199926733970642090e-01 3.859713673591613770e-02 6.620554625988006592e-02
-8.198403120040893555e-01 4.684760048985481262e-02 -1.203481629490852356e-01
3.794648051261901855e-01 -4.519579932093620300e-02 -9.795404225587844849e-02
2.238023728132247925e-01 -1.244061812758445740e-02 8.824332803487777710e-02
1.498497128486633301e-01 -6.139520183205604553e-02 3.133631646633148193e-01
1.489177644252777100e-01 -5.163718014955520630e-02 2.984246313571929932e-01
2.826794385910034180e-01 -7.819765061140060425e-02 2.620238959789276123e-01
4.498815536499023438e-01 -4.102944955229759216e-02 -4.365446791052818298e-02
-4.423746466636657715e-01 1.123031154274940491e-01 2.369234897196292877e-02
2.671926915645599365e-01 -3.828842565417289734e-02 3.583158850669860840e-01
6.711639761924743652e-01 1.104392260313034058e-01 1.322165969759225845e-02
-2.718559503555297852e-01 3.522568196058273315e-02 -9.707692265510559082e-02
-6.337409466505050659e-02 -5.958614498376846313e-02 5.781802535057067871e-02
1.359369512647390366e-02 -1.060737967491149902e-01 1.455854177474975586e-01
-7.124081254005432129e-02 -8.896985650062561035e-02 -1.427075266838073730e-02
2.924922704696655273e-01 -9.543864428997039795e-02 3.206816911697387695e-01
-1.462350785732269287e-01 -8.121275901794433594e-02 1.311201881617307663e-02
2.356983870267868042e-01 -3.751594806089997292e-03 -3.192090094089508057e-01
8.902651816606521606e-02 1.346699660643935204e-03 -2.744481861591339111e-01
7.616723775863647461e-01 -1.265990175306797028e-02 -8.345405012369155884e-02
-7.760114669799804688e-01 4.476443305611610413e-02 -1.226780265569686890e-01
