1.704525351524353027e-01 9.202030301094055176e-02 3.005719743669033051e-02
1.617625169456005096e-02 -3.718641772866249084e-02 -3.068301677703857422e-01
-7.708574086427688599e-02 -1.710917986929416656e-02 3.726233169436454773e-02
2.284444272518157959e-01 -1.710917986929416656e-02 8.316471427679061890e-02
-6.515813618898391724e-02 1.403211988508701324e-02 -5.478649139404296875e-01
7.986210286617279053e-02 -1.862037181854248047e-02 9.619873017072677612e-02
8.447130322456359863e-01 -5.343170091509819031e-02 -3.316990286111831665e-02
-2.723800241947174072e-01 -2.752884291112422943e-03 3.113661892712116241e-02
-6.397077441215515137e-02 -2.752884291112422943e-03 2.803328074514865875e-02
-5.436925888061523438e-01 -1.710917986929416656e-02 -6.023639068007469177e-02
5.959596857428550720e-02 -4.781872034072875977e-02 -2.271149158477783203e-01
3.105344176292419434e-01 -1.594880409538745880e-02 9.630666673183441162e-02
-8.466860651969909668e-01 2.998056821525096893e-02 8.818402886390686035e-02
1.918520480394363403e-01 -1.237559914588928223e-01 -3.169497251510620117e-01
-2.387027628719806671e-02 -6.257979571819305420e-02 1.552700549364089966e-01
4.856435358524322510e-01 -1.710917986929416656e-02 1.313726976513862610e-02
2.687338292598724365e-01 -1.017390005290508270e-02 6.175002548843622208e-03
-6.437555700540542603e-02 -2.612235397100448608e-02 -2.822463512420654297e-01
5.500842630863189697e-02 -5.478098243474960327e-02 2.964853346347808838e-01
2.673305869102478027e-01 -1.710917986929416656e-02 -5.023993086069822311e-03
2.103101462125778198e-01 -1.478842925280332565e-02 -4.936122149229049683e-02
-1.590407937765121460e-01 -1.244068704545497894e-02 -4.472628533840179443e-01
3.009005784988403320e-01 -6.085272878408432007e-02 3.303521871566772461e-01
1.955490708351135254e-01 -9.145431965589523315e-02 7.871210575103759766e-02
2.855188250541687012e-01 -1.277228593826293945e-01 -2.669725120067596436e-01
2.135214209556579590e-01 -9.096858650445938110e-02 -7.308150082826614380e-02
1.926346272230148315e-01 5.278334021568298340e-02 1.416272018104791641e-02
2.851140499114990234e-01 -1.710917986929416656e-02 -4.901041090488433838e-02
6.188973784446716309e-02 -2.399049699306488037e-02 1.820397078990936279e-01
7.188525199890136719e-01 -8.681279420852661133e-02 -1.579121872782707214e-02
-3.849643096327781677e-02 9.039793163537979126e-03 -4.568966925144195557e-01
1.062809377908706665e-01 -8.829700946807861328e-02 2.849085628986358643e-01
-1.750432103872299194e-01 6.282196193933486938e-02 7.560877501964569092e-02
2.954495251178741455e-01 5.278334021568298340e-02 -1.705953851342201233e-02
-2.472834885120391846e-01 -1.710917986929416656e-02 -7.054486125707626343e-02
-6.680426001548767090e-02 -1.495271772146224976e-01 -1.461583077907562256e-01
-1.630076617002487183e-01 1.308763120323419571e-02 -5.889099240303039551e-01
2.540537118911743164e-01 -1.710917986929416656e-02 -5.980461835861206055e-02
2.148707062005996704e-01 5.278334021568298340e-02 -2.477740123867988586e-02
-1.412303447723388672e-01 -1.486938539892435074e-02 -4.474787414073944092e-01
3.964563608169555664e-01 -1.710917986929416656e-02 1.197689119726419449e-02
2.161120325326919556e-01 -2.782243862748146057e-02 1.005703806877136230e-01
2.238299101591110229e-01 1.961812190711498260e-02 -4.199416935443878174e-02
2.872452512383460999e-02 -1.508527155965566635e-02 2.659107446670532227e-01
-5.244795605540275574e-02 -1.710917986929416656e-02 4.587071388959884644e-02
4.038233757019042969e-01 4.007315635681152344e-02 7.466427981853485107e-02
1.109224483370780945e-01 -5.124587938189506531e-02 -2.151872962713241577e-01
-9.420258998870849609e-01 5.410563200712203979e-02 -3.154655396938323975e-01
-8.324916958808898926e-01 3.996521234512329102e-02 -1.629163324832916260e-01
-3.880939781665802002e-01 -4.965373501181602478e-02 -7.594197243452072144e-02
7.403869032859802246e-01 -1.710917986929416656e-02 -2.553299814462661743e-02
7.445697188377380371e-01 -1.710917986929416656e-02 3.267479315400123596e-02
-8.897010087966918945e-01 2.804872393608093262e-01 2.208129502832889557e-03
1.398779153823852539e-01 -1.665042713284492493e-02 1.952895969152450562e-01
2.794740796089172363e-01 -1.207336112856864929e-01 -3.012981116771697998e-01
5.647920370101928711e-01 -8.505874872207641602e-02 3.979897126555442810e-02
7.540881633758544922e-03 -2.752884291112422943e-03 -7.119251787662506104e-02
-1.112764105200767517e-01 -1.028183847665786743e-02 -5.052278041839599609e-01
-1.435780823230743408e-01 2.037371695041656494e-02 -6.144652366638183594e-01
2.690576612949371338e-01 -6.635776907205581665e-02 -2.403108179569244385e-01
8.485375903546810150e-03 -1.710917986929416656e-02 -3.870193660259246826e-02
7.171524167060852051e-01 5.278334021568298340e-02 3.422478446736931801e-03
5.665191411972045898e-01 5.278334021568298340e-02 9.737092070281505585e-03
-2.477962076663970947e-01 3.216639906167984009e-02 8.530079722404479980e-01
-2.678471244871616364e-02 -1.727428869344294071e-03 -3.862755596637725830e-01
7.721219658851623535e-01 3.764445707201957703e-02 -1.463084202259778976e-02
7.416816055774688721e-02 -9.337348863482475281e-03 2.584897279739379883e-01
3.439081134274601936e-03 -3.915636241436004639e-02 1.277178227901458740e-01
-1.868898719549179077e-01 9.903336875140666962e-03 -6.680584549903869629e-01
-1.180227920413017273e-01 -7.313429843634366989e-03 4.452835619449615479e-01
4.038233757019042969e-01 4.007315635681152344e-02 7.466427981853485107e-02
-5.097987055778503418e-01 8.694702386856079102e-02 -3.551764413714408875e-02
-8.270406126976013184e-01 4.279869794845581055e-02 1.925100982189178467e-01
8.449019193649291992e-01 5.639940127730369568e-02 7.470307871699333191e-03
4.185575246810913086e-01 -1.710917986929416656e-02 3.499554842710494995e-02
-4.767151549458503723e-02 -1.370598673820495605e-01 -1.495584994554519653e-01
2.294968664646148682e-01 -2.752884291112422943e-03 6.795669440180063248e-03
4.762525260448455811e-01 -1.710917986929416656e-02 -4.847069829702377319e-02
-2.222139239311218262e-01 1.481469813734292984e-02 6.559596061706542969e-01
2.294968664646148682e-01 -2.752884291112422943e-03 6.795669440180063248e-03
4.167764782905578613e-01 7.510036975145339966e-02 6.303351372480392456e-02
-7.985438704490661621e-01 2.712010219693183899e-02 -1.036830917000770569e-01
2.728626132011413574e-01 -1.710917986929416656e-02 4.004184529185295105e-02
3.609703779220581055e-01 6.934928242117166519e-03 -6.589153781533241272e-03
-3.849643096327781677e-02 -7.313429843634366989e-03 -5.298655629158020020e-01
-7.382116280496120453e-03 -9.283058345317840576e-02 4.271341115236282349e-02
-8.444192409515380859e-01 1.705211997032165527e-01 5.095581058412790298e-03
-1.414192467927932739e-01 -1.905214414000511169e-02 -4.071353971958160400e-01
1.903671771287918091e-02 -2.836214751005172729e-02 -3.944791555404663086e-01
-2.670369148254394531e-01 6.182349473237991333e-02 7.641834020614624023e-02
5.223708748817443848e-01 4.371620342135429382e-02 -5.443449690937995911e-02
-4.861600324511528015e-02 -9.131938964128494263e-02 -2.264554426074028015e-02
1.238755062222480774e-01 2.002291008830070496e-02 -8.943473547697067261e-02
-6.020622253417968750e-01 5.278334021568298340e-02 -4.212909936904907227e-02
4.451652169227600098e-01 4.495754092931747437e-02 -3.161991015076637268e-03
2.674115300178527832e-01 -1.710917986929416656e-02 -7.140839844942092896e-02
-2.785597145557403564e-01 4.212405532598495483e-02 -8.152797073125839233e-02
8.246897459030151367e-01 -1.710917986929416656e-02 -3.443822264671325684e-02
5.190516114234924316e-01 -1.710917986929416656e-02 4.447928629815578461e-03
-4.749873876571655273e-01 -1.710917986929416656e-02 7.660723477602005005e-02
-4.980599880218505859e-01 -1.710917986929416656e-02 1.235468965023756027e-02
7.920103073120117188e-01 -2.483024494722485542e-03 -3.539788769558072090e-03
4.432222545146942139e-01 4.236692935228347778e-02 -8.139304071664810181e-02
-9.980756044387817383e-02 -2.463814429938793182e-02 -3.305774331092834473e-01
7.004213333129882812e-01 2.649943716824054718e-02 -6.487790495157241821e-02
4.503464698791503906e-01 -6.449896376579999924e-03 1.200387720018625259e-02
7.465666532516479492e-01 8.122609555721282959e-02 1.683428697288036346e-02
2.858959510922431946e-02 -1.490414291620254517e-01 1.643102169036865234e-01
2.772606164216995239e-02 -1.384393032640218735e-02 2.748159766197204590e-01
4.702071473002433777e-02 1.451785583049058914e-02 -5.192484334111213684e-02
3.567066490650177002e-01 3.740159049630165100e-02 8.143764734268188477e-02
-1.847316883504390717e-02 5.693587008863687515e-03 4.267715215682983398e-01
1.549898236989974976e-01 5.278334021568298340e-02 9.629149921238422394e-03
-9.046509861946105957e-01 3.688886761665344238e-02 -4.511267878115177155e-03
5.719432830810546875e-01 -1.710917986929416656e-02 1.405477803200483322e-02
1.440067142248153687e-01 -8.489683270454406738e-02 -3.146559596061706543e-01
4.532062634825706482e-02 -2.617954509332776070e-03 3.426575660705566406e-01
3.859320282936096191e-01 5.278334021568298340e-02 -6.258413195610046387e-02
-6.755984574556350708e-02 1.416704989969730377e-02 -5.708835721015930176e-01
-3.099168837070465088e-01 3.286802023649215698e-02 8.259414434432983398e-01
1.403366774320602417e-01 -1.859338954091072083e-02 2.714427709579467773e-01
7.920103073120117188e-01 3.686187788844108582e-02 -5.424559861421585083e-02
5.919935107231140137e-01 9.323465824127197266e-02 2.649510651826858521e-02
-1.148458919487893581e-03 -4.709010571241378784e-02 2.168510407209396362e-01
-7.286513447761535645e-01 1.075099930167198181e-01 -4.160455428063869476e-03
-5.355435609817504883e-02 9.444583207368850708e-03 5.765141844749450684e-01
-6.755984574556350708e-02 1.416704989969730377e-02 -5.708835721015930176e-01
-1.022902354598045349e-01 7.294153422117233276e-02 6.573206186294555664e-02
2.592349350452423096e-01 -1.710917986929416656e-02 7.377375662326812744e-02
3.769457936286926270e-01 1.794501766562461853e-02 4.193082824349403381e-02
-2.163047716021537781e-02 -1.258878558874130249e-01 -1.495045274496078491e-01
5.508938804268836975e-02 -4.466140642762184143e-02 2.619438767433166504e-01
-7.851597666740417480e-02 2.228968776762485504e-02 9.568600356578826904e-02
-1.018861122429370880e-02 5.612630862742662430e-03 -4.813455641269683838e-01
5.927221179008483887e-01 -1.710917986929416656e-02 5.685382708907127380e-02
4.158319830894470215e-01 5.278334021568298340e-02 -1.353960484266281128e-03
7.263814806938171387e-01 -1.116124987602233887e-01 4.025772586464881897e-02
3.001450002193450928e-01 -7.636941224336624146e-02 3.387716412544250488e-01
2.920223474502563477e-01 -1.710917986929416656e-02 3.575114160776138306e-02
-4.397449269890785217e-02 -6.261002272367477417e-03 -9.043319523334503174e-02
7.004213333129882812e-01 -5.100617185235023499e-03 -1.039411220699548721e-02
-2.588602900505065918e-01 -1.710917986929416656e-02 -5.752602592110633850e-03
-3.814562037587165833e-02 -1.599975675344467163e-01 1.454473286867141724e-01
-1.660030633211135864e-01 2.836143970489501953e-02 -6.803098917007446289e-01
-1.577724665403366089e-01 -6.210275460034608841e-04 -5.091676712036132812e-01
-5.279330015182495117e-01 2.728201448917388916e-02 -7.858654856681823730e-02
-1.417430788278579712e-01 -1.710917986929416656e-02 5.105194076895713806e-02
2.772606164216995239e-02 -1.384393032640218735e-02 2.748159766197204590e-01
-2.357606589794158936e-01 -8.794619888067245483e-02 3.132551535964012146e-02
-3.998063504695892334e-02 -4.714407771825790405e-02 -1.986181735992431641e-01
1.339141279458999634e-01 4.600997269153594971e-02 5.787927657365798950e-02
-8.488522842526435852e-03 -2.890185825526714325e-02 -3.750225901603698730e-01
-8.782597631216049194e-02 -1.710917986929416656e-02 -7.758808881044387817e-02
-9.457236528396606445e-02 -1.526305228471755981e-01 -1.293463259935379028e-01
6.135549545288085938e-01 -1.710917986929416656e-02 7.045453041791915894e-02
2.344082444906234741e-01 -9.283058345317840576e-02 6.095562875270843506e-02
-7.797619104385375977e-01 2.930592931807041168e-02 -5.645841732621192932e-02
-4.397449269890785217e-02 -6.261002272367477417e-03 -9.043319523334503174e-02
-6.696610450744628906e-01 -3.316557034850120544e-02 3.877352178096771240e-02
4.658631384372711182e-01 -2.752884291112422943e-03 2.495693229138851166e-02
7.418711185455322266e-01 -5.980028957128524780e-02 6.446374952793121338e-02
5.068002343177795410e-01 -2.752884291112422943e-03 1.265153009444475174e-02
-7.082772254943847656e-01 -1.710917986929416656e-02 -7.695560343563556671e-03
2.732673883438110352e-01 -9.280359745025634766e-02 2.944344580173492432e-01
-1.186434552073478699e-01 7.094460725784301758e-02 6.821473687887191772e-02
3.151759207248687744e-01 1.160023501142859459e-03 6.357322633266448975e-02
7.203630357980728149e-02 4.363524913787841797e-02 6.073974445462226868e-02
-4.011549949645996094e-01 5.113722383975982666e-02 -2.426467649638652802e-02
1.153474021703004837e-02 -3.060194291174411774e-02 1.811221987009048462e-01
1.253597140312194824e-01 -5.310787633061408997e-02 2.104015052318572998e-01
-6.155280470848083496e-01 3.254419192671775818e-02 5.423622950911521912e-02
6.535475254058837891e-01 8.365163579583168030e-03 3.175728395581245422e-02
-9.313126802444458008e-01 4.816881567239761353e-02 -2.764984071254730225e-01
5.239359736442565918e-01 5.278334021568298340e-02 6.243983283638954163e-02
-3.869605660438537598e-01 6.908260285854339600e-02 -6.369053572416305542e-02
-3.235715925693511963e-01 -9.212894737720489502e-02 1.041173003613948822e-02
-1.201546490192413330e-01 -4.425987601280212402e-03 5.658279061317443848e-01
5.846534371376037598e-01 -1.244068704545497894e-02 1.991063728928565979e-02
-2.444500029087066650e-01 4.579409211874008179e-02 5.801420658826828003e-02
4.935773015022277832e-01 3.993823006749153137e-02 7.050850987434387207e-02
-1.114383265376091003e-01 -1.511225383728742599e-02 -4.590015709400177002e-01
-6.166883707046508789e-01 5.156899243593215942e-02 -6.134279817342758179e-02
-3.736027479171752930e-01 4.803388565778732300e-02 -7.461968064308166504e-02
-3.879327327013015747e-02 5.278334021568298340e-02 -5.286933854222297668e-02
1.227691024541854858e-01 -5.890976637601852417e-02 -1.476964950561523438e-01
8.247707486152648926e-01 -1.710917986929416656e-02 4.447928629815578461e-03
-1.552358418703079224e-01 5.278334021568298340e-02 2.139484137296676636e-02
6.893296539783477783e-02 -4.563288763165473938e-02 -2.514828443527221680e-01
4.499686360359191895e-01 9.444583207368850708e-03 1.877724565565586090e-02
1.246580779552459717e-01 -7.062148302793502808e-02 2.878769636154174805e-01
-1.828690022230148315e-01 1.106049516238272190e-03 5.812636613845825195e-01
-1.689444780349731445e-01 5.278334021568298340e-02 8.046616613864898682e-02
3.055953979492187500e-02 -6.892140209674835205e-02 -2.083751372992992401e-02
3.151759207248687744e-01 1.160023501142859459e-03 6.357322633266448975e-02
-2.129578888416290283e-01 9.201714769005775452e-03 -6.101744771003723145e-01
-1.093604341149330139e-01 -1.778382062911987305e-02 4.311701357364654541e-01
5.336231365799903870e-02 -1.710917986929416656e-02 5.887774005532264709e-02
1.131892353296279907e-01 -1.710917986929416656e-02 -5.902203917503356934e-02
-1.862691938877105713e-01 3.667297959327697754e-02 9.090956300497055054e-02
-7.091408371925354004e-01 8.235948532819747925e-02 2.235115040093660355e-03
8.158655166625976562e-01 -1.484239380806684494e-02 -5.842835828661918640e-02
6.008177995681762695e-01 9.579827636480331421e-02 -3.593759611248970032e-03
-6.773788332939147949e-01 1.861728131771087646e-01 3.314536297693848610e-03
-1.891566514968872070e-01 -6.751815974712371826e-02 -6.806219369173049927e-02
-2.860886752605438232e-01 3.721268847584724426e-02 -8.270571827888488770e-01
4.451652169227600098e-01 4.495754092931747437e-02 -3.161991015076637268e-03
9.675505012273788452e-02 -5.297295004129409790e-02 2.001470029354095459e-01
-2.420482784509658813e-01 -1.710917986929416656e-02 -4.268398042768239975e-03
2.109578251838684082e-01 -1.309071630239486694e-01 -2.759047448635101318e-01
-8.398857116699218750e-01 2.604068443179130554e-02 -4.547530412673950195e-02
4.451652169227600098e-01 5.990428850054740906e-03 9.768293052911758423e-02
-3.539842665195465088e-01 4.287965223193168640e-02 8.799512684345245361e-02
-1.790640652179718018e-01 3.885563928633928299e-03 6.163448095321655273e-01
-7.079811394214630127e-02 -1.988869532942771912e-02 3.365588784217834473e-01
4.455969929695129395e-01 2.455647848546504974e-02 2.789835259318351746e-02
-3.598678112030029297e-02 -1.916008070111274719e-02 3.071716129779815674e-01
7.843187451362609863e-02 -9.283058345317840576e-02 4.085140675306320190e-02
4.604929685592651367e-01 4.498452320694923401e-02 1.105938293039798737e-02
-4.691045284271240234e-01 -6.150037422776222229e-02 6.316844373941421509e-02
1.062809377908706665e-01 -8.829700946807861328e-02 2.849085628986358643e-01
5.359984636306762695e-01 5.278334021568298340e-02 -5.266862455755472183e-03
-2.701942026615142822e-01 -1.710917986929416656e-02 -5.999351665377616882e-02
-6.096721887588500977e-01 5.278334021568298340e-02 1.694222912192344666e-02
-9.260775446891784668e-01 4.846565797924995422e-02 -2.623849809169769287e-01
-8.496551960706710815e-02 -5.726365372538566589e-02 -1.039529517292976379e-01
3.560583665966987610e-02 5.278334021568298340e-02 7.254423573613166809e-03
2.719990909099578857e-01 -6.320045888423919678e-02 3.015316426753997803e-01
2.739150524139404297e-01 -7.148502767086029053e-02 9.619873017072677612e-02
-8.897010087966918945e-01 2.804872393608093262e-01 2.208129502832889557e-03
-5.036999583244323730e-01 -7.445342838764190674e-02 -2.091846987605094910e-02
2.793391346931457520e-01 4.757513105869293213e-02 -4.919930920004844666e-02
8.628465980291366577e-02 -4.244859516620635986e-02 -2.980868518352508545e-01
-4.443048536777496338e-01 4.077478125691413879e-02 6.190012395381927490e-02
-7.976533770561218262e-01 6.705868989229202271e-02 -1.409113034605979919e-02
-8.083396553993225098e-01 -4.857749212533235550e-03 2.517281472682952881e-02
-1.684317737817764282e-01 -3.389418497681617737e-02 9.061273187398910522e-02
-2.159802615642547607e-01 6.934928242117166519e-03 6.275978088378906250e-01
1.043649688363075256e-01 -1.111838966608047485e-02 2.962154746055603027e-01
5.163530707359313965e-01 9.166949242353439331e-02 3.113661892712116241e-02
2.509233653545379639e-01 -2.563980408012866974e-03 6.175002548843622208e-03
-7.499159574508666992e-01 1.536012887954711914e-01 -3.917586058378219604e-03
5.303848907351493835e-02 -2.752884291112422943e-03 -1.705953851342201233e-02
-6.288318634033203125e-01 4.690049961209297180e-02 5.264408141374588013e-02
-5.889472961425781250e-01 8.656922727823257446e-02 4.217370226979255676e-02
1.954876817762851715e-03 -4.358198866248130798e-02 -2.442237287759780884e-01
4.154265299439430237e-02 3.926359117031097412e-02 6.929415464401245117e-02
-3.733059167861938477e-01 4.654968157410621643e-02 8.616011589765548706e-02
3.219492733478546143e-01 -2.267138566821813583e-03 8.356950432062149048e-02
-1.254168301820755005e-01 2.050549024716019630e-03 6.307281255722045898e-01
4.174510538578033447e-01 -4.398995544761419296e-03 9.746705740690231323e-02
1.553946137428283691e-01 -1.905214414000511169e-02 -1.494235694408416748e-01
2.161120325326919556e-01 -2.782243862748146057e-02 1.005703806877136230e-01
-2.635294385254383087e-02 -1.353327929973602295e-01 -1.461583077907562256e-01
-1.417430788278579712e-01 -1.710917986929416656e-02 5.105194076895713806e-02
-2.220520079135894775e-01 -2.752884291112422943e-03 -6.207140535116195679e-02
-4.872461780905723572e-03 -7.369783520698547363e-02 2.768247015774250031e-02
2.142230570316314697e-01 -9.283058345317840576e-02 -3.697486221790313721e-02
5.576139092445373535e-01 4.509246349334716797e-02 1.459448784589767456e-02
-1.562342941761016846e-01 5.278334021568298340e-02 -1.406414527446031570e-02
9.675505012273788452e-02 -5.297295004129409790e-02 2.001470029354095459e-01
6.993142515420913696e-02 -6.320045888423919678e-02 1.028371676802635193e-01
2.389411441981792450e-02 8.631816599518060684e-04 4.266095757484436035e-01
7.920103073120117188e-01 -1.036280393600463867e-02 4.940582066774368286e-02
-8.267167210578918457e-01 2.199285663664340973e-02 4.951376095414161682e-02
-2.255871146917343140e-01 9.525538422167301178e-03 -6.413428187370300293e-01
1.172296819277107716e-03 -3.753723204135894775e-02 3.031777441501617432e-01
-1.862691938877105713e-01 -7.709801942110061646e-02 -6.112691015005111694e-02
-7.878582924604415894e-02 -1.542496532201766968e-01 1.734043508768081665e-01
2.699744701385498047e-02 6.581735610961914062e-02 -6.636210530996322632e-02
2.732127718627452850e-02 -5.899072065949440002e-02 -1.189569011330604553e-01
8.640076518058776855e-01 4.093669354915618896e-02 -1.795006170868873596e-02
-3.307227492332458496e-01 3.877785056829452515e-02 -8.683990240097045898e-01
4.089775979518890381e-01 9.644593298435211182e-02 4.151087719947099686e-03
1.830817461013793945e-01 -8.028231561183929443e-02 -3.349760770797729492e-01
-2.042415589094161987e-01 1.978004351258277893e-02 7.680305242538452148e-01
5.378875732421875000e-01 -1.710917986929416656e-02 -7.872643764130771160e-04
-5.042396783828735352e-01 9.463790059089660645e-02 -1.344347838312387466e-02
-7.468395829200744629e-01 5.278334021568298340e-02 1.470243092626333237e-02
-5.416686534881591797e-01 8.845821768045425415e-02 -3.079517371952533722e-02
7.920103073120117188e-01 4.015411064028739929e-02 4.967567324638366699e-02
-1.828690022230148315e-01 1.106049516238272190e-03 5.812636613845825195e-01
4.951424002647399902e-01 9.336634539067745209e-03 -6.711769849061965942e-02
5.378875732421875000e-01 -1.710917986929416656e-02 -7.872643764130771160e-04
1.849707514047622681e-01 4.563217610120773315e-02 -1.692461222410202026e-02
1.207445003092288971e-02 -4.082946479320526123e-02 -2.719378769397735596e-01
7.954913973808288574e-01 -1.883625797927379608e-02 -6.393340975046157837e-02
-8.972569108009338379e-01 4.611791670322418213e-02 2.768398821353912354e-01
-5.641475319862365723e-01 3.400141373276710510e-02 8.246309310197830200e-02
-4.197749793529510498e-01 -3.529742732644081116e-02 -8.312011510133743286e-02
-9.047319293022155762e-01 2.986485064029693604e-01 4.097116645425558090e-03
-8.998482674360275269e-02 2.644222695380449295e-03 4.736993312835693359e-01
-1.546961218118667603e-01 -1.710917986929416656e-02 8.419016748666763306e-02
6.895995140075683594e-02 -9.283058345317840576e-02 4.468335211277008057e-02
-2.048622220754623413e-01 2.363896742463111877e-02 -7.796975970268249512e-01
2.709196805953979492e-01 5.278334021568298340e-02 6.038893386721611023e-02
8.600947856903076172e-01 2.887100446969270706e-03 2.433626353740692139e-02
6.394880414009094238e-01 -3.214012458920478821e-02 -8.436144888401031494e-02
2.740229964256286621e-01 -8.800016343593597412e-02 -2.851877510547637939e-01
2.096085399389266968e-01 -1.231083497405052185e-01 2.593802511692047119e-01
1.246580779552459717e-01 -8.756839483976364136e-02 3.112194538116455078e-01
2.710539102554321289e-02 8.497707545757293701e-02 4.721999540925025940e-02
4.389039054512977600e-02 -3.913259599357843399e-03 -4.096450209617614746e-01
-2.285825163125991821e-01 -2.294130623340606689e-03 -5.349000915884971619e-02
7.565512657165527344e-01 -7.642337679862976074e-02 1.074737287126481533e-03
-7.878582924604415894e-02 -9.131938964128494263e-02 6.683847308158874512e-02
3.320419192314147949e-01 3.748254477977752686e-02 6.438279151916503906e-02
7.920103073120117188e-01 -2.483024494722485542e-03 -3.539788769558072090e-03
-5.430995300412178040e-02 1.241299137473106384e-02 5.392202138900756836e-01
-5.258288234472274780e-02 -3.141151368618011475e-02 -3.306583762168884277e-01
2.819027900695800781e-01 -6.449896376579999924e-03 5.971429124474525452e-02
3.764331042766571045e-01 -8.365550637245178223e-02 4.263245686888694763e-02
-1.896963566541671753e-01 -4.028975591063499451e-02 8.748240768909454346e-02
-2.415625452995300293e-01 -1.710917986929416656e-02 4.940582066774368286e-02
2.222107797861099243e-01 -6.020506843924522400e-02 2.491257339715957642e-01
-1.630076617002487183e-01 3.480774117633700371e-03 6.424786150455474854e-02
-3.427582979202270508e-01 5.278334021568298340e-02 -2.887920290231704712e-02
-1.018861122429370880e-02 5.612630862742662430e-03 -4.813455641269683838e-01
-3.877701759338378906e-01 -1.710917986929416656e-02 3.880050778388977051e-02
2.983909249305725098e-01 -9.002409130334854126e-02 -5.068351328372955322e-02
-3.010116815567016602e-01 -2.752884291112422943e-03 6.508441269397735596e-02
2.521573565900325775e-03 5.278334021568298340e-02 5.488388240337371826e-02
5.654127597808837891e-01 7.134938985109329224e-02 -6.088404357433319092e-02
7.004213333129882812e-01 3.931755945086479187e-02 -7.275767624378204346e-02
-4.926366358995437622e-02 -3.017018176615238190e-02 -3.440431952476501465e-01
-1.247961595654487610e-01 -1.710917986929416656e-02 5.679985880851745605e-02
-4.771462082862854004e-01 9.331560879945755005e-02 -1.881359890103340149e-02
-7.579846382141113281e-01 6.641103327274322510e-02 -2.394085004925727844e-02
-4.396363496780395508e-01 4.247486591339111328e-02 7.755172997713088989e-02
-1.624139845371246338e-01 -9.472278878092765808e-03 -4.658558666706085205e-01
1.474338769912719727e-01 1.991496235132217407e-02 7.609451562166213989e-02
2.983909249305725098e-01 -9.002409130334854126e-02 -5.068351328372955322e-02
7.350438237190246582e-01 -9.998174756765365601e-02 3.971801698207855225e-02
-5.204040408134460449e-01 5.278334021568298340e-02 7.366581261157989502e-02
7.497779130935668945e-01 -7.229459285736083984e-02 4.840735718607902527e-02
-1.404754258692264557e-02 -1.462349444627761841e-01 -1.254064440727233887e-01
-7.090605050325393677e-02 5.278334021568298340e-02 -2.806963585317134857e-02
4.302692413330078125e-01 8.932174742221832275e-02 -3.125392645597457886e-02
3.563281893730163574e-02 3.931755945086479187e-02 -6.226030364632606506e-02
-8.920217752456665039e-01 4.935617744922637939e-02 -3.021616637706756592e-01
6.092102527618408203e-01 4.511945322155952454e-02 -8.316227234899997711e-03
1.483243852853775024e-01 -1.710917986929416656e-02 6.357322633266448975e-02
-2.234822362661361694e-01 3.008851222693920135e-02 -8.176662325859069824e-01
-2.824193052947521210e-02 9.876344352960586548e-03 8.289486169815063477e-02
-1.689444780349731445e-01 5.278334021568298340e-02 8.046616613864898682e-02
-7.943881154060363770e-01 7.231770083308219910e-03 3.577812761068344116e-02
-6.109675168991088867e-01 1.513853203505277634e-02 2.026144973933696747e-02
-5.684652328491210938e-01 9.409818798303604126e-02 2.398545295000076294e-02
-8.026186823844909668e-01 2.004989236593246460e-02 3.645276650786399841e-02
2.226155549287796021e-01 -1.710917986929416656e-02 -4.566420242190361023e-02
-9.449140727519989014e-02 1.837678998708724976e-02 6.020694971084594727e-01
-8.739144206047058105e-01 2.471839077770709991e-02 5.062016844749450684e-02
-3.021180927753448486e-01 9.264097362756729126e-02 2.824916690587997437e-02
-1.868088990449905396e-01 2.299132011830806732e-02 6.733112931251525879e-01
-3.231674432754516602e-02 -1.543036252260208130e-01 1.639054268598556519e-01
2.560506463050842285e-01 6.649199128150939941e-02 7.266735285520553589e-02
3.219492733478546143e-01 -2.267138566821813583e-03 8.356950432062149048e-02
-5.204040408134460449e-01 5.278334021568298340e-02 7.366581261157989502e-02
2.146278470754623413e-01 -5.812718719244003296e-02 9.619873017072677612e-02
1.692381948232650757e-01 -7.143104821443557739e-02 2.512575984001159668e-01
-6.983466148376464844e-01 -3.589435946196317673e-03 5.437115952372550964e-02
8.283051103353500366e-02 -5.183955654501914978e-02 2.053282111883163452e-01
3.563281893730163574e-02 3.931755945086479187e-02 -6.226030364632606506e-02
8.563976883888244629e-01 -1.710917986929416656e-02 -3.039039298892021179e-02
6.116929054260253906e-01 -6.430688500404357910e-02 7.150696963071823120e-02
-8.267167210578918457e-01 2.199285663664340973e-02 4.951376095414161682e-02
-2.559735067188739777e-02 -7.510109245777130127e-02 -9.966224431991577148e-02
-4.971154928207397461e-01 -6.954206526279449463e-02 4.158001765608787537e-02
-5.378636717796325684e-01 3.745556250214576721e-02 8.365045487880706787e-02
-8.159232139587402344e-02 -1.514701396226882935e-01 -1.602987349033355713e-01
-6.437555700540542603e-02 -2.612235397100448608e-02 -2.822463512420654297e-01
-2.157374024391174316e-01 2.517714537680149078e-02 -8.786956965923309326e-02
-7.524256110191345215e-01 3.688886761665344238e-02 -1.282939016819000244e-01
-4.187495708465576172e-01 -1.710917986929416656e-02 3.750520199537277222e-02
-2.551632523536682129e-01 9.639196097850799561e-02 2.181143965572118759e-03
5.375906825065612793e-01 7.812275737524032593e-02 -5.241058394312858582e-02
5.984970331192016602e-01 5.278334021568298340e-02 -3.940355777740478516e-02
5.872979760169982910e-01 5.278334021568298340e-02 7.067041844129562378e-02
-8.979592472314834595e-02 -5.057124048471450806e-02 -1.568445861339569092e-01
-3.879327327013015747e-02 5.278334021568298340e-02 -5.286933854222297668e-02
-1.582858711481094360e-02 -1.198193337768316269e-02 5.012515187263488770e-01
-1.092524975538253784e-01 -2.040141262114048004e-02 -3.611520528793334961e-01
5.051540136337280273e-01 6.220129504799842834e-02 7.612149417400360107e-02
-8.707038313150405884e-02 7.485750317573547363e-02 6.335733830928802490e-02
-2.852251231670379639e-01 9.091389179229736328e-02 3.332244604825973511e-02
-5.622856020927429199e-01 -6.179721653461456299e-02 -2.493931539356708527e-02
-1.676221936941146851e-01 3.667297959327697754e-02 -7.677852362394332886e-02
2.656501019373536110e-03 3.750634146854281425e-03 -4.099418818950653076e-01
-3.404645323753356934e-01 3.926359117031097412e-02 -7.205604761838912964e-02
-6.291833519935607910e-02 -4.787268489599227905e-02 1.928069442510604858e-01
-2.993116080760955811e-01 4.522739350795745850e-02 -1.114970818161964417e-02
-2.790994346141815186e-01 3.459509462118148804e-02 -8.683990240097045898e-01
-6.251888871192932129e-01 2.779474295675754547e-02 -4.771510511636734009e-02
1.280042827129364014e-01 -4.177395626902580261e-02 2.737635374069213867e-01
-2.435601502656936646e-02 -1.355756670236587524e-01 -1.721453666687011719e-01
8.733709901571273804e-02 -1.878228411078453064e-02 -1.854222565889358521e-01
-8.697046637535095215e-01 3.562054410576820374e-02 -1.363085955381393433e-01
-8.341917395591735840e-01 -7.691227365285158157e-03 6.175002548843622208e-03
-8.496551960706710815e-02 -5.726365372538566589e-02 -1.039529517292976379e-01
-5.980144143104553223e-01 7.353521883487701416e-02 -5.095336586236953735e-02
1.955490708351135254e-01 -9.145431965589523315e-02 7.871210575103759766e-02
7.554441690444946289e-02 -1.967280916869640350e-02 -1.907114088535308838e-01
-2.460691332817077637e-01 1.659574918448925018e-02 -6.998204588890075684e-01
-9.870115667581558228e-02 -4.412169754505157471e-02 -1.845587193965911865e-01
-6.755984574556350708e-02 1.416704989969730377e-02 -5.708835721015930176e-01
9.591782465577125549e-03 -5.726365372538566589e-02 9.619873017072677612e-02
9.778049588203430176e-02 6.554749608039855957e-02 -6.657798588275909424e-02
-1.050157621502876282e-01 -4.315021634101867676e-02 2.191448211669921875e-01
3.859049975872039795e-01 1.899745501577854156e-02 -2.215980365872383118e-02
5.778800249099731445e-01 3.594437241554260254e-02 -8.430748432874679565e-02
-4.062012434005737305e-01 -2.702117199078202248e-04 7.744378596544265747e-02
7.301324605941772461e-01 -8.770332485437393188e-02 3.793697059154510498e-02
-3.410581946372985840e-01 -9.118445962667465210e-02 -1.303869485855102539e-02
-2.616404555737972260e-02 -8.138871937990188599e-02 9.412084519863128662e-02
-3.831826150417327881e-01 5.003081634640693665e-02 -2.305032685399055481e-02
-1.083889603614807129e-01 -5.030138045549392700e-02 -1.538761854171752930e-01
7.004213333129882812e-01 4.058588296175003052e-02 6.660741753876209259e-03
-1.169163882732391357e-01 -2.239834889769554138e-02 -3.865993916988372803e-01
-6.502321362495422363e-02 1.527345180511474609e-02 -8.989349007606506348e-02
-7.579846382141113281e-01 6.641103327274322510e-02 -2.394085004925727844e-02
-6.758683174848556519e-02 -1.872831024229526520e-02 -3.329521417617797852e-01
-7.812191843986511230e-01 2.396581321954727173e-01 1.097842678427696228e-02
-6.985361874103546143e-02 4.155413713306188583e-03 4.633908569812774658e-01
2.666019797325134277e-01 9.531253576278686523e-02 -8.478140458464622498e-03
5.814691781997680664e-01 -7.885207235813140869e-02 5.226628854870796204e-02
2.114435583353042603e-01 -5.240625515580177307e-02 -2.484064698219299316e-01
-7.286513447761535645e-01 1.075099930167198181e-01 -4.160455428063869476e-03
7.469714283943176270e-01 -1.710917986929416656e-02 2.072020433843135834e-02
-1.022902354598045349e-01 7.294153422117233276e-02 6.573206186294555664e-02
3.438615500926971436e-01 1.508455816656351089e-02 -1.255295518785715103e-02
7.476183772087097168e-02 -3.027811832726001740e-02 -1.188759505748748779e-01
5.857598185539245605e-01 2.428346779197454453e-03 -9.118878841400146484e-02
-8.180813789367675781e-01 2.248700857162475586e-01 8.198917843401432037e-03
-3.010116815567016602e-01 -2.752884291112422943e-03 6.508441269397735596e-02
-3.371999412775039673e-02 7.177796214818954468e-03 5.405154824256896973e-01
6.506060361862182617e-01 -1.710917986929416656e-02 3.450980782508850098e-02
5.214533209800720215e-01 -8.473815396428108215e-03 -2.928398549556732178e-02
-8.850062638521194458e-02 -3.267983719706535339e-02 3.111115097999572754e-01
-3.663443401455879211e-02 -8.916054666042327881e-02 8.440605551004409790e-02
2.098783999681472778e-01 -8.991614729166030884e-02 8.257103711366653442e-02
7.721751928329467773e-02 -3.378623723983764648e-02 -9.253807365894317627e-02
7.543385028839111328e-01 -8.743347972631454468e-02 1.667237468063831329e-02
1.943887025117874146e-01 -6.695145368576049805e-02 1.069119870662689209e-01
-8.056141138076782227e-01 1.934319287538528442e-01 8.225902915000915527e-03
-8.369982838630676270e-01 2.811349034309387207e-01 -1.488888170570135117e-03
7.477269768714904785e-01 -1.710917986929416656e-02 6.184614822268486023e-02
3.996406495571136475e-01 -1.710917986929416656e-02 7.555479556322097778e-02
-7.684286683797836304e-02 1.929429732263088226e-02 -4.403325263410806656e-03
2.019986212253570557e-01 -6.784198433160781860e-02 -9.480486065149307251e-02
-3.739805817604064941e-01 -1.710917986929416656e-02 -4.890246689319610596e-02
3.115254687145352364e-03 -3.613397851586341858e-02 -1.417866647243499756e-01
-4.290040135383605957e-01 5.774867907166481018e-02 7.938674837350845337e-02
4.478907585144042969e-01 6.317277252674102783e-02 -6.849396228790283203e-02
2.486559003591537476e-02 -4.633450880646705627e-02 2.342027425765991211e-01
-5.466076731681823730e-02 -9.131938964128494263e-02 -4.428794234991073608e-02
-2.346549183130264282e-02 -1.436443328857421875e-01 -1.675578355789184570e-01
7.920103073120117188e-01 -3.241857048124074936e-04 5.917458236217498779e-02
2.953341463580727577e-03 -1.710917986929416656e-02 -7.912626117467880249e-02
-3.117789030075073242e-01 3.683489188551902771e-02 -8.441661000251770020e-01
-2.241568863391876221e-01 -2.752884291112422943e-03 9.317634999752044678e-02
3.910861909389495850e-01 -5.165066197514533997e-02 -7.480857521295547485e-02
-2.678471244871616364e-02 -1.727428869344294071e-03 -3.862755596637725830e-01
1.103287637233734131e-01 -1.710917986929416656e-02 -1.538643613457679749e-02
6.535475254058837891e-01 -1.538534997962415218e-03 -2.958082780241966248e-02
6.044068336486816406e-01 -9.877058677375316620e-03 2.895078994333744049e-02
9.081823378801345825e-02 5.021971836686134338e-02 -7.483556121587753296e-02
-6.601081490516662598e-01 -1.710917986929416656e-02 2.639898099005222321e-03
-4.877791926264762878e-02 -3.648479655385017395e-02 -1.882557272911071777e-01
1.172363944351673126e-02 -9.131938964128494263e-02 -3.012053668498992920e-02
1.926346272230148315e-01 5.278334021568298340e-02 1.416272018104791641e-02
7.460539340972900391e-01 -6.584826391190290451e-03 5.391240492463111877e-02
1.550168097019195557e-01 -1.875530183315277100e-02 1.980151385068893433e-01
2.660082876682281494e-01 -4.250256717205047607e-02 -2.638422250747680664e-01
-1.568819582462310791e-01 7.744487840682268143e-03 -6.640106439590454102e-01
7.246543765068054199e-01 7.553214579820632935e-02 -3.775744140148162842e-02
-8.897010087966918945e-01 2.804872393608093262e-01 2.208129502832889557e-03
6.092102527618408203e-01 4.511945322155952454e-02 -8.316227234899997711e-03
4.969228059053421021e-02 9.544746577739715576e-02 1.413573417812585831e-02
7.477269768714904785e-01 -1.710917986929416656e-02 6.184614822268486023e-02
-6.397077441215515137e-02 -2.752884291112422943e-03 2.803328074514865875e-02
-4.232560992240905762e-01 2.544699981808662415e-02 9.457959979772567749e-02
3.190078735351562500e-01 -6.746738217771053314e-03 -9.037922322750091553e-02
1.472179889678955078e-01 2.153410203754901886e-02 -4.992791637778282166e-02
6.157407760620117188e-01 2.846937812864780426e-02 -8.679014444351196289e-02
5.363216623663902283e-02 5.818044766783714294e-02 -7.248782366514205933e-02
-7.257368564605712891e-01 2.002291008830070496e-02 -5.189786106348037720e-02
5.990367531776428223e-01 1.837678998708724976e-02 9.644159674644470215e-02
-7.271408289670944214e-02 -2.679698355495929718e-02 3.720988035202026367e-01
-7.656754851341247559e-01 3.707776591181755066e-02 -1.519062370061874390e-01
-3.831826150417327881e-01 5.003081634640693665e-02 -2.305032685399055481e-02
9.268023073673248291e-02 -1.751396059989929199e-02 3.632205724716186523e-01
-7.839716672897338867e-01 4.781800508499145508e-02 -2.796169370412826538e-02
-8.661966323852539062e-01 3.003454208374023438e-02 9.368907660245895386e-02
1.595503836870193481e-01 -3.305763378739356995e-02 -2.999488413333892822e-01
-4.107348620891571045e-01 9.220919758081436157e-02 -2.269951626658439636e-02
-2.226996570825576782e-01 7.874342054128646851e-02 -5.162800848484039307e-02
-2.129578888416290283e-01 1.821487769484519958e-02 6.675093770027160645e-01
-2.307413518428802490e-01 5.205473303794860840e-02 8.176147192716598511e-02
2.222917377948760986e-01 -5.729063600301742554e-02 -8.935377746820449829e-02
2.742658853530883789e-01 -7.207871228456497192e-02 2.860689461231231689e-01
-4.610634967684745789e-02 -2.021251805126667023e-02 -4.405434429645538330e-01
-1.650585681200027466e-01 1.969907619059085846e-02 6.424786150455474854e-02
7.171524167060852051e-01 5.278334021568298340e-02 3.422478446736931801e-03
-7.355131208896636963e-03 2.304528281092643738e-02 9.544313699007034302e-02
4.292168021202087402e-01 9.552842378616333008e-02 1.311028376221656799e-02
-9.210851788520812988e-01 5.388974770903587341e-02 -3.088001012802124023e-01
2.502487599849700928e-01 -8.316976577043533325e-02 3.469212949275970459e-01
-1.543723046779632568e-01 5.278334021568298340e-02 -4.029408469796180725e-02
-7.989217042922973633e-01 2.601671516895294189e-01 -3.539788769558072090e-03
8.416367173194885254e-01 5.299922823905944824e-02 2.617128007113933563e-02
2.714593708515167236e-01 -1.081043854355812073e-01 2.855831980705261230e-01
-6.472630500793457031e-01 1.233774945139884949e-01 -2.109555294737219810e-03
8.868914246559143066e-01 3.041233494877815247e-02 5.419407505542039871e-03
8.628465980291366577e-02 -4.244859516620635986e-02 -2.980868518352508545e-01
-2.297975309193134308e-02 -1.737903989851474762e-02 -2.977360188961029053e-01
-6.288318634033203125e-01 1.859267614781856537e-02 -3.813523799180984497e-02
7.136172652244567871e-01 -1.710917986929416656e-02 8.502671867609024048e-02
-2.682512402534484863e-01 3.920962288975715637e-02 -8.268952965736389160e-01
7.090290635824203491e-02 -3.756421431899070740e-02 -3.232373595237731934e-01
-1.675412356853485107e-01 2.617240650579333305e-03 -6.033741235733032227e-01
-3.235715925693511963e-01 -9.212894737720489502e-02 1.041173003613948822e-02
-4.861600324511528015e-02 -9.131938964128494263e-02 -2.264554426074028015e-02
2.714593708515167236e-01 -1.081043854355812073e-01 2.855831980705261230e-01
-8.183242678642272949e-01 3.230132535099983215e-02 -9.329366683959960938e-02
-2.364622950553894043e-01 4.892441257834434509e-02 -4.771510511636734009e-02
2.184321358799934387e-02 -3.678163886070251465e-02 1.277178227901458740e-01
2.297397404909133911e-01 -1.710917986929416656e-02 1.182679436169564724e-03
1.402017474174499512e-01 -1.053248792886734009e-01 -3.085842132568359375e-01
2.668448388576507568e-01 5.278334021568298340e-02 7.887402176856994629e-02
-2.579358988441526890e-04 -3.437992185354232788e-02 3.334285318851470947e-01
-2.583745419979095459e-01 -5.623819679021835327e-02 7.795651257038116455e-02
2.955574393272399902e-01 4.134147986769676208e-02 8.877770602703094482e-02
-4.818491172045469284e-03 -2.042840421199798584e-02 -4.501233398914337158e-01
2.727006971836090088e-01 -8.397933095693588257e-02 -8.506307750940322876e-02
-8.788798451423645020e-01 3.641693592071533203e-01 -1.326975063420832157e-03
-3.030086159706115723e-01 4.665762558579444885e-02 9.100553989410400391e-01
-8.124144673347473145e-01 1.115038618445396423e-01 1.047751633450388908e-03
-3.034680336713790894e-02 -5.734460800886154175e-02 -1.163123175501823425e-01
4.989744126796722412e-01 5.278334021568298340e-02 4.225466027855873108e-02
-7.792229205369949341e-02 1.586713455617427826e-02 -5.590909123420715332e-01
4.379330873489379883e-01 9.523158520460128784e-02 1.607869192957878113e-02
-6.288318634033203125e-01 4.690049961209297180e-02 5.264408141374588013e-02
6.991530656814575195e-01 8.980749547481536865e-02 -6.670109927654266357e-03
-4.135689884424209595e-02 -4.466140642762184143e-02 2.257832586765289307e-01
-8.428810834884643555e-01 2.577082440257072449e-02 -7.591498643159866333e-02
5.247185826301574707e-01 4.978794977068901062e-02 2.959844283759593964e-02
1.971135661005973816e-02 -2.175069227814674377e-02 -2.276006489992141724e-01
1.227691024541854858e-01 -5.890976637601852417e-02 -1.476964950561523438e-01
-2.308836672455072403e-03 -6.417195498943328857e-02 9.619873017072677612e-02
5.344326794147491455e-02 -1.983472146093845367e-02 2.159875035285949707e-01
6.657450199127197266e-01 -1.710917986929416656e-02 5.796023458242416382e-02
5.857598185539245605e-01 2.428346779197454453e-03 -9.118878841400146484e-02
-6.600541472434997559e-01 -3.729435428977012634e-02 3.685754910111427307e-02
6.026527881622314453e-01 1.897047273814678192e-02 2.322985604405403137e-02
9.670107811689376831e-02 -1.710917986929416656e-02 1.618663594126701355e-02
-9.329857826232910156e-01 4.565916210412979126e-02 2.549816071987152100e-01
-6.316924095153808594e-01 4.371299874037504196e-03 -6.517474353313446045e-02
-2.579358988441526890e-04 -3.437992185354232788e-02 3.334285318851470947e-01
-6.603239774703979492e-01 5.278334021568298340e-02 1.974872499704360962e-02
4.702071473002433777e-02 1.451785583049058914e-02 -5.192484334111213684e-02
-4.033677577972412109e-01 9.550143033266067505e-02 -6.724081467837095261e-03
3.715486824512481689e-01 4.611791670322418213e-02 -7.953104376792907715e-02
2.785295844078063965e-01 -1.055137738585472107e-01 -3.343014121055603027e-01
-3.998063504695892334e-02 -4.714407771825790405e-02 -1.986181735992431641e-01
-1.092524975538253784e-01 -2.040141262114048004e-02 -3.611520528793334961e-01
-2.822027504444122314e-01 1.991496235132217407e-02 2.868093363940715790e-02
-1.223674565553665161e-01 4.274472594261169434e-02 -3.527477383613586426e-02
-7.927156984806060791e-02 -1.710917986929416656e-02 8.772528171539306641e-02
7.117822766304016113e-01 5.278334021568298340e-02 5.323776602745056152e-02
-4.685648083686828613e-01 1.335748098790645599e-02 -8.635838329792022705e-02
-1.223944500088691711e-01 8.478818833827972412e-02 4.759779199957847595e-02
1.238755062222480774e-01 2.002291008830070496e-02 -8.943473547697067261e-02
-3.809967935085296631e-01 4.514643922448158264e-02 -9.071821346879005432e-03
-8.511656522750854492e-01 1.988290250301361084e-01 1.560476724989712238e-03
1.142146810889244080e-01 -1.252164319157600403e-02 -2.798716127872467041e-01
-3.807809352874755859e-01 8.092076750472187996e-04 1.416272018104791641e-02
-2.144960612058639526e-01 -9.499260224401950836e-03 2.870791964232921600e-02
6.008177995681762695e-01 9.579827636480331421e-02 -3.593759611248970032e-03
-2.822027504444122314e-01 1.991496235132217407e-02 2.868093363940715790e-02
2.653876245021820068e-01 3.783335536718368530e-02 9.050478041172027588e-02
5.367810726165771484e-01 -7.715198397636413574e-02 -4.882150888442993164e-02
-1.404754258692264557e-02 -1.462349444627761841e-01 -1.254064440727233887e-01
-3.831826150417327881e-01 5.003081634640693665e-02 -2.305032685399055481e-02
-1.787942051887512207e-01 -1.710917986929416656e-02 -5.235661566257476807e-02
-1.198847964406013489e-01 -1.198193337768316269e-02 -4.850156009197235107e-01
-7.878582924604415894e-02 -1.542496532201766968e-01 1.734043508768081665e-01
-9.513973258435726166e-03 -4.104534909129142761e-02 1.257748752832412720e-01
-8.374300003051757812e-01 4.671159759163856506e-02 -2.237686961889266968e-01
1.513197869062423706e-01 -1.710917986929416656e-02 -5.400273203849792480e-02
4.998649358749389648e-01 -9.280359745025634766e-02 3.719319356605410576e-03
-9.313126802444458008e-01 4.816881567239761353e-02 -2.764984071254730225e-01
-2.589682340621948242e-01 6.959532946348190308e-02 -6.306986510753631592e-02
-4.227164387702941895e-01 -1.710917986929416656e-02 -7.105758786201477051e-02
6.075634434819221497e-02 -9.283058345317840576e-02 2.015350759029388428e-02
-3.998063504695892334e-02 -4.714407771825790405e-02 -1.986181735992431641e-01
2.031320035457611084e-01 5.469931662082672119e-02 -7.526732981204986572e-02
1.590646356344223022e-01 -4.619957879185676575e-02 -2.962788045406341553e-01
1.047697514295578003e-01 -2.752884291112422943e-03 2.730467170476913452e-02
-2.477962076663970947e-01 3.216639906167984009e-02 8.530079722404479980e-01
1.745813190937042236e-01 -3.497360274195671082e-02 9.619873017072677612e-02
-1.806838624179363251e-02 -2.202055230736732483e-02 -4.380068182945251465e-01
4.158319830894470215e-01 5.278334021568298340e-02 -1.353960484266281128e-03
-7.987597584724426270e-01 4.312251880764961243e-02 -1.821570098400115967e-01
2.740229964256286621e-01 -8.800016343593597412e-02 -2.851877510547637939e-01
-6.590826511383056641e-01 -3.969607129693031311e-02 -2.612667903304100037e-02
-6.852046847343444824e-01 5.278334021568298340e-02 -4.349354654550552368e-03
-1.870248019695281982e-01 -9.075268357992172241e-02 -1.608806103467941284e-02
-2.039986848831176758e-01 -7.289654458872973919e-04 5.555464625358581543e-01
-9.870115667581558228e-02 -4.412169754505157471e-02 -1.845587193965911865e-01
3.667992949485778809e-01 5.278334021568298340e-02 -3.943054378032684326e-02
-6.152581572532653809e-01 -1.710917986929416656e-02 4.023073986172676086e-02
2.231282889842987061e-01 -1.710917986929416656e-02 -7.505144178867340088e-02
-1.062571033835411072e-01 -1.710917986929416656e-02 -3.643515333533287048e-02
-1.279804557561874390e-01 4.182405769824981689e-03 -5.096263885498046875e-01
7.843187451362609863e-02 -9.283058345317840576e-02 4.085140675306320190e-02
7.489953637123107910e-01 1.805296540260314941e-02 -3.659706190228462219e-02
-1.193180978298187256e-01 1.870061457157135010e-02 -6.701363325119018555e-01
-1.552358418703079224e-01 5.278334021568298340e-02 2.139484137296676636e-02
3.910861909389495850e-01 -5.165066197514533997e-02 -7.480857521295547485e-02
-1.870248019695281982e-01 -9.075268357992172241e-02 -1.608806103467941284e-02
-4.429832100868225098e-02 7.998475432395935059e-02 5.693478509783744812e-02
1.719907075166702271e-01 -8.190143853425979614e-02 9.371606260538101196e-02
8.283051103353500366e-02 -5.183955654501914978e-02 2.053282111883163452e-01
-1.607408821582794189e-01 -4.628053680062294006e-02 8.991109579801559448e-02
-7.429806590080261230e-01 1.555712223052978516e-01 1.124828215688467026e-02
-9.111275076866149902e-01 4.603695869445800781e-02 2.441604137420654297e-01
4.702071473002433777e-02 1.451785583049058914e-02 -5.192484334111213684e-02
-9.829636663198471069e-02 -3.200519457459449768e-02 -3.060205876827239990e-01
