-7.887045145034790039e-01 2.986500561237335205e-01 -1.285777892917394638e-02
3.043188154697418213e-02 -4.814051836729049683e-02 -5.993353128433227539e-01
4.996270686388015747e-02 -5.122017487883567810e-02 -2.214059084653854370e-01
7.874044589698314667e-03 -2.379279397428035736e-02 -4.637250304222106934e-01
-2.398673593997955322e-01 1.430878341197967529e-01 3.281065821647644043e-02
1.050280481576919556e-01 1.151866540312767029e-01 7.695242017507553101e-02
-7.314808368682861328e-01 5.111923813819885254e-02 1.512590497732162476e-01
2.949929535388946533e-01 -1.112603470683097839e-01 5.392079055309295654e-02
-2.613380365073680878e-02 -1.047851666808128357e-01 5.845169425010681152e-01
-3.549991846084594727e-01 1.416401416063308716e-01 3.460054472088813782e-02
-5.772003903985023499e-02 -4.498189315199851990e-02 3.875240981578826904e-01
-8.256604671478271484e-01 4.440716281533241272e-02 3.578503057360649109e-02
-5.497461650520563126e-03 -7.204077392816543579e-02 6.063114404678344727e-01
-6.306337565183639526e-02 -3.034693561494350433e-02 -5.582468509674072266e-01
-5.041125416755676270e-01 -4.037556424736976624e-02 4.141790792346000671e-02
4.383681714534759521e-01 -1.300082262605428696e-02 -6.473817676305770874e-02
-3.726084828376770020e-01 1.278474777936935425e-01 -6.597530841827392578e-02
8.820836991071701050e-02 -7.464662939310073853e-02 6.400206685066223145e-02
7.791653275489807129e-02 -2.584589272737503052e-02 -4.047640264034271240e-01
2.104207873344421387e-01 -7.067204266786575317e-02 3.169288635253906250e-01
1.423524618148803711e-01 -4.271821677684783936e-02 8.479633927345275879e-02
2.912026047706604004e-01 -8.591239154338836670e-02 1.104075089097023010e-01
7.377266883850097656e-01 -8.804447203874588013e-02 3.560077399015426636e-02
4.660850763320922852e-01 8.660110831260681152e-02 -1.005359143018722534e-01
-4.118991643190383911e-02 -1.300082262605428696e-02 2.541421353816986084e-02
3.082328438758850098e-01 -1.095757558941841125e-01 -3.374327123165130615e-01
-6.842593550682067871e-01 5.419889837503433228e-02 8.684944361448287964e-02
-7.172327488660812378e-02 -1.563301496207714081e-02 6.134973168373107910e-01
-2.517385184764862061e-01 3.108829818665981293e-02 8.813921362161636353e-02
-1.643499135971069336e-01 -2.971520647406578064e-02 5.355582833290100098e-01
-2.702954411506652832e-01 5.812598392367362976e-04 -8.706873655319213867e-01
1.980495154857635498e-01 1.390605866909027100e-01 -5.565713718533515930e-02
1.000611577183008194e-02 -3.966487944126129150e-02 5.810424089431762695e-01
-8.039975762367248535e-01 5.327763035893440247e-02 1.559180170297622681e-01
-8.159213662147521973e-01 1.001305580139160156e-01 -2.776504727080464363e-03
2.564840614795684814e-01 1.365863382816314697e-01 -7.050266861915588379e-02
2.022873312234878540e-01 2.632404118776321411e-02 8.769173920154571533e-02
3.943053483963012695e-01 -1.300082262605428696e-02 6.086976453661918640e-02
3.485395386815071106e-02 -5.727420747280120850e-02 -3.062149584293365479e-01
2.711190283298492432e-01 -1.094772387295961380e-02 7.826851308345794678e-02
2.121922932565212250e-02 -1.300082262605428696e-02 -5.265643820166587830e-02
4.366835653781890869e-01 1.302164494991302490e-01 6.194896623492240906e-02
2.993176877498626709e-02 -4.216545075178146362e-02 -3.044250607490539551e-01
-7.856775522232055664e-01 2.621152997016906738e-01 4.084406245965510607e-04
-2.419731020927429199e-01 -8.420825004577636719e-03 7.801410555839538574e-01
1.372460126876831055e-01 -1.172354072332382202e-01 -1.083099469542503357e-02
8.394607305526733398e-01 -6.556558609008789062e-02 -4.678666219115257263e-02
-1.687983125448226929e-01 -7.920707575976848602e-03 -7.249958515167236328e-01
-5.755764245986938477e-01 1.385078281164169312e-01 -1.241030637174844742e-02
3.832238614559173584e-01 1.088694036006927490e-01 -9.511360526084899902e-02
-1.643499135971069336e-01 -2.971520647406578064e-02 5.355582833290100098e-01
2.385588586330413818e-01 -7.085628807544708252e-02 3.250096738338470459e-01
-2.206787317991256714e-01 -1.300082262605428696e-02 2.628283388912677765e-02
1.563899591565132141e-02 -2.489831298589706421e-02 4.358773827552795410e-01
-7.313491702079772949e-01 5.743648484349250793e-02 -4.289102926850318909e-02
2.056912286207079887e-03 -8.685998618602752686e-02 5.318377539515495300e-02
-4.824759662151336670e-01 4.351221770048141479e-02 6.792402267456054688e-02
-2.784815430641174316e-01 1.451672613620758057e-01 -3.646849468350410461e-02
-9.370203316211700439e-02 1.703242026269435883e-02 -1.003516614437103271e-01
-1.364930532872676849e-03 -4.445545375347137451e-02 -4.144768118858337402e-01
-1.101711182855069637e-03 -7.743675261735916138e-02 -5.599051117897033691e-01
2.133425176143646240e-01 -1.256847232580184937e-01 -3.433551490306854248e-01
-2.656364440917968750e-01 -1.300082262605428696e-02 5.881665647029876709e-02
3.756168186664581299e-01 -1.300082262605428696e-02 2.825697511434555054e-02
4.403423070907592773e-01 7.694098353385925293e-02 9.319300949573516846e-02
-5.579854175448417664e-02 -6.156466156244277954e-02 7.174069434404373169e-02
5.401548147201538086e-01 9.254984557628631592e-02 8.848140388727188110e-02
1.077918410301208496e-01 -6.130145117640495300e-02 2.572308778762817383e-01
-3.055930435657501221e-01 -9.712551534175872803e-02 -1.443709060549736023e-02
1.797294914722442627e-01 -4.398166388273239136e-02 -1.174345538020133972e-01
-4.972425401210784912e-01 2.319173701107501984e-02 -8.213692158460617065e-02
5.134381055831909180e-01 6.635960191488265991e-02 8.953427523374557495e-02
-6.327395886182785034e-02 4.972417652606964111e-02 -1.059318929910659790e-01
-1.425290852785110474e-01 -2.492463216185569763e-02 -5.599840879440307617e-01
4.551351964473724365e-01 -4.766672104597091675e-02 7.742621749639511108e-02
-1.788795888423919678e-01 -1.068450044840574265e-02 -6.916986107826232910e-01
2.297936677932739258e-01 -1.043640300631523132e-01 -3.054516315460205078e-01
1.375882029533386230e-01 -1.207956206053495407e-02 8.342760801315307617e-02
-8.964846283197402954e-02 3.200956434011459351e-02 9.398267418146133423e-02
-2.786311088129878044e-03 1.942771114408969879e-02 8.595450222492218018e-02
-3.989303708076477051e-01 -1.244806870818138123e-02 -8.850681781768798828e-02
3.517165780067443848e-01 -4.016498848795890808e-02 1.288854628801345825e-01
-5.923960804939270020e-01 4.811854660511016846e-02 -5.428839474916458130e-02
1.625939756631851196e-01 -6.788191944360733032e-02 -8.326877653598785400e-02
-2.471058815717697144e-01 -6.825042515993118286e-02 5.278895050287246704e-02
-4.128725267946720123e-03 -1.429255455732345581e-01 -7.455623149871826172e-02
1.584614366292953491e-01 1.564856618642807007e-01 -1.841169223189353943e-02
-6.566924601793289185e-02 -9.015021473169326782e-02 5.717771649360656738e-01
1.585140824317932129e-01 -1.840355456806719303e-03 -1.010623499751091003e-01
8.458569049835205078e-01 -6.395995616912841797e-02 3.023111447691917419e-02
-5.429819971323013306e-02 -8.280640840530395508e-02 5.946245193481445312e-01
5.426110699772834778e-03 -9.172951430082321167e-02 -5.606157779693603516e-01
-2.257851660251617432e-01 1.387447267770767212e-01 -5.628885701298713684e-02
4.039655029773712158e-01 7.472994923591613770e-02 -1.085114404559135437e-01
4.461936652660369873e-02 1.435616314411163330e-01 -5.847357586026191711e-02
2.267403453588485718e-01 3.372048586606979370e-02 -1.091694906353950500e-01
-1.269202232360839844e-01 -3.716430068016052246e-02 4.600934684276580811e-01
1.092395484447479248e-01 -5.072005465626716614e-02 3.351172506809234619e-01
2.477978467941284180e-01 9.247088432312011719e-02 -9.753522276878356934e-02
-7.454840540885925293e-01 3.682646527886390686e-02 1.306925807148218155e-02
-2.450264543294906616e-01 -7.996364682912826538e-02 -1.222605444490909576e-02
-3.751617372035980225e-01 1.160552799701690674e-01 7.699597161263227463e-03
3.391873538494110107e-01 -5.406293272972106934e-02 -1.751057505607604980e-01
4.096062853932380676e-02 -1.569814383983612061e-01 -7.310853153467178345e-02
-7.288143038749694824e-02 -2.516152709722518921e-02 -5.989930629730224609e-01
-6.837329864501953125e-01 8.294237405061721802e-02 -2.430779114365577698e-02
5.187551379203796387e-01 -2.066049352288246155e-02 -9.782476723194122314e-02
2.660915255546569824e-01 1.027890518307685852e-01 8.326966315507888794e-02
2.552995681762695312e-01 -5.793225392699241638e-02 -3.395648002624511719e-01
4.640925303101539612e-02 -8.217468857765197754e-02 5.805332586169242859e-02
-2.608985304832458496e-01 -5.893926601856946945e-03 -7.741124629974365234e-01
-7.624090313911437988e-01 4.598646983504295349e-02 1.483282446861267090e-02
-9.430743753910064697e-02 -1.858105696737766266e-02 -5.776987075805664062e-01
-2.923268377780914307e-01 1.372180581092834473e-01 -4.883977025747299194e-02
4.245491921901702881e-01 2.974588237702846527e-02 -1.032997146248817444e-01
-2.705506980419158936e-02 -9.796779602766036987e-02 3.707479685544967651e-02
-7.572499513626098633e-01 6.064775586128234863e-02 1.435730606317520142e-01
4.797461330890655518e-01 -8.438572287559509277e-02 5.613182857632637024e-02
-6.817588210105895996e-01 2.398139610886573792e-02 3.868043422698974609e-02
-6.472166627645492554e-02 -4.003337770700454712e-02 -4.027899205684661865e-01
3.385372459888458252e-02 -4.156005010008811951e-02 8.392771333456039429e-02
-1.135223954916000366e-01 3.106197342276573181e-02 8.850771933794021606e-02
1.250853091478347778e-01 -1.491111963987350464e-01 1.344920098781585693e-01
-3.195093944668769836e-02 -3.645360469818115234e-02 -4.940478205680847168e-01
9.923724085092544556e-02 -4.632430523633956909e-02 -3.847594261169433594e-01
5.164124965667724609e-01 -2.261508489027619362e-03 -9.550844132900238037e-02
2.280564457178115845e-01 -3.368981182575225830e-02 -1.837919503450393677e-01
3.511717543005943298e-02 1.208391506224870682e-02 -1.045631617307662964e-01
2.715927958488464355e-01 -8.741272985935211182e-02 5.255205556750297546e-02
2.375586330890655518e-01 -8.986067771911621094e-02 -3.108476102352142334e-01
1.061151828616857529e-02 -7.177755236625671387e-02 1.272271871566772461e-01
-5.041125416755676270e-01 -4.037556424736976624e-02 4.141790792346000671e-02
1.097396686673164368e-01 1.516161113977432251e-01 -4.268045350909233093e-02
1.471430361270904541e-01 -1.067329794168472290e-01 1.825466565787792206e-02
6.973042339086532593e-02 1.508527845144271851e-01 5.304307676851749420e-03
1.123718544840812683e-01 -4.013866931200027466e-02 2.197748869657516479e-01
1.431684345006942749e-01 -1.300082262605428696e-02 -4.418079927563667297e-02
7.357341796159744263e-02 -1.207099035382270813e-01 5.768572688102722168e-01
2.318730950355529785e-01 -5.464201420545578003e-02 2.599420249462127686e-01
7.228364795446395874e-02 -1.562970578670501709e-01 1.259900629520416260e-01
-9.486018866300582886e-02 1.515897959470748901e-01 2.778317965567111969e-02
1.219003647565841675e-01 -1.022846028208732605e-01 -1.515477001667022705e-01
1.203737035393714905e-01 -4.521878436207771301e-02 3.753634095191955566e-01
-4.050554335117340088e-02 -3.869096189737319946e-02 4.619886279106140137e-01
-3.147794008255004883e-01 8.925287052989006042e-03 7.703138142824172974e-02
-2.781656682491302490e-01 1.470097899436950684e-01 1.064764615148305893e-02
4.134150445461273193e-01 -7.131047546863555908e-03 8.469105511903762817e-02
-3.063484281301498413e-02 -4.679810628294944763e-02 5.700399279594421387e-01
1.669186912477016449e-02 -9.351940453052520752e-02 -1.754307188093662262e-02
3.118389248847961426e-01 8.607467263936996460e-02 9.174531698226928711e-02
1.673319041728973389e-01 -3.379509598016738892e-02 2.236705124378204346e-01
5.751628875732421875e-01 -1.115235760807991028e-01 -2.486964222043752670e-03
5.478755105286836624e-03 -1.053642481565475464e-01 5.939664840698242188e-01
-2.362086176872253418e-01 -1.300082262605428696e-02 -1.238398626446723938e-02
3.973850309848785400e-01 -7.796319574117660522e-02 8.903415501117706299e-02
-1.323425322771072388e-01 -1.997611857950687408e-02 6.532696485519409180e-01
9.821862913668155670e-03 -1.080227568745613098e-01 -5.953869819641113281e-01
2.897022366523742676e-01 -9.344045072793960571e-02 -1.028785631060600281e-01
7.070434093475341797e-02 -5.551064014434814453e-02 -5.862533450126647949e-01
5.812959074974060059e-01 1.409820914268493652e-01 -6.134265288710594177e-02
7.362263798713684082e-01 -2.476670220494270325e-02 6.768713146448135376e-02
2.693107537925243378e-02 -1.101284995675086975e-01 -6.117328405380249023e-01
-3.338890373706817627e-01 8.228432387113571167e-02 -9.140222519636154175e-02
3.514533638954162598e-01 -1.031532064080238342e-01 -8.405841886997222900e-02
-5.021910667419433594e-01 -2.287152223289012909e-02 -6.997623294591903687e-02
-7.068838458508253098e-04 -5.256258696317672729e-02 -2.645211219787597656e-01
-8.052083849906921387e-01 2.517444789409637451e-01 -1.520042587071657181e-02
4.271813631057739258e-01 -1.067856326699256897e-01 5.905356258153915405e-02
2.495087534189224243e-01 -9.883642196655273438e-02 -5.057701095938682556e-02
-1.789322346448898315e-01 1.432457715272903442e-01 -4.744470864534378052e-02
9.302527457475662231e-02 -3.211050480604171753e-02 -3.183756768703460693e-01
-6.728357076644897461e-01 1.649876236915588379e-01 4.462008830159902573e-03
9.508022665977478027e-01 1.134014688432216644e-03 -1.933295838534832001e-02
-8.288717269897460938e-01 4.922406375408172607e-02 -7.805703580379486084e-02
-2.689267098903656006e-01 1.403766721487045288e-01 -6.447495520114898682e-02
-2.029035054147243500e-02 -1.072331070899963379e-01 -5.691967010498046875e-01
-2.412624061107635498e-01 -6.519708037376403809e-02 6.550241261720657349e-02
-3.396272063255310059e-01 1.394027769565582275e-01 2.115007117390632629e-02
4.617419540882110596e-01 -9.159792214632034302e-02 -8.055761456489562988e-02
-2.300150506198406219e-02 -6.059075519442558289e-02 -5.855426192283630371e-01
2.329259812831878662e-01 -8.259584009647369385e-02 5.771113559603691101e-02
-6.088735461235046387e-01 1.201351657509803772e-01 5.988676100969314575e-03
8.489182591438293457e-02 -9.093986451625823975e-02 -1.747635751962661743e-01
4.554063826799392700e-02 -7.072468101978302002e-02 -1.923728883266448975e-01
2.941769659519195557e-01 4.108384717255830765e-03 -1.025627031922340393e-01
-8.872535824775695801e-01 7.115017622709274292e-02 -2.801299989223480225e-01
-5.741550326347351074e-01 4.030095040798187256e-02 -6.837059557437896729e-02
-2.846145331859588623e-01 1.183189600706100464e-01 6.065918877720832825e-02
-4.992876946926116943e-02 -4.977247491478919983e-02 -4.145294427871704102e-01
3.583233654499053955e-01 -1.300082262605428696e-02 -4.744470864534378052e-02
-7.193464040756225586e-01 4.940831661224365234e-02 2.791478857398033142e-02
8.374160155653953552e-03 -1.054432243108749390e-01 -5.690124630928039551e-01
-1.047308892011642456e-01 -4.177062585949897766e-02 4.177679419517517090e-01
-2.055357024073600769e-02 -5.830075964331626892e-02 -5.939919352531433105e-01
-7.589082121849060059e-01 5.496222898364067078e-02 8.858668804168701172e-02
-9.833467751741409302e-02 -1.078911423683166504e-01 -3.017756715416908264e-02
-8.000229001045227051e-01 6.499085575342178345e-02 -2.669953703880310059e-01
-8.197380304336547852e-01 1.569000631570816040e-02 -1.855239272117614746e-03
2.201335579156875610e-01 1.220829859375953674e-01 -8.500601351261138916e-02
1.076865568757057190e-01 6.296407431364059448e-02 -1.103802919387817383e-01
1.423524618148803711e-01 -4.271821677684783936e-02 8.479633927345275879e-02
-6.432498693466186523e-01 8.915433287620544434e-02 9.226265363395214081e-03
1.219003647565841675e-01 -1.022846028208732605e-01 -1.515477001667022705e-01
5.129116773605346680e-01 4.980314150452613831e-02 9.632530808448791504e-02
4.835628271102905273e-01 1.175556257367134094e-01 6.713436543941497803e-02
-8.527719378471374512e-01 6.162166222929954529e-02 -1.848448514938354492e-01
9.157757461071014404e-02 -3.155773878097534180e-02 3.136649727821350098e-01
2.262139022350311279e-01 -8.728112280368804932e-02 3.397499322891235352e-01
5.434187054634094238e-01 -3.314381232485175133e-03 -5.636782199144363403e-02
1.565399467945098877e-01 1.238991990685462952e-01 6.076448038220405579e-02
3.043188154697418213e-02 -4.814051836729049683e-02 -5.993353128433227539e-01
-7.918632030487060547e-01 2.024173140525817871e-01 -1.580582745373249054e-02
-2.550813853740692139e-01 3.564198315143585205e-02 -1.028259173035621643e-01
5.101558193564414978e-02 1.096064224839210510e-01 7.979518920183181763e-02
7.736376672983169556e-02 -9.496711194515228271e-02 4.202330857515335083e-02
4.245491921901702881e-01 2.974588237702846527e-02 -1.032997146248817444e-01
3.388978242874145508e-01 -9.212435036897659302e-02 -9.708774834871292114e-02
-7.498008608818054199e-01 2.211584746837615967e-01 2.198327565565705299e-03
3.131813406944274902e-01 -1.166826412081718445e-01 7.752241101115942001e-03
3.718528151512145996e-01 -7.190915942192077637e-02 -1.320431828498840332e-01
-1.202081516385078430e-01 1.945403590798377991e-02 -1.009307429194450378e-01
2.024532109498977661e-02 1.102907881140708923e-01 7.942668348550796509e-02
-3.376267552375793457e-01 2.466576173901557922e-02 -9.332372248172760010e-02
-8.577731251716613770e-01 6.349051743745803833e-02 -9.857086464762687683e-03
3.240522742271423340e-01 -7.454135268926620483e-02 -7.918888330459594727e-02
-1.374752819538116455e-01 -2.484566718339920044e-02 -5.908069610595703125e-01
-5.665480494499206543e-01 4.756578430533409119e-02 5.299952626228332520e-02
-7.454840540885925293e-01 3.682646527886390686e-02 1.306925807148218155e-02
5.434187054634094238e-01 -1.157944370061159134e-02 -4.436505213379859924e-02
1.078971400856971741e-01 -9.275607019662857056e-02 4.565572738647460938e-02
7.117813080549240112e-02 -7.764733582735061646e-02 -5.865954756736755371e-01
-1.952254772186279297e-01 -1.054958552122116089e-01 1.851788349449634552e-02
-7.457472681999206543e-01 6.272718310356140137e-02 -1.872401386499404907e-01
2.121922932565212250e-02 -1.300082262605428696e-02 -3.849527612328529358e-02
7.686365395784378052e-02 -1.632986664772033691e-01 -1.586809158325195312e-01
-5.977315083146095276e-02 5.477797985076904297e-02 9.672014415264129639e-02
-4.266394302248954773e-02 -3.000474721193313599e-02 4.392202496528625488e-01
5.103321671485900879e-01 1.329012662172317505e-01 -7.421404868364334106e-02
-8.197380304336547852e-01 1.569000631570816040e-02 -1.855239272117614746e-03
-7.150559425354003906e-01 4.174865037202835083e-02 -9.171809256076812744e-02
-3.751617372035980225e-01 7.741478085517883301e-02 -7.189771533012390137e-02
4.306637495756149292e-02 -1.505589038133621216e-01 2.773053571581840515e-02
-4.786856472492218018e-01 -2.195026166737079620e-02 -7.553013414144515991e-02
1.995578035712242126e-02 -8.214836567640304565e-02 -1.600496470928192139e-01
-7.355343699455261230e-01 1.374286264181137085e-01 4.172467160969972610e-03
-1.412919610738754272e-01 -1.026334799826145172e-02 6.800653338432312012e-01
-2.777182161808013916e-01 -2.050932031124830246e-03 8.071209788322448730e-01
5.387597680091857910e-01 -6.835570931434631348e-02 6.789770722389221191e-02
-8.769617080688476562e-01 6.888649612665176392e-02 2.776829898357391357e-01
1.987075656652450562e-01 -3.563762828707695007e-02 -1.835287511348724365e-01
9.397286176681518555e-02 -3.842775151133537292e-02 2.536247968673706055e-01
-1.290786117315292358e-01 -1.034690663218498230e-01 -4.202240705490112305e-02
-3.205622732639312744e-02 -9.375631064176559448e-02 -6.093901991844177246e-01
5.434187054634094238e-01 6.601741164922714233e-02 -2.217571809887886047e-02
2.710663676261901855e-01 8.002064377069473267e-02 8.734955638647079468e-02
3.683783411979675293e-01 1.050264090299606323e-01 7.618908584117889404e-02
2.335840314626693726e-01 -1.336075961589813232e-01 -3.212447464466094971e-01
-6.153671815991401672e-02 -1.300082262605428696e-02 -5.828931927680969238e-02
1.809139698743820190e-01 -3.103130124509334564e-02 2.673911154270172119e-01
-6.613593697547912598e-01 3.943232819437980652e-02 -7.637244462966918945e-02
2.763570547103881836e-01 -9.322988241910934448e-02 -5.997392162680625916e-02
-1.936908625066280365e-02 -3.240004554390907288e-02 -4.156349599361419678e-01
1.842911355197429657e-02 -1.300082262605428696e-02 1.857052743434906006e-02
3.391610383987426758e-01 1.197140142321586609e-01 -8.740130066871643066e-02
-2.570818662643432617e-01 -8.462262898683547974e-02 4.715606942772865295e-02
-5.864131078124046326e-02 -9.549355506896972656e-02 4.118101298809051514e-02
2.252926379442214966e-01 9.047041833400726318e-02 -9.856177866458892822e-02
5.426110699772834778e-03 -9.362469613552093506e-02 -5.928955227136611938e-02
8.487787246704101562e-01 5.893683433532714844e-02 -2.565020695328712463e-02
-1.012827306985855103e-01 -3.845406696200370789e-02 5.740145444869995117e-01
9.152492880821228027e-02 4.740114323794841766e-03 8.769173920154571533e-02
-2.055357024073600769e-02 -5.830075964331626892e-02 -5.939919352531433105e-01
2.683025896549224854e-01 -3.363716602325439453e-02 -1.495998650789260864e-01
2.144217193126678467e-01 -5.561592429876327515e-02 3.276681900024414062e-01
-1.094608847051858902e-02 -7.080363482236862183e-02 1.542070955038070679e-01
-1.952254772186279297e-01 -1.054958552122116089e-01 1.851788349449634552e-02
-8.182292804121971130e-03 -4.519246891140937805e-02 5.828323364257812500e-01
-3.311515748500823975e-01 5.659418553113937378e-02 -1.081429347395896912e-01
3.423722982406616211e-01 -1.300082262605428696e-02 2.751086605712771416e-03
-2.711903750896453857e-01 -1.037849485874176025e-01 -1.067306473851203918e-02
3.080038912594318390e-02 -1.056537851691246033e-01 -5.565713718533515930e-02
-1.394494324922561646e-01 1.265313774347305298e-01 -8.058393746614456177e-02
-9.430743753910064697e-02 -1.858105696737766266e-02 -5.776987075805664062e-01
-3.002944029867649078e-02 6.199016794562339783e-02 9.558829665184020996e-02
7.017789781093597412e-02 -8.220100402832031250e-02 -2.492018043994903564e-01
-2.207229379564523697e-03 -8.588606864213943481e-02 6.062850952148437500e-01
-2.946431636810302734e-01 1.082046609371900558e-02 -1.037471890449523926e-01
-5.587750673294067383e-02 -1.127606928348541260e-01 -3.446803241968154907e-02
-7.770702838897705078e-01 5.217210948467254639e-02 -1.707100123167037964e-01
-8.769617080688476562e-01 6.888649612665176392e-02 2.776829898357391357e-01
1.685163825750350952e-01 -4.635063558816909790e-02 -1.148286908864974976e-01
9.191975742578506470e-02 -6.764501333236694336e-02 2.404638528823852539e-01
2.326627671718597412e-01 -1.300082262605428696e-02 -1.459502242505550385e-02
-1.080737635493278503e-01 -4.964086413383483887e-02 -5.203959941864013672e-01
-1.741416603326797485e-01 1.481942832469940186e-01 2.199237048625946045e-02
-8.653011322021484375e-01 2.726703882217407227e-01 -1.177858188748359680e-02
-8.497712612152099609e-01 1.628555655479431152e-01 -4.645357374101877213e-03
2.372954189777374268e-01 -3.187360987067222595e-02 -2.321452349424362183e-01
-3.916312754154205322e-02 -2.942567504942417145e-02 5.847275257110595703e-01
1.684980094432830811e-02 -8.312226831912994385e-02 4.439227655529975891e-02
-1.347378194332122803e-01 1.575385332107543945e-01 -3.066045464947819710e-03
-5.877291411161422729e-02 1.393238008022308350e-01 -6.681760400533676147e-02
-8.741110563278198242e-02 -1.947600953280925751e-02 -5.648009777069091797e-01
2.307939082384109497e-01 -3.955958783626556396e-02 -8.076819032430648804e-02
-1.643499135971069336e-01 -2.971520647406578064e-02 5.355582833290100098e-01
2.271878272294998169e-01 -2.816222421824932098e-02 -9.711407124996185303e-02
-2.147299796342849731e-01 -1.012053936719894409e-01 2.636180073022842407e-02
8.173319697380065918e-02 -8.401720970869064331e-02 9.632530808448791504e-02
2.902550101280212402e-01 1.135547012090682983e-01 7.110897451639175415e-02
-1.202081516385078430e-01 1.945403590798377991e-02 -1.009307429194450378e-01
-2.723222076892852783e-01 -8.262215554714202881e-02 4.776147380471229553e-02
2.712506353855133057e-01 -1.051273643970489502e-01 3.559115231037139893e-01
-3.166139498353004456e-02 -1.106549501419067383e-01 -6.329046934843063354e-02
2.467712908983230591e-01 -4.729821160435676575e-02 7.755783200263977051e-02
1.255933661013841629e-02 -1.105496585369110107e-01 -2.880883030593395233e-02
1.902582347393035889e-01 -3.234739601612091064e-02 -2.342246621847152710e-01
-3.376004397869110107e-01 1.298742592334747314e-01 3.902261704206466675e-02
-1.265700999647378922e-02 -2.063416503369808197e-02 -5.197643041610717773e-01
4.252072274684906006e-01 -8.206939697265625000e-02 -7.321381568908691406e-02
7.478422671556472778e-02 -1.167879402637481689e-01 1.430638507008552551e-02
5.434187054634094238e-01 4.151175543665885925e-02 8.719162642955780029e-02
4.835707321763038635e-02 -1.168142557144165039e-01 -2.817710489034652710e-02
1.078971400856971741e-01 -9.275607019662857056e-02 4.565572738647460938e-02
3.511717543005943298e-02 1.208391506224870682e-02 -1.045631617307662964e-01
2.467712908983230591e-01 -4.729821160435676575e-02 7.755783200263977051e-02
2.239765524864196777e-01 -7.888446003198623657e-02 -3.344846367835998535e-01
-7.379033565521240234e-01 7.715155929327011108e-02 1.578041166067123413e-02
6.967778503894805908e-02 -1.531910747289657593e-01 -1.391764134168624878e-01
-3.611848056316375732e-01 1.203126925975084305e-02 8.100599050521850586e-02
7.039031386375427246e-01 -6.201214343309402466e-02 -7.505634427070617676e-02
1.469587832689285278e-01 -5.140443146228790283e-02 9.361416101455688477e-02
7.236261665821075439e-02 -4.448177292943000793e-02 -2.432530522346496582e-01
-8.298902958631515503e-02 -8.954481780529022217e-02 -7.042369991540908813e-02
-3.751617372035980225e-01 4.835544154047966003e-02 7.150379568338394165e-02
2.711716592311859131e-01 -8.667571842670440674e-02 -3.587007820606231689e-01
-3.396272063255310059e-01 1.394027769565582275e-01 2.115007117390632629e-02
-2.520017325878143311e-01 -2.260830998420715332e-02 -1.025627031922340393e-01
-6.918137669563293457e-01 3.543140366673469543e-02 2.759892679750919342e-02
-6.475141048431396484e-01 1.962316632270812988e-01 -1.269984804093837738e-02
-1.434503644704818726e-01 -3.776970133185386658e-02 5.805949568748474121e-01
-3.052508533000946045e-01 1.417191028594970703e-01 4.739296436309814453e-02
-6.971044540405273438e-01 1.846237331628799438e-01 -1.817479543387889862e-02
2.161405794322490692e-02 -1.021003350615501404e-01 2.952042408287525177e-02
-5.619153380393981934e-01 -9.736911393702030182e-03 4.894595593214035034e-02
2.883861660957336426e-01 1.120806783437728882e-01 -8.755923062562942505e-02
2.620116472244262695e-01 -1.217890977859497070e-01 2.883959710597991943e-01
3.511717543005943298e-02 1.208391506224870682e-02 -1.045631617307662964e-01
-3.935870230197906494e-01 1.293215006589889526e-01 3.870675340294837952e-02
-6.695902347564697266e-02 -3.829613700509071350e-02 -4.759646952152252197e-01
-2.510804533958435059e-01 -1.444853097200393677e-02 6.891726851463317871e-01
-4.099855422973632812e-01 -3.055751137435436249e-02 -8.113669604063034058e-02
9.655240923166275024e-02 -1.059433296322822571e-01 5.951246619224548340e-01
3.006337583065032959e-02 -5.161499604582786560e-02 5.924924612045288086e-01
1.271726749837398529e-02 -2.266094647347927094e-02 5.244504213333129883e-01
1.122402399778366089e-01 -5.103592574596405029e-02 -3.336949944496154785e-01
-1.012827306985855103e-01 -3.845406696200370789e-02 5.740145444869995117e-01
5.338454619050025940e-02 -6.914535909891128540e-02 1.658940166234970093e-01
-9.828203171491622925e-02 -5.551064014434814453e-02 7.447816431522369385e-02
4.920647442340850830e-01 -1.116025298833847046e-01 -1.633226685225963593e-02
6.690003275871276855e-01 9.791951626539230347e-02 -5.305127054452896118e-02
-1.712725758552551270e-01 -2.481934800744056702e-02 5.678815245628356934e-01
1.502753347158432007e-01 -3.547969833016395569e-02 2.228808552026748657e-01
4.015965163707733154e-01 4.622337222099304199e-02 -1.108014434576034546e-01
-8.629764430224895477e-03 -1.496902704238891602e-01 4.684020951390266418e-02
-1.226034387946128845e-01 -2.587222121655941010e-02 5.924398303031921387e-01
1.892580091953277588e-01 -3.071544133126735687e-02 -2.798667848110198975e-01
-4.919255077838897705e-01 1.096064224839210510e-01 1.462224777787923813e-02
-2.279698848724365234e-01 -1.300082262605428696e-02 1.899167895317077637e-02
5.210714340209960938e-01 1.385604739189147949e-01 -5.663104355335235596e-02
8.502342551946640015e-02 -2.589854039251804352e-02 -4.437730610370635986e-01
-7.762805819511413574e-01 4.209084063768386841e-02 4.955136775970458984e-02
1.425103843212127686e-01 -2.847808413207530975e-02 -3.656497597694396973e-01
1.892580091953277588e-01 -3.071544133126735687e-02 -2.798667848110198975e-01
5.293707549571990967e-02 -2.397704310715198517e-02 -4.784389138221740723e-01
-5.390337482094764709e-02 -1.850209198892116547e-02 -6.223142743110656738e-01
-3.751617372035980225e-01 6.380636990070343018e-02 -1.330525055527687073e-02
1.978652477264404297e-01 -7.756835967302322388e-02 3.254308402538299561e-01
-6.989995837211608887e-01 5.022429674863815308e-02 1.402565091848373413e-01
5.083132907748222351e-02 -1.559548825025558472e-01 2.128168009221553802e-02
8.194377273321151733e-02 1.545904874801635742e-01 1.546454895287752151e-02
5.046282336115837097e-02 -1.300082262605428696e-02 9.410519152879714966e-03
7.201700210571289062e-01 -7.190915942192077637e-02 5.078848823904991150e-02
-2.926163673400878906e-01 1.424297839403152466e-01 2.457191236317157745e-02
-1.825909763574600220e-01 -1.134254876524209976e-02 6.749852299690246582e-01
3.131813406944274902e-01 -1.166826412081718445e-01 7.752241101115942001e-03
-1.895925849676132202e-01 -1.987083442509174347e-02 6.524799466133117676e-01
-2.636096775531768799e-01 -1.000013481825590134e-02 -7.658736705780029297e-01
-8.454018831253051758e-01 6.264821439981460571e-02 1.760805696249008179e-01
-1.865839585661888123e-02 -2.276623994112014771e-02 -4.922052919864654541e-01
8.978769183158874512e-02 -1.664572954177856445e-01 -1.639716178178787231e-01
4.500550627708435059e-01 -9.844160825014114380e-02 3.620617836713790894e-02
-1.080737635493278503e-01 -4.964086413383483887e-02 -5.203959941864013672e-01
3.098121583461761475e-01 1.557486504316329956e-01 8.199712261557579041e-03
4.283658564090728760e-01 1.541167050600051880e-01 -3.341515734791755676e-02
1.877050250768661499e-01 -3.929637372493743896e-02 -1.509949266910552979e-01
2.140348404645919800e-02 -8.120077103376388550e-02 1.666310280561447144e-01
-5.628892779350280762e-01 -4.298142716288566589e-02 -5.461335182189941406e-03
-8.419190533459186554e-03 -1.033901125192642212e-01 5.925450921058654785e-01
-8.041028380393981934e-01 6.264821439981460571e-02 1.649464219808578491e-01
6.646651774644851685e-02 -6.975076347589492798e-02 6.002573966979980469e-01
-2.864044010639190674e-01 -5.685305222868919373e-02 6.773977726697921753e-02
6.646651774644851685e-02 -1.185251846909523010e-01 5.596427917480468750e-01
1.703852415084838867e-01 1.428772509098052979e-01 4.483974725008010864e-02
-2.339975833892822266e-01 1.412716209888458252e-01 -6.294828653335571289e-02
3.950423896312713623e-01 1.491418629884719849e-01 1.606995053589344025e-02
-3.916312754154205322e-02 -2.942567504942417145e-02 5.847275257110595703e-01
-2.689267098903656006e-01 1.403766721487045288e-01 -6.447495520114898682e-02
-3.751617372035980225e-01 9.012824296951293945e-02 -6.655438244342803955e-02
6.238057017326354980e-01 6.288511306047439575e-02 -9.956200420856475830e-02
-4.786856472492218018e-01 -2.195026166737079620e-02 -7.553013414144515991e-02
-2.197311222553253174e-01 -7.499554194509983063e-03 -8.065146803855895996e-01
3.052321374416351318e-01 -3.524957923218607903e-03 8.013736456632614136e-02
-1.774055659770965576e-01 -1.723864302039146423e-02 -6.372124552726745605e-01
4.177318215370178223e-01 3.243071213364601135e-02 8.869197964668273926e-02
3.582181036472320557e-01 -5.419454351067543030e-02 1.347025930881500244e-01
3.388714790344238281e-01 -1.040744855999946594e-01 -4.046941548585891724e-02
-5.619153380393981934e-01 -9.736911393702030182e-03 4.894595593214035034e-02
4.555036723613739014e-01 1.354544907808303833e-01 -6.273771077394485474e-02
-5.734969973564147949e-01 1.303743720054626465e-01 1.978659420274198055e-04
-7.446680665016174316e-01 5.859464779496192932e-02 -1.374128460884094238e-01
-1.094951480627059937e-01 7.596708089113235474e-02 -1.083271801471710205e-01
1.416680961847305298e-01 -5.050949007272720337e-02 1.087229102849960327e-01
3.016523718833923340e-01 -9.530930966138839722e-02 3.540953397750854492e-01
-6.119269132614135742e-01 4.193290323019027710e-02 -6.236920878291130066e-02
7.539146542549133301e-01 -1.560075134038925171e-01 -2.357077971100807190e-02
-9.041178971529006958e-02 -3.513751924037933350e-02 4.962597191333770752e-01
-5.116589739918708801e-02 -1.560668647289276123e-02 -9.811430424451828003e-02
7.915364950895309448e-02 -8.420147746801376343e-02 -1.071427017450332642e-01
-3.232813477516174316e-01 1.185821741819381714e-01 -8.619049936532974243e-02
1.026854068040847778e-01 -5.269419774413108826e-02 3.205612897872924805e-01
-1.952254772186279297e-01 -1.054958552122116089e-01 1.851788349449634552e-02
-4.966555535793304443e-02 -1.300082262605428696e-02 4.018077999353408813e-02
7.220468670129776001e-02 -1.159193143248558044e-01 3.175777941942214966e-02
-6.500672698020935059e-01 2.064445763826370239e-01 -8.462027646601200104e-03
-1.789322346448898315e-01 1.432457715272903442e-01 -4.744470864534378052e-02
3.583233654499053955e-01 -1.300082262605428696e-02 -4.744470864534378052e-02
1.973125040531158447e-01 -3.005739487707614899e-02 -9.677188843488693237e-02
3.466627895832061768e-01 1.284528821706771851e-01 -7.863611727952957153e-02
1.685163825750350952e-01 -4.635063558816909790e-02 -1.148286908864974976e-01
-2.471058815717697144e-01 -6.825042515993118286e-02 5.278895050287246704e-02
-2.137823849916458130e-01 -1.081017330288887024e-01 -2.267583645880222321e-02
-4.064057767391204834e-01 9.299731999635696411e-02 -8.366359770298004150e-02
3.084960579872131348e-01 6.077936291694641113e-02 -1.107224822044372559e-01
3.905939757823944092e-01 -9.791516512632369995e-02 3.718008473515510559e-02
-1.155149284750223160e-02 -1.300082262605428696e-02 7.729460299015045166e-02
-1.825909763574600220e-01 -1.134254876524209976e-02 6.749852299690246582e-01
1.685163825750350952e-01 -4.635063558816909790e-02 -1.148286908864974976e-01
1.061151828616857529e-02 -7.177755236625671387e-02 1.272271871566772461e-01
-5.429636240005493164e-01 9.528732299804687500e-02 -2.180721238255500793e-02
2.464554309844970703e-01 -1.166826412081718445e-01 8.778794668614864349e-03
-8.878327012062072754e-01 6.954453885555267334e-02 2.641008794307708740e-01
-7.443259358406066895e-01 8.525869250297546387e-02 -2.088594809174537659e-02
2.245556265115737915e-01 -3.824349120259284973e-02 9.972083568572998047e-02
5.075156688690185547e-01 1.504053175449371338e-01 8.041781373322010040e-03
-8.272134661674499512e-01 6.277982145547866821e-02 -2.534922659397125244e-01
4.098879098892211914e-01 1.406925469636917114e-01 3.752227127552032471e-02
5.767158865928649902e-01 7.596708089113235474e-02 -1.057739630341529846e-01
-6.106371283531188965e-01 1.369548290967941284e-01 -1.843801513314247131e-02
2.485164813697338104e-02 -3.490061312913894653e-02 -3.566739857196807861e-01
4.008858203887939453e-01 8.902272582054138184e-02 9.027128666639328003e-02
2.652755379676818848e-01 -6.090662628412246704e-02 3.248254656791687012e-01
2.104207873344421387e-01 -7.067204266786575317e-02 3.169288635253906250e-01
-4.142497181892395020e-01 1.093168780207633972e-01 5.465780198574066162e-02
-3.751617372035980225e-01 6.651753187179565430e-02 4.162848368287086487e-02
-3.387243673205375671e-02 -6.335455924272537231e-02 2.396742105484008789e-01
-9.208844974637031555e-03 -1.128923073410987854e-01 -6.242185458540916443e-02
-5.069210752844810486e-02 -3.116291388869285583e-02 5.694871544837951660e-01
1.469140779227018356e-02 -9.141365438699722290e-02 -6.239725351333618164e-01
5.051546916365623474e-02 -8.528067171573638916e-02 -1.807123124599456787e-01
2.287407964468002319e-01 -1.037059724330902100e-01 3.517526686191558838e-01
3.138130605220794678e-01 -7.914768159389495850e-02 -1.364126205444335938e-01
5.551582574844360352e-01 -3.437417745590209961e-02 -9.600854665040969849e-02
-4.605945572257041931e-02 -7.743675261735916138e-02 -7.687254995107650757e-02
-6.474798172712326050e-02 -5.848500877618789673e-02 -8.624314516782760620e-02
1.251379549503326416e-01 -7.448869943618774414e-02 1.566550284624099731e-01
-3.491820693016052246e-01 1.421665698289871216e-01 1.040165894664824009e-03
8.110941387712955475e-03 -5.464201420545578003e-02 -2.678113579750061035e-01
6.915134936571121216e-02 -1.017844751477241516e-01 3.012582845985889435e-02
-6.500672698020935059e-01 2.064445763826370239e-01 -8.462027646601200104e-03
1.884157210588455200e-01 -1.079438030719757080e-01 -3.531468808650970459e-01
5.271254777908325195e-01 1.573806107044219971e-01 -2.065814565867185593e-03
4.164499789476394653e-02 1.315062046051025391e-01 5.315745621919631958e-02
-6.153671815991401672e-02 -1.300082262605428696e-02 -5.828931927680969238e-02
-3.637301176786422729e-02 -8.370134979486465454e-02 2.372789233922958374e-01
8.284056186676025391e-01 -1.013106852769851685e-01 2.038673684000968933e-02
2.395327687263488770e-01 1.165027469396591187e-01 -8.313716202974319458e-02
-3.984039127826690674e-01 1.257943660020828247e-01 -5.702586844563484192e-02
3.170243501663208008e-01 5.512015894055366516e-02 -1.062740832567214966e-01
2.333997786045074463e-01 -9.172951430082321167e-02 -1.028785631060600281e-01
-6.453740596771240234e-02 -2.442451380193233490e-02 6.024158000946044922e-01
5.651685222983360291e-02 -1.300082262605428696e-02 4.449756070971488953e-02
1.838883459568023682e-01 9.581375867128372192e-02 -9.585061669349670410e-02
-9.833467751741409302e-02 -1.078911423683166504e-01 -3.017756715416908264e-02
-1.530051976442337036e-01 -9.657946415245532990e-03 7.858437299728393555e-02
-1.755367219448089600e-01 -2.724095433950424194e-02 -5.708023309707641602e-01
1.896791607141494751e-01 7.478259503841400146e-02 8.819185942411422729e-02
-1.464773714542388916e-01 7.670409232378005981e-02 8.787599951028823853e-02
8.997193723917007446e-02 8.665375411510467529e-02 -1.005095914006233215e-01
-8.095514178276062012e-01 2.387610822916030884e-02 1.609627343714237213e-02
3.769855797290802002e-01 -4.148108512163162231e-02 -9.440292418003082275e-02
-5.681714974343776703e-03 -1.413988918066024780e-01 -5.452528968453407288e-02
2.554311752319335938e-01 -9.143997728824615479e-02 -1.106435135006904602e-01
-1.412919610738754272e-01 -1.026334799826145172e-02 6.800653338432312012e-01
-2.125979065895080566e-01 -1.048378199338912964e-01 1.725443452596664429e-02
3.641668260097503662e-01 -3.153141960501670837e-02 -9.650866687297821045e-02
1.713328212499618530e-01 -8.317492157220840454e-02 -1.308060586452484131e-01
8.374160155653953552e-03 -1.054432243108749390e-01 -5.690124630928039551e-01
1.783607602119445801e-01 -6.340719759464263916e-02 -8.597992360591888428e-02
5.577983707189559937e-02 1.576964706182479858e-01 -4.066276364028453827e-03
7.400956749916076660e-01 8.949651569128036499e-02 -4.415448009967803955e-02
2.297936677932739258e-01 -1.043640300631523132e-01 -3.054516315460205078e-01
-6.474798172712326050e-02 -5.848500877618789673e-02 -8.624314516782760620e-02
-7.117130756378173828e-01 4.459141567349433899e-02 2.954674512147903442e-02
1.077918410301208496e-01 -4.966718330979347229e-02 -1.660773456096649170e-01
2.201335579156875610e-01 1.220829859375953674e-01 -8.500601351261138916e-02
-8.865692615509033203e-01 3.514517247676849365e-01 -3.724091919139027596e-03
-3.898493051528930664e-01 -8.064802736043930054e-02 -1.346318237483501434e-02
5.343719199299812317e-02 -4.908809810876846313e-02 -2.321978658437728882e-01
-1.069156080484390259e-01 3.303611651062965393e-02 9.411428123712539673e-02
-2.689267098903656006e-01 -7.657484151422977448e-03 7.506342530250549316e-01
2.294251769781112671e-01 -1.300082262605428696e-02 4.465550184249877930e-02
5.525261163711547852e-01 1.421665698289871216e-01 -6.071093305945396423e-02
-2.723222076892852783e-01 -8.262215554714202881e-02 4.776147380471229553e-02
3.273688554763793945e-01 -1.376416441053152084e-02 -9.824591875076293945e-02
-4.048001468181610107e-01 8.375834673643112183e-02 7.434656471014022827e-02
2.803579866886138916e-01 -8.838664740324020386e-02 5.136757344007492065e-02
2.942822575569152832e-01 -1.118657514452934265e-01 -2.565929898992180824e-03
-6.119269132614135742e-01 4.193290323019027710e-02 -6.236920878291130066e-02
-1.515758782625198364e-02 -9.251918643712997437e-02 -1.684989780187606812e-01
1.747283488512039185e-01 -8.941320329904556274e-02 -3.345372974872589111e-01
1.557766050100326538e-01 3.769508376717567444e-02 8.937634527683258057e-02
-2.047460339963436127e-02 -3.984912857413291931e-02 -3.661235272884368896e-01
-1.377385109663009644e-01 -1.300082262605428696e-02 7.234609872102737427e-02
-9.143834561109542847e-02 1.167133226990699768e-01 7.542575895786285400e-02
-5.069026947021484375e-01 -2.824118919670581818e-02 5.092009902000427246e-02
-4.128725267946720123e-03 -1.429255455732345581e-01 -7.455623149871826172e-02
2.022873312234878540e-01 2.632404118776321411e-02 8.769173920154571533e-02
-8.257130980491638184e-01 5.906844139099121094e-02 1.408355832099914551e-01
6.974543333053588867e-01 8.741708844900131226e-02 3.894365206360816956e-02
7.236261665821075439e-02 -4.448177292943000793e-02 -2.432530522346496582e-01
4.005436301231384277e-01 1.568804979324340820e-01 -1.601640321314334869e-02
-2.347872406244277954e-01 4.101163893938064575e-02 8.982381969690322876e-02
5.791375041007995605e-01 4.964521154761314392e-02 -1.084851101040840149e-01
4.577673673629760742e-01 -1.146032139658927917e-01 -2.083330415189266205e-02
-7.313491702079772949e-01 5.743648484349250793e-02 -4.289102926850318909e-02
-8.287400603294372559e-01 4.822383448481559753e-02 -8.990187942981719971e-02
7.201700210571289062e-01 -7.190915942192077637e-02 5.078848823904991150e-02
-1.639024466276168823e-01 -2.368750050663948059e-02 -6.222616434097290039e-01
3.511717543005943298e-02 1.208391506224870682e-02 -1.045631617307662964e-01
-6.972281634807586670e-02 1.375602483749389648e-01 5.457883700728416443e-02
2.209495455026626587e-01 9.133904427289962769e-02 8.316437900066375732e-02
-1.225244700908660889e-01 -2.487198449671268463e-02 6.034160256385803223e-01
4.989874362945556641e-01 1.038419380784034729e-01 -9.769315272569656372e-02
-3.935870230197906494e-01 1.293215006589889526e-01 3.870675340294837952e-02
6.586558222770690918e-01 -9.112411737442016602e-02 -5.644678696990013123e-02
3.175244629383087158e-01 -6.409157067537307739e-02 1.689736694097518921e-01
2.777337469160556793e-02 -9.230860322713851929e-02 -6.176816225051879883e-01
-3.632036969065666199e-02 -1.300082262605428696e-02 7.397805899381637573e-02
5.212031006813049316e-01 -7.327789813280105591e-02 6.492333859205245972e-02
-1.686667054891586304e-01 6.804419308900833130e-02 9.461439400911331177e-02
-1.686667054891586304e-01 6.804419308900833130e-02 9.461439400911331177e-02
-5.602749995887279510e-03 -4.445545375347137451e-02 4.030539989471435547e-01
6.951985508203506470e-02 -5.477362498641014099e-02 3.103220760822296143e-01
2.647754549980163574e-01 -8.830767869949340820e-02 -3.659393191337585449e-01
1.723067313432693481e-01 -7.230399549007415771e-02 3.269575238227844238e-01
5.026987791061401367e-01 1.510633528232574463e-01 -1.888548582792282104e-02
8.150076866149902344e-01 8.704858273267745972e-02 -1.983307488262653351e-02
-7.483531236648559570e-01 4.527578130364418030e-02 1.007210686802864075e-01
-3.290195167064666748e-01 -8.975538611412048340e-02 2.549317851662635803e-02
-1.076789423823356628e-01 -1.881796121597290039e-02 -6.745104789733886719e-01
1.100818440318107605e-01 4.101163893938064575e-02 8.982381969690322876e-02
-2.636096775531768799e-01 -1.000013481825590134e-02 -7.658736705780029297e-01
-3.439176678657531738e-01 -1.300082262605428696e-02 6.076448038220405579e-02
1.076865568757057190e-01 6.296407431364059448e-02 -1.103802919387817383e-01
4.820708185434341431e-03 -6.338087469339370728e-02 2.393583506345748901e-01
1.892053633928298950e-01 -6.990869343280792236e-02 -1.963474899530410767e-01
4.942494928836822510e-01 1.543009430170059204e-01 -3.223067149519920349e-02
-7.117130756378173828e-01 4.459141567349433899e-02 2.954674512147903442e-02
-5.583356022834777832e-01 -4.311304166913032532e-02 5.567526910454034805e-03
-7.645147442817687988e-01 2.019172012805938721e-01 2.224649768322706223e-03
8.820836991071701050e-02 -7.464662939310073853e-02 6.400206685066223145e-02
-8.937287926673889160e-01 7.249259203672409058e-02 2.881327569484710693e-01
1.884157210588455200e-01 -1.079438030719757080e-01 -3.531468808650970459e-01
-2.450264543294906616e-01 -7.996364682912826538e-02 -1.222605444490909576e-02
4.108355045318603516e-01 -4.216545075178146362e-02 8.474369347095489502e-02
2.273194342851638794e-01 -1.357396841049194336e-01 -3.351953625679016113e-01
-7.335523515939712524e-02 -9.562516957521438599e-02 5.721456408500671387e-01
2.017082422971725464e-01 -4.427120834589004517e-02 6.479172408580780029e-02
1.394570469856262207e-01 -5.395764857530593872e-02 7.618908584117889404e-02
-6.819167137145996094e-01 3.451013937592506409e-02 -3.507343307137489319e-02
3.074958324432373047e-01 -1.048641353845596313e-01 3.007409274578094482e-01
-7.870988845825195312e-01 1.408767998218536377e-01 1.329706166870892048e-03
4.758768379688262939e-01 1.544851958751678467e-01 -3.117779828608036041e-02
1.592853479087352753e-02 -5.695833638310432434e-02 -2.430161535739898682e-01
-3.002944029867649078e-02 1.515634804964065552e-01 -1.580582745373249054e-02
-3.063827157020568848e-01 1.211023423820734024e-02 -1.040893644094467163e-01
-1.094608847051858902e-02 -7.080363482236862183e-02 1.542070955038070679e-01
8.970873057842254639e-02 -1.047062054276466370e-01 -8.063658326864242554e-02
-6.441975235939025879e-01 3.364152088761329651e-02 -3.091457858681678772e-02
2.669075131416320801e-01 -3.555866330862045288e-02 -9.577165544033050537e-02
5.478755105286836624e-03 -1.053642481565475464e-01 5.939664840698242188e-01
-7.888625264167785645e-01 4.051152616739273071e-02 -3.623159602284431458e-02
8.994482755661010742e-01 -1.944968104362487793e-02 3.341605886816978455e-02
5.210714340209960938e-01 1.385604739189147949e-01 -5.663104355335235596e-02
1.621807552874088287e-02 -5.327328294515609741e-02 5.808845162391662598e-01
-2.656364440917968750e-01 -1.300082262605428696e-02 5.881665647029876709e-02
1.783607602119445801e-01 -6.340719759464263916e-02 -8.597992360591888428e-02
8.394607305526733398e-01 -6.556558609008789062e-02 -4.678666219115257263e-02
4.299714863300323486e-01 4.651291295886039734e-02 -1.108540818095207214e-01
-3.020132780075073242e-01 1.611115783452987671e-02 -9.469246119260787964e-02
8.643349409103393555e-01 -3.642728924751281738e-02 -5.534126609563827515e-02
7.831583023071289062e-01 -5.937995389103889465e-02 -6.434334814548492432e-02
-1.055126171559095383e-02 -1.090756282210350037e-01 -5.882011055946350098e-01
-3.727138042449951172e-01 8.402157574892044067e-02 8.240105211734771729e-02
3.269740045070648193e-01 -1.159982904791831970e-01 3.456197082996368408e-01
-1.128827221691608429e-02 -6.806616485118865967e-02 1.848984062671661377e-01
6.962513923645019531e-02 1.542678754776716232e-02 -9.993050992488861084e-02
6.548128128051757812e-01 1.178188472986221313e-01 -5.112977325916290283e-02
4.403423070907592773e-01 7.694098353385925293e-02 9.319300949573516846e-02
-2.864044010639190674e-01 -5.685305222868919373e-02 6.773977726697921753e-02
3.043635487556457520e-01 -1.167616173624992371e-01 1.961430767551064491e-03
6.238057017326354980e-01 6.288511306047439575e-02 -9.956200420856475830e-02
-5.499125719070434570e-01 8.378466963768005371e-02 1.343776471912860870e-02
-2.450264543294906616e-01 -5.493155494332313538e-02 5.449987202882766724e-02
-8.020234107971191406e-01 5.009268224239349365e-02 -7.597760856151580811e-02
-2.289621531963348389e-02 -7.188284397125244141e-02 -2.361461520195007324e-01
