-2.324404008686542511e-02 -2.972026355564594269e-02 -4.525719881057739258e-01
-3.721081316471099854e-01 -3.777647763490676880e-02 -6.425782293081283569e-02
-2.831665873527526855e-01 5.155747756361961365e-02 -4.579085856676101685e-02
-3.002716302871704102e-01 -2.595761604607105255e-02 6.941994279623031616e-02
9.403623938560485840e-01 -6.240679323673248291e-02 -3.459525853395462036e-02
-6.068463921546936035e-01 1.166766285896301270e-01 -1.176546700298786163e-02
-3.543105721473693848e-01 4.133139550685882568e-02 1.097933426499366760e-01
-1.381085664033889771e-01 -2.412234432995319366e-03 7.315950095653533936e-02
3.010589778423309326e-01 -8.579058945178985596e-02 2.960054017603397369e-02
9.326292872428894043e-01 -8.656257996335625648e-04 2.369111217558383942e-02
-4.880575835704803467e-01 2.244892157614231110e-02 -1.143956407904624939e-01
1.539696156978607178e-01 -7.757279276847839355e-02 -6.001042202115058899e-02
4.933114722371101379e-02 -4.899515584111213684e-02 -7.279879599809646606e-02
4.639607667922973633e-01 -8.646001666784286499e-02 -3.104036487638950348e-02
-4.604956507682800293e-01 2.385702729225158691e-02 5.734715983271598816e-02
7.433080673217773438e-02 -9.285420179367065430e-02 -1.174657717347145081e-01
-3.216241002082824707e-01 4.420544020831584930e-03 -7.439156621694564819e-02
-1.036332827061414719e-02 -4.239321872591972351e-02 -2.929019927978515625e-01
8.068923354148864746e-01 -6.810846924781799316e-02 -5.308530852198600769e-02
-1.323838233947753906e-01 -2.960484288632869720e-02 5.649117827415466309e-01
-2.977785766124725342e-01 -6.776221841573715210e-02 4.065763577818870544e-02
-7.241234183311462402e-02 -4.183920472860336304e-02 -4.546264410018920898e-01
7.872805930674076080e-03 -6.060626730322837830e-02 7.782240957021713257e-02
-3.401371836662292480e-01 7.390251010656356812e-02 1.334310621023178101e-01
-8.693198114633560181e-02 -5.437366291880607605e-02 6.104055419564247131e-02
-6.159182786941528320e-01 1.123599782586097717e-01 8.640533313155174255e-03
8.797906637191772461e-01 -1.359745711088180542e-01 -5.417446605861186981e-03
7.449239492416381836e-02 -9.483941644430160522e-02 -4.424847196787595749e-03
-3.718660026788711548e-02 -8.888381719589233398e-02 1.865886151790618896e-02
5.802564620971679688e-01 -1.099937502294778824e-02 7.484461367130279541e-02
2.827880159020423889e-02 1.419662730768322945e-03 -7.679228484630584717e-02
3.860301375389099121e-01 6.983977556228637695e-02 2.500265603885054588e-03
-1.786553300917148590e-02 -7.053226232528686523e-02 -5.636319145560264587e-02
-3.022706601768732071e-03 -5.261930078268051147e-02 1.061461195349693298e-01
-7.859528660774230957e-01 1.988084763288497925e-01 -6.949782371520996094e-02
8.819836378097534180e-01 -7.406406849622726440e-02 3.271684050559997559e-02
5.053960084915161133e-01 -4.605185240507125854e-03 7.389818131923675537e-02
2.415261119604110718e-01 -5.437366291880607605e-02 -6.682011485099792480e-02
-4.206300675868988037e-01 4.562496766448020935e-02 -1.545612961053848267e-01
-6.810143589973449707e-01 2.055950760841369629e-01 -1.354713691398501396e-03
7.173736691474914551e-01 -4.913366585969924927e-02 -6.818205863237380981e-02
7.846279442310333252e-02 -3.856132179498672485e-02 2.886228263378143311e-01
-1.717184633016586304e-01 2.367235906422138214e-02 -6.274772286415100098e-01
7.025078535079956055e-01 6.083713099360466003e-02 3.537147119641304016e-02
-3.120673894882202148e-01 6.013320293277502060e-03 1.399637609720230103e-01
-6.159182786941528320e-01 1.123599782586097717e-01 8.640533313155174255e-03
-5.554620027542114258e-01 6.143730506300926208e-02 7.024673279374837875e-03
6.654815673828125000e-01 4.110056161880493164e-02 5.707015469670295715e-02
-4.353461414575576782e-02 -4.673295840620994568e-02 -4.221938252449035645e-01
-6.020680069923400879e-01 9.627062082290649414e-02 8.732867427170276642e-03
-3.297033607959747314e-01 1.249984279274940491e-02 6.791950017213821411e-02
-4.327259957790374756e-01 7.513761054724454880e-03 -1.254296600818634033e-01
-3.098513782024383545e-01 6.312241405248641968e-02 -1.769798062741756439e-02
-1.851301044225692749e-01 3.045896999537944794e-02 -6.649694591760635376e-02
5.821262598037719727e-01 -6.635411083698272705e-02 5.323825776576995850e-02
-7.016185671091079712e-03 -5.118811130523681641e-02 -3.938239812850952148e-01
1.981287449598312378e-01 2.743500284850597382e-02 -6.838981062173843384e-02
-4.191296696662902832e-01 2.464187331497669220e-02 -6.058751419186592102e-02
2.148044994100928307e-03 -5.441983416676521301e-02 2.415782660245895386e-01
2.210046947002410889e-01 6.649263948202133179e-02 1.351119577884674072e-02
1.011309921741485596e-01 -4.052343964576721191e-02 2.097688913345336914e-01
-7.158246040344238281e-01 1.898981481790542603e-01 8.225026540458202362e-03
4.605326056480407715e-02 -3.846898674964904785e-02 2.584986090660095215e-01
2.175421416759490967e-01 -3.768413886427879333e-02 -7.485324889421463013e-02
8.769052028656005859e-01 3.482178971171379089e-02 1.812793686985969543e-02
-4.311100840568542480e-01 2.143323980271816254e-02 -1.618788242340087891e-01
3.443640470504760742e-01 -8.904539793729782104e-02 1.822027005255222321e-02
3.468340039253234863e-01 3.027429990470409393e-02 -6.718945503234863281e-02
-9.258750081062316895e-02 -3.676079213619232178e-02 5.273545980453491211e-01
-7.630537748336791992e-01 1.625670343637466431e-01 -2.093392424285411835e-03
-1.017979085445404053e-01 6.498078815639019012e-03 -7.598434388637542725e-02
-3.300034403800964355e-01 5.384277179837226868e-02 1.478122323751449585e-01
-2.596791833639144897e-02 -3.389841318130493164e-02 3.864516019821166992e-01
1.001383885741233826e-01 -4.324731603264808655e-02 1.244053393602371216e-01
9.980485439300537109e-01 -3.634528443217277527e-02 -1.319665648043155670e-02
2.893093824386596680e-01 -1.765889814123511314e-03 -7.766945660114288330e-02
3.608109802007675171e-02 -3.108220361173152924e-02 -7.628443837165832520e-02
7.259952276945114136e-02 -4.539410024881362915e-02 -1.144648939371109009e-01
-3.183231055736541748e-01 5.594338476657867432e-02 -1.034539639949798584e-01
3.096691966056823730e-01 -5.552785098552703857e-02 6.122522428631782532e-02
-6.017910242080688477e-01 4.696382209658622742e-02 -1.802115142345428467e-02
3.297520577907562256e-01 2.937403507530689240e-02 -6.769730150699615479e-02
5.813645124435424805e-01 6.614638864994049072e-02 -3.023243509232997894e-02
8.903513103723526001e-02 -3.946158662438392639e-02 -2.735578119754791260e-01
7.433080673217773438e-02 -9.285420179367065430e-02 -1.174657717347145081e-01
7.283384799957275391e-01 6.196823343634605408e-02 3.290151059627532959e-02
1.925307139754295349e-02 -4.527867957949638367e-02 4.106895029544830322e-01
1.572126708924770355e-02 -6.143728271126747131e-02 1.143177524209022522e-01
-6.712729930877685547e-01 8.479802310466766357e-02 -6.617799401283264160e-03
-2.656809426844120026e-02 -2.942017093300819397e-02 4.547332227230072021e-01
-2.091258391737937927e-02 6.344559043645858765e-02 -2.667754329741001129e-02
-5.677194595336914062e-01 -8.437082171440124512e-03 -4.482134059071540833e-02
9.168975800275802612e-02 -6.926266103982925415e-02 5.360759794712066650e-02
4.970048740506172180e-02 -6.058317795395851135e-02 2.869839072227478027e-01
1.333558410406112671e-01 -4.292414337396621704e-02 -2.071690708398818970e-01
-6.194500327110290527e-01 1.332276463508605957e-01 6.909254472702741623e-03
-4.718298017978668213e-01 3.468329086899757385e-02 1.036069095134735107e-01
6.110732555389404297e-01 -5.310406535863876343e-02 -6.610452383756637573e-02
8.733503222465515137e-01 -1.397717185318470001e-02 -6.386540085077285767e-02
9.271816015243530273e-01 -6.603093445301055908e-02 -3.611877933144569397e-02
6.185753941535949707e-01 -5.828623659908771515e-03 7.424443215131759644e-02
-1.314514200203120708e-03 -5.229612812399864197e-02 -3.804815709590911865e-01
-6.924176812171936035e-01 1.024570688605308533e-01 -5.625199992209672928e-03
-1.037831008434295654e-01 -2.840448915958404541e-02 -7.605359703302383423e-02
-4.294942319393157959e-01 1.238442584872245789e-02 -1.135646253824234009e-01
5.470965057611465454e-02 -5.571252107620239258e-02 3.186778128147125244e-01
-4.140050709247589111e-01 3.532963246107101440e-02 -1.425577700138092041e-01
-7.763962149620056152e-01 1.753323376178741455e-01 -6.133041810244321823e-03
-7.936859130859375000e-01 1.983237117528915405e-01 2.987754531204700470e-02
2.460274398326873779e-01 -4.878740385174751282e-02 6.577271223068237305e-02
-1.500197649002075195e-01 5.633580684661865234e-02 -4.057393595576286316e-02
-5.950275063514709473e-01 5.326567590236663818e-02 -1.379683241248130798e-02
-4.910123348236083984e-01 -5.617419630289077759e-02 -2.723155356943607330e-02
3.431636691093444824e-01 -4.313189536333084106e-02 6.902751326560974121e-02
7.173736691474914551e-01 -4.913366585969924927e-02 -6.818205863237380981e-02
2.456811815500259399e-01 -1.979426853358745575e-02 -7.815421372652053833e-02
4.915457665920257568e-01 -9.146919101476669312e-02 -6.433130241930484772e-03
3.814826607704162598e-01 6.307625025510787964e-02 2.936970256268978119e-02
-1.162713915109634399e-01 -5.005701258778572083e-02 -6.797429919242858887e-02
-4.970833361148834229e-01 1.637790724635124207e-02 1.209658607840538025e-01
-1.022134125232696533e-01 5.137281119823455811e-02 4.326609522104263306e-02
-1.180719211697578430e-01 -3.133612126111984253e-02 5.232918262481689453e-01
-1.768086105585098267e-02 -3.011268563568592072e-02 4.577340781688690186e-01
-3.346201777458190918e-01 -3.474084427580237389e-03 7.025095075368881226e-02
-4.327259957790374756e-01 7.513761054724454880e-03 -1.254296600818634033e-01
1.190901175141334534e-01 -7.452575117349624634e-02 8.871792256832122803e-02
-1.264743804931640625e-01 1.106865331530570984e-02 6.174964308738708496e-01
-1.181873232126235962e-01 -3.094369731843471527e-02 5.773077011108398438e-01
1.650497764348983765e-01 -7.286372035741806030e-02 -1.038002148270606995e-01
-1.122779026627540588e-01 -7.998489774763584137e-03 6.039232015609741211e-01
-3.517252504825592041e-01 9.337374009191989899e-03 -1.617172360420227051e-01
-4.018169045448303223e-01 2.955870516598224640e-02 1.644555777311325073e-01
4.544733464717864990e-01 -9.158461540937423706e-02 2.592600649222731590e-03
-3.198466300964355469e-01 5.043806042522192001e-03 1.475352346897125244e-01
-6.899477243423461914e-01 1.246635839343070984e-01 -1.042661257088184357e-02
-3.083739876747131348e-01 -7.840380072593688965e-02 1.669674739241600037e-02
1.427278369665145874e-01 -7.826530188322067261e-02 4.201957583427429199e-02
-7.986027598381042480e-01 1.865510195493698120e-01 -1.170044066384434700e-03
-3.541259169578552246e-01 1.203816849738359451e-02 1.230664774775505066e-01
-2.676453674212098122e-03 -8.955323696136474609e-02 2.064405940473079681e-02
3.405090570449829102e-01 7.007061690092086792e-02 -4.701851401478052139e-03
8.993539214134216309e-02 -3.948467224836349487e-02 -2.498046755790710449e-01
6.116502881050109863e-01 1.835168339312076569e-03 -7.736936956644058228e-02
-1.423790603876113892e-01 5.109580606222152710e-02 -4.833006486296653748e-02
-3.862815201282501221e-01 1.074548158794641495e-02 -6.158011406660079956e-02
9.692975133657455444e-02 -7.097084820270538330e-02 1.370321214199066162e-01
-3.520253300666809082e-01 7.563379406929016113e-02 -1.267223358154296875e-01
-5.087867975234985352e-01 -5.116502940654754639e-02 -2.845498919486999512e-02
-4.984820727258920670e-03 -3.385224938392639160e-02 4.663442969322204590e-01
5.865696072578430176e-02 -1.102131679654121399e-01 8.814083039760589600e-02
-6.875470280647277832e-01 1.998472362756729126e-01 -2.455384284257888794e-02
-6.541796773672103882e-02 -3.283656015992164612e-02 4.360353946685791016e-01
2.108940333127975464e-01 -7.639552652835845947e-02 4.382010549306869507e-02
-4.906429648399353027e-01 5.201915651559829712e-02 1.218892112374305725e-01
2.071083039045333862e-01 5.857492610812187195e-02 -3.872724249958992004e-02
-3.488166928291320801e-01 4.306267574429512024e-02 8.749448508024215698e-02
4.298312589526176453e-02 -6.607710570096969604e-02 1.380708962678909302e-01
5.764245986938476562e-01 6.097562983632087708e-02 3.405569493770599365e-02
1.040395349264144897e-01 -4.077735915780067444e-02 -2.285676598548889160e-01
8.566490560770034790e-02 -3.220162820070981979e-03 -7.769253849983215332e-02
-7.357458472251892090e-01 1.687303930521011353e-01 -6.271543912589550018e-03
7.536957412958145142e-02 -6.483058631420135498e-02 -2.446339130401611328e-01
-1.155096292495727539e-01 5.963678285479545593e-02 -3.574944287538528442e-02
-3.469469249248504639e-01 6.457669287919998169e-02 -6.917887367308139801e-03
-4.380813837051391602e-01 3.960011899471282959e-02 -1.547690331935882568e-01
-7.560364007949829102e-01 1.802030056715011597e-01 -1.010343991219997406e-02
-4.120198488235473633e-01 3.581438958644866943e-02 -5.463191494345664978e-02
4.606136381626129150e-01 -3.450999502092599869e-03 -7.817730307579040527e-02
8.787750005722045898e-01 3.355218470096588135e-02 -2.367666177451610565e-02
3.396087586879730225e-01 -8.553667366504669189e-02 -3.413358330726623535e-02
-5.543770790100097656e-01 8.200488984584808350e-02 2.223261166363954544e-03
9.814513325691223145e-01 -6.637719273567199707e-02 -1.428159140050411224e-02
-5.507529377937316895e-01 -4.647903889417648315e-02 -1.742097549140453339e-02
7.303811609745025635e-02 -6.947041302919387817e-02 1.330155581235885620e-01
8.538790047168731689e-02 -6.917031854391098022e-02 1.612931042909622192e-01
-1.058606356382369995e-01 -2.173329703509807587e-02 -5.910511612892150879e-01
-1.504122018814086914e-01 -7.205578684806823730e-02 4.418944194912910461e-02
8.634474277496337891e-01 -7.078617811203002930e-02 -1.495101861655712128e-02
-1.240506023168563843e-01 4.375518858432769775e-02 -5.765588209033012390e-02
6.502806395292282104e-02 -6.773912906646728516e-02 2.001199126243591309e-01
-1.567257754504680634e-02 -4.694071039557456970e-02 4.306568801403045654e-01
4.952622652053833008e-01 -5.148820206522941589e-02 6.304883956909179688e-02
-1.130627468228340149e-01 -3.216713666915893555e-02 -5.707375407218933105e-01
2.368514426052570343e-02 3.260575607419013977e-02 5.997870117425918579e-02
4.889255389571189880e-02 5.028787627816200256e-02 4.444336518645286560e-02
1.805271767079830170e-02 -3.556044027209281921e-02 -4.289342761039733887e-01
-7.023437023162841797e-01 1.988777071237564087e-01 -4.546768590807914734e-02
-1.705760508775711060e-02 -3.034352324903011322e-02 -4.303885698318481445e-01
1.919192224740982056e-01 -7.074001431465148926e-02 5.196865275502204895e-02
6.483995914459228516e-01 -4.370898753404617310e-02 6.743474304676055908e-02
2.148044994100928307e-03 -5.441983416676521301e-02 2.415782660245895386e-01
3.153360262513160706e-02 5.317334085702896118e-02 -4.482134059071540833e-02
2.255060225725173950e-01 -5.400432273745536804e-02 -6.712020188570022583e-02
9.794544428586959839e-02 -6.861631572246551514e-02 1.873546093702316284e-01
-3.856813609600067139e-01 2.801209688186645508e-02 -1.686885207891464233e-01
-2.091258391737937927e-02 6.344559043645858765e-02 -2.667754329741001129e-02
-7.016185671091079712e-03 -5.118811130523681641e-02 -3.938239812850952148e-01
6.332105398178100586e-01 7.134021818637847900e-02 2.800354035571217537e-03
-4.558558464050292969e-01 2.955870516598224640e-02 9.338083118200302124e-02
-5.731559172272682190e-02 -4.264714196324348450e-02 3.766410350799560547e-01
2.400025874376296997e-01 7.282924372702836990e-03 7.138205319643020630e-02
-2.394922524690628052e-01 6.032928824424743652e-02 -3.450292348861694336e-02
-6.844076514244079590e-01 2.644240297377109528e-02 -1.843666099011898041e-02
9.692975133657455444e-02 -8.978407829999923706e-02 -2.746238932013511658e-02
-7.873840332031250000e-01 1.914216727018356323e-01 -1.892141625285148621e-02
-1.474113166332244873e-01 2.429561875760555267e-02 6.235443949699401855e-01
1.033008620142936707e-01 -7.074001431465148926e-02 -1.656876355409622192e-01
-3.430919349193572998e-01 4.449386522173881531e-02 1.626088768243789673e-01
-5.410695821046829224e-02 -2.953559160232543945e-02 -4.663760662078857422e-01
4.538383334875106812e-02 -4.031568393111228943e-02 -2.405481040477752686e-01
-7.264892458915710449e-01 1.990393102169036865e-01 5.379226431250572205e-02
-2.399451332166790962e-03 4.834884032607078552e-02 -5.174645408987998962e-02
9.012123346328735352e-01 2.362619154155254364e-02 2.569516655057668686e-03
-2.845516502857208252e-01 -1.642404496669769287e-02 7.191298156976699829e-02
-4.869726896286010742e-01 1.171499583870172501e-02 5.430011078715324402e-02
7.183663249015808105e-01 -3.766106069087982178e-02 -7.422998547554016113e-02
-8.495485186576843262e-01 1.926681995391845703e-01 1.599773466587066650e-01
-2.953086197376251221e-01 -2.758489456027746201e-03 7.161289453506469727e-02
1.845785826444625854e-01 -3.844590485095977783e-02 -7.473782449960708618e-02
2.071083039045333862e-01 5.857492610812187195e-02 -3.872724249958992004e-02
9.153627157211303711e-01 1.513138599693775177e-02 -4.447930958122014999e-03
-3.607047796249389648e-01 5.945210903882980347e-02 2.565322630107402802e-02
-6.954877972602844238e-01 9.158463031053543091e-02 -4.494098015129566193e-03
2.574076950550079346e-01 5.086496844887733459e-02 4.545904695987701416e-02
-5.371335744857788086e-01 4.283183813095092773e-02 -3.477992489933967590e-02
-4.453527331352233887e-01 6.060629338026046753e-02 5.339562427252531052e-03
8.280138969421386719e-01 -3.043585829436779022e-02 6.750399619340896606e-02
5.056499242782592773e-01 7.104013115167617798e-02 -4.978856071829795837e-03
7.347670942544937134e-02 -2.025594189763069153e-02 7.371351122856140137e-02
-6.020680069923400879e-01 9.627062082290649414e-02 8.732867427170276642e-03
1.228296756744384766e-01 -5.058793723583221436e-02 2.484572082757949829e-01
4.296004027128219604e-02 -6.723128259181976318e-02 5.995561927556991577e-02
5.735390782356262207e-01 5.386584997177124023e-02 4.405094310641288757e-02
7.396264076232910156e-01 -2.653471007943153381e-02 -7.614593952894210815e-02
3.909238576889038086e-01 1.039922609925270081e-02 7.096654921770095825e-02
-1.860765218734741211e-01 -3.839973732829093933e-02 -7.372213900089263916e-02
5.082814693450927734e-01 5.698215216398239136e-02 -4.364407062530517578e-02
9.743759781122207642e-02 -7.004750519990921021e-02 -1.720125824213027954e-01
-4.141204953193664551e-01 5.278091505169868469e-02 1.190730035305023193e-01
8.727039694786071777e-01 -1.154300644993782043e-01 -1.423542294651269913e-02
1.369107514619827271e-01 -7.173261791467666626e-02 1.290913373231887817e-01
6.822403073310852051e-01 5.274642724543809891e-03 -7.681535929441452026e-02
8.682719469070434570e-01 9.060369804501533508e-03 5.058363452553749084e-02
-2.736561298370361328e-01 -5.345031619071960449e-02 5.730099231004714966e-02
-6.557607054710388184e-01 1.737857162952423096e-01 6.886170711368322372e-03
2.182115614414215088e-01 -5.942900106310844421e-02 -6.374998390674591064e-02
8.793059587478637695e-01 -4.209312796592712402e-02 5.623914301395416260e-02
7.529918551445007324e-01 -4.380133002996444702e-02 -7.113676518201828003e-02
-3.238632082939147949e-01 2.062531001865863800e-02 1.606467664241790771e-01
-3.176767826080322266e-01 -6.567299365997314453e-03 7.177447527647018433e-02
-3.988621532917022705e-01 9.360458701848983765e-03 -5.710187181830406189e-02
-7.652467489242553711e-01 1.737857162952423096e-01 -3.132159356027841568e-03
-5.621101260185241699e-01 -1.312307547777891159e-02 4.063455387949943542e-02
-1.209112033247947693e-01 1.496980059891939163e-02 6.976619362831115723e-02
-3.470161259174346924e-01 2.189491316676139832e-02 -1.026691198348999023e-01
-3.401371836662292480e-01 7.390251010656356812e-02 1.334310621023178101e-01
-4.667744040489196777e-01 1.820151880383491516e-02 1.418566256761550903e-01
-7.466412782669067383e-01 1.880052983760833740e-01 2.311401814222335815e-02
-6.512824892997741699e-01 7.251749187707901001e-02 5.708901211619377136e-03
-2.294969707727432251e-01 -8.731412142515182495e-02 -2.485815435647964478e-03
2.153835818171501160e-02 -4.751780629158020020e-02 4.005095958709716797e-01
-7.507040500640869141e-01 1.870357692241668701e-01 5.997870117425918579e-02
8.324229121208190918e-01 -8.872222900390625000e-02 -2.485815435647964478e-03
-3.752244710922241211e-01 -7.975408807396888733e-03 6.796566396951675415e-02
1.255997270345687866e-01 -8.913773298263549805e-02 2.498379908502101898e-02
3.083072602748870850e-01 4.507095739245414734e-02 5.316900834441184998e-02
8.242974877357482910e-01 5.252699553966522217e-02 2.867719158530235291e-02
3.971334099769592285e-01 2.381086163222789764e-02 6.690381467342376709e-02
1.398192942142486572e-01 -4.412449896335601807e-02 1.048072651028633118e-01
-3.924104571342468262e-02 -5.688979104161262512e-02 -3.764650225639343262e-01
1.452901214361190796e-01 -4.398598894476890564e-02 -1.559463143348693848e-01
6.311212480068206787e-02 -6.536151468753814697e-02 2.180097848176956177e-01
7.259952276945114136e-02 -4.539410024881362915e-02 -1.144648939371109009e-01
8.408023118972778320e-01 2.607306279242038727e-02 -5.396249145269393921e-02
-3.542413711547851562e-01 3.191324323415756226e-02 -1.345708072185516357e-01
-2.894571051001548767e-02 -4.197771474719047546e-02 -4.796030223369598389e-01
-4.938054680824279785e-01 3.221333026885986328e-02 9.019527584314346313e-02
1.205905526876449585e-01 -4.273947328329086304e-02 -1.213207468390464783e-01
-2.232874482870101929e-01 -8.544433116912841797e-02 -1.264264807105064392e-02
7.025078535079956055e-01 6.083713099360466003e-02 3.537147119641304016e-02
2.104554474353790283e-01 -1.723197475075721741e-02 7.410593330860137939e-02
1.322478353977203369e-01 -4.283181205391883850e-02 2.051290869712829590e-01
4.230795204639434814e-01 7.108629494905471802e-02 -2.278062049299478531e-03
-2.110531032085418701e-01 6.515378504991531372e-02 -1.744405925273895264e-02
-2.458289079368114471e-02 -3.262880817055702209e-02 3.988937139511108398e-01
1.133422777056694031e-01 -4.511709883809089661e-02 2.495652139186859131e-01
-7.763731479644775391e-01 1.997318118810653687e-01 -4.512142762541770935e-02
3.470648229122161865e-01 4.705615714192390442e-02 -5.620161071419715881e-02
-3.246480226516723633e-01 2.653473801910877228e-02 1.160952001810073853e-01
-1.723878830671310425e-01 6.229140609502792358e-02 2.706133387982845306e-02
1.523306518793106079e-01 -4.550952091813087463e-02 1.847692430019378662e-01
-3.603241220116615295e-02 1.529297139495611191e-02 6.969694048166275024e-02
6.370654702186584473e-01 -7.909632474184036255e-02 3.574080765247344971e-02
8.239281177520751953e-01 -6.649260967969894409e-02 -5.440107733011245728e-02
7.536957412958145142e-02 -6.483058631420135498e-02 -2.446339130401611328e-01
4.239566624164581299e-01 -1.304214238189160824e-03 7.318258285522460938e-02
-4.718184098601341248e-02 -1.270756777375936508e-02 7.482152432203292847e-02
-4.550479054450988770e-01 1.321543753147125244e-02 -1.177427843213081360e-01
8.983038663864135742e-01 -6.155269593000411987e-02 -7.587315980345010757e-03
-3.771752491593360901e-02 -4.017718136310577393e-02 3.246795833110809326e-01
7.480378728359937668e-03 -5.869031324982643127e-02 2.670165002346038818e-01
-2.718555927276611328e-01 -4.874123632907867432e-02 -6.508883833885192871e-02
6.901810765266418457e-01 -8.906847983598709106e-02 6.724584847688674927e-03
-4.133587479591369629e-01 1.570847816765308380e-02 -7.773870974779129028e-02
-8.115296363830566406e-01 1.847274154424667358e-01 1.844229996204376221e-01
-2.265422791242599487e-01 -5.193686229176819324e-04 7.283633202314376831e-02
-7.004277706146240234e-01 1.740858107805252075e-01 9.517713449895381927e-03
1.352256387472152710e-01 -1.148412935435771942e-02 -7.928532361984252930e-02
-6.426953673362731934e-01 1.571654528379440308e-01 7.001589052379131317e-03
-3.856813609600067139e-01 2.801209688186645508e-02 -1.686885207891464233e-01
-4.430674314498901367e-01 2.905086427927017212e-02 7.122047245502471924e-02
-7.823287248611450195e-01 1.872666031122207642e-01 -1.539611071348190308e-01
-1.073267031461000443e-02 -5.393506959080696106e-02 -3.274352252483367920e-01
1.422199904918670654e-01 -7.316379994153976440e-02 -1.149496510624885559e-01
6.699828505516052246e-01 5.333492532372474670e-02 -5.019984394311904907e-02
-3.610510230064392090e-01 7.581845670938491821e-02 1.229048967361450195e-01
3.608109802007675171e-02 -3.108220361173152924e-02 -7.628443837165832520e-02
-3.247403502464294434e-01 4.130830988287925720e-02 1.132789850234985352e-01
7.663918286561965942e-02 -8.299747109413146973e-02 -1.154344081878662109e-01
8.139559626579284668e-01 -8.652927726507186890e-02 -1.552811078727245331e-02
1.971361339092254639e-01 -5.645119771361351013e-02 -6.571210175752639771e-02
5.353124737739562988e-01 3.634531423449516296e-02 5.956319719552993774e-02
-2.416159361600875854e-01 -8.445174247026443481e-02 9.402294643223285675e-03
8.449895307421684265e-03 1.342319138348102570e-02 -7.457623630762100220e-02
-2.351063340902328491e-01 -8.334371447563171387e-02 -2.129903994500637054e-02
-5.608084611594676971e-03 -5.633577704429626465e-02 -1.404340714216232300e-01
-3.955611884593963623e-01 -7.124785333871841431e-02 -1.804423518478870392e-02
4.303970038890838623e-01 6.386109441518783569e-02 -3.325640037655830383e-02
-3.174920678138732910e-01 4.911060631275177002e-02 4.333534836769104004e-02
-3.248788416385650635e-01 6.443819403648376465e-02 1.415334492921829224e-01
6.713679432868957520e-01 -7.556450366973876953e-02 4.035754874348640442e-02
1.838629990816116333e-01 -4.638669639825820923e-02 -1.059931740164756775e-01
9.012123346328735352e-01 2.362619154155254364e-02 2.569516655057668686e-03
-5.151578783988952637e-01 1.478513050824403763e-02 6.180231645703315735e-02
-7.565673589706420898e-01 1.866664439439773560e-01 9.536603093147277832e-02
1.067634150385856628e-01 -4.617894440889358521e-02 -2.710647583007812500e-01
2.104554474353790283e-01 -1.723197475075721741e-02 7.410593330860137939e-02
-4.141666591167449951e-01 6.109105050563812256e-02 -1.461818963289260864e-01
8.697955012321472168e-01 -7.207886874675750732e-02 3.744899854063987732e-02
6.505115330219268799e-02 7.213674020022153854e-03 7.119739055633544922e-02
1.937428265810012817e-01 -4.495550692081451416e-02 -7.300654798746109009e-02
-2.218101173639297485e-01 6.388418376445770264e-02 -2.363049425184726715e-02
7.843395471572875977e-01 -3.932308778166770935e-02 6.810417026281356812e-02
2.013373821973800659e-01 -7.249438017606735229e-02 8.001536130905151367e-02
4.208286479115486145e-02 -3.681838279590010643e-03 7.318258285522460938e-02
-8.208323717117309570e-01 1.835501343011856079e-01 -1.817538887262344360e-01
-7.552977204322814941e-01 1.993624716997146606e-01 6.727315485477447510e-02
6.654815673828125000e-01 4.110056161880493164e-02 5.707015469670295715e-02
-4.295865595340728760e-01 1.146107632666826248e-02 5.944777652621269226e-02
-2.596791833639144897e-02 -3.389841318130493164e-02 3.864516019821166992e-01
-2.656809426844120026e-02 -2.942017093300819397e-02 4.547332227230072021e-01
-3.362591564655303955e-01 -7.023217529058456421e-02 -3.658045828342437744e-02
-3.907828330993652344e-01 1.623940467834472656e-02 8.922576159238815308e-02
-1.061838045716285706e-01 -2.367233112454414368e-02 5.661813616752624512e-01
7.265610098838806152e-01 -4.674437921494245529e-03 -7.856972515583038330e-02
4.326823055744171143e-01 5.679748207330703735e-02 3.867243975400924683e-02
3.810209929943084717e-01 5.882884562015533447e-02 -3.990450873970985413e-02
5.813645124435424805e-01 6.614638864994049072e-02 -3.023243509232997894e-02
8.480967879295349121e-01 -2.842757478356361389e-02 6.487245112657546997e-02
-3.542413711547851562e-01 3.191324323415756226e-02 -1.345708072185516357e-01
8.702802062034606934e-01 -7.648786157369613647e-02 -3.554169088602066040e-02
-4.212764799594879150e-01 6.688506156206130981e-02 1.156335249543190002e-01
4.556849971413612366e-02 -3.652995824813842773e-02 -2.872002720832824707e-01
4.249723255634307861e-01 -2.134087495505809784e-02 -7.764637470245361328e-02
8.634566329419612885e-03 8.829533122479915619e-03 7.087421417236328125e-02
-4.239310622215270996e-01 1.566231064498424530e-02 1.460116952657699585e-01
-8.495485186576843262e-01 1.926681995391845703e-01 1.599773466587066650e-01
2.684761211276054382e-02 -4.737930372357368469e-02 1.249131783843040466e-01
6.855874657630920410e-01 -6.716203689575195312e-02 5.203790962696075439e-02
-8.049163967370986938e-02 -3.969242423772811890e-02 4.976227581501007080e-01
9.229341745376586914e-01 -7.549525797367095947e-02 -2.446150779724121094e-02
9.015216492116451263e-04 -3.195938095450401306e-02 3.941153883934020996e-01
1.052398905158042908e-01 -6.651569902896881104e-02 2.032823860645294189e-01
-6.068463921546936035e-01 1.166766285896301270e-01 -1.176546700298786163e-02
3.187872767448425293e-01 -4.465542361140251160e-02 6.815033406019210815e-02
-3.362591564655303955e-01 -7.023217529058456421e-02 -3.658045828342437744e-02
4.559276103973388672e-01 6.640030443668365479e-02 2.080564573407173157e-02
8.005212545394897461e-01 6.510762125253677368e-02 2.546433359384536743e-03
-3.562496304512023926e-01 -7.790737785398960114e-03 1.319767981767654419e-01
5.032374337315559387e-02 -5.243463069200515747e-02 3.458473682403564453e-01
-3.878050446510314941e-01 3.454478457570075989e-02 5.328442528843879700e-02
8.733503222465515137e-01 -1.397717185318470001e-02 -6.386540085077285767e-02
-2.185322195291519165e-01 1.797068119049072266e-02 6.918910145759582520e-02
8.573415130376815796e-02 -9.534724056720733643e-02 1.119401305913925171e-01
-2.836861647665500641e-02 -4.964150115847587585e-02 3.208938539028167725e-01
7.872805930674076080e-03 -6.060626730322837830e-02 7.782240957021713257e-02
-3.985159099102020264e-01 3.135923296213150024e-02 7.643738389015197754e-02
-2.969937622547149658e-01 -8.253578841686248779e-02 -1.312771637458354235e-04
-3.837423026561737061e-01 2.254125848412513733e-02 8.749448508024215698e-02
-6.541796773672103882e-02 -3.962317481637001038e-02 -5.171140432357788086e-01
1.915729641914367676e-01 -5.305789411067962646e-02 6.330275535583496094e-02
9.706825762987136841e-02 -6.032925844192504883e-02 -6.372690200805664062e-02
4.329131245613098145e-01 -3.122070431709289551e-02 7.124354690313339233e-02
-3.410374224185943604e-01 6.517687439918518066e-02 -1.289383769035339355e-01
-3.563999012112617493e-02 -2.203338779509067535e-02 7.304408401250839233e-02
4.960814863443374634e-02 -4.096202924847602844e-02 -2.181569039821624756e-01
-1.586299985647201538e-01 -1.927475910633802414e-03 -6.143195629119873047e-01
9.746647477149963379e-01 -5.224996060132980347e-02 -2.852424234151840210e-02
-4.146283566951751709e-01 2.087923139333724976e-02 -1.552537977695465088e-01
-1.609614491462707520e-01 -8.862989395856857300e-02 1.738503342494368553e-03
9.491572380065917969e-01 -7.277137786149978638e-02 1.512705534696578979e-02
-2.718555927276611328e-01 -4.874123632907867432e-02 -6.508883833885192871e-02
9.438018798828125000e-01 5.193987162783741951e-04 8.063440211117267609e-03
1.550545394420623779e-01 -4.518634825944900513e-02 7.477536797523498535e-02
-8.197935819625854492e-01 1.842888146638870239e-01 1.496820002794265747e-01
7.832546234130859375e-01 6.550004333257675171e-02 1.120282523334026337e-02
-8.049163967370986938e-02 -3.969242423772811890e-02 4.976227581501007080e-01
5.495089888572692871e-01 -7.293295860290527344e-02 -4.983050748705863953e-02
7.259147167205810547e-01 2.533438615500926971e-02 6.692689657211303711e-02
6.011010408401489258e-01 -8.359763771295547485e-02 -3.429516777396202087e-02
6.528198719024658203e-02 -2.658087573945522308e-02 -7.709236443042755127e-02
7.476940006017684937e-02 -5.384273827075958252e-02 3.138533234596252441e-01
3.558135628700256348e-01 4.005038645118474960e-03 7.212073355913162231e-02
-6.017910242080688477e-01 4.696382209658622742e-02 -1.802115142345428467e-02
2.827880159020423889e-02 1.419662730768322945e-03 -7.679228484630584717e-02
3.286902010440826416e-01 -6.705804727971553802e-03 -7.863897830247879028e-02
-2.185322195291519165e-01 1.797068119049072266e-02 6.918910145759582520e-02
3.118735179305076599e-02 -8.161244541406631470e-02 1.921098679304122925e-01
1.725289076566696167e-01 -5.541243031620979309e-02 -6.647385656833648682e-02
2.386981435120105743e-02 4.449386522173881531e-02 -5.700953677296638489e-02
3.025825023651123047e-01 -7.177878171205520630e-02 -5.396249145269393921e-02
-5.713092163205146790e-02 -8.969174325466156006e-02 -1.654379442334175110e-02
-3.043112456798553467e-01 -6.474968045949935913e-03 7.207456231117248535e-02
3.506889641284942627e-01 -2.586528100073337555e-02 -7.688461244106292725e-02
1.515458077192306519e-01 -7.374088466167449951e-02 9.815916419029235840e-02
4.067475348711013794e-02 -3.558352589607238770e-02 -3.043053448200225830e-01
6.502806395292282104e-02 -6.773912906646728516e-02 2.001199126243591309e-01
1.094411313533782959e-01 -7.230971753597259521e-02 -1.346400529146194458e-01
-4.366271495819091797e-01 6.102180108428001404e-02 -9.988022036850452423e-03
-5.336017608642578125e-01 -1.211880822665989399e-03 -5.317764356732368469e-02
4.877831041812896729e-01 -8.325139433145523071e-02 3.135490044951438904e-02
-6.412872672080993652e-01 4.643289744853973389e-02 2.985023427754640579e-03
-5.528422817587852478e-02 -2.639620937407016754e-02 -5.165831446647644043e-01
-3.468545973300933838e-01 5.109580606222152710e-02 -1.656183749437332153e-01
-5.087867975234985352e-01 -5.116502940654754639e-02 -2.845498919486999512e-02
1.504839658737182617e-01 -7.364856451749801636e-02 -5.283138900995254517e-02
-8.543729782104492188e-01 1.874743700027465820e-01 -1.648566275835037231e-01
-2.459094971418380737e-01 -4.807180911302566528e-02 6.240249052643775940e-02
3.862609565258026123e-01 -6.736979633569717407e-02 -5.802522227168083191e-02
-3.726621270179748535e-01 -6.739287823438644409e-02 3.033921867609024048e-02
-4.170059561729431152e-01 -7.007058709859848022e-02 -1.423542294651269913e-02
-1.786553300917148590e-02 -7.053226232528686523e-02 -5.636319145560264587e-02
-6.429030895233154297e-01 1.441000699996948242e-01 -1.298890262842178345e-02
7.434213068336248398e-03 -5.707445368170738220e-02 2.120541930198669434e-01
-9.510362148284912109e-02 -2.951250784099102020e-02 -5.106506347656250000e-01
-7.570982575416564941e-01 2.010937482118606567e-01 -3.327948600053787231e-02
3.622539043426513672e-01 6.619255244731903076e-02 -2.363049425184726715e-02
8.363010287284851074e-01 -6.653878092765808105e-02 4.903702065348625183e-02
-8.693198114633560181e-02 -5.437366291880607605e-02 6.104055419564247131e-02
-3.807552391663193703e-03 -5.668203160166740417e-02 -2.703030109405517578e-01
2.331928908824920654e-01 -9.010724723339080811e-02 1.690450124442577362e-02
4.265189766883850098e-01 -5.772079899907112122e-02 5.933235958218574524e-02
-4.453527331352233887e-01 6.060629338026046753e-02 5.339562427252531052e-03
7.382296025753021240e-02 4.350126534700393677e-02 -5.779438465833663940e-02
8.263288736343383789e-01 -8.426706492900848389e-02 2.082873135805130005e-02
-2.977785766124725342e-01 -6.776221841573715210e-02 4.065763577818870544e-02
3.493731915950775146e-01 5.098038911819458008e-02 4.610539227724075317e-02
1.937428265810012817e-01 -4.495550692081451416e-02 -7.300654798746109009e-02
-2.474791854619979858e-01 -4.458617419004440308e-02 -6.919773668050765991e-02
8.737428188323974609e-01 -1.296496391296386719e-01 -5.486697889864444733e-03
4.617677927017211914e-01 -9.160768985748291016e-02 -6.756301969289779663e-03
-7.522855699062347412e-02 -3.960008919239044189e-02 5.055404305458068848e-01
-7.100766897201538086e-01 1.901059150695800781e-01 4.248125106096267700e-02
-8.870943635702133179e-02 -2.660396136343479156e-02 -5.262782573699951172e-01
9.309785813093185425e-02 -4.170070588588714600e-02 -1.600090414285659790e-01
8.302530646324157715e-01 -7.316379994153976440e-02 -4.491367563605308533e-02
8.139559626579284668e-01 -8.652927726507186890e-02 -1.552811078727245331e-02
1.015809178352355957e-02 -4.936449974775314331e-02 1.334772258996963501e-01
-3.247403502464294434e-01 4.186232015490531921e-02 -1.476592719554901123e-01
9.934318065643310547e-01 -6.088326871395111084e-02 -1.308123767375946045e-02
-8.004955649375915527e-01 1.849120706319808960e-01 1.298530995845794678e-01
4.835126698017120361e-01 6.697739660739898682e-02 1.886661536991596222e-02
9.799160808324813843e-02 7.398342713713645935e-03 -7.575351744890213013e-02
-1.768086105585098267e-02 -3.011268563568592072e-02 4.577340781688690186e-01
-3.810415565967559814e-01 -7.505667209625244141e-02 -5.902204662561416626e-03
1.492836177349090576e-01 -6.893948465585708618e-02 1.494511663913726807e-01
-3.692919611930847168e-01 3.983095660805702209e-02 -5.537059530615806580e-02
6.185753941535949707e-01 -5.828623659908771515e-03 7.424443215131759644e-02
7.914263010025024414e-01 5.222690850496292114e-02 4.054221510887145996e-02
-3.249019682407379150e-01 6.473828107118606567e-02 -1.058777496218681335e-01
-1.062530577182769775e-01 -8.696786314249038696e-02 -2.243014052510261536e-02
4.559968709945678711e-01 6.102180108428001404e-02 3.292459622025489807e-02
6.298633813858032227e-01 -3.867674246430397034e-02 -7.416073232889175415e-02
-8.693198114633560181e-02 -5.437366291880607605e-02 6.104055419564247131e-02
6.388428807258605957e-01 -1.797065511345863342e-02 7.348267734050750732e-02
3.043599724769592285e-01 6.656189262866973877e-02 1.556564588099718094e-02
6.041132658720016479e-02 -4.449383541941642761e-02 -1.390028744935989380e-01
-8.557005226612091064e-02 1.120715495198965073e-02 -7.506100088357925415e-02
-5.056242942810058594e-01 1.566231064498424530e-02 6.824266910552978516e-02
6.406203508377075195e-01 3.138231858611106873e-02 -6.765113025903701782e-02
-3.766787350177764893e-01 2.037138678133487701e-02 -9.193518757820129395e-02
1.505301296710968018e-01 6.605404615402221680e-02 -1.799806766211986542e-02
7.796766161918640137e-01 5.977528169751167297e-02 3.093939647078514099e-02
6.389352679252624512e-01 -5.779004842042922974e-02 -6.298822164535522461e-02
5.439919829368591309e-01 -7.676486670970916748e-02 3.994204103946685791e-02
-6.310381293296813965e-01 8.110463619232177734e-02 8.502030745148658752e-03
-3.147913217544555664e-01 2.193092805100604892e-04 1.214967891573905945e-01
-3.348048925399780273e-01 3.394461050629615784e-02 1.548989266157150269e-01
-3.542875349521636963e-01 3.692241013050079346e-02 1.502590924501419067e-01
-8.132264763116836548e-02 -3.826123476028442383e-02 -4.248715639114379883e-01
-3.247634768486022949e-01 4.243941605091094971e-02 1.307071894407272339e-01
4.680004119873046875e-01 -9.220785647630691528e-02 -7.776209968142211437e-04
-6.257981061935424805e-01 -2.951250784099102020e-02 -1.072669960558414459e-02
1.913421154022216797e-01 6.612329930067062378e-02 -1.887524873018264771e-02
1.297317147254943848e-01 5.418902263045310974e-02 3.968812152743339539e-02
-8.743982762098312378e-02 -3.266330575570464134e-03 -7.780796289443969727e-02
-7.326294779777526855e-01 1.878898739814758301e-01 3.073164261877536774e-02
-1.371046248823404312e-02 -3.057435899972915649e-02 4.294103980064392090e-01
5.406330898404121399e-02 -3.789189830422401428e-02 -2.608156204223632812e-01
-3.969692587852478027e-01 7.189422845840454102e-02 1.386479884386062622e-01
6.406203508377075195e-01 3.138231858611106873e-02 -6.765113025903701782e-02
-9.194115549325942993e-02 -3.405999764800071716e-02 -4.709697365760803223e-01
-7.977948188781738281e-01 1.842888146638870239e-01 -1.590626090764999390e-01
2.742126584053039551e-01 6.794691830873489380e-02 -1.273498218506574631e-02
3.632695674896240234e-01 -7.911940664052963257e-02 -4.299772903323173523e-02
3.261854127049446106e-02 -7.644168287515640259e-02 -1.284766942262649536e-01
-1.627850681543350220e-01 5.929052084684371948e-02 3.163190558552742004e-02
4.103834331035614014e-01 3.964628651738166809e-02 5.697781965136528015e-02
2.283684015274047852e-01 -8.437082171440124512e-03 7.429060339927673340e-02
1.971361339092254639e-01 -5.645119771361351013e-02 -6.571210175752639771e-02
8.617274463176727295e-02 -6.222213059663772583e-02 -2.551139295101165771e-01
-1.433372683823108673e-02 -4.832573235034942627e-02 2.461949884891510010e-01
7.267918586730957031e-01 -1.513135991990566254e-02 -7.838505506515502930e-02
9.109306931495666504e-01 -5.361190065741539001e-02 4.481270536780357361e-02
-6.785353180021047592e-03 -5.236538127064704895e-02 2.249810695648193359e-01
1.205905526876449585e-01 -4.273947328329086304e-02 -1.213207468390464783e-01
-2.576015889644622803e-02 -3.350599110126495361e-02 5.064638257026672363e-01
-6.020680069923400879e-01 9.627062082290649414e-02 8.732867427170276642e-03
4.941170569509267807e-03 -4.876432567834854126e-02 6.618821620941162109e-02
-7.763962149620056152e-01 1.753323376178741455e-01 -6.133041810244321823e-03
-2.761260569095611572e-01 -4.202387481927871704e-02 6.484936177730560303e-02
1.900956034660339355e-01 3.888452425599098206e-02 -6.116460636258125305e-02
-7.387236356735229492e-01 1.858815997838973999e-01 7.417095825076103210e-03
3.394010365009307861e-01 1.104556862264871597e-02 7.080496847629547119e-02
1.071789190173149109e-01 -9.006108343601226807e-02 2.124423719942569733e-02
-5.475212335586547852e-01 8.043520152568817139e-02 -7.887404412031173706e-03
-7.511314004659652710e-02 -2.701946906745433807e-02 5.057482123374938965e-01
-2.237861044704914093e-03 -9.291178546845912933e-03 -7.882364839315414429e-02
-3.104746639728546143e-01 4.285492375493049622e-02 5.189940333366394043e-02
-5.698201060295104980e-01 8.941476047039031982e-02 -1.047277916222810745e-02
-6.032683849334716797e-01 5.698215216398239136e-02 8.894453756511211395e-03
-6.538909673690795898e-01 9.758639335632324219e-02 8.478946983814239502e-03
8.257169276475906372e-02 -6.845472753047943115e-02 1.755126714706420898e-01
-5.731559172272682190e-02 -4.264714196324348450e-02 3.766410350799560547e-01
8.610349893569946289e-02 -8.429016172885894775e-02 1.122402176260948181e-01
9.150394797325134277e-01 -6.411499530076980591e-02 3.650256618857383728e-02
-1.627850681543350220e-01 5.929052084684371948e-02 3.163190558552742004e-02
3.879691958427429199e-01 -7.502053049392998219e-04 -7.760021090507507324e-02
-6.099395751953125000e-01 1.434537321329116821e-01 1.161410706117749214e-03
-3.298649489879608154e-01 1.861702464520931244e-02 8.954893052577972412e-02
6.973714381456375122e-02 -7.104010134935379028e-02 -1.011917591094970703e-01
-4.453527331352233887e-01 6.060629338026046753e-02 5.339562427252531052e-03
5.506401062011718750e-01 -4.234704747796058655e-02 6.870434433221817017e-02
1.248841211199760437e-01 -8.152010291814804077e-02 -4.195896163582801819e-02
-2.294394746422767639e-02 6.743907183408737183e-02 3.238944569602608681e-03
-7.977948188781738281e-01 1.842888146638870239e-01 -1.590626090764999390e-01
-1.209112033247947693e-01 1.496980059891939163e-02 6.976619362831115723e-02
7.419348359107971191e-01 3.311359509825706482e-02 6.170998141169548035e-02
-4.075878262519836426e-01 -3.445242345333099365e-02 -6.218028813600540161e-02
-9.812758117914199829e-02 -3.207480162382125854e-02 5.788081288337707520e-01
2.012450248003005981e-01 -8.742954581975936890e-02 -3.284089639782905579e-02
-7.507040500640869141e-01 1.870357692241668701e-01 5.997870117425918579e-02
1.369107514619827271e-01 -7.173261791467666626e-02 1.290913373231887817e-01
-5.408962368965148926e-01 -2.789665013551712036e-02 3.841851651668548584e-02
2.457504421472549438e-01 3.620681539177894592e-02 -6.305746734142303467e-02
4.652072489261627197e-01 -6.023692712187767029e-02 -6.213412433862686157e-02
7.356903702020645142e-02 -9.054584801197052002e-02 -1.062932610511779785e-01
-4.339611530303955078e-02 -9.128451347351074219e-02 -1.102678757160902023e-02
-3.299342393875122070e-01 -8.008891344070434570e-02 -2.928631729446351528e-04
6.713679432868957520e-01 -7.556450366973876953e-02 4.035754874348640442e-02
-3.619513213634490967e-01 7.228665053844451904e-02 -1.135415434837341309e-01
-2.977785766124725342e-01 -6.776221841573715210e-02 4.065763577818870544e-02
-7.405129075050354004e-02 -3.184396401047706604e-02 5.693438053131103516e-01
6.089494824409484863e-01 -1.921717450022697449e-02 -7.783103734254837036e-02
4.788266420364379883e-01 7.004752755165100098e-02 4.277711268514394760e-03
1.369107514619827271e-01 -7.173261791467666626e-02 1.290913373231887817e-01
1.715362966060638428e-01 -7.563375681638717651e-02 6.517253816127777100e-02
8.669099807739257812e-01 1.958654262125492096e-02 4.361235350370407104e-02
6.778082251548767090e-01 3.913844749331474304e-02 5.836284160614013672e-02
-4.024862647056579590e-01 2.337226830422878265e-02 -5.719420686364173889e-02
4.606136381626129150e-01 -3.450999502092599869e-03 -7.817730307579040527e-02
-5.519995093345642090e-01 4.728699475526809692e-02 -2.596194855868816376e-02
3.897696733474731445e-01 -9.008416533470153809e-02 -1.640529185533523560e-02
7.593399286270141602e-01 6.439202278852462769e-02 -3.164054080843925476e-02
5.761475563049316406e-01 -4.239321872591972351e-02 -7.312196493148803711e-02
-7.574675679206848145e-01 1.885362118482589722e-01 1.162798702716827393e-01
8.536830544471740723e-01 3.283658996224403381e-02 -4.405957832932472229e-02
-9.992811828851699829e-02 -2.618845365941524506e-02 5.377191901206970215e-01
3.439598530530929565e-02 -4.959534108638763428e-02 3.768487870693206787e-01
-5.770801380276679993e-02 -3.110528364777565002e-02 -5.577414035797119141e-01
9.469063580036163330e-02 -5.031093582510948181e-02 -7.002875208854675293e-02
2.430840395390987396e-02 -6.215286999940872192e-02 1.685414016246795654e-01
-4.104732871055603027e-01 -2.706563472747802734e-02 6.034804135560989380e-02
-3.997393548488616943e-01 7.032454013824462891e-02 1.086622476577758789e-01
-4.967139959335327148e-01 2.602689713239669800e-02 -1.007300838828086853e-01
8.033256977796554565e-02 -3.858440741896629333e-02 -2.339923381805419922e-01
-5.410695821046829224e-02 -2.953559160232543945e-02 -4.663760662078857422e-01
2.372325360774993896e-01 -7.170952856540679932e-02 -4.620635882019996643e-02
1.248841211199760437e-01 -8.152010291814804077e-02 -4.195896163582801819e-02
-1.500197649002075195e-01 5.633580684661865234e-02 -4.057393595576286316e-02
1.601560413837432861e-01 -6.053701788187026978e-02 1.740353256464004517e-01
-5.712513327598571777e-01 -3.636837005615234375e-02 2.112881839275360107e-02
2.568767666816711426e-01 -9.193085879087448120e-02 7.555597927421331406e-03
-8.431543111801147461e-01 1.829499602317810059e-01 -1.999207735061645508e-01
1.810467988252639771e-01 -5.035709589719772339e-02 -6.961324810981750488e-02
-3.455618619918823242e-01 5.248083174228668213e-02 -4.128953069448471069e-02
-3.479625880718231201e-01 -5.871340259909629822e-02 -5.197729170322418213e-02
-1.990957409143447876e-01 6.522303819656372070e-02 -1.723630540072917938e-02
6.131969690322875977e-01 5.435061082243919373e-02 4.370468854904174805e-02
1.635031700134277344e-01 -7.745737582445144653e-02 5.069904774427413940e-02
-6.110937595367431641e-01 4.260100051760673523e-02 1.727383956313133240e-02
5.189343914389610291e-02 2.327993512153625488e-02 6.586504727602005005e-02
-4.228230416774749756e-01 3.115148097276687622e-02 -1.028537899255752563e-01
1.894123386591672897e-03 -5.721296370029449463e-02 1.686799079179763794e-01
9.083566069602966309e-02 -1.346587985754013062e-01 -9.862946718931198120e-02
-3.430919349193572998e-01 4.449386522173881531e-02 1.626088768243789673e-01
2.448132261633872986e-03 -5.148820206522941589e-02 1.129558160901069641e-01
-2.115147709846496582e-01 2.616539970040321350e-02 -6.935932487249374390e-02
-3.587888479232788086e-01 -2.145629562437534332e-02 -7.120601832866668701e-02
7.025078535079956055e-01 6.083713099360466003e-02 3.537147119641304016e-02
-6.844076514244079590e-01 2.644240297377109528e-02 -1.843666099011898041e-02
-7.685619406402111053e-03 -5.319639667868614197e-02 -3.023201227188110352e-01
-8.032656908035278320e-01 1.892056465148925781e-01 -6.446557492017745972e-02
-7.283128499984741211e-01 1.654755920171737671e-01 2.892689080908894539e-03
-8.101907968521118164e-01 1.965924352407455444e-01 1.166953742504119873e-01
-3.652291893959045410e-01 7.404101639986038208e-02 1.147101819515228271e-01
-1.158676669001579285e-02 5.282708257436752319e-02 -4.546768590807914734e-02
