1.174695044755935669e-01 -3.354783356189727783e-02 4.056911170482635498e-01
-8.536008000373840332e-01 1.104820817708969116e-01 2.876469492912292480e-02
8.860811591148376465e-03 -4.153737798333168030e-02 6.018303036689758301e-01
-9.151448011398315430e-01 1.104820817708969116e-01 8.272819221019744873e-02
9.141877889633178711e-01 3.958511352539062500e-02 5.761430785059928894e-02
7.331278324127197266e-01 8.801319450139999390e-02 -5.331217125058174133e-02
1.757140904664993286e-01 -3.354783356189727783e-02 -3.300284743309020996e-01
5.990507602691650391e-01 -2.032282203435897827e-02 -7.403590530157089233e-02
-8.292231559753417969e-01 1.035014539957046509e-01 1.402910798788070679e-01
-1.554410532116889954e-02 -3.354783356189727783e-02 4.547463953495025635e-01
-2.354065030813217163e-01 9.218520671129226685e-02 3.705418482422828674e-02
1.625708937644958496e-01 -4.949964582920074463e-02 3.492462635040283203e-01
-8.339405059814453125e-01 1.092822849750518799e-01 -1.023674309253692627e-01
-5.580967664718627930e-01 7.931468635797500610e-02 5.316961184144020081e-02
6.694568991661071777e-01 -4.530037194490432739e-02 3.836305439472198486e-02
-6.196953058242797852e-01 -2.294055558741092682e-02 -7.201807200908660889e-02
-9.136111475527286530e-03 -3.354783356189727783e-02 6.572935581207275391e-01
1.857214719057083130e-01 -5.053583905100822449e-02 3.196331262588500977e-01
1.278586387634277344e-01 9.428484737873077393e-02 -4.425917938351631165e-02
-4.752954468131065369e-02 -3.354783356189727783e-02 -6.941388845443725586e-01
-1.351690888404846191e-01 -2.283148281276226044e-02 -7.209987193346023560e-02
1.173058971762657166e-01 -3.354783356189727783e-02 1.511982977390289307e-01
6.821365952491760254e-01 5.319187790155410767e-02 -8.033482730388641357e-02
3.231134638190269470e-02 -4.279170557856559753e-02 -5.657881498336791992e-01
9.760658256709575653e-03 -3.354783356189727783e-02 -5.880116224288940430e-01
-7.133884429931640625e-01 9.518469870090484619e-02 2.500170283019542694e-02
-2.367698848247528076e-01 -4.020123556256294250e-02 4.501646012067794800e-02
2.336742170155048370e-02 -4.110108315944671631e-02 6.190364956855773926e-01
9.737295657396316528e-02 -3.354783356189727783e-02 3.571267127990722656e-01
4.109166190028190613e-02 -3.354783356189727783e-02 -1.296354830265045166e-01
2.674866095185279846e-02 -5.459878221154212952e-02 9.401717036962509155e-02
4.607743918895721436e-01 9.722980111837387085e-02 2.636510506272315979e-02
8.905736207962036133e-01 6.911642849445343018e-02 5.038826912641525269e-02
-4.864363074302673340e-01 8.163247257471084595e-02 5.082455649971961975e-02
-8.543642759323120117e-01 1.033378466963768005e-01 -7.910776138305664062e-02
5.942243337631225586e-01 2.614195831120014191e-02 -8.647014200687408447e-02
1.759867817163467407e-01 -5.577130615711212158e-02 -5.314856395125389099e-02
5.705556273460388184e-01 -3.341149166226387024e-02 -6.397398561239242554e-02
-8.269053697586059570e-01 1.042649596929550171e-01 9.838005900382995605e-02
-1.767101325094699860e-02 -3.354783356189727783e-02 -2.128303498029708862e-01
-3.459239900112152100e-01 2.139731496572494507e-02 7.588390260934829712e-02
4.787713587284088135e-01 2.976861223578453064e-02 -8.597931265830993652e-02
1.902479678392410278e-01 1.029288321733474731e-01 6.050399038940668106e-03
2.752766013145446777e-03 -3.965587541460990906e-02 -6.804230809211730957e-01
-1.298090629279613495e-02 -4.900882393121719360e-02 -3.052690923213958740e-01
-8.104354143142700195e-01 1.069372296333312988e-01 -7.692632079124450684e-02
2.990747988224029541e-01 9.308505803346633911e-02 -4.668603464961051941e-02
1.735053807497024536e-01 -3.354783356189727783e-02 2.415646612644195557e-01
8.109390735626220703e-02 -4.393696412444114685e-02 5.296790003776550293e-01
-3.345922380685806274e-02 -3.616556897759437561e-02 8.266555666923522949e-01
-7.598531842231750488e-01 1.145450249314308167e-01 -1.156477164477109909e-02
2.096355706453323364e-01 -5.577130615711212158e-02 -4.136876389384269714e-02
-8.703706264495849609e-01 1.104820817708969116e-01 -5.091258510947227478e-02
2.909216582775115967e-01 -4.377335682511329651e-02 4.035362228751182556e-02
3.664541840553283691e-01 -3.379324451088905334e-02 -6.370130926370620728e-02
-8.398849368095397949e-01 6.898009032011032104e-02 3.691784664988517761e-02
6.687479019165039062e-01 -5.648027360439300537e-02 -2.097225189208984375e-02
2.391278184950351715e-02 2.824159897863864899e-02 -8.619745820760726929e-02
-1.540776528418064117e-02 -4.227361083030700684e-02 5.726534724235534668e-01
1.278741378337144852e-02 -5.541681498289108276e-02 5.644178390502929688e-02
2.391278184950351715e-02 2.824159897863864899e-02 -8.619745820760726929e-02
7.095409035682678223e-01 3.860346600413322449e-02 -8.483406156301498413e-02
-2.825529873371124268e-01 7.157055288553237915e-02 -6.991842389106750488e-02
-4.292006492614746094e-01 7.189776748418807983e-02 5.886863544583320618e-02
-4.560051560401916504e-01 -5.233552679419517517e-02 2.399278432130813599e-02
2.880585193634033203e-01 -5.748919025063514709e-02 2.641891129314899445e-03
6.314997673034667969e-01 1.003383621573448181e-01 1.889365538954734802e-02
8.724471554160118103e-03 -3.354783356189727783e-02 8.077588081359863281e-01
2.224515527486801147e-01 -4.320072382688522339e-02 -1.014948412775993347e-01
-9.928432852029800415e-02 9.971119463443756104e-02 -3.114324063062667847e-02
3.730140253901481628e-02 -4.895428568124771118e-02 -3.234841525554656982e-01
-8.030458092689514160e-01 1.098091434687376022e-02 3.667243197560310364e-02
-7.700241208076477051e-01 1.038559451699256897e-01 2.641964145004749298e-02
2.843227982521057129e-01 7.751499116420745850e-02 -6.536465883255004883e-02
-5.155040621757507324e-01 -7.779513951390981674e-03 6.931230425834655762e-02
-4.437345266342163086e-01 -1.336946524679660797e-02 6.699452549219131470e-02
-2.360609322786331177e-01 -2.569463290274143219e-02 -6.991842389106750488e-02
-4.466639459133148193e-02 1.043467670679092407e-01 -4.720486234873533249e-03
1.774047166109085083e-01 -5.249913409352302551e-02 2.398195117712020874e-01
-8.439205884933471680e-01 2.313614040613174438e-01 -1.156477164477109909e-02
1.846034824848175049e-01 -3.354783356189727783e-02 -1.679471135139465332e-01
3.015716932713985443e-02 -3.354783356189727783e-02 9.281744956970214844e-01
9.104520678520202637e-01 4.670207947492599487e-02 -1.347353495657444000e-02
4.684522002935409546e-02 -3.354783356189727783e-02 -3.953082561492919922e-01
3.967762589454650879e-01 4.032135009765625000e-02 -8.461591601371765137e-02
-2.827829122543334961e-02 -3.354783356189727783e-02 -3.044510483741760254e-01
1.440013349056243896e-01 -1.331492606550455093e-02 -7.782616466283798218e-02
9.932924509048461914e-01 3.549490496516227722e-02 2.014724537730216980e-03
-8.396940827369689941e-01 1.062009930610656738e-01 5.458755046129226685e-02
-2.594296634197235107e-01 -5.626212805509567261e-02 1.183122768998146057e-02
7.211298942565917969e-01 8.656799048185348511e-02 4.438929632306098938e-02
4.556207358837127686e-01 1.929767429828643799e-02 -8.641560375690460205e-02
5.334165096282958984e-01 9.785696864128112793e-02 -3.564247116446495056e-02
6.749104857444763184e-01 9.543010592460632324e-02 -4.150510206818580627e-02
4.120073467493057251e-02 1.362591795623302460e-02 -8.565209805965423584e-02
3.777431547641754150e-01 -3.900144621729850769e-02 4.659801349043846130e-02
-2.416081354022026062e-02 -3.354783356189727783e-02 -5.395017266273498535e-01
3.713779151439666748e-02 -3.354783356189727783e-02 -5.186417102813720703e-01
-1.947070658206939697e-02 -3.354783356189727783e-02 7.591943144798278809e-01
1.759867817163467407e-01 -5.577130615711212158e-02 -5.314856395125389099e-02
5.371677875518798828e-02 -3.354783356189727783e-02 7.733737230300903320e-01
1.200054436922073364e-01 -3.354783356189727783e-02 3.382844924926757812e-01
1.633071154356002808e-01 -1.572357714176177979e-01 3.503369688987731934e-01
1.001815572381019592e-01 -3.354783356189727783e-02 1.957543045282363892e-01
7.233386039733886719e-01 3.077752888202667236e-02 7.503859698772430420e-02
7.296102643013000488e-01 -5.658934265375137329e-02 -2.026328258216381073e-02
5.372886061668395996e-01 7.615158706903457642e-02 -6.642811745405197144e-02
2.529645264148712158e-01 4.580223560333251953e-02 -8.366152644157409668e-02
-5.164702236652374268e-02 -4.145557433366775513e-02 -1.901978552341461182e-01
6.306971609592437744e-02 -1.608078926801681519e-01 3.520003259181976318e-01
5.268722176551818848e-01 7.732411473989486694e-02 -6.550099700689315796e-02
1.245591938495635986e-01 -4.328252747654914856e-02 -5.567896962165832520e-01
-1.209078952670097351e-01 4.855630919337272644e-02 -8.251626789569854736e-02
4.313676804304122925e-02 -3.815613687038421631e-02 4.768873378634452820e-02
6.721446663141250610e-02 -3.354783356189727783e-02 3.443107306957244873e-01
-1.708629876375198364e-01 -5.039949715137481689e-02 2.865562401711940765e-02
9.384290575981140137e-01 9.072152897715568542e-03 4.697976261377334595e-02
1.611411757767200470e-02 -4.560032114386558533e-02 -4.494080841541290283e-01
-8.558367490768432617e-01 1.033378466963768005e-01 -2.301735617220401764e-02
1.684062480926513672e-01 -5.432609468698501587e-02 1.916633732616901398e-02
2.797572501003742218e-02 -5.170836299657821655e-02 2.068524211645126343e-01
1.131066232919692993e-01 -3.354783356189727783e-02 2.618248462677001953e-01
1.068622246384620667e-01 -3.420226275920867920e-02 5.256971344351768494e-02
-3.959453478455543518e-02 -5.217191949486732483e-02 -1.720646023750305176e-01
2.957208454608917236e-01 -6.688788067549467087e-03 -8.058024197816848755e-02
5.761610716581344604e-02 -4.464593157172203064e-02 4.927035272121429443e-01
1.638797521591186523e-01 -3.354783356189727783e-02 3.771142065525054932e-01
1.757686287164688110e-01 -2.114086225628852844e-02 -7.340873777866363525e-02
-8.219971060752868652e-01 1.104820817708969116e-01 1.215579137206077576e-01
1.397747844457626343e-01 -5.577130615711212158e-02 -2.836189977824687958e-02
5.403698682785034180e-01 -5.582583323121070862e-02 1.521246787160634995e-02
8.793818950653076172e-02 -1.282770782709121704e-01 -4.006254971027374268e-01
-7.472280263900756836e-01 -3.251164034008979797e-02 -4.147857893258333206e-03
1.319643389433622360e-02 -3.354783356189727783e-02 -4.721496105194091797e-01
6.874147802591323853e-02 -3.354783356189727783e-02 -8.879603147506713867e-01
1.338030695915222168e-01 5.643677711486816406e-02 -7.897142320871353149e-02
8.815634250640869141e-02 -3.354783356189727783e-02 4.513379037380218506e-01
2.546706236898899078e-02 -3.316608071327209473e-02 5.336048826575279236e-02
-8.536212146282196045e-03 -4.688191413879394531e-02 -3.910544216632843018e-01
8.784938454627990723e-01 8.918572217226028442e-02 3.173691406846046448e-02
-2.312344908714294434e-01 4.683842137455940247e-02 -8.295255899429321289e-02
-5.946632623672485352e-01 -1.151523832231760025e-02 -7.858967036008834839e-02
6.349627971649169922e-01 8.343216031789779663e-02 -5.928387865424156189e-02
4.954321384429931641e-01 1.706169359385967255e-02 7.531128078699111938e-02
1.375660747289657593e-01 -5.577130615711212158e-02 -6.702801585197448730e-02
4.946686029434204102e-01 -2.776700630784034729e-02 -6.833688169717788696e-02
3.648335859179496765e-02 -3.354783356189727783e-02 -4.227944314479827881e-01
-7.984647750854492188e-01 1.072644442319869995e-01 7.683829218149185181e-02
-3.005071356892585754e-02 -4.949964582920074463e-02 2.737409770488739014e-01
1.633071154356002808e-01 -1.512913256883621216e-01 -3.311464786529541016e-01
4.430929198861122131e-02 -3.354783356189727783e-02 7.496777772903442383e-01
5.169894173741340637e-02 -3.354783356189727783e-02 -2.424442023038864136e-02
8.544161319732666016e-01 -5.020861327648162842e-02 -3.572427481412887573e-02
4.635440185666084290e-02 -3.521117940545082092e-02 -8.454766273498535156e-01
-8.458566665649414062e-01 1.821152716875076294e-01 -3.848641936201602221e-04
4.853584244847297668e-02 -3.406592831015586853e-02 -8.871423006057739258e-01
1.755932345986366272e-02 1.031742393970489502e-01 4.196169786155223846e-03
1.298764795064926147e-01 -1.552179157733917236e-01 3.303494751453399658e-01
2.106990367174148560e-01 1.003383621573448181e-01 1.883912086486816406e-02
-2.567301094532012939e-01 -3.883783891797065735e-02 4.678888246417045593e-02
-3.694953769445419312e-02 -4.022851213812828064e-02 6.587387919425964355e-01
9.445527195930480957e-02 -3.354783356189727783e-02 4.667988717555999756e-01
-7.472758181393146515e-03 -3.354783356189727783e-02 -6.529096364974975586e-01
-6.682324409484863281e-01 3.745820745825767517e-02 -8.423416316509246826e-02
7.354065775871276855e-02 -3.354783356189727783e-02 6.449956297874450684e-01
1.549358367919921875e-01 -8.418462425470352173e-02 -3.409084379673004150e-01
9.840913861989974976e-02 -4.350067302584648132e-02 4.070810601115226746e-02
-2.546967938542366028e-02 -3.354783356189727783e-02 -2.965160310268402100e-01
8.997151628136634827e-03 -3.354783356189727783e-02 -2.739108204841613770e-01
8.373891562223434448e-02 9.477567672729492188e-02 3.225500509142875671e-02
2.006371021270751953e-01 -3.354783356189727783e-02 2.281215041875839233e-01
4.428202658891677856e-02 -3.354783356189727783e-02 -3.715850412845611572e-01
9.252040386199951172e-01 -1.658709906041622162e-02 4.010821133852005005e-02
3.771042451262474060e-02 -5.408068373799324036e-02 1.193491965532302856e-01
-6.132718548178672791e-02 1.031469628214836121e-01 -1.521869190037250519e-02
6.713265925645828247e-02 -3.354783356189727783e-02 7.958971858024597168e-01
-8.413847088813781738e-01 1.035014539957046509e-01 3.847212716937065125e-02
4.621805623173713684e-02 -4.371881857514381409e-02 -5.331755876541137695e-01
-6.067975163459777832e-01 1.016472280025482178e-01 -2.645313367247581482e-02
-1.590559184551239014e-01 3.503134846687316895e-02 7.449323683977127075e-02
-8.094265460968017578e-01 1.026561409235000610e-01 -3.848641936201602221e-04
9.131942689418792725e-02 -3.354783356189727783e-02 -4.918371438980102539e-01
-8.263532072305679321e-03 -3.736535459756851196e-02 7.749280333518981934e-01
-8.999019861221313477e-01 1.035014539957046509e-01 1.813567876815795898e-01
7.560330629348754883e-01 6.074513122439384460e-02 -7.719899713993072510e-02
1.611411757767200470e-02 -4.560032114386558533e-02 -4.494080841541290283e-01
-8.099173903465270996e-01 8.760417252779006958e-02 -4.041438177227973938e-02
-3.467965722084045410e-01 -4.497314617037773132e-02 -4.960371553897857666e-02
-6.338201761245727539e-01 -9.251987561583518982e-03 -7.951678335666656494e-02
1.344029754400253296e-01 -3.354783356189727783e-02 4.408396482467651367e-01
5.516198277473449707e-02 -3.354783356189727783e-02 7.403794527053833008e-01
2.518737912178039551e-01 -3.420226275920867920e-02 -6.337408721446990967e-02
5.769791454076766968e-02 -3.354783356189727783e-02 5.853058695793151855e-01
-6.300572156906127930e-01 -2.528560906648635864e-02 5.941399559378623962e-02
-9.530319273471832275e-02 6.690771877765655518e-02 6.268616765737533569e-02
8.139504194259643555e-01 1.023834571242332458e-01 -2.099951915442943573e-02
3.547016680240631104e-01 4.427522048354148865e-02 7.348431646823883057e-02
5.156259983777999878e-02 -3.354783356189727783e-02 1.085510477423667908e-01
8.799390792846679688e-01 -1.304224599152803421e-02 -7.171811908483505249e-02
4.954476282000541687e-02 -3.354783356189727783e-02 5.737169384956359863e-01
1.817403286695480347e-01 -5.124480649828910828e-02 2.905926406383514404e-01
-5.164702236652374268e-02 -4.780902713537216187e-02 6.969405710697174072e-02
1.070258393883705139e-01 -5.577130615711212158e-02 7.345705479383468628e-02
-7.815858125686645508e-01 -1.255142502486705780e-02 -3.654231503605842590e-02
-7.502275705337524414e-01 9.990207105875015259e-02 -1.857266202569007874e-02
7.654014974832534790e-02 -5.001774057745933533e-02 2.931285500526428223e-01
-7.336418144404888153e-03 -3.354783356189727783e-02 2.202955782413482666e-01
-8.794236183166503906e-01 4.468424245715141296e-02 -2.029054984450340271e-02
5.691376924514770508e-01 -5.596217885613441467e-02 1.428535394370555878e-02
-1.258161514997482300e-01 6.289930641651153564e-02 6.549477577209472656e-02
6.351264119148254395e-01 5.583688244223594666e-02 6.841246038675308228e-02
7.589234113693237305e-01 -5.729831755161285400e-02 -1.483693905174732208e-02
4.175272881984710693e-01 4.754738882184028625e-02 7.212091982364654541e-02
8.483626842498779297e-01 -5.195377394556999207e-02 2.235670201480388641e-02
-5.164702236652374268e-02 -5.378073453903198242e-02 2.734675817191600800e-02
4.607743918895721436e-01 9.722980111837387085e-02 2.636510506272315979e-02
1.525907814502716064e-01 -3.354783356189727783e-02 -4.286025464534759521e-01
1.104070842266082764e-01 -4.701825603842735291e-02 -4.225490093231201172e-01
-1.243554521352052689e-02 -5.162655934691429138e-02 1.925912201404571533e-01
8.891985565423965454e-02 -3.354783356189727783e-02 -7.065541110932826996e-03
2.752766013145446777e-03 -3.965587541460990906e-02 -6.804230809211730957e-01
-3.092329390347003937e-02 -3.354783356189727783e-02 -5.255405306816101074e-01
1.929747760295867920e-01 -3.354783356189727783e-02 -1.781180948019027710e-01
-1.022683177143335342e-02 -3.354783356189727783e-02 -4.610787928104400635e-01
-8.291140794754028320e-01 1.637365967035293579e-01 -3.848641936201602221e-04
3.356567770242691040e-02 -3.354783356189727783e-02 6.960142254829406738e-01
5.619116425514221191e-01 3.073179163038730621e-03 -8.426143229007720947e-02
1.759867817163467407e-01 -5.577130615711212158e-02 -5.314856395125389099e-02
5.832507833838462830e-02 -3.354783356189727783e-02 -4.376835003495216370e-02
6.865967810153961182e-02 -3.354783356189727783e-02 6.174821853637695312e-01
3.340207040309906006e-02 -3.867422416806221008e-02 7.192466855049133301e-01
-8.874677419662475586e-01 1.104820817708969116e-01 9.510789066553115845e-02
6.945044547319412231e-02 8.793139457702636719e-02 -5.342124775052070618e-02
-8.353039026260375977e-01 1.045649126172065735e-01 1.539523750543594360e-01
-4.995640367269515991e-02 -3.872876241803169250e-02 -7.008195519447326660e-01
3.052373826503753662e-01 9.553918242454528809e-02 -4.123242199420928955e-02
3.298126393929123878e-03 -4.737274348735809326e-02 -3.754570782184600830e-01
4.111893102526664734e-02 -3.594741970300674438e-02 -8.195174932479858398e-01
2.865742519497871399e-02 -6.654219329357147217e-02 -3.670857846736907959e-01
2.094174176454544067e-01 -3.354783356189727783e-02 -6.811873614788055420e-02
6.655575633049011230e-01 -5.528047308325767517e-02 1.684855110943317413e-02
7.004061341285705566e-01 1.959762535989284515e-02 -8.644288033246994019e-02
1.821375824511051178e-02 -3.354783356189727783e-02 1.906279176473617554e-01
9.104520678520202637e-01 -1.443292107433080673e-02 -4.207773134112358093e-02
-8.500559329986572266e-01 1.104820817708969116e-01 1.165951266884803772e-01
1.711876094341278076e-01 -5.577130615711212158e-02 -2.798014692962169647e-02
1.338731031864881516e-02 -3.354783356189727783e-02 -4.889740347862243652e-01
-2.484251558780670166e-02 -3.354783356189727783e-02 4.297135770320892334e-02
1.593259721994400024e-01 -9.536453336477279663e-02 3.127615749835968018e-01
1.175513193011283875e-01 -9.149246662855148315e-02 3.152702152729034424e-01
1.256771981716156006e-01 -4.434598237276077271e-02 5.337691903114318848e-01
3.858300298452377319e-02 -3.354783356189727783e-02 -2.048216061666607857e-03
-4.401196166872978210e-02 -5.274454504251480103e-02 -1.483141183853149414e-01
-5.324102640151977539e-01 -5.735284835100173950e-02 3.678076434880495071e-03
1.798588335514068604e-01 -5.353532359004020691e-02 2.007171064615249634e-01
1.159424930810928345e-01 -3.354783356189727783e-02 -6.740976870059967041e-02
2.939366549253463745e-02 -3.354783356189727783e-02 3.869026899337768555e-02
-1.291428506374359131e-01 8.749510347843170166e-02 -5.399387329816818237e-02
5.643385052680969238e-01 -5.727104470133781433e-02 -1.497327908873558044e-02
-1.294700652360916138e-01 9.297598153352737427e-02 -4.684964194893836975e-02
3.241887092590332031e-01 -4.778176173567771912e-02 -4.578619450330734253e-02
-1.589741259813308716e-01 5.450074374675750732e-02 6.895782053470611572e-02
-6.709319949150085449e-01 -4.115562513470649719e-02 4.027181863784790039e-02
1.694151759147644043e-01 -3.354783356189727783e-02 -3.108317553997039795e-01
5.531040430068969727e-01 4.956522583961486816e-02 7.100292295217514038e-02
5.832507833838462830e-02 -3.354783356189727783e-02 -4.376835003495216370e-02
-3.719494864344596863e-02 -4.524582996964454651e-02 4.504107832908630371e-01
5.691376924514770508e-01 -5.596217885613441467e-02 1.428535394370555878e-02
-1.636214554309844971e-02 -5.274454504251480103e-02 -1.570398807525634766e-01
4.683004021644592285e-01 4.940161854028701782e-02 -8.188910782337188721e-02
5.619116425514221191e-01 3.073179163038730621e-03 -8.426143229007720947e-02
4.932661727070808411e-02 -3.526571765542030334e-02 8.593772053718566895e-01
6.298791617155075073e-02 -3.354783356189727783e-02 5.496937632560729980e-01
8.905618637800216675e-02 -3.354783356189727783e-02 -1.434876620769500732e-01
-6.296481490135192871e-01 1.028197482228279114e-01 -1.759101264178752899e-02
3.236433565616607666e-01 5.490976944565773010e-02 6.879421323537826538e-02
1.688152700662612915e-01 -5.187197029590606689e-02 -2.480334192514419556e-01
-8.863769769668579102e-01 8.174154162406921387e-02 2.080242149531841278e-02
4.886306077241897583e-02 -5.577130615711212158e-02 -3.097963333129882812e-02
-1.011776179075241089e-02 -3.477489575743675232e-02 8.829641342163085938e-01
3.752890229225158691e-01 3.304078057408332825e-02 7.473865896463394165e-02
9.121036529541015625e-02 -7.199580222368240356e-02 -3.587690293788909912e-01
5.438056588172912598e-01 8.580448478460311890e-02 -5.617532506585121155e-02
-7.286857962608337402e-01 4.670207947492599487e-02 6.290431320667266846e-02
1.512001156806945801e-01 -1.057809293270111084e-01 -3.716395497322082520e-01
4.365486279129981995e-02 -3.354783356189727783e-02 5.342873334884643555e-01
-3.648480176925659180e-01 4.926527664065361023e-02 7.113926857709884644e-02
-9.051101803779602051e-01 2.298616617918014526e-01 -1.156477164477109909e-02
5.927946045994758606e-02 -3.354783356189727783e-02 2.111607789993286133e-01
3.792857006192207336e-02 -5.598067305982112885e-03 7.021215558052062988e-02
3.298126393929123878e-03 -4.737274348735809326e-02 -3.754570782184600830e-01
-8.093174695968627930e-01 2.426046133041381836e-02 4.193517193198204041e-02
-4.373537898063659668e-01 -4.126469045877456665e-02 -5.443016439676284790e-02
5.479571409523487091e-03 7.118880003690719604e-02 5.938673019409179688e-02
5.761610716581344604e-02 -4.464593157172203064e-02 4.927035272121429443e-01
-2.519699931144714355e-02 -3.354783356189727783e-02 4.482292830944061279e-01
1.160515695810317993e-01 -3.354783356189727783e-02 6.521944403648376465e-01
1.444376260042190552e-01 -3.354783356189727783e-02 2.181959301233291626e-01
8.298749327659606934e-01 -3.908324986696243286e-02 4.637986794114112854e-02
1.443830877542495728e-01 -3.354783356189727783e-02 1.402092725038528442e-01
6.320723891258239746e-01 4.231192171573638916e-02 7.353885471820831299e-02
2.075086683034896851e-01 -1.151523832231760025e-02 6.775803118944168091e-02
1.070258393883705139e-01 -5.577130615711212158e-02 7.345705479383468628e-02
9.488454461097717285e-01 3.400393528863787651e-03 3.836305439472198486e-02
5.369886755943298340e-01 6.947091221809387207e-02 -7.152725011110305786e-02
3.664541840553283691e-01 -3.379324451088905334e-02 -6.370130926370620728e-02
1.488005071878433228e-01 6.134502962231636047e-02 -7.692632079124450684e-02
-2.590596675872802734e-02 9.259422868490219116e-02 -4.734047129750251770e-02
6.451337933540344238e-01 -5.233552679419517517e-02 2.393824793398380280e-02
4.853584244847297668e-02 -3.406592831015586853e-02 -8.871423006057739258e-01
-2.075658142566680908e-01 -3.594741970300674438e-02 -6.135625392198562622e-02
-8.415482640266418457e-01 1.033378466963768005e-01 -1.772182434797286987e-01
-3.312537372112274170e-01 8.820407092571258545e-02 -5.306676030158996582e-02
5.517134070396423340e-01 -5.688929185271263123e-02 -1.789096184074878693e-02
6.700568199157714844e-01 1.065370067954063416e-02 7.446596771478652954e-02
1.368025690317153931e-01 -3.354783356189727783e-02 -3.806380033493041992e-01
-7.577534914016723633e-01 1.104820817708969116e-01 2.232869621366262436e-03
2.441296726465225220e-01 3.669469803571701050e-02 7.427509874105453491e-02
-8.942302465438842773e-01 5.210115760564804077e-02 9.785392321646213531e-04
-2.825529873371124268e-01 7.157055288553237915e-02 -6.991842389106750488e-02
-6.993181109428405762e-01 -4.546397924423217773e-02 7.877359166741371155e-03
-5.154971964657306671e-03 -3.354783356189727783e-02 4.517196416854858398e-01
7.290103435516357422e-01 -5.658934265375137329e-02 9.349834173917770386e-03
-8.353039026260375977e-01 1.045649126172065735e-01 1.539523750543594360e-01
2.548187673091888428e-01 -3.826520591974258423e-02 4.755239188671112061e-02
9.895449876785278320e-02 -8.712957799434661865e-02 3.849401473999023438e-01
-6.845592055469751358e-03 9.234881401062011719e-02 -4.764042049646377563e-02
1.588351577520370483e-01 -3.354783356189727783e-02 7.231179624795913696e-02
-2.921513319015502930e-01 5.632770806550979614e-02 -7.902596145868301392e-02
1.102707386016845703e-01 -3.354783356189727783e-02 -1.543683558702468872e-02
-1.614282429218292236e-01 -3.632917255163192749e-02 -6.089269742369651794e-02
3.052373826503753662e-01 9.553918242454528809e-02 -4.123242199420928955e-02
-3.836747258901596069e-02 7.599674165248870850e-03 -8.486133068799972534e-02
-1.708357185125350952e-01 2.777804248034954071e-02 -8.625199645757675171e-02
-5.164702236652374268e-02 -4.780902713537216187e-02 6.969405710697174072e-02
9.112855792045593262e-02 -4.257356002926826477e-02 5.868601202964782715e-01
-1.011776179075241089e-02 -3.477489575743675232e-02 8.829641342163085938e-01
3.321119397878646851e-02 -3.354783356189727783e-02 8.811371326446533203e-01
-8.447659015655517578e-01 1.035014539957046509e-01 6.625828146934509277e-02
6.552229523658752441e-01 2.900510653853416443e-02 -8.608838915824890137e-02
-3.021432086825370789e-02 -3.354783356189727783e-02 8.979343175888061523e-01
1.104888841509819031e-01 -3.354783356189727783e-02 2.297848612070083618e-01
3.814671188592910767e-02 -3.354783356189727783e-02 1.248028129339218140e-01
4.267321154475212097e-02 -4.380062222480773926e-02 5.189353823661804199e-01
7.422236353158950806e-02 -5.732558295130729675e-02 3.841686062514781952e-03
-3.591335192322731018e-02 -3.856515511870384216e-02 7.269362211227416992e-01
2.130440771579742432e-01 -5.568950250744819641e-02 -1.112295463681221008e-01
1.455283463001251221e-01 -4.699099063873291016e-02 -4.248395562171936035e-01
7.624019682407379150e-02 -1.094260811805725098e-02 6.800343841314315796e-02
9.401898086071014404e-02 -3.504757210612297058e-02 8.261647224426269531e-01
-4.828641712665557861e-01 -3.698360174894332886e-02 -6.002012267708778381e-02
1.682308688759803772e-02 -5.577130615711212158e-02 2.151139080524444580e-02
-1.734379865229129791e-02 -3.354783356189727783e-02 6.183547377586364746e-01
2.462175115942955017e-02 -4.603660106658935547e-02 4.248878657817840576e-01
-5.396635532379150391e-01 9.840232878923416138e-02 -3.433360531926155090e-02
-1.554410532116889954e-02 -3.354783356189727783e-02 4.547463953495025635e-01
1.378114968538284302e-01 -1.325308978557586670e-01 3.928205966949462891e-01
4.371875524520874023e-01 9.393037110567092896e-02 -4.515901952981948853e-02
1.525907814502716064e-01 -3.354783356189727783e-02 -4.286025464534759521e-01
-9.172171950340270996e-01 1.072644442319869995e-01 -9.955954737961292267e-03
-8.276143074035644531e-01 1.033378466963768005e-01 -1.549675166606903076e-01
1.009995937347412109e-01 -5.195377394556999207e-02 3.427019417285919189e-01
4.313676804304122925e-02 -3.815613687038421631e-02 4.768873378634452820e-02
1.275041699409484863e-01 -4.505494982004165649e-02 5.062557458877563477e-01
5.944151878356933594e-01 3.778542205691337585e-02 7.411148399114608765e-02
1.630499400198459625e-02 -3.354783356189727783e-02 5.572470426559448242e-01
1.262498199939727783e-01 -3.943772986531257629e-02 4.602537676692008972e-02
8.787119984626770020e-01 -4.491861909627914429e-02 -3.847835212945938110e-02
3.777431547641754150e-01 -3.900144621729850769e-02 4.659801349043846130e-02
3.356567770242691040e-02 -3.354783356189727783e-02 6.960142254829406738e-01
9.014691412448883057e-02 -1.153371063992381096e-03 7.206638157367706299e-02
-4.279190599918365479e-01 -1.797776855528354645e-02 6.500395387411117554e-02
-3.899464011192321777e-02 -3.354783356189727783e-02 5.955033749341964722e-02
3.602916300296783447e-01 1.003110930323600769e-01 1.892092451453208923e-02
5.551491975784301758e-01 -5.806182324886322021e-02 -1.748267561197280884e-03
-8.915306925773620605e-01 1.946313232183456421e-01 -3.848641936201602221e-04
1.593532562255859375e-01 -5.577130615711212158e-02 -7.234528660774230957e-02
7.521063685417175293e-01 -5.732558295130729675e-02 3.896221285685896873e-03
1.731391064822673798e-02 -4.813624918460845947e-02 -3.495524227619171143e-01
1.217505931854248047e-01 -3.354783356189727783e-02 4.355496466159820557e-01
3.405495584011077881e-01 4.940161854028701782e-02 7.135741412639617920e-02
5.577942132949829102e-01 -7.288687396794557571e-03 -8.033482730388641357e-02
7.463137805461883545e-02 -4.750907793641090393e-02 -3.921723961830139160e-01
-5.898095369338989258e-01 -1.289713662117719650e-03 -8.281622081995010376e-02
-8.703706264495849609e-01 1.104820817708969116e-01 -5.091258510947227478e-02
2.751216851174831390e-02 -4.568212479352951050e-02 4.395307898521423340e-01
5.123110413551330566e-01 1.020289808511734009e-01 1.275834254920482635e-02
8.997151628136634827e-03 -3.354783356189727783e-02 -2.739108204841613770e-01
1.681335717439651489e-01 -5.124480649828910828e-02 2.843209803104400635e-01
1.219142004847526550e-01 -3.354783356189727783e-02 -1.194372400641441345e-01
8.352077007293701172e-02 -1.603443324565887451e-01 -3.540516793727874756e-01
7.095409035682678223e-01 3.860346600413322449e-02 -8.483406156301498413e-02
-8.586181402206420898e-01 1.104820817708969116e-01 1.278295665979385376e-01
2.977541647851467133e-02 -1.466830223798751831e-01 3.524911403656005859e-01
-8.957571983337402344e-01 1.104820817708969116e-01 -1.870620250701904297e-01
2.137685194611549377e-02 -4.898156225681304932e-02 3.089440464973449707e-01
-3.033584952354431152e-01 4.446609690785408020e-02 7.312984019517898560e-02
1.590260267257690430e-01 -3.354783356189727783e-02 2.370654344558715820e-01
6.427614688873291016e-01 1.021925881505012512e-01 -2.244472689926624298e-02
8.552887439727783203e-01 1.209890469908714294e-02 -8.377061039209365845e-02
2.633964084088802338e-02 -4.052846133708953857e-02 6.428959965705871582e-01
1.953743696212768555e-01 -4.650015756487846375e-02 -4.761314764618873596e-02
-3.056881017982959747e-02 -5.198104679584503174e-02 1.711857914924621582e-01
1.095345094799995422e-01 -8.688416332006454468e-02 -3.908089995384216309e-01
3.918952643871307373e-01 1.695262454450130463e-02 -8.608838915824890137e-02
7.076595793478190899e-04 -5.536227673292160034e-02 -5.838403105735778809e-02
4.698274135589599609e-01 1.021653190255165100e-01 -2.260833606123924255e-02
-1.291428506374359131e-01 8.749510347843170166e-02 -5.399387329816818237e-02
6.493875980377197266e-01 9.984754025936126709e-02 2.001164853572845459e-02
-4.801101088523864746e-01 4.018501192331314087e-02 -8.461591601371765137e-02
8.482963591814041138e-02 -3.354783356189727783e-02 -2.627581954002380371e-01
7.482225447893142700e-02 -1.593354046344757080e-01 3.403841257095336914e-01
7.760360091924667358e-02 -7.646776735782623291e-02 3.485100269317626953e-01
-5.164702236652374268e-02 -4.780902713537216187e-02 6.969405710697174072e-02
-7.984647750854492188e-01 1.072644442319869995e-01 7.683829218149185181e-02
4.363967776298522949e-01 6.748034805059432983e-02 6.224987655878067017e-02
-8.465110659599304199e-01 1.033378466963768005e-01 -1.595758348703384399e-01
9.047412872314453125e-02 -3.354783356189727783e-02 1.547976732254028320e-01
-3.005071356892585754e-02 -4.949964582920074463e-02 2.737409770488739014e-01
-9.829580085352063179e-04 -4.560032114386558533e-02 4.338590502738952637e-01
-8.447932004928588867e-01 1.071826443076133728e-01 -8.265335112810134888e-03
-2.739905612543225288e-04 6.077240034937858582e-02 -7.717173546552658081e-02
-2.061596512794494629e-02 -4.429145529866218567e-02 4.895131886005401611e-01
-8.386033177375793457e-01 2.679639309644699097e-02 2.680139429867267609e-02
8.343468904495239258e-01 9.071273356676101685e-02 3.863573446869850159e-02
7.536761462688446045e-02 -4.731820523738861084e-02 3.966926932334899902e-01
-2.484251558780670166e-02 -3.354783356189727783e-02 4.297135770320892334e-02
5.123110413551330566e-01 1.020289808511734009e-01 1.275834254920482635e-02
-4.886567592620849609e-02 -5.517140775918960571e-02 3.972645848989486694e-02
-4.682057350873947144e-02 -5.495325848460197449e-02 4.921574518084526062e-02
6.137910112738609314e-02 -3.412045910954475403e-02 9.065782427787780762e-01
4.585657119750976562e-01 -1.546910312026739120e-02 -7.695358991622924805e-02
-6.054818164557218552e-03 -3.354783356189727783e-02 6.238356232643127441e-01
1.353028118610382080e-01 8.345942944288253784e-02 -5.922934040427207947e-02
5.757911205291748047e-01 5.372490850277245045e-04 7.274808734655380249e-02
-2.652922868728637695e-01 4.432975873351097107e-02 7.345705479383468628e-02
1.012177467346191406e-01 -3.354783356189727783e-02 -1.690923869609832764e-01
1.070258393883705139e-01 -5.577130615711212158e-02 7.345705479383468628e-02
4.334312863647937775e-03 -3.354783356189727783e-02 -2.626218497753143311e-01
3.198412805795669556e-02 -3.354783356189727783e-02 5.265432000160217285e-01
-3.546157618984580040e-03 -3.354783356189727783e-02 3.097620904445648193e-01
2.806961536407470703e-01 9.881134331226348877e-02 2.257484570145606995e-02
-2.922876775264739990e-01 -1.732333563268184662e-02 6.535843759775161743e-02
5.262995362281799316e-01 9.995660930871963501e-02 1.979350298643112183e-02
8.556587994098663330e-02 -3.354783356189727783e-02 3.287133872509002686e-01
6.879601627588272095e-02 -3.354783356189727783e-02 -2.151761390268802643e-02
9.988161176443099976e-02 -5.577130615711212158e-02 1.979350298643112183e-02
-1.167203858494758606e-02 -3.354783356189727783e-02 4.735613465309143066e-01
-4.722959548234939575e-02 -3.387504816055297852e-02 9.223392009735107422e-01
1.212870329618453979e-01 -3.354783356189727783e-02 -2.096399813890457153e-01
-4.188505560159683228e-02 -4.639109224081039429e-02 -4.004618823528289795e-01
-3.197738826274871826e-01 1.955189043655991554e-03 -8.412508666515350342e-02
5.369886755943298340e-01 6.947091221809387207e-02 -7.152725011110305786e-02
2.332224398851394653e-01 9.226701408624649048e-02 3.694511577486991882e-02
3.780158460140228271e-01 -4.420964047312736511e-02 3.980825841426849365e-02
2.689163386821746826e-01 1.246216474100947380e-03 -8.387967199087142944e-02
3.823787271976470947e-01 4.700202867388725281e-02 7.236633449792861938e-02
-3.788365423679351807e-01 -4.737274348735809326e-02 -4.646788537502288818e-02
-3.829813003540039062e-01 1.017017662525177002e-01 1.534880883991718292e-02
8.859262615442276001e-02 -4.606387764215469360e-02 -4.533073902130126953e-01
-1.690750569105148315e-02 -5.140841379761695862e-02 -2.095309048891067505e-01
1.631162464618682861e-01 -1.591718047857284546e-01 3.398660123348236084e-01
-2.777810692787170410e-01 7.751499116420745850e-02 5.456028133630752563e-02
-2.428167499601840973e-03 -3.354783356189727783e-02 5.547929406166076660e-01
1.730145514011383057e-01 -5.558042228221893311e-02 -1.028855144977569580e-01
-2.354065030813217163e-01 9.218520671129226685e-02 3.705418482422828674e-02
-8.355220556259155273e-01 1.861597411334514618e-02 1.952082104980945587e-02
-3.306811153888702393e-01 3.863950259983539581e-03 -8.437050879001617432e-02
-7.501184940338134766e-01 8.561360090970993042e-02 -4.799490049481391907e-02
-1.589741259813308716e-01 5.450074374675750732e-02 6.895782053470611572e-02
2.492287904024124146e-01 8.907665312290191650e-02 4.108985885977745056e-02
6.670300364494323730e-01 -2.244096715003252029e-03 -8.240719884634017944e-02
2.176523804664611816e-01 -4.682737216353416443e-02 1.587242782115936279e-01
3.777431547641754150e-01 -3.900144621729850769e-02 4.659801349043846130e-02
8.455812931060791016e-01 1.264427043497562408e-02 -8.486133068799972534e-02
5.257152020931243896e-02 -5.149021744728088379e-02 -2.273642122745513916e-01
-7.597441077232360840e-01 1.244433373212814331e-01 -1.156477164477109909e-02
1.397747844457626343e-01 -5.577130615711212158e-02 -2.836189977824687958e-02
1.757140904664993286e-01 -3.354783356189727783e-02 -3.300284743309020996e-01
-7.518363595008850098e-01 8.089622855186462402e-02 4.250780120491981506e-02
1.435105204582214355e-01 4.787460714578628540e-02 7.171189039945602417e-02
2.121324464678764343e-02 -5.195377394556999207e-02 3.485372960567474365e-01
-8.930304050445556641e-01 1.104820817708969116e-01 1.661139279603958130e-01
1.344184670597314835e-02 -3.714722022414207458e-02 -7.766520380973815918e-01
1.295219957828521729e-01 -4.489134252071380615e-02 5.143271088600158691e-01
-4.401896893978118896e-01 9.014011174440383911e-02 -5.055810511112213135e-02
2.753943577408790588e-02 -3.354783356189727783e-02 -3.378271758556365967e-01
-9.172171950340270996e-01 1.066372841596603394e-01 -1.186191886663436890e-01
-1.431041061878204346e-01 6.199946254491806030e-02 -7.665363699197769165e-02
7.372452616691589355e-01 -1.961384899914264679e-02 6.374962627887725830e-02
-4.726659357547760010e-01 1.039104685187339783e-01 -1.502854400314390659e-03
2.525827586650848389e-01 1.900649978779256344e-03 7.329344749450683594e-02
-5.851856991648674011e-02 -5.408068373799324036e-02 1.976623386144638062e-02
2.260782122611999512e-01 1.032833084464073181e-01 -1.404616516083478928e-02
-6.479178071022033691e-01 -3.826520591974258423e-02 -5.835676565766334534e-02
6.320606172084808350e-02 -3.354783356189727783e-02 7.651388049125671387e-01
-7.866031527519226074e-01 1.365230679512023926e-01 -3.848641936201602221e-04
9.426438808441162109e-02 -7.292291522026062012e-02 -3.499068915843963623e-01
1.423925161361694336e-01 -5.808908864855766296e-02 -2.048216061666607857e-03
7.228633016347885132e-02 -5.350805073976516724e-02 1.564064919948577881e-01
5.572760701179504395e-01 -4.960872605443000793e-02 -4.134149476885795593e-02
1.871666759252548218e-01 1.040468141436576843e-01 -2.620846033096313477e-03
2.006371021270751953e-01 -3.354783356189727783e-02 2.281215041875839233e-01
2.990747988224029541e-01 9.308505803346633911e-02 -4.668603464961051941e-02
6.655575633049011230e-01 -5.528047308325767517e-02 1.684855110943317413e-02
2.987475991249084473e-01 1.013472750782966614e-01 1.643953099846839905e-02
2.621538639068603516e-01 8.596809208393096924e-02 4.518006742000579834e-02
-1.769828237593173981e-02 -3.354783356189727783e-02 -3.730847537517547607e-01
2.299230098724365234e-01 9.992934018373489380e-02 -3.065241500735282898e-02
1.095345094799995422e-01 -8.688416332006454468e-02 -3.908089995384216309e-01
-5.153132081031799316e-01 -2.812148444354534149e-02 -6.806419789791107178e-02
8.294931650161743164e-01 3.838532045483589172e-02 7.400241494178771973e-02
5.171102285385131836e-01 -1.126982178539037704e-02 6.786710023880004883e-02
2.006371021270751953e-01 -3.354783356189727783e-02 2.281215041875839233e-01
3.648335859179496765e-02 -3.354783356189727783e-02 -4.227944314479827881e-01
1.415081601589918137e-02 -6.864182651042938232e-02 -3.485435247421264648e-01
8.015501312911510468e-03 -4.674556851387023926e-02 3.900392651557922363e-01
-2.882365137338638306e-02 -3.957407176494598389e-02 6.852160692214965820e-01
-2.382696419954299927e-01 6.263542920351028442e-03 7.389334589242935181e-02
1.627617627382278442e-01 -5.451696738600730896e-02 1.552612334489822388e-01
-8.409757018089294434e-01 1.643452793359756470e-02 7.795555051416158676e-03
7.624019682407379150e-02 -1.094260811805725098e-02 6.800343841314315796e-02
5.805239826440811157e-02 -3.354783356189727783e-02 -8.609103560447692871e-01
-1.930709928274154663e-02 -3.354783356189727783e-02 -8.756158873438835144e-03
7.490406185388565063e-02 -3.354783356189727783e-02 -8.327151536941528320e-01
7.885792851448059082e-02 -3.354783356189727783e-02 7.611030936241149902e-01
1.682308688759803772e-02 -5.577130615711212158e-02 2.151139080524444580e-02
2.260782122611999512e-01 1.032833084464073181e-01 -1.404616516083478928e-02
4.298796951770782471e-01 -5.116300284862518311e-02 -3.757850080728530884e-02
-3.084149025380611420e-02 -4.224634543061256409e-02 4.234419018030166626e-02
-9.354322552680969238e-01 9.316685795783996582e-02 4.250706173479557037e-03
8.776485323905944824e-01 3.809416200965642929e-03 6.830339133739471436e-02
2.958299219608306885e-01 8.831314742565155029e-02 -5.290315300226211548e-02
-3.730829656124114990e-01 1.030924394726753235e-01 -1.557317562401294708e-02
7.757633179426193237e-02 -3.354783356189727783e-02 -1.999870836734771729e-01
-2.539487779140472412e-01 8.700428158044815063e-02 -5.464831367135047913e-02
3.968035280704498291e-01 -5.798002332448959351e-02 -9.574201889336109161e-03
-7.633980512619018555e-01 5.011058598756790161e-02 -6.806419789791107178e-02
-4.718751907348632812e-01 1.036105230450630188e-01 -1.151023525744676590e-02
-6.810212135314941406e-01 1.019744426012039185e-01 7.850090973079204559e-03
1.414381414651870728e-01 -3.463855385780334473e-02 -5.354660749435424805e-01
7.116833329200744629e-02 -3.354783356189727783e-02 -6.494193077087402344e-01
-8.386033177375793457e-01 2.679639309644699097e-02 2.680139429867267609e-02
1.113887354731559753e-01 -3.354783356189727783e-02 1.437541246414184570e-01
2.047818452119827271e-01 -5.612578243017196655e-02 -2.375359646975994110e-02
-1.947498023509979248e-01 6.077240034937858582e-02 -7.717173546552658081e-02
-8.007825016975402832e-01 1.104820817708969116e-01 1.360365189611911774e-02
6.351264119148254395e-01 5.583688244223594666e-02 6.841246038675308228e-02
-8.058816790580749512e-01 1.307967901229858398e-01 -1.156477164477109909e-02
-4.341206699609756470e-02 -3.354783356189727783e-02 -1.686288267374038696e-01
1.022811979055404663e-01 -3.354783356189727783e-02 3.008999526500701904e-01
1.366662234067916870e-01 6.682591140270233154e-02 6.274070590734481812e-02
-2.710576541721820831e-02 -3.687453269958496094e-02 7.964152693748474121e-01
-8.178251385688781738e-01 1.104820817708969116e-01 -1.324168294668197632e-01
1.035355329513549805e-01 -3.354783356189727783e-02 6.995046138763427734e-01
9.254767298698425293e-01 6.884374469518661499e-02 -4.425917938351631165e-02
-5.727942585945129395e-01 9.513015300035476685e-02 3.140969574451446533e-02
9.401898086071014404e-02 -5.195377394556999207e-02 -3.508340120315551758e-01
-4.690392613410949707e-01 -2.465843968093395233e-02 -7.070920616388320923e-02
-3.056881017982959747e-02 -5.198104679584503174e-02 1.711857914924621582e-01
4.865427315235137939e-01 -2.261333726346492767e-02 6.145910546183586121e-02
1.344029754400253296e-01 -3.354783356189727783e-02 4.408396482467651367e-01
-5.355460643768310547e-01 3.075026161968708038e-02 7.503859698772430420e-02
5.887979269027709961e-01 -5.307176709175109863e-02 2.219309099018573761e-02
4.700883477926254272e-02 7.885112613439559937e-02 -6.432847678661346436e-02
9.104520678520202637e-01 8.854007348418235779e-03 1.079504191875457764e-02
8.647780418395996094e-01 4.825635999441146851e-02 -7.921684533357620239e-02
-9.055191874504089355e-01 1.033378466963768005e-01 -1.795087754726409912e-01
5.684832334518432617e-01 9.722980111837387085e-02 -3.716948255896568298e-02
1.202390715479850769e-02 -3.916505351662635803e-02 -7.025647163391113281e-01
-1.472606230527162552e-02 -3.433860465884208679e-02 -8.766985535621643066e-01
-3.566793352365493774e-02 4.566588997840881348e-02 7.263901084661483765e-02
-9.912072122097015381e-02 5.259197950363159180e-02 7.004854828119277954e-02
1.255135983228683472e-01 -3.354783356189727783e-02 -2.308272719383239746e-01
-5.885824561119079590e-01 6.044518575072288513e-02 6.650368869304656982e-02
2.106990367174148560e-01 1.003383621573448181e-01 1.883912086486816406e-02
1.314307600259780884e-01 -4.347340762615203857e-02 -5.156702175736427307e-02
1.861032396554946899e-01 -3.354783356189727783e-02 5.314234644174575806e-02
4.684522002935409546e-02 -3.354783356189727783e-02 -3.953082561492919922e-01
-8.994656205177307129e-01 1.925589442253112793e-01 -3.848641936201602221e-04
4.972590804100036621e-01 8.558633178472518921e-02 4.567089304327964783e-02
1.916814036667346954e-02 -5.072670802474021912e-02 2.414283156394958496e-01
4.523213207721710205e-01 6.434451788663864136e-02 -7.545384764671325684e-02
-4.960191994905471802e-02 -3.354783356189727783e-02 -7.656357288360595703e-01
8.411639332771301270e-01 5.965440720319747925e-02 6.634008139371871948e-02
-1.385230720043182373e-01 7.478818297386169434e-02 5.663265660405158997e-02
-6.370105147361755371e-01 4.067583754658699036e-02 -8.456137776374816895e-02
-8.415482640266418457e-01 5.392811447381973267e-02 -4.829484969377517700e-02
-7.359781116247177124e-02 8.326855301856994629e-02 -5.947476252913475037e-02
3.907773196697235107e-01 5.545512959361076355e-02 -7.938045263290405273e-02
-6.132718548178672791e-02 1.031469628214836121e-01 -1.521869190037250519e-02
-8.563275933265686035e-01 1.104820817708969116e-01 -1.977511197328567505e-01
5.257152020931243896e-02 -5.149021744728088379e-02 -2.273642122745513916e-01
-9.164264202117919922e-01 1.104820817708969116e-01 1.797752380371093750e-01
1.070258393883705139e-01 -5.577130615711212158e-02 7.345705479383468628e-02
1.012177467346191406e-01 -3.354783356189727783e-02 -1.690923869609832764e-01
5.745249986648559570e-02 -3.354783356189727783e-02 2.770676910877227783e-01
9.925444424152374268e-02 -3.354783356189727783e-02 -6.112985610961914062e-01
-4.657943844795227051e-01 -5.751645565032958984e-02 -1.320085488259792328e-02
1.010814085602760315e-01 -3.354783356189727783e-02 7.730192542076110840e-01
8.643845468759536743e-02 -7.646776735782623291e-02 -3.507249653339385986e-01
-7.518363595008850098e-01 8.089622855186462402e-02 4.250780120491981506e-02
1.012177467346191406e-01 -3.354783356189727783e-02 -1.690923869609832764e-01
-4.687511175870895386e-02 -3.354783356189727783e-02 2.172960788011550903e-01
6.741743087768554688e-01 -3.799252957105636597e-02 4.790687933564186096e-02
-8.609358668327331543e-01 2.656373679637908936e-01 -3.848641936201602221e-04
3.007536567747592926e-02 -8.650241047143936157e-02 3.569085896015167236e-01
-4.828641712665557861e-01 -3.698360174894332886e-02 -6.002012267708778381e-02
7.089565694332122803e-02 7.165236026048660278e-02 5.905951932072639465e-02
1.146336346864700317e-01 -4.445505887269973755e-02 5.244980454444885254e-01
4.792076051235198975e-01 -4.650015756487846375e-02 3.680877387523651123e-02
1.090709492564201355e-01 -5.369893088936805725e-02 -1.573125720024108887e-01
4.787713587284088135e-01 2.976861223578453064e-02 -8.597931265830993652e-02
-7.199054956436157227e-01 6.229941174387931824e-02 -6.918218731880187988e-02
-1.209078952670097351e-01 4.855630919337272644e-02 -8.251626789569854736e-02
8.714042305946350098e-01 5.447347462177276611e-02 6.454039365053176880e-02
-9.185532927513122559e-01 2.729724645614624023e-01 -1.110121235251426697e-02
5.704348161816596985e-02 -5.080851167440414429e-02 2.541079819202423096e-01
3.315665572881698608e-02 -5.064490437507629395e-02 -2.554503381252288818e-01
-4.282462894916534424e-01 -3.619283065199851990e-02 -6.105630472302436829e-02
-8.396940827369689941e-01 1.062009930610656738e-01 5.458755046129226685e-02
-1.298090629279613495e-02 -4.900882393121719360e-02 -3.052690923213958740e-01
1.423925161361694336e-01 -5.808908864855766296e-02 -2.048216061666607857e-03
-3.698653280735015869e-01 -5.822543054819107056e-02 -7.774508558213710785e-03
-4.514786303043365479e-01 1.036377996206283569e-01 4.877141327597200871e-04
1.705058962106704712e-01 -4.835438728332519531e-02 3.971289396286010742e-01
5.499837175011634827e-02 -4.025577381253242493e-02 6.614383459091186523e-01
