-4.891175329685211182e-01 -8.513166103512048721e-04 -5.621525645256042480e-02
3.343112468719482422e-01 8.370377868413925171e-02 1.730425469577312469e-02
-2.926482558250427246e-01 5.409672483801841736e-02 -6.020032614469528198e-02
3.128020167350769043e-01 -7.697469554841518402e-03 -7.652380317449569702e-02
-7.179782986640930176e-01 -4.478762391954660416e-03 4.586395248770713806e-02
1.311235129833221436e-01 -5.860935151576995850e-02 -2.103558927774429321e-01
1.341378688812255859e-01 7.627008110284805298e-02 2.902957051992416382e-02
2.145546078681945801e-01 -1.241331696510314941e-01 2.235829383134841919e-01
8.774751424789428711e-02 -4.660303518176078796e-02 -2.344451546669006348e-01
6.171680986881256104e-02 -9.066875278949737549e-02 -6.587139517068862915e-02
-6.014915108680725098e-01 -1.311138737946748734e-03 6.681113690137863159e-02
2.563723325729370117e-01 -2.782720886170864105e-02 -6.380221992731094360e-02
-9.883569180965423584e-02 1.664724759757518768e-02 6.460008025169372559e-01
-1.026997901499271393e-02 7.486508786678314209e-02 -3.588115796446800232e-02
6.928145885467529297e-01 5.432663112878799438e-02 5.991389602422714233e-02
3.028137981891632080e-01 2.643111348152160645e-02 7.301865518093109131e-02
-4.891175329685211182e-01 5.230854824185371399e-02 2.208123542368412018e-02
1.621355563402175903e-01 1.861423626542091370e-02 7.140929996967315674e-02
9.885299950838088989e-03 -4.895320907235145569e-02 -1.827668994665145874e-01
8.570389449596405029e-02 -3.298736363649368286e-02 -1.842996329069137573e-01
-7.233428359031677246e-01 1.785536557435989380e-01 2.871133852750062943e-03
2.998505234718322754e-01 7.839034497737884521e-02 -3.424625471234321594e-02
-4.526710510253906250e-02 -6.412713974714279175e-02 2.047187648713588715e-02
8.074110150337219238e-01 5.999770015478134155e-02 1.796843484044075012e-02
1.188106611371040344e-01 -7.071784138679504395e-02 8.167853951454162598e-02
2.469716519117355347e-01 2.300803549587726593e-02 7.347847521305084229e-02
-1.167685315012931824e-01 3.721296088770031929e-03 5.862502455711364746e-01
5.211243629455566406e-01 8.321841061115264893e-02 -2.453982306178659201e-04
-9.043060541152954102e-01 5.718771368265151978e-02 1.522858738899230957e-01
4.362626969814300537e-01 -5.909470468759536743e-02 -3.608552366495132446e-02
-8.681594133377075195e-01 5.149109661579132080e-02 9.700573980808258057e-02
-7.179782986640930176e-01 -2.453185617923736572e-02 2.397159114480018616e-02
-7.258207201957702637e-01 6.973047554492950439e-02 8.874290622770786285e-03
5.555339455604553223e-01 3.542483318597078323e-03 -7.800543308258056641e-02
-4.181780517101287842e-01 6.393168121576309204e-02 -5.154045671224594116e-02
-2.104433178901672363e-01 -1.875860989093780518e-02 -6.990756094455718994e-02
1.123920362442731857e-02 -4.302668944001197815e-02 -2.460427433252334595e-01
2.301883697509765625e-01 -8.566188067197799683e-02 -2.414701282978057861e-01
-9.094406962394714355e-01 6.768684834241867065e-02 2.254988402128219604e-01
-7.766534574329853058e-03 -2.108323387801647186e-02 -6.347013264894485474e-02
-4.160067141056060791e-01 8.907001465559005737e-03 -7.869516313076019287e-02
3.865770101547241211e-01 6.533667445182800293e-02 1.375345233827829361e-02
-3.567159771919250488e-01 -6.272216141223907471e-02 -2.732346579432487488e-02
-5.037294030189514160e-01 -3.628271445631980896e-02 5.953071266412734985e-02
7.397158741950988770e-01 2.150085940957069397e-02 -7.626835256814956665e-02
-8.132624626159667969e-01 3.016073070466518402e-02 -3.907432407140731812e-02
-8.118574619293212891e-01 4.934528842568397522e-02 7.084730267524719238e-02
6.349799633026123047e-01 -2.782720886170864105e-02 -5.233236402273178101e-02
-1.941521465778350830e-02 -2.782720886170864105e-02 -5.353299155831336975e-02
1.067788004875183105e-01 -6.818884611129760742e-02 -2.720223665237426758e-01
-1.474229544401168823e-01 -5.017938464879989624e-02 7.041303813457489014e-02
-4.800045862793922424e-02 -4.264350607991218567e-02 -1.787562966346740723e-01
4.365181326866149902e-01 5.164436995983123779e-02 5.863662809133529663e-02
-8.481063246726989746e-01 5.493971705436706543e-02 -1.195932552218437195e-01
1.911550760269165039e-01 -6.157261878252029419e-02 7.079621404409408569e-02
-7.487416267395019531e-02 -2.782720886170864105e-02 -6.594803184270858765e-02
7.463831901550292969e-01 -3.804535046219825745e-02 -2.619947120547294617e-02
-3.975118994712829590e-01 -1.668773940764367580e-03 -7.468453794717788696e-02
3.687974214553833008e-01 5.537398904561996460e-02 -6.257604807615280151e-02
-5.760550498962402344e-02 -8.793540298938751221e-02 -5.141272768378257751e-02
-6.427284330129623413e-02 -1.216790452599525452e-02 5.356448888778686523e-01
-7.150150537490844727e-01 -3.030510433018207550e-02 -1.220062095671892166e-02
5.131985247135162354e-02 8.367823809385299683e-02 1.755970902740955353e-02
9.080086350440979004e-01 -8.923646062612533569e-03 1.400890480726957321e-02
2.385672479867935181e-01 -6.090843304991722107e-02 2.470080107450485229e-01
2.288600057363510132e-01 -9.250801801681518555e-02 -2.592496871948242188e-01
1.781525015830993652e-01 -1.340447515249252319e-01 2.706629931926727295e-01
-6.046658754348754883e-02 3.670034185051918030e-02 -7.016301900148391724e-02
4.011889398097991943e-01 -3.033064678311347961e-02 -6.755738705396652222e-02
2.759145498275756836e-01 5.440326407551765442e-02 -5.164263769984245300e-02
2.674522809684276581e-02 -3.094373829662799835e-02 -2.397841215133666992e-01
-8.419821411371231079e-02 -1.347071677446365356e-02 4.723179936408996582e-01
-7.955850958824157715e-01 2.276007235050201416e-01 -7.653548847883939743e-03
1.373821347951889038e-01 -1.891187950968742371e-02 6.517623364925384521e-02
5.050240457057952881e-02 -2.941102162003517151e-02 -2.650740146636962891e-01
2.613213844597339630e-02 -3.418799862265586853e-02 -3.750722706317901611e-01
-4.891175329685211182e-01 1.667279005050659180e-02 -1.876577548682689667e-02
-8.162767887115478516e-01 4.671411961317062378e-02 -1.300413012504577637e-01
1.168181300163269043e-01 -1.022152677178382874e-01 1.942824125289916992e-01
5.131985247135162354e-02 8.367823809385299683e-02 1.755970902740955353e-02
1.450968235731124878e-01 -3.679362311959266663e-02 1.264850795269012451e-01
-4.164154231548309326e-01 -2.782720886170864105e-02 -6.605021655559539795e-02
-1.944264024496078491e-01 -6.469523068517446518e-04 7.133266329765319824e-02
1.854329109191894531e-01 -4.210705682635307312e-02 7.442365586757659912e-02
-5.619472861289978027e-01 8.426577597856521606e-02 8.337838575243949890e-03
-8.938580751419067383e-01 3.695579618215560913e-02 -5.304763466119766235e-02
-3.977485746145248413e-02 2.162858843803405762e-02 -7.711134850978851318e-02
5.592890977859497070e-01 4.740384221076965332e-02 -6.536048650741577148e-02
-2.173984050750732422e-02 6.656285375356674194e-02 -4.809183254837989807e-02
-8.432782292366027832e-01 3.054391220211982727e-02 -3.192162886261940002e-02
-9.195055365562438965e-01 3.178779780864715576e-01 -1.829209737479686737e-03
4.624211192131042480e-01 7.478845119476318359e-02 -3.605997562408447266e-02
-2.670518159866333008e-01 -2.782720886170864105e-02 -1.186853088438510895e-02
5.592890977859497070e-01 4.740384221076965332e-02 -6.536048650741577148e-02
-5.400361120700836182e-02 -2.187513932585716248e-02 -7.146582752466201782e-02
-3.544168770313262939e-01 7.553096394985914230e-03 -7.315181940793991089e-02
-4.964490234851837158e-01 2.290755277499556541e-03 -1.727028400637209415e-03
6.019498109817504883e-01 7.098220288753509521e-02 -2.829419076442718506e-02
2.384905964136123657e-01 5.453099310398101807e-02 5.643972754478454590e-02
1.637704670429229736e-01 -9.038776904344558716e-02 3.812371194362640381e-02
-1.009559631347656250e-01 1.151262596249580383e-02 -6.435539126396179199e-01
2.126131802797317505e-01 -6.042307615280151367e-02 -7.425026595592498779e-02
2.058691978454589844e-01 -1.339170485734939575e-01 -2.107901573181152344e-01
-4.881723225116729736e-01 -2.307577431201934814e-02 -6.811938434839248657e-02
1.643324643373489380e-01 -1.254615187644958496e-01 2.783521711826324463e-01
-8.408769965171813965e-01 5.739207193255424500e-02 1.494758874177932739e-01
2.411984056234359741e-01 -1.089336797595024109e-01 2.072339057922363281e-01
-3.193243592977523804e-02 -3.035619668662548065e-02 -2.836199402809143066e-01
-9.042038917541503906e-01 4.566675797104835510e-02 -1.178306266665458679e-01
-6.274012476205825806e-02 -2.328013814985752106e-02 6.742423027753829956e-02
7.139849662780761719e-02 -3.566963225603103638e-02 1.231897249817848206e-01
-2.501918971538543701e-01 8.076605945825576782e-02 1.388117857277393341e-02
1.258356273174285889e-01 -5.219746753573417664e-02 2.196234017610549927e-01
-8.952885866165161133e-01 5.956342443823814392e-02 -2.192201167345046997e-01
3.382451832294464111e-01 -7.465182244777679443e-02 4.121470078825950623e-02
1.637704670429229736e-01 -9.038776904344558716e-02 3.812371194362640381e-02
-6.020534634590148926e-01 7.839034497737884521e-02 2.565758302807807922e-02
-6.071881055831909180e-01 1.135935448110103607e-02 6.788404285907745361e-02
5.727192386984825134e-02 4.344431310892105103e-02 -6.735302507877349854e-02
-3.667808473110198975e-01 8.561968058347702026e-02 -6.350736599415540695e-03
-8.837931752204895020e-01 1.521670632064342499e-02 3.688585245981812477e-03
-6.314884871244430542e-02 -2.782720886170864105e-02 4.532749950885772705e-02
7.500039041042327881e-02 -3.449453786015510559e-02 1.457462608814239502e-01
5.174202919006347656e-01 5.504190176725387573e-02 4.116361215710639954e-02
6.686231493949890137e-01 -8.257746812887489796e-04 6.859931349754333496e-02
2.593866884708404541e-01 5.486308410763740540e-02 -4.622702300548553467e-02
-5.735005065798759460e-02 -1.829878799617290497e-02 5.017462372779846191e-01
-9.883569180965423584e-02 1.664724759757518768e-02 6.460008025169372559e-01
-7.231962680816650391e-02 -3.117364458739757538e-02 -3.340975344181060791e-01
-2.730549871921539307e-01 -4.422731697559356689e-02 -5.690497905015945435e-02
4.566223323345184326e-01 4.990728199481964111e-02 5.996498838067054749e-02
7.160863876342773438e-01 7.024138420820236206e-02 -1.153644174337387085e-02
2.014243006706237793e-01 -8.147244155406951904e-02 -7.417363673448562622e-02
1.606028527021408081e-01 -1.404055655002593994e-01 2.604448497295379639e-01
2.897856533527374268e-01 -8.034844696521759033e-02 -4.852610453963279724e-02
2.342245429754257202e-01 -1.253082603216171265e-01 -2.299236357212066650e-01
1.973115205764770508e-01 6.518340110778808594e-02 1.377899758517742157e-02
2.012898214161396027e-02 -4.915757477283477783e-02 1.906038969755172729e-01
-7.101681828498840332e-02 -1.416044495999813080e-02 5.261164903640747070e-01
7.160863876342773438e-01 -2.734184451401233673e-02 5.643972754478454590e-02
-8.026356101036071777e-01 1.779849175363779068e-03 -2.921382151544094086e-02
4.247417449951171875e-01 8.380596339702606201e-02 -2.001749537885189056e-02
-1.371860038489103317e-02 -3.403472527861595154e-02 3.824749886989593506e-01
8.043966889381408691e-01 2.913891896605491638e-02 -6.244832277297973633e-02
4.432043060660362244e-02 -9.307002276182174683e-02 2.347207069396972656e-01
-3.947785198688507080e-01 3.353272005915641785e-02 6.550832092761993408e-02
-1.941521465778350830e-02 -2.782720886170864105e-02 -5.353299155831336975e-02
-9.722633659839630127e-02 -9.025832638144493103e-03 -5.565464496612548828e-01
6.548541784286499023e-01 7.764953374862670898e-02 -3.600888326764106750e-02
1.857071928679943085e-02 -2.095550484955310822e-02 -4.168644547462463379e-01
-6.549901515245437622e-02 -1.929505728185176849e-02 -4.983030259609222412e-01
-7.231962680816650391e-02 -3.117364458739757538e-02 -3.340975344181060791e-01
-5.926017165184020996e-01 -3.758552670478820801e-02 -4.947128146886825562e-02
-1.931303180754184723e-02 7.499282062053680420e-02 -4.142449796199798584e-02
9.076187014579772949e-02 8.508322387933731079e-02 6.958389654755592346e-03
-6.904659867286682129e-01 7.879906892776489258e-02 8.542200550436973572e-03
5.109573006629943848e-01 -1.553989294916391373e-02 -7.409700006246566772e-02
-6.941444873809814453e-01 1.453958004713058472e-01 -6.478462833911180496e-03
4.995896220207214355e-01 5.046928301453590393e-02 -6.633120775222778320e-02
-3.059829175472259521e-01 -5.447748699225485325e-04 7.133266329765319824e-02
5.517720058560371399e-02 -3.881170228123664856e-02 3.121486604213714600e-01
2.674522809684276581e-02 -3.094373829662799835e-02 -2.397841215133666992e-01
2.901876531541347504e-02 -3.418799862265586853e-02 1.659270673990249634e-01
2.280936539173126221e-01 -9.419401735067367554e-02 2.028145492076873779e-01
-8.638166785240173340e-01 4.341876506805419922e-02 1.122052222490310669e-01
-4.507994949817657471e-01 7.466072589159011841e-02 -3.631542995572090149e-02
-2.201250046491622925e-01 5.361136049032211304e-02 5.715499818325042725e-02
-1.362085342407226562e-01 7.959097623825073242e-02 -3.133408725261688232e-02
1.787424786016345024e-03 -4.241359978914260864e-02 -2.304600626230239868e-01
-2.477650791406631470e-01 5.529735237360000610e-02 -4.249740391969680786e-02
1.095820497721433640e-02 -1.970378682017326355e-02 -4.209262132644653320e-01
5.453413128852844238e-01 3.900118404999375343e-03 7.457692176103591919e-02
-1.103821992874145508e-01 -1.308753993362188339e-02 -5.099772810935974121e-01
8.978159427642822266e-01 -5.855826660990715027e-02 -1.794832386076450348e-02
-1.919995844364166260e-01 7.307691872119903564e-02 -3.958523273468017578e-02
7.127654552459716797e-01 8.022961020469665527e-02 1.942451857030391693e-02
2.235142886638641357e-02 5.739207193255424500e-02 -3.064436092972755432e-02
2.145059639587998390e-03 -2.494058571755886078e-02 -4.457051753997802734e-01
1.999937593936920166e-01 -2.782720886170864105e-02 -2.280193939805030823e-02
2.179010510444641113e-01 -1.027006208896636963e-01 2.230975627899169922e-01
-1.614984273910522461e-01 7.167191803455352783e-02 3.797044232487678528e-02
-8.522002398967742920e-02 6.250113993883132935e-02 -5.337972193956375122e-02
6.424391865730285645e-01 -2.008696272969245911e-02 -6.684212386608123779e-02
5.025784373283386230e-01 -2.782720886170864105e-02 2.890184149146080017e-02
4.649178311228752136e-02 -3.791762143373489380e-02 8.420752733945846558e-02
1.685243216343224049e-03 -2.131314016878604889e-02 3.910071551799774170e-01
3.576273471117019653e-02 -4.386968165636062622e-02 -2.602970302104949951e-01
3.517331480979919434e-01 -3.456940408796072006e-03 -7.706025987863540649e-02
1.824185699224472046e-01 5.639580637216567993e-02 3.201837465167045593e-02
-5.460580587387084961e-01 6.201578304171562195e-02 5.304219573736190796e-02
-3.972564339637756348e-01 7.823707908391952515e-02 2.425258979201316833e-02
8.641728162765502930e-01 2.270149067044258118e-02 2.116160281002521515e-02
3.766398727893829346e-01 5.483753606677055359e-02 -4.640584066510200500e-02
2.744584679603576660e-01 1.848650723695755005e-02 -7.752007246017456055e-02
4.696504771709442139e-01 8.306514471769332886e-02 2.053682925179600716e-03
1.621355563402175903e-01 1.861423626542091370e-02 7.140929996967315674e-02
-3.412933275103569031e-02 -3.697244450449943542e-02 -1.825370043516159058e-01
-6.708471775054931641e-01 1.219451650977134705e-01 3.433131612837314606e-03
5.062825083732604980e-01 7.680825423449277878e-03 7.508783042430877686e-02
5.282703042030334473e-02 -2.836365625262260437e-02 2.828226089477539062e-01
2.759145498275756836e-01 5.440326407551765442e-02 -5.164263769984245300e-02
-7.955850958824157715e-01 2.276007235050201416e-01 -7.653548847883939743e-03
8.058527708053588867e-01 -5.104792863130569458e-02 -2.091158367693424225e-02
2.088324427604675293e-01 -5.166101828217506409e-02 -4.768310859799385071e-02
-3.975118994712829590e-01 -1.668773940764367580e-03 -7.468453794717788696e-02
-7.495638669752224814e-07 -3.206773847341537476e-02 -2.264239042997360229e-01
-8.585865795612335205e-02 -2.890011481940746307e-02 3.657172322273254395e-01
-1.165130808949470520e-01 -4.767594113945960999e-02 3.593564629554748535e-01
-2.926482558250427246e-01 5.409672483801841736e-02 -6.020032614469528198e-02
-8.848660588264465332e-01 4.239695519208908081e-02 9.774656593799591064e-02
-3.653059899806976318e-02 -3.518426790833473206e-02 2.917379140853881836e-01
2.845744192600250244e-01 5.049659404903650284e-03 7.207348197698593140e-02
1.166648566722869873e-01 -1.256914436817169189e-01 -2.096406221389770508e-01
-1.477039456367492676e-01 1.314753107726573944e-02 6.266885399818420410e-01
-6.170230507850646973e-01 -3.523536026477813721e-02 -4.599711671471595764e-02
1.786889433860778809e-01 7.782835513353347778e-02 -3.562570363283157349e-02
-4.555509090423583984e-01 8.500658720731735229e-02 -1.084671635180711746e-02
7.850077748298645020e-01 6.868311762809753418e-02 2.360227052122354507e-03
8.323688507080078125e-01 1.238116715103387833e-02 -5.935733392834663391e-02
1.123920362442731857e-02 -4.302668944001197815e-02 -2.460427433252334595e-01
-5.646271165460348129e-03 -3.050946816802024841e-02 2.666779458522796631e-01
-8.951164782047271729e-02 3.159296466037631035e-03 5.817031264305114746e-01
2.226013988256454468e-01 -1.128165721893310547e-01 -2.406782060861587524e-01
-6.427284330129623413e-02 -1.216790452599525452e-02 5.356448888778686523e-01
1.167347375303506851e-02 -9.156285226345062256e-02 4.149569943547248840e-02
6.612405776977539062e-01 -2.782720886170864105e-02 5.597991123795509338e-02
-8.938580751419067383e-01 3.695579618215560913e-02 -5.304763466119766235e-02
1.927388906478881836e-01 7.105883210897445679e-02 -4.221640527248382568e-02
4.630597531795501709e-01 6.745693832635879517e-02 -5.128500238060951233e-02
-7.893775105476379395e-01 1.106285750865936279e-01 -8.062275126576423645e-03
-1.060139387845993042e-01 7.088001072406768799e-02 1.365127135068178177e-02
-9.048936367034912109e-01 6.219460070133209229e-02 -2.365909516811370850e-01
-9.258152246475219727e-01 7.077783346176147461e-02 2.524491846561431885e-01
1.673145405948162079e-02 -9.197158366441726685e-02 -2.550974674522876740e-02
4.715408384799957275e-01 -6.241559982299804688e-02 -2.806428074836730957e-02
2.755313515663146973e-01 -2.782720886170864105e-02 7.253249059431254864e-04
1.620844751596450806e-01 -2.782720886170864105e-02 2.182578295469284058e-02
1.177122071385383606e-01 -4.675630480051040649e-02 7.989036291837692261e-02
-2.173984050750732422e-02 6.656285375356674194e-02 -4.809183254837989807e-02
2.304693758487701416e-01 -7.069230079650878906e-02 -2.786386013031005859e-01
2.472271174192428589e-01 -7.092219591140747070e-02 -2.654316425323486328e-01
5.287879109382629395e-01 -2.782720886170864105e-02 -1.289034541696310043e-02
-8.919676542282104492e-01 5.430108308792114258e-02 -1.307054758071899414e-01
-5.926017165184020996e-01 -3.758552670478820801e-02 -4.947128146886825562e-02
-4.782351851463317871e-01 -2.782720886170864105e-02 4.831630736589431763e-02
5.837037041783332825e-02 -5.613145604729652405e-02 -7.425026595592498779e-02
-8.837931752204895020e-01 1.521670632064342499e-02 3.688585245981812477e-03
3.356583416461944580e-02 -5.993770435452461243e-02 1.092164218425750732e-01
-8.638166785240173340e-01 4.341876506805419922e-02 1.122052222490310669e-01
-6.701318621635437012e-01 6.689494103193283081e-02 3.799598664045333862e-02
-1.941521465778350830e-02 -2.782720886170864105e-02 -5.353299155831336975e-02
8.529516309499740601e-02 -3.130137547850608826e-02 -3.039796054363250732e-01
-2.981217205524444580e-02 -3.881170228123664856e-02 -1.441678851842880249e-01
1.458564400672912598e-02 -2.718857489526271820e-02 -3.084500133991241455e-01
-1.360552608966827393e-01 1.480797771364450455e-02 7.189466059207916260e-02
2.156019657850265503e-01 -1.019087061285972595e-01 -2.549580633640289307e-01
-3.343961015343666077e-02 4.712284356355667114e-02 6.522732973098754883e-02
-5.137432217597961426e-01 6.883639097213745117e-02 -4.512857645750045776e-02
3.969228863716125488e-01 4.431285336613655090e-02 -6.985647231340408325e-02
1.958298683166503906e-01 5.639580637216567993e-02 5.833008140325546265e-02
4.163142293691635132e-03 -3.140355274081230164e-02 -2.372806817293167114e-01
5.796232223510742188e-01 -2.700975164771080017e-02 6.001607701182365417e-02
-9.937214851379394531e-02 6.653730571269989014e-02 -4.811738058924674988e-02
1.456009875982999802e-02 -2.782720886170864105e-02 2.289868518710136414e-02
6.025629043579101562e-01 5.762198194861412048e-02 -6.083896383643150330e-02
-8.277977705001831055e-01 8.245205879211425781e-02 -4.383744671940803528e-03
1.026404574513435364e-01 -8.295406401157379150e-02 7.429592311382293701e-02
-2.173984050750732422e-02 6.656285375356674194e-02 -4.809183254837989807e-02
1.911550760269165039e-01 -6.157261878252029419e-02 7.079621404409408569e-02
3.690018057823181152e-01 -6.233897432684898376e-02 2.476349659264087677e-02
1.183253005146980286e-01 -3.863289207220077515e-02 -2.136512398719787598e-01
-4.567582905292510986e-02 -4.116187989711761475e-02 1.319517791271209717e-01
-1.285005919635295868e-02 -2.358492929488420486e-03 7.110276073217391968e-02
-7.717257142066955566e-01 -4.427668638527393341e-03 3.035792708396911621e-02
3.666005432605743408e-01 -7.036022096872329712e-02 1.798229641281068325e-03
-1.165897175669670105e-01 -1.520780846476554871e-02 -4.901540875434875488e-01
-3.272111117839813232e-01 8.498104661703109741e-02 7.724749855697154999e-03
8.105463534593582153e-02 -3.985906764864921570e-02 -2.891377508640289307e-01
-2.814083099365234375e-01 1.516561303287744522e-02 -7.529763132333755493e-02
1.725836098194122314e-01 -5.786853656172752380e-02 7.079621404409408569e-02
-1.799421906471252441e-01 -6.049970537424087524e-02 -6.735302507877349854e-02
6.049131155014038086e-01 -5.988661944866180420e-02 3.071556240320205688e-02
8.453714251518249512e-01 -1.932060904800891876e-02 -6.076232716441154480e-02
-5.137432217597961426e-01 6.883639097213745117e-02 -4.512857645750045776e-02
-2.051122573902830482e-04 -4.532577469944953918e-02 1.175441965460777283e-01
-1.106631979346275330e-01 -1.124827936291694641e-02 4.958196878433227539e-01
-3.396261334419250488e-01 3.790097311139106750e-02 6.905912607908248901e-02
6.933510899543762207e-01 8.413805067539215088e-02 -1.746296137571334839e-02
7.153200507164001465e-01 -6.668168306350708008e-02 5.808849353343248367e-03
-7.411223649978637695e-01 3.956142067909240723e-02 2.254104986786842346e-02
8.824121356010437012e-01 1.169144827872514725e-02 -6.120827980339527130e-03
-5.305843427777290344e-02 -4.389523342251777649e-02 -1.169620826840400696e-01
-1.694685965776443481e-01 2.224167250096797943e-02 -7.437799870967864990e-02
2.755313515663146973e-01 -2.782720886170864105e-02 7.253249059431254864e-04
-9.032842516899108887e-01 3.621497750282287598e-02 -1.628787629306316376e-02
-6.583810448646545410e-01 8.020406961441040039e-02 -1.572587899863719940e-02
5.663328617811203003e-02 -5.375573784112930298e-02 -1.919632256031036377e-01
3.121566399931907654e-02 -2.345895022153854370e-02 -3.988294601440429688e-01
2.689151167869567871e-01 -6.558322161436080933e-02 -1.771841570734977722e-02
-8.051390051841735840e-01 4.722502455115318298e-02 -2.282748371362686157e-02
-1.298221945762634277e-01 2.073449641466140747e-02 7.378501445055007935e-02
-7.717257142066955566e-01 -4.427668638527393341e-03 3.035792708396911621e-02
7.160863876342773438e-01 -3.916762769222259521e-03 7.290479261428117752e-03
-3.669596612453460693e-01 5.258954688906669617e-02 6.124225258827209473e-02
-3.335463404655456543e-01 -2.782720886170864105e-02 -5.856542661786079407e-02
-1.803576387465000153e-02 7.920780032873153687e-02 2.879966236650943756e-02
1.209053844213485718e-01 -3.607835248112678528e-02 1.123584955930709839e-01
-6.234093904495239258e-01 -3.807089105248451233e-02 3.702526167035102844e-02
-8.897452354431152344e-01 4.392967373132705688e-02 6.400115042924880981e-02
-3.727141395211219788e-02 -3.837743401527404785e-02 -1.629437208175659180e-01
7.511857151985168457e-01 7.131428271532058716e-02 3.630999475717544556e-02
6.599121689796447754e-01 5.703443661332130432e-02 5.784472450613975525e-02
-1.080643199384212494e-02 -1.625516265630722046e-02 -4.468035995960235596e-01
8.813070505857467651e-02 -3.331945836544036865e-02 -1.765593886375427246e-01
-5.098347663879394531e-01 2.523047849535942078e-02 -7.396926730871200562e-02
-7.150150537490844727e-01 -3.030510433018207550e-02 -1.220062095671892166e-02
2.692982852458953857e-01 1.989150606095790863e-02 7.123048603534698486e-02
-3.617739677429199219e-01 -2.782720886170864105e-02 -5.578098073601722717e-02
3.576273471117019653e-02 -4.386968165636062622e-02 -2.602970302104949951e-01
5.976837873458862305e-01 5.915470048785209656e-02 2.001206204295158386e-02
-1.541413813829421997e-01 -7.965871691703796387e-02 2.504449523985385895e-02
-2.346347719430923462e-01 -6.770349293947219849e-02 2.596412785351276398e-02
-1.649470776319503784e-01 -7.283811271190643311e-02 6.417997181415557861e-02
1.617012768983840942e-01 -1.074265167117118835e-01 -1.908136904239654541e-01
-4.021866917610168457e-01 7.039465010166168213e-02 -4.308494552969932556e-02
-4.424528777599334717e-02 -8.525314927101135254e-02 6.650459766387939453e-02
-9.601992964744567871e-01 6.858093291521072388e-02 2.677763700485229492e-01
-1.062438488006591797e-01 5.435217544436454773e-02 -5.238345265388488770e-02
-2.111330479383468628e-01 3.235931973904371262e-03 -7.529763132333755493e-02
1.975414156913757324e-01 -7.899452745914459229e-02 1.892244368791580200e-01
-1.454814970493316650e-01 -8.070606738328933716e-02 2.287314087152481079e-02
7.463831901550292969e-01 -3.804535046219825745e-02 -2.619947120547294617e-02
-1.791247427463531494e-01 -8.257746812887489796e-04 -7.741789519786834717e-02
4.295698106288909912e-01 5.754534155130386353e-02 2.652612701058387756e-02
-8.947776556015014648e-01 5.164436995983123779e-02 -1.676696240901947021e-01
5.788500979542732239e-02 -3.094373829662799835e-02 3.631371557712554932e-01
5.050240457057952881e-02 -2.941102162003517151e-02 -2.650740146636962891e-01
6.673969626426696777e-01 6.508122384548187256e-02 5.089638754725456238e-02
-5.677716732025146484e-01 -1.395608112215995789e-02 -6.965211033821105957e-02
-5.170385241508483887e-01 5.251291394233703613e-02 3.457291051745414734e-02
4.988931864500045776e-02 -5.403672903776168823e-02 -1.873395293951034546e-01
4.801240861415863037e-01 5.511853471398353577e-02 -5.943397060036659241e-02
-5.382479354739189148e-02 5.437772348523139954e-02 4.887830466032028198e-02
8.870614171028137207e-01 1.194020660477690399e-04 2.798220887780189514e-02
1.060379892587661743e-01 -2.782720886170864105e-02 -5.634298175573348999e-02
2.133028805255889893e-01 -8.839523047208786011e-02 -2.887034714221954346e-01
1.487753540277481079e-01 -4.067651554942131042e-02 -5.961278453469276428e-02
-3.004140555858612061e-01 -3.707462176680564880e-02 5.894317105412483215e-02
-8.637655973434448242e-01 4.278013482689857483e-02 -1.756514422595500946e-02
1.964174062013626099e-01 -8.880396187305450439e-02 1.559271663427352905e-02
4.774928689002990723e-01 -9.536739438772201538e-03 -7.626835256814956665e-02
1.729344949126243591e-02 -2.782720886170864105e-02 3.756171464920043945e-02
8.741865754127502441e-01 -3.809643536806106567e-02 4.537859559059143066e-02
4.048163592815399170e-01 2.924110181629657745e-02 -7.322845607995986938e-02
4.955790042877197266e-01 6.730367243289947510e-02 4.366705194115638733e-02
3.581450283527374268e-01 8.268196880817413330e-02 -2.390038967132568359e-02
-7.157303094863891602e-01 4.717566072940826416e-03 5.051320791244506836e-02
-8.132624626159667969e-01 3.016073070466518402e-02 -3.907432407140731812e-02
-3.586063385009765625e-01 -6.290097534656524658e-02 2.346068248152732849e-02
3.345666825771331787e-01 3.460562601685523987e-02 -7.386709004640579224e-02
2.238786667585372925e-01 -8.267306536436080933e-02 2.528834342956542969e-01
-4.894563555717468262e-02 -4.394631460309028625e-02 -1.266182214021682739e-01
-1.859453320503234863e-01 -6.637513637542724609e-02 -1.171525940299034119e-02
4.275517463684082031e-01 3.746670112013816833e-02 -6.983092427253723145e-02
2.728491127490997314e-01 -2.782720886170864105e-02 -3.644315525889396667e-02
1.141358688473701477e-01 -1.097766757011413574e-01 -2.809887826442718506e-01
6.160764098167419434e-01 -2.782720886170864105e-02 -5.131054669618606567e-02
7.160863876342773438e-01 6.732921302318572998e-02 1.252727583050727844e-02
3.588858544826507568e-01 -5.602926760911941528e-02 -4.201203957200050354e-02
-4.222398102283477783e-01 3.000745922327041626e-02 -7.292190939188003540e-02
1.401665806770324707e-01 7.305137068033218384e-02 3.618226945400238037e-02
-7.512961328029632568e-02 -2.782720886170864105e-02 1.873479411005973816e-02
8.570389449596405029e-02 -3.298736363649368286e-02 -1.842996329069137573e-01
1.726602315902709961e-01 -5.081802234053611755e-02 1.305723339319229126e-01
8.159942626953125000e-01 -4.435504600405693054e-02 4.931257665157318115e-02
-1.707458645105361938e-01 5.670234933495521545e-02 -6.155423447489738464e-02
-1.478316634893417358e-01 9.213543497025966644e-03 -6.163736581802368164e-01
6.056794524192810059e-01 -2.782720886170864105e-02 1.492853742092847824e-02
1.310979723930358887e-01 -3.582290187478065491e-02 1.284009814262390137e-01
-1.260925829410552979e-01 2.068341150879859924e-02 -6.794195175170898438e-01
-5.677716732025146484e-01 -1.395608112215995789e-02 -6.965211033821105957e-02
-3.998109698295593262e-01 2.019804902374744415e-02 7.386165112257003784e-02
-1.458391398191452026e-01 -1.510562188923358917e-02 -7.141473144292831421e-02
6.575365066528320312e-01 -2.782720886170864105e-02 8.925381116569042206e-03
2.151677012443542480e-01 -7.646554708480834961e-02 -2.384813129901885986e-01
3.898723423480987549e-01 -1.891187950968742371e-02 -6.852810829877853394e-02
-8.169477432966232300e-02 -5.413891375064849854e-02 -7.882288843393325806e-02
-2.867983579635620117e-01 -2.782720886170864105e-02 3.079219721257686615e-02
2.734877169132232666e-01 -6.011480465531349182e-03 -7.407145202159881592e-02
-3.277475535869598389e-01 7.517163455486297607e-02 3.774053230881690979e-02
2.389759719371795654e-01 -8.484441787004470825e-02 -2.566184997558593750e-01
2.385672479867935181e-01 -6.090843304991722107e-02 2.470080107450485229e-01
2.084748297929763794e-01 -9.018339961767196655e-02 -2.074692696332931519e-01
7.784937024116516113e-01 6.408495455980300903e-02 3.569690510630607605e-02
-8.613132238388061523e-01 2.084672600030899048e-01 -4.588107112795114517e-03
-4.065549373626708984e-01 8.452123403549194336e-02 -1.460188440978527069e-02
2.486831992864608765e-01 -8.905939757823944092e-02 2.738561630249023438e-01
7.160863876342773438e-01 2.405539527535438538e-02 -3.989177942276000977e-02
-9.349671751260757446e-02 -1.781343296170234680e-02 -4.894643425941467285e-01
9.367404133081436157e-02 -1.033903509378433228e-01 2.608535885810852051e-01
3.696404397487640381e-01 8.097042143344879150e-02 -2.801319025456905365e-02
5.131985247135162354e-02 8.367823809385299683e-02 1.755970902740955353e-02
-8.787673711776733398e-02 6.104505807161331177e-02 -1.815268769860267639e-02
5.168837904930114746e-01 -2.782720886170864105e-02 1.278272829949855804e-02
6.000595092773437500e-01 -4.862111434340476990e-02 4.821412265300750732e-02
-1.528640985488891602e-01 8.117479085922241211e-02 1.630798727273941040e-02
4.011889398097991943e-01 -3.033064678311347961e-02 -6.755738705396652222e-02
4.362626969814300537e-01 -5.909470468759536743e-02 -3.608552366495132446e-02
9.247341006994247437e-02 -5.069029331207275391e-02 2.060332745313644409e-01
-7.495638669752224814e-07 -3.206773847341537476e-02 -2.264239042997360229e-01
3.093789517879486084e-01 -6.576205790042877197e-02 -7.299854606389999390e-02
-1.037404015660285950e-01 -1.740470342338085175e-02 4.765840768814086914e-01
1.090523377060890198e-01 -6.520005315542221069e-02 1.170077472925186157e-01
5.795465707778930664e-01 -7.416469976305961609e-03 7.043857872486114502e-02
7.940252423286437988e-01 2.857691980898380280e-02 -6.083896383643150330e-02
-1.167685315012931824e-01 3.721296088770031929e-03 5.862502455711364746e-01
3.030692338943481445e-01 2.014695480465888977e-02 -7.731571048498153687e-02
-5.001854151487350464e-02 -4.788030311465263367e-02 -1.984517425298690796e-01
-1.365406364202499390e-01 6.924511492252349854e-02 -4.893482849001884460e-02
1.905164420604705811e-01 -1.155499294400215149e-01 2.839466035366058350e-01
-2.229860872030258179e-01 7.553096394985914230e-03 7.506228983402252197e-02
1.069831624627113342e-01 -1.166483834385871887e-01 -2.061153501272201538e-01
-2.963523268699645996e-01 -2.782720886170864105e-02 2.057405933737754822e-02
2.050772905349731445e-01 -6.481686979532241821e-02 -7.979360967874526978e-02
1.824185699224472046e-01 5.639580637216567993e-02 3.201837465167045593e-02
-1.454814970493316650e-01 -8.070606738328933716e-02 2.287314087152481079e-02
-8.277977705001831055e-01 8.245205879211425781e-02 -4.383744671940803528e-03
1.027170941233634949e-01 5.616589635610580444e-02 5.850889906287193298e-02
-3.287182748317718506e-01 -2.782720886170864105e-02 4.624713584780693054e-02
7.041056156158447266e-01 -2.782720886170864105e-02 5.858553573489189148e-02
5.643981695175170898e-01 7.793053239583969116e-02 2.501895092427730560e-02
1.183253005146980286e-01 -3.863289207220077515e-02 -2.136512398719787598e-01
3.297896981239318848e-01 6.245004758238792419e-02 -5.345635861158370972e-02
-2.099902555346488953e-02 -4.507031664252281189e-02 1.220912784337997437e-01
1.310979723930358887e-01 -3.582290187478065491e-02 1.284009814262390137e-01
3.297896981239318848e-01 6.245004758238792419e-02 -5.345635861158370972e-02
3.969228863716125488e-01 4.431285336613655090e-02 -6.985647231340408325e-02
-1.700816750526428223e-01 5.969115346670150757e-02 -2.157576382160186768e-02
-1.230015978217124939e-01 1.722465458442457020e-05 5.977967381477355957e-01
-2.999098785221576691e-02 3.736452013254165649e-02 -7.271754741668701172e-02
2.261011004447937012e-01 -5.472645536065101624e-02 -2.177895754575729370e-01
2.102307043969631195e-02 -5.007720738649368286e-02 -4.975228011608123779e-02
2.809214293956756592e-01 7.923334091901779175e-02 -3.222817182540893555e-02
-6.993302702903747559e-01 1.225582510232925415e-01 -9.416178800165653229e-03
-1.110974699258804321e-01 -1.209126971662044525e-02 5.148254036903381348e-01
-4.160067141056060791e-01 8.907001465559005737e-03 -7.869516313076019287e-02
-4.954271912574768066e-01 -2.782720886170864105e-02 -1.667105592787265778e-02
2.901876531541347504e-02 -3.418799862265586853e-02 1.659270673990249634e-01
-8.136711716651916504e-01 1.169144827872514725e-02 -3.324998542666435242e-02
8.376244455575942993e-02 -3.434126824140548706e-02 -6.449194252490997314e-02
-6.683181524276733398e-01 -3.457117453217506409e-02 -3.015900216996669769e-02
1.116324216127395630e-01 -3.991015255451202393e-02 7.940499484539031982e-02
2.458987683057785034e-01 -1.323332339525222778e-01 2.469824701547622681e-01
1.531436145305633545e-01 8.189006149768829346e-02 -1.442306675016880035e-02
1.351596862077713013e-01 -1.399712860584259033e-01 -2.566951513290405273e-01
-1.209068819880485535e-01 1.156371925026178360e-02 6.181563735008239746e-01
-5.832776427268981934e-01 4.119632393121719360e-02 -6.791502237319946289e-02
4.324564337730407715e-01 1.373507268726825714e-02 -7.550199329853057861e-02
-7.097527384757995605e-01 -7.263198960572481155e-03 -4.929246380925178528e-02
-8.758741021156311035e-01 4.214150086045265198e-02 -3.685187920928001404e-02
1.358494162559509277e-01 -7.015584409236907959e-02 7.897072285413742065e-02
-4.424528777599334717e-02 -8.525314927101135254e-02 6.650459766387939453e-02
2.384905964136123657e-01 5.453099310398101807e-02 5.643972754478454590e-02
-3.003629446029663086e-01 -6.103616207838058472e-02 2.793112024664878845e-02
-1.945541203022003174e-01 6.482576578855514526e-02 4.691131040453910828e-02
6.303051710128784180e-01 7.908007502555847168e-02 -3.258580714464187622e-02
2.901876531541347504e-02 -3.418799862265586853e-02 1.659270673990249634e-01
-3.668386861681938171e-02 -4.300114139914512634e-02 1.423998177051544189e-01
8.735224008560180664e-01 -5.546727031469345093e-02 -3.245808184146881104e-02
-6.024622321128845215e-01 7.136537879705429077e-02 -4.208867624402046204e-02
-1.097180098295211792e-01 -2.782720886170864105e-02 -5.354467313736677170e-03
6.023517996072769165e-02 -4.011451452970504761e-02 2.964893579483032227e-01
-2.923161685466766357e-01 7.680653780698776245e-02 3.464954718947410583e-02
1.084137037396430969e-01 -6.231343001127243042e-02 2.486567758023738861e-02
9.663730114698410034e-02 -4.402296245098114014e-02 -2.456084489822387695e-01
1.975414156913757324e-01 -7.899452745914459229e-02 1.892244368791580200e-01
2.317466288805007935e-01 -9.194602072238922119e-02 2.815964221954345703e-01
-1.933857798576354980e-02 -3.817306831479072571e-02 2.576093375682830811e-01
-7.590296864509582520e-01 1.443995237350463867e-01 -9.390632621943950653e-03
-2.005061805248260498e-01 -5.991216376423835754e-02 -3.411852940917015076e-02
-9.459517151117324829e-02 -2.499166876077651978e-02 4.014551937580108643e-01
1.056548133492469788e-01 -6.982376426458358765e-02 -9.179991483688354492e-02
2.500371038913726807e-01 -1.005548089742660522e-01 -2.051446437835693359e-01
-6.411890387535095215e-01 -4.042106866836547852e-02 -2.964809350669384003e-02
3.874966204166412354e-01 5.427554249763488770e-02 5.066647753119468689e-02
1.547274142503738403e-01 -1.020364314317703247e-01 -2.323248833417892456e-01
6.088725924491882324e-01 8.482777327299118042e-02 8.797654882073402405e-03
5.491220355033874512e-01 2.162858843803405762e-02 -7.711134850978851318e-02
7.160863876342773438e-01 2.781056053936481476e-02 -2.226548641920089722e-02
-1.383032500743865967e-01 1.501234248280525208e-02 -6.357370018959045410e-01
-3.773122653365135193e-02 -2.874683402478694916e-02 -3.086032867431640625e-01
-3.870382905006408691e-01 7.075228542089462280e-02 -4.694229364395141602e-02
-8.179695159196853638e-02 7.069435669109225273e-04 -5.687059760093688965e-01
1.596576720476150513e-01 6.385504454374313354e-02 -5.595979839563369751e-02
-6.514813285320997238e-03 3.102927282452583313e-02 -7.537426054477691650e-02
-9.122762084007263184e-01 4.339322447776794434e-02 -9.427782148122787476e-02
3.078462183475494385e-01 -4.734385386109352112e-02 4.987457022070884705e-02
2.306669764220714569e-02 5.532290041446685791e-02 5.582664161920547485e-02
1.408562958240509033e-01 -4.951521009206771851e-02 2.456285804510116577e-01
-1.259460486471652985e-02 -3.086710348725318909e-02 -2.587132155895233154e-01
1.815500259399414062e-01 -4.593885689973831177e-02 1.360390335321426392e-01
-3.510448932647705078e-01 3.889724239706993103e-02 -6.671439111232757568e-02
7.528139650821685791e-02 -6.517451256513595581e-02 -1.149695515632629395e-01
2.462053000926971436e-01 -9.317220747470855713e-02 -2.757264375686645508e-01
-4.160067141056060791e-01 8.907001465559005737e-03 -7.869516313076019287e-02
6.399868130683898926e-01 -6.622187048196792603e-02 9.359652176499366760e-03
3.766398727893829346e-01 5.483753606677055359e-02 -4.640584066510200500e-02
-4.686812460422515869e-01 -2.230763901025056839e-03 7.378501445055007935e-02
-4.723597466945648193e-01 -1.367508154362440109e-02 7.140929996967315674e-02
-9.122762084007263184e-01 4.339322447776794434e-02 -9.427782148122787476e-02
-7.832466959953308105e-01 1.189308091998100281e-01 -8.522090502083301544e-03
-2.184202149510383606e-02 8.206887543201446533e-02 9.640650823712348938e-03
9.985601156949996948e-02 -3.847961872816085815e-02 -7.425026595592498779e-02
-8.120618462562561035e-01 2.321222573518753052e-01 3.995129372924566269e-03
-7.825569510459899902e-01 9.882662445306777954e-02 -8.496545255184173584e-03
-2.291169762611389160e-01 -6.949166208505630493e-02 -7.960093207657337189e-03
1.214162930846214294e-01 -8.165125548839569092e-02 2.510697245597839355e-01
-1.472696810960769653e-01 -2.782720886170864105e-02 3.674426674842834473e-02
7.301363945007324219e-01 6.904075294733047485e-02 -4.750429093837738037e-02
2.637549638748168945e-01 5.877152085304260254e-02 -5.997041985392570496e-02
-8.941621519625186920e-03 -3.314063325524330139e-02 2.756443619728088379e-01
-9.537873864173889160e-01 6.686940044164657593e-02 -2.468090951442718506e-01
-6.649528443813323975e-02 1.539551932364702225e-02 7.181803137063980103e-02
6.019498109817504883e-01 7.098220288753509521e-02 -2.829419076442718506e-02
-6.172785162925720215e-01 3.427353128790855408e-02 -6.824711710214614868e-02
-3.510448932647705078e-01 3.889724239706993103e-02 -6.671439111232757568e-02
-3.654780387878417969e-01 4.239695519208908081e-02 6.719432026147842407e-02
-2.670518159866333008e-01 -2.782720886170864105e-02 -1.186853088438510895e-02
-7.893775105476379395e-01 1.106285750865936279e-01 -8.062275126576423645e-03
-8.564851880073547363e-01 3.984241932630538940e-02 -9.157001227140426636e-02
2.092088945209980011e-02 1.485907193273305893e-02 7.455137372016906738e-02
-7.127226889133453369e-02 3.721296088770031929e-03 5.981287956237792969e-01
2.350164353847503662e-01 -6.527668237686157227e-02 -2.011967822909355164e-02
1.982566863298416138e-01 2.615011297166347504e-02 7.306974381208419800e-02
-4.800045862793922424e-02 -4.264350607991218567e-02 -1.787562966346740723e-01
8.287669420242309570e-01 -3.876060992479324341e-02 1.768743619322776794e-02
3.144369125366210938e-01 1.789896562695503235e-02 -7.493999600410461426e-02
-8.421542644500732422e-01 2.983613312244415283e-01 2.564589725807309151e-03
6.330062448978424072e-02 5.527180805802345276e-02 -4.270176216959953308e-02
-1.318147331476211548e-01 2.068341150879859924e-02 6.773194074630737305e-01
-5.283296108245849609e-01 -2.409586450085043907e-03 -7.644716650247573853e-02
8.705779910087585449e-02 -7.753844559192657471e-02 -8.091759681701660156e-02
2.126131802797317505e-01 -6.042307615280151367e-02 -7.425026595592498779e-02
2.178244292736053467e-01 -1.403289139270782471e-01 -2.271647155284881592e-01
1.027170941233634949e-01 5.616589635610580444e-02 5.850889906287193298e-02
1.707954257726669312e-01 -2.782720886170864105e-02 -4.252294450998306274e-02
-1.694941371679306030e-01 -4.325491376221179962e-03 -7.695807516574859619e-02
3.144369125366210938e-01 1.789896562695503235e-02 -7.493999600410461426e-02
9.226904809474945068e-02 5.621698871254920959e-02 5.513691529631614685e-02
-1.785694807767868042e-02 -4.808466881513595581e-02 -2.001377493143081665e-01
-1.585351675748825073e-01 2.073449641466140747e-02 -6.598773598670959473e-01
8.876933157444000244e-02 -3.755998611450195312e-02 -3.004798591136932373e-01
-8.798591494560241699e-01 4.257577285170555115e-02 4.905712231993675232e-02
-4.363219812512397766e-02 -4.305223375558853149e-02 -1.996012926101684570e-01
-5.065717175602912903e-02 -1.934615150094032288e-02 4.122353196144104004e-01
-4.145250916481018066e-01 6.020378321409225464e-03 7.485792040824890137e-02
-9.330701231956481934e-01 5.547617003321647644e-02 1.632703691720962524e-01
-2.477650791406631470e-01 5.529735237360000610e-02 -4.249740391969680786e-02
7.160863876342773438e-01 -2.734184451401233673e-02 5.643972754478454590e-02
-1.360552608966827393e-01 1.480797771364450455e-02 7.189466059207916260e-02
4.909042119979858398e-01 -2.782720886170864105e-02 5.191820114850997925e-02
2.136349827051162720e-01 -7.656773924827575684e-02 2.363045215606689453e-01
-3.751341700553894043e-01 -5.010275170207023621e-02 -4.972673580050468445e-02
1.580227762460708618e-01 -4.657749086618423462e-02 2.203386723995208740e-01
-1.047111302614212036e-01 8.155797421932220459e-02 1.344690844416618347e-02
7.509582675993442535e-03 -1.868197321891784668e-02 -4.409537315368652344e-01
1.979245990514755249e-01 -1.403033733367919922e-01 -2.621873915195465088e-01
-9.861253201961517334e-03 7.874798029661178589e-02 2.994920313358306885e-02
8.429215289652347565e-03 -1.921842247247695923e-02 4.216615557670593262e-01
-6.805355101823806763e-02 1.907578087411820889e-03 5.899032354354858398e-01
-8.375049829483032227e-01 1.573254764080047607e-01 -5.456649232655763626e-03
2.384905964136123657e-01 5.453099310398101807e-02 5.643972754478454590e-02
-3.004395961761474609e-01 8.168569207191467285e-02 -1.600687764585018158e-02
7.584338635206222534e-02 -2.925775013864040375e-02 2.893621921539306641e-01
3.011277914047241211e-01 -2.782720886170864105e-02 5.655576474964618683e-03
5.423202365636825562e-02 4.556457698345184326e-02 6.300488114356994629e-02
-3.882644772529602051e-01 6.487686187028884888e-02 -5.460589751601219177e-02
5.290366336703300476e-02 -5.684671550989151001e-02 1.633980870246887207e-01
-1.649981588125228882e-01 -4.872330278158187866e-02 6.737313419580459595e-02
6.736233085393905640e-02 5.818397924304008484e-02 -2.719574049115180969e-02
-6.371084600687026978e-02 -3.245091438293457031e-02 -3.142232596874237061e-01
-1.799421906471252441e-01 -6.049970537424087524e-02 -6.735302507877349854e-02
-6.583810448646545410e-01 8.020406961441040039e-02 -1.572587899863719940e-02
-2.562972307205200195e-01 -2.782720886170864105e-02 1.643571443855762482e-02
-1.011670660227537155e-02 -2.782720886170864105e-02 5.138174816966056824e-02
1.655841767787933350e-01 -4.458495229482650757e-02 2.239916473627090454e-01
1.824185699224472046e-01 5.639580637216567993e-02 3.201837465167045593e-02
-5.372017621994018555e-04 -4.486595094203948975e-02 1.779589354991912842e-01
-6.371084600687026978e-02 -3.245091438293457031e-02 -3.142232596874237061e-01
-5.170385241508483887e-01 6.050860509276390076e-02 -2.190785109996795654e-02
5.386995673179626465e-01 7.323190104216337204e-03 -7.849080115556716919e-02
-4.861354455351829529e-02 -5.163547024130821228e-02 4.428014159202575684e-02
3.478502631187438965e-01 -2.782720886170864105e-02 -2.364493720233440399e-02
-2.993666827678680420e-01 6.755911558866500854e-02 4.767766967415809631e-02
-1.034083142876625061e-01 5.113346129655838013e-02 6.236624717712402344e-02
-1.584561076015233994e-03 -4.008897393941879272e-02 -2.740915119647979736e-01
-6.044036746025085449e-01 -5.217192694544792175e-02 -1.485733687877655029e-02
1.141869500279426575e-01 -6.065297499299049377e-02 2.429718524217605591e-01
2.249004840850830078e-01 5.455653741955757141e-02 4.609385877847671509e-02
-1.166408061981201172e-01 -3.922043368220329285e-02 -3.625039756298065186e-01
2.322064638137817383e-01 5.918200593441724777e-03 7.217565923929214478e-02
-1.206514239311218262e-01 2.579247765243053436e-02 7.046412676572799683e-02
3.747495114803314209e-01 -6.910849362611770630e-02 8.261201903223991394e-03
-6.046079993247985840e-01 9.356427937746047974e-02 2.590135438367724419e-03
-3.993766903877258301e-01 -2.782720886170864105e-02 1.316590979695320129e-02
2.630421426147222519e-03 -1.768570393323898315e-02 4.468748271465301514e-01
6.286957859992980957e-01 6.778903305530548096e-02 -5.082518607378005981e-02
1.001881062984466553e-01 8.017852157354354858e-02 -2.298075705766677856e-02
7.160863876342773438e-01 1.608524844050407410e-02 3.850689530372619629e-02
-6.376637220382690430e-01 6.132605299353599548e-02 4.752440005540847778e-02
1.349553316831588745e-01 -9.332548081874847412e-02 -2.534764409065246582e-01
1.906441599130630493e-01 2.660993114113807678e-02 7.301865518093109131e-02
-8.947776556015014648e-01 5.164436995983123779e-02 -1.676696240901947021e-01
5.282703042030334473e-02 -2.836365625262260437e-02 2.828226089477539062e-01
-4.358554780483245850e-01 2.735074236989021301e-02 7.291647791862487793e-02
3.093789517879486084e-01 -6.576205790042877197e-02 -7.299854606389999390e-02
7.632175087928771973e-01 -4.808466881513595581e-02 -5.207690969109535217e-02
7.540723681449890137e-01 -3.541417419910430908e-02 1.209300477057695389e-02
3.588858544826507568e-01 -5.602926760911941528e-02 -4.201203957200050354e-02
6.943150609731674194e-02 7.915670424699783325e-02 -3.240698948502540588e-02
-8.865264654159545898e-01 5.177209526300430298e-02 -1.118785664439201355e-01
7.745341658592224121e-01 7.065010815858840942e-02 2.330741286277770996e-02
-4.021866917610168457e-01 7.039465010166168213e-02 -4.308494552969932556e-02
3.877010047435760498e-01 -3.697244450449943542e-02 -6.247386336326599121e-02
-8.621306419372558594e-01 8.293918333947658539e-03 -5.890919826924800873e-03
-1.130900010466575623e-01 3.289408236742019653e-02 -7.172127813100814819e-02
