5.596885085105895996e-02 6.781556643545627594e-03 3.855164945125579834e-01
1.835542172193527222e-01 -1.273158788681030273e-01 2.834941446781158447e-01
2.080957591533660889e-01 -9.335099905729293823e-02 -2.232209742069244385e-01
8.368546366691589355e-01 -5.770063400268554688e-02 -5.222186073660850525e-02
1.112064719200134277e-01 -6.829932332038879395e-03 -8.330100774765014648e-02
2.373106628656387329e-01 -4.960525035858154297e-02 -1.398155093193054199e-01
-1.949881762266159058e-01 2.281910181045532227e-02 -6.969926953315734863e-01
1.040994748473167419e-02 -3.522764146327972412e-02 1.667622178792953491e-01
2.020433694124221802e-01 -2.107986062765121460e-02 -2.649237215518951416e-01
8.023534417152404785e-01 -8.648140728473663330e-02 4.364667402114719152e-04
-3.070978224277496338e-01 -4.896682128310203552e-02 -6.785081326961517334e-02
-8.003035187721252441e-01 6.046138331294059753e-02 -2.984800040721893311e-01
2.986517548561096191e-01 -1.238938495516777039e-01 -2.541724443435668945e-01
7.931012660264968872e-02 -1.452687382698059082e-01 -1.180064752697944641e-01
1.889426261186599731e-01 -8.727307617664337158e-02 -1.187260914593935013e-02
-7.270364761352539062e-01 2.649401724338531494e-01 -6.484196521341800690e-03
-5.678680259734392166e-03 -8.722198754549026489e-02 1.997265778481960297e-02
-3.549295663833618164e-01 3.752870112657546997e-02 8.519542962312698364e-02
6.491794586181640625e-01 -8.839671313762664795e-02 3.143441863358020782e-03
1.748714596033096313e-01 -1.194503232836723328e-01 2.603060901165008545e-01
2.544207870960235596e-01 -8.786043524742126465e-02 9.808730334043502808e-03
-1.620958894491195679e-01 3.913756832480430603e-02 -7.764654159545898438e-01
-2.088550478219985962e-01 9.271524846553802490e-02 3.544838353991508484e-02
3.740895092487335205e-01 -8.339137583971023560e-02 2.985566854476928711e-02
2.023498117923736572e-01 -2.718395320698618889e-03 8.713628351688385010e-02
2.231628894805908203e-01 -8.214002847671508789e-02 6.399931013584136963e-02
2.244652956724166870e-01 9.904855489730834961e-02 5.130792269483208656e-04
-8.082712888717651367e-01 4.707973077893257141e-02 -2.084347754716873169e-01
-3.246751427650451660e-02 2.018874324858188629e-02 -5.425419211387634277e-01
-4.634384512901306152e-01 6.950166076421737671e-02 6.767670810222625732e-02
4.281268715858459473e-01 -7.320190966129302979e-02 -4.527565836906433105e-02
-6.313474774360656738e-01 2.889703400433063507e-02 -4.256868362426757812e-02
7.107759714126586914e-01 -8.798813074827194214e-02 -4.058133810758590698e-03
-3.031905889511108398e-01 8.387926965951919556e-02 -4.895306006073951721e-02
-7.172555923461914062e-01 4.549640417098999023e-02 1.895416676998138428e-01
2.978856265544891357e-01 -9.179386310279369354e-03 -8.279025554656982422e-02
7.871586680412292480e-01 3.931633383035659790e-02 8.335673809051513672e-02
4.561415016651153564e-01 9.422196447849273682e-02 3.169436752796173096e-02
1.499724090099334717e-01 -8.574081957340240479e-02 -4.072998464107513428e-02
1.816388964653015137e-01 -2.861342765390872955e-02 -2.589223980903625488e-01
3.227005153894424438e-02 -4.332303628325462341e-02 -8.856172859668731689e-02
1.991320997476577759e-01 -4.424237832427024841e-02 -1.887708902359008789e-01
1.444307565689086914e-01 7.466023415327072144e-02 -6.151751056313514709e-02
-6.262730807065963745e-02 1.081648189574480057e-02 6.104763746261596680e-01
1.412385702133178711e-01 -6.421270966529846191e-02 1.196965947747230530e-01
2.875429391860961914e-01 -7.225701212882995605e-02 2.359177768230438232e-01
8.499298095703125000e-01 5.045068264007568359e-02 -6.619087606668472290e-02
1.575059592723846436e-01 9.823134541511535645e-02 -1.054465956985950470e-02
2.656317651271820068e-01 -5.713880807161331177e-02 2.437322437763214111e-01
-4.432382881641387939e-01 9.511577337980270386e-02 1.964066922664642334e-02
1.138037350028753281e-02 -2.884326316416263580e-02 1.989905536174774170e-01
2.231628894805908203e-01 -8.214002847671508789e-02 6.399931013584136963e-02
-1.510202046483755112e-02 1.806912571191787720e-02 -5.705054998397827148e-01
1.237633544951677322e-02 -4.835390672087669373e-02 8.961342275142669678e-02
-5.555777549743652344e-01 -5.195469409227371216e-02 -2.908946480602025986e-03
6.944830417633056641e-01 9.881871938705444336e-02 -2.806796226650476456e-03
2.663212418556213379e-01 -8.249754458665847778e-02 -2.765688300132751465e-01
1.502277702093124390e-01 -3.096287138760089874e-02 8.848977088928222656e-02
4.294292628765106201e-01 9.256201982498168945e-02 3.588252142071723938e-02
-2.771754562854766846e-02 -4.403808712959289551e-02 2.044811099767684937e-01
7.524210494011640549e-03 -1.724923588335514069e-02 -2.594076395034790039e-01
6.410330533981323242e-01 -5.366570875048637390e-02 6.905574351549148560e-02
-5.496606230735778809e-02 -9.383687749505043030e-03 -4.542331993579864502e-01
-2.516379393637180328e-02 -5.226116254925727844e-02 1.377005428075790405e-01
-4.590024799108505249e-02 2.184100449085235596e-04 5.380264520645141602e-01
7.849293202161788940e-02 -8.714538812637329102e-02 2.135168202221393585e-02
-2.914943993091583252e-01 -8.814135193824768066e-02 6.284554954618215561e-03
3.829690068960189819e-02 -5.438075959682464600e-02 1.576964110136032104e-01
3.114715814590454102e-01 9.011042118072509766e-02 -3.784425184130668640e-02
-1.362519264221191406e-01 -1.101809088140726089e-02 8.629354834556579590e-02
-8.831804245710372925e-02 7.527313381433486938e-02 6.496974080801010132e-02
2.921396791934967041e-01 -1.092863902449607849e-01 2.457752376794815063e-01
-2.800025343894958496e-01 2.884595468640327454e-02 8.764702826738357544e-02
-7.078323364257812500e-01 3.048035874962806702e-02 1.345338821411132812e-01
6.036971807479858398e-01 9.789935499429702759e-02 1.708691753447055817e-02
1.142965108156204224e-01 -5.877321958541870117e-02 8.823440223932266235e-02
7.422892451286315918e-01 -4.217384755611419678e-02 7.638499885797500610e-02
8.561789244413375854e-02 -3.382307663559913635e-02 2.841836512088775635e-01
-3.516097068786621094e-01 9.851226210594177246e-02 1.108560524880886078e-02
-4.919382929801940918e-01 -5.009047314524650574e-02 -4.619501158595085144e-02
2.754561044275760651e-02 8.094245940446853638e-02 5.746171250939369202e-02
5.888012796640396118e-02 -2.713224850594997406e-02 1.471238732337951660e-01
1.649629175662994385e-01 -1.352075953036546707e-02 -1.236758008599281311e-01
1.013745293021202087e-01 -8.282954990863800049e-02 -2.494735419750213623e-01
-7.146508097648620605e-01 2.621558867394924164e-02 9.101798385381698608e-02
-1.330341994762420654e-01 -5.435522645711898804e-02 7.561887800693511963e-02
-7.536465525627136230e-01 3.165259361267089844e-01 -3.598458832129836082e-03
5.446213856339454651e-02 -3.280222415924072266e-03 -4.547694921493530273e-01
6.028800010681152344e-01 -4.115233197808265686e-02 7.694682478904724121e-02
-1.007037311792373657e-01 -8.949550800025463104e-03 5.435680747032165527e-01
4.901829957962036133e-01 6.965488195419311523e-02 7.005169987678527832e-02
8.209958672523498535e-01 -7.289613597095012665e-03 8.179894834756851196e-02
-3.489061782602220774e-05 -3.813891485333442688e-02 -2.259790301322937012e-01
-4.584917053580284119e-02 -3.908380120992660522e-02 8.550188690423965454e-02
3.697736561298370361e-01 7.042101025581359863e-02 -6.519491225481033325e-02
4.575384780764579773e-02 8.875630795955657959e-03 4.125351905822753906e-01
1.711940616369247437e-01 -1.668740995228290558e-02 -2.959262430667877197e-01
-3.366778045892715454e-02 1.490247529000043869e-02 -6.008184552192687988e-01
2.913224697113037109e-01 -1.105121970176696777e-01 -2.428848594427108765e-01
-2.993930503726005554e-02 -4.608108475804328918e-02 -8.222842961549758911e-02
-2.039263099431991577e-01 7.524759322404861450e-02 -6.075138598680496216e-02
-2.066077589988708496e-01 5.831623077392578125e-02 -7.336691021919250488e-02
2.979877591133117676e-01 -5.085659399628639221e-02 2.930962443351745605e-01
1.898364275693893433e-01 -7.728789746761322021e-02 3.094147145748138428e-01
-6.950891017913818359e-01 2.603683061897754669e-02 -9.992592036724090576e-02
3.114640153944492340e-02 1.191459223628044128e-02 -4.927693009376525879e-01
-7.088793516159057617e-01 2.601129561662673950e-02 -5.329443886876106262e-02
1.943821161985397339e-01 -6.781350076198577881e-02 9.668730944395065308e-02
-1.817852854728698730e-01 5.019463598728179932e-03 8.795348554849624634e-02
-8.207590579986572266e-01 2.982155382633209229e-01 -1.989596057683229446e-03
-3.016914054751396179e-02 -2.582983672618865967e-02 -3.073925971984863281e-01
-1.223595291376113892e-01 4.329956602305173874e-03 5.544981360435485840e-01
-6.488662362098693848e-01 1.876126080751419067e-01 -8.297358639538288116e-03
5.178145766258239746e-01 5.014422908425331116e-02 8.149249851703643799e-02
-3.481876850128173828e-01 9.892086684703826904e-02 -1.351158367469906807e-03
5.014630034565925598e-02 -2.401667460799217224e-02 -3.518789112567901611e-01
-2.586531639099121094e-01 -6.186325103044509888e-02 6.254367530345916748e-02
-1.146982833743095398e-01 1.497908681631088257e-02 6.576696634292602539e-01
2.820012867450714111e-01 -1.040512099862098694e-01 2.404889911413192749e-01
-3.062039911746978760e-01 -8.691554516553878784e-02 1.713799312710762024e-02
1.649629175662994385e-01 -1.352075953036546707e-02 -1.236758008599281311e-01
-6.342332363128662109e-01 3.071019425988197327e-02 -7.518007606267929077e-02
6.845669448375701904e-02 -1.165901198983192444e-01 1.754960566759109497e-01
-1.723364293575286865e-01 2.529624477028846741e-02 -7.366269230842590332e-01
-8.022699356079101562e-01 4.710527136921882629e-02 -1.788367927074432373e-01
-6.943740248680114746e-01 1.496894210577011108e-01 1.057485491037368774e-02
-4.473242759704589844e-01 9.245987236499786377e-02 3.110700845718383789e-02
-7.049721479415893555e-01 2.058974653482437134e-01 -7.148171309381723404e-03
2.076105475425720215e-01 -1.275464054197072983e-02 2.055536806583404541e-01
-2.172058075666427612e-01 2.933117002248764038e-02 7.595131993293762207e-01
7.555176615715026855e-01 5.974633246660232544e-02 -7.260078936815261841e-02
-1.499986927956342697e-02 -1.390382833778858185e-02 -3.043536245822906494e-01
4.418149590492248535e-01 -3.808783739805221558e-02 -7.405642420053482056e-02
2.966598272323608398e-01 -4.832837358117103577e-02 9.970074146986007690e-02
1.804566010832786560e-02 -8.354459702968597412e-02 -5.628232657909393311e-02
2.222435474395751953e-01 -7.189949601888656616e-02 -2.307545542716979980e-01
-7.615121603012084961e-01 3.553678095340728760e-02 -1.411179155111312866e-01
1.835542172193527222e-01 -1.273158788681030273e-01 2.834941446781158447e-01
2.548038661479949951e-01 -6.515759229660034180e-02 -3.159476518630981445e-01
-6.314752101898193359e-01 1.135027706623077393e-01 -9.318859316408634186e-03
6.850852370262145996e-01 4.544533416628837585e-02 -7.862763851881027222e-02
9.675224125385284424e-02 -4.041175544261932373e-02 -2.367813885211944580e-01
8.339612931013107300e-02 8.823925163596868515e-04 -4.292320013046264648e-01
-6.796389222145080566e-01 3.842252120375633240e-02 -1.469404697418212891e-01
1.282655298709869385e-01 -1.954761333763599396e-02 1.114479899406433105e-01
3.837171494960784912e-01 9.902300685644149780e-02 4.113867413252592087e-03
1.840138882398605347e-01 -1.112023741006851196e-02 1.508778929710388184e-01
-1.308635175228118896e-01 5.933773145079612732e-02 7.707451283931732178e-02
-8.058452606201171875e-01 5.640092119574546814e-02 -3.067030906677246094e-01
-3.451052308082580566e-02 -1.469549071043729782e-02 -4.154672622680664062e-01
-1.681993454694747925e-01 1.758391968905925751e-02 -6.377456784248352051e-01
9.082753956317901611e-02 -4.179077968001365662e-02 -2.698269188404083252e-01
1.994385421276092529e-01 -3.142255172133445740e-02 -2.242680341005325317e-01
-2.515537440776824951e-01 7.675430923700332642e-02 6.300335377454757690e-02
-2.613090574741363525e-01 -8.773274719715118408e-02 1.134098041802644730e-02
-7.911611795425415039e-01 4.799908399581909180e-02 2.426596730947494507e-01
2.633333802223205566e-01 -1.159516870975494385e-01 -2.494479864835739136e-01
-5.294273495674133301e-01 2.026535570621490479e-02 8.133927732706069946e-02
2.360848635435104370e-01 9.396658837795257568e-02 -2.803784795105457306e-02
-2.997239585965871811e-03 -1.510408427566289902e-02 2.862777411937713623e-01
-7.593924403190612793e-01 3.036039471626281738e-01 -5.181783810257911682e-03
3.094541132450103760e-01 8.561582118272781372e-02 -4.586302116513252258e-02
-7.939192056655883789e-01 4.498565569519996643e-02 2.108910232782363892e-01
9.337371215224266052e-03 1.546430215239524841e-02 -5.219076275825500488e-01
9.644579142332077026e-02 -2.023712918162345886e-02 2.894188463687896729e-01
1.748714596033096313e-01 -1.194503232836723328e-01 2.603060901165008545e-01
2.199196219444274902e-01 -1.069369465112686157e-01 -3.114275336265563965e-01
4.499869644641876221e-01 -8.142498135566711426e-02 -3.023407422006130219e-02
2.411923557519912720e-01 -1.154153943061828613e-01 2.565776109695434570e-01
-2.706046998500823975e-01 1.459602732211351395e-02 -8.442465960979461670e-02
-1.002185121178627014e-01 7.624287623912096024e-03 -5.090111494064331055e-01
-2.598099596798419952e-02 -3.029889799654483795e-02 3.781872093677520752e-01
-3.016914054751396179e-02 -2.718332596123218536e-02 -2.534318566322326660e-01
4.794061779975891113e-01 9.720984846353530884e-02 -1.588199846446514130e-02
9.156812727451324463e-02 5.073159188032150269e-02 -7.709538936614990234e-02
-1.481524109840393066e-01 3.173169121146202087e-02 -6.995975375175476074e-01
-1.146982833743095398e-01 1.497908681631088257e-02 6.576696634292602539e-01
-3.522226214408874512e-01 -7.925429195165634155e-02 -2.211314812302589417e-02
2.656573057174682617e-01 -1.017528325319290161e-01 -2.495501488447189331e-01
-1.540846750140190125e-02 -1.492595416493713856e-03 5.162940621376037598e-01
2.384853810071945190e-01 9.858886897563934326e-02 -5.794684402644634247e-03
1.237633544951677322e-02 -4.835390672087669373e-02 8.961342275142669678e-02
-5.122150778770446777e-01 2.460672892630100250e-02 -7.816796749830245972e-02
2.052100151777267456e-01 -8.829457312822341919e-02 4.369242116808891296e-03
1.094443798065185547e-01 -6.319119781255722046e-02 2.777992784976959229e-01
1.116916835308074951e-01 -3.275049850344657898e-02 2.826003432273864746e-01
2.839676737785339355e-01 -4.082034900784492493e-02 -2.636979222297668457e-01
-1.889868676662445068e-01 -8.686447143554687500e-02 1.739336736500263214e-02
1.526793688535690308e-01 -6.142911314964294434e-02 2.992252409458160400e-01
7.230594754219055176e-01 7.547743618488311768e-02 6.468882411718368530e-02
2.803082391619682312e-02 1.349791698157787323e-02 -4.726202189922332764e-01
-6.491981744766235352e-01 7.798010855913162231e-02 3.064733184874057770e-02
1.213448643684387207e-01 -8.448947221040725708e-02 2.985357344150543213e-01
5.014630034565925598e-02 -2.401667460799217224e-02 -3.518789112567901611e-01
7.338363528251647949e-01 2.082718349993228912e-02 -8.416928350925445557e-02
1.434858888387680054e-01 -1.699386723339557648e-02 1.134399175643920898e-01
2.080702185630798340e-01 7.552850991487503052e-02 6.461220979690551758e-02
2.373106628656387329e-01 -4.960525035858154297e-02 -1.398155093193054199e-01
-5.496606230735778809e-02 -9.383687749505043030e-03 -4.542331993579864502e-01
4.041471481323242188e-01 -7.006078958511352539e-02 5.360555276274681091e-02
1.914377324283123016e-02 -5.042314995080232620e-03 -4.762976169586181641e-01
-7.790564298629760742e-01 2.127414941787719727e-01 6.310092750936746597e-03
7.422892451286315918e-01 -4.217384755611419678e-02 7.638499885797500610e-02
1.605193912982940674e-01 -1.058395393192768097e-02 1.646936833858489990e-01
7.136797159910202026e-02 2.772165462374687195e-03 4.517352581024169922e-01
-6.692195534706115723e-01 3.331501781940460205e-02 6.839176267385482788e-02
-6.373998522758483887e-01 3.002067841589450836e-02 -5.618017539381980896e-02
2.064868956804275513e-01 -8.456609398126602173e-02 5.291603505611419678e-02
8.901003599166870117e-01 -2.634058520197868347e-02 -5.983203649520874023e-02
-6.108919382095336914e-01 8.551367372274398804e-02 -1.662258431315422058e-02
-5.810716748237609863e-02 7.866962254047393799e-02 6.047513708472251892e-02
6.562202423810958862e-02 2.823243150487542152e-03 8.772364258766174316e-02
7.677434477955102921e-03 -1.438131034374237061e-01 -1.710733920335769653e-01
-8.199675083160400391e-01 2.262253016233444214e-01 7.429168908856809139e-04
1.678486615419387817e-01 -6.119928508996963501e-02 2.370924949645996094e-01
-8.767959475517272949e-02 -2.932847850024700165e-02 8.230969309806823730e-02
-7.139357924461364746e-01 4.199776798486709595e-02 -1.365722417831420898e-01
-1.413338780403137207e-01 6.985848769545555115e-03 5.601419210433959961e-01
-1.907234191894531250e-01 2.986745350062847137e-02 -7.741159796714782715e-01
3.377676382660865784e-02 -4.362948238849639893e-02 2.137767523527145386e-01
-4.633107185363769531e-01 7.795456796884536743e-02 5.853428691625595093e-02
-2.516379393637180328e-02 -5.226116254925727844e-02 1.377005428075790405e-01
-7.271461933851242065e-02 -1.678956486284732819e-02 -3.525173366069793701e-01
3.822028636932373047e-02 -1.234341785311698914e-01 1.671197414398193359e-01
2.759999930858612061e-01 -4.324641451239585876e-02 1.254170089960098267e-01
-7.790564298629760742e-01 2.127414941787719727e-01 6.310092750936746597e-03
-1.624533981084823608e-01 2.728816494345664978e-02 7.565253376960754395e-01
8.676273226737976074e-01 -8.847333490848541260e-02 2.142829261720180511e-02
1.681806445121765137e-01 -1.158239990472793579e-01 2.516744136810302734e-01
-6.070358157157897949e-01 9.437518566846847534e-02 -1.008498482406139374e-02
-8.199675083160400391e-01 2.262253016233444214e-01 7.429168908856809139e-04
3.520686179399490356e-02 5.402523092925548553e-03 -3.724621236324310303e-01
-6.976172924041748047e-01 2.528353929519653320e-01 1.014071796089410782e-02
-6.485597491264343262e-01 8.025295287370681763e-02 2.119845710694789886e-02
4.177586436271667480e-01 -5.491705238819122314e-02 -6.381588429212570190e-02
9.675224125385284424e-02 -8.400426805019378662e-02 5.695096030831336975e-02
2.591452300548553467e-01 -6.587263941764831543e-02 7.257991284132003784e-02
1.414173394441604614e-01 -6.717505306005477905e-02 1.040931865572929382e-01
-8.030105233192443848e-01 4.429614543914794922e-02 1.880605071783065796e-01
2.233671844005584717e-01 -4.207169264554977417e-02 -2.774626314640045166e-01
5.877618193626403809e-01 -1.415983540937304497e-03 -8.299455791711807251e-02
-6.110707521438598633e-01 7.397072017192840576e-02 5.043889954686164856e-02
-5.125980973243713379e-01 -5.394662171602249146e-02 -3.498404845595359802e-02
-1.007548049092292786e-01 6.270132143981754780e-04 5.312590003013610840e-01
-3.527664020657539368e-02 -2.325054630637168884e-02 -3.270564675331115723e-01
-1.190983038395643234e-02 1.812020316720008850e-02 5.632320046424865723e-01
-3.884858787059783936e-01 -8.566491305828094482e-03 -8.238165080547332764e-02
7.890995144844055176e-01 7.951235771179199219e-02 -5.408610031008720398e-02
-6.824479699134826660e-01 1.288252770900726318e-01 -6.433121394366025925e-03
-7.078323364257812500e-01 3.048035874962806702e-02 1.345338821411132812e-01
-2.577669359743595123e-02 -1.288293860852718353e-03 -3.923558294773101807e-01
-5.577484369277954102e-01 -3.916041180491447449e-02 4.770638793706893921e-02
1.707854568958282471e-01 -1.115592271089553833e-01 3.058905303478240967e-01
-6.009909883141517639e-02 -1.063502207398414612e-02 4.440484344959259033e-01
-7.017799615859985352e-01 3.533248230814933777e-02 7.745757699012756348e-02
4.561415016651153564e-01 9.422196447849273682e-02 3.169436752796173096e-02
1.498957872390747070e-01 -8.806473016738891602e-02 7.408204488456249237e-03
1.098785176873207092e-01 -6.988203525543212891e-02 -7.872979342937469482e-02
2.892284095287322998e-01 1.993336528539657593e-02 -8.422035723924636841e-02
-6.489938497543334961e-01 1.843438148498535156e-01 1.287323050200939178e-02
6.508905291557312012e-01 7.397072017192840576e-02 6.660413742065429688e-02
-2.770912647247314453e-01 9.909962117671966553e-02 3.220054553821682930e-03
3.747969865798950195e-02 1.168475672602653503e-02 -4.695557057857513428e-01
-1.007037311792373657e-01 -8.949550800025463104e-03 5.435680747032165527e-01
-9.087178111076354980e-02 -4.786935634911060333e-03 4.835804998874664307e-01
1.650395244359970093e-01 4.166578128933906555e-02 8.399517834186553955e-02
2.970684170722961426e-01 -9.534292668104171753e-02 -2.243446260690689087e-01
-4.067962467670440674e-01 -7.248685508966445923e-02 4.242012277245521545e-02
7.137128114700317383e-01 7.649893313646316528e-02 -5.906591191887855530e-02
9.147184491157531738e-01 -4.150986671447753906e-02 4.441204667091369629e-02
-2.770912647247314453e-01 9.909962117671966553e-02 3.220054553821682930e-03
7.863669991493225098e-01 9.841011464595794678e-02 4.956604912877082825e-03
-3.797264993190765381e-01 9.698001295328140259e-02 2.107077091932296753e-02
1.495382636785507202e-01 -1.474655885249376297e-02 -3.260094225406646729e-01
-6.201110482215881348e-01 -3.875181823968887329e-02 3.194516990333795547e-03
-3.530218452215194702e-02 -4.140771180391311646e-02 -1.859362274408340454e-01
-7.935361266136169434e-01 5.254475772380828857e-02 2.847454845905303955e-01
9.147184491157531738e-01 -4.150986671447753906e-02 4.441204667091369629e-02
-5.151849612593650818e-02 -1.106915902346372604e-02 -4.391916394233703613e-01
2.596228756010532379e-02 -3.675989061594009399e-02 -1.327416002750396729e-01
7.578594982624053955e-02 -1.258091628551483154e-01 1.286858022212982178e-01
9.376000761985778809e-01 -2.774515375494956970e-02 4.543355107307434082e-02
-6.824555993080139160e-02 8.390416391193866730e-03 4.910629689693450928e-01
-7.168725728988647461e-01 3.116986528038978577e-02 -3.084697388112545013e-02
7.649921178817749023e-01 -4.071884788572788239e-03 8.688091486692428589e-02
8.536251634359359741e-02 1.827278989367187023e-03 4.281130433082580566e-01
8.630740642547607422e-02 -2.317393571138381958e-02 -1.302644759416580200e-01
-5.954928398132324219e-01 -2.904756553471088409e-02 5.038782209157943726e-02
2.734131179749965668e-02 -1.300994604825973511e-01 1.510821878910064697e-01
1.977785974740982056e-01 -4.625984281301498413e-02 2.760116457939147949e-01
9.260759688913822174e-03 -8.673678338527679443e-02 -2.734833769500255585e-02
5.406962037086486816e-01 -8.298277109861373901e-02 3.082609362900257111e-02
1.725399866700172424e-02 -4.291443154215812683e-02 2.110697925090789795e-01
1.350074261426925659e-01 -7.670053839683532715e-02 -7.198788970708847046e-02
-1.620013080537319183e-02 1.188904792070388794e-02 8.871960639953613281e-02
-3.516097068786621094e-01 9.851226210594177246e-02 1.108560524880886078e-02
-7.388603687286376953e-01 2.745933532714843750e-01 1.060039270669221878e-02
-3.102900087833404541e-01 -8.630264550447463989e-02 -1.542232278734445572e-02
9.260759688913822174e-03 -8.673678338527679443e-02 -2.734833769500255585e-02
6.036971807479858398e-01 8.204057067632675171e-02 -5.176218599081039429e-02
2.791666388511657715e-01 -2.102879248559474945e-02 8.767257630825042725e-02
3.122376799583435059e-01 -8.048008382320404053e-02 4.249673336744308472e-02
-2.184060662984848022e-01 3.035266883671283722e-02 -7.581294775009155273e-01
7.496951222419738770e-01 -7.386589050292968750e-02 4.844697192311286926e-02
1.457587033510208130e-01 -4.181631281971931458e-02 -2.220207154750823975e-01
8.536327481269836426e-01 -7.258901000022888184e-02 3.059625625610351562e-02
5.546141266822814941e-01 -5.461060628294944763e-02 6.831514835357666016e-02
7.677434477955102921e-03 -1.438131034374237061e-01 -1.710733920335769653e-01
-1.133447811007499695e-01 2.110808715224266052e-02 -6.017888784408569336e-01
4.082842171192169189e-01 -7.146535813808441162e-02 -4.772726073861122131e-02
-7.470654696226119995e-02 -1.993067190051078796e-02 -3.698062300682067871e-01
4.613691195845603943e-02 9.876763820648193359e-02 -3.292009001597762108e-03
9.018910676240921021e-02 -3.223975002765655518e-02 2.931984066963195801e-01
-1.060155183076858521e-01 1.978014037013053894e-02 -6.804444193840026855e-01
8.190549612045288086e-01 2.700725011527538300e-02 8.292260020971298218e-02
1.577613502740859985e-01 -1.122238300740718842e-02 -1.538611352443695068e-01
-1.055047810077667236e-01 5.734514445066452026e-03 -5.406010746955871582e-01
8.015618324279785156e-01 5.239153280854225159e-02 -7.395427674055099487e-02
-5.526409149169921875e-01 2.144007757306098938e-02 -7.566528767347335815e-02
5.971084833145141602e-01 9.284224361181259155e-03 -8.419481664896011353e-02
-6.063538044691085815e-02 -1.896025240421295166e-02 3.474145531654357910e-01
-2.276506572961807251e-01 -7.754328101873397827e-02 -3.822730854153633118e-02
1.874359250068664551e-01 -1.175860837101936340e-01 2.931728363037109375e-01
8.104667812585830688e-02 -8.729860931634902954e-02 -1.424759719520807266e-02
9.208474755287170410e-01 -2.130969613790512085e-02 5.439721420407295227e-02
1.822007149457931519e-01 -3.379753977060317993e-02 2.874524593353271484e-01
-3.527664020657539368e-02 -2.325054630637168884e-02 -3.270564675331115723e-01
2.855254709720611572e-01 -6.597479432821273804e-02 8.578280359506607056e-02
1.123045831918716431e-01 -9.621120244264602661e-02 2.951647639274597168e-01
-5.279461741447448730e-01 5.709043145179748535e-02 7.365249097347259521e-02
-2.210109084844589233e-01 6.536458432674407959e-02 7.344818860292434692e-02
7.802890539169311523e-01 -7.956074178218841553e-02 -3.424346446990966797e-02
5.134987235069274902e-01 2.440242655575275421e-02 8.825993537902832031e-02
3.114640153944492340e-02 1.191459223628044128e-02 -4.927693009376525879e-01
6.003773212432861328e-01 9.861440956592559814e-02 -5.360546521842479706e-03
-5.287633538246154785e-01 7.134035974740982056e-02 6.343749165534973145e-02
4.313190579414367676e-01 -3.308248892426490784e-02 -7.627818733453750610e-02
6.235908865928649902e-01 7.254061847925186157e-02 6.775332242250442505e-02
-6.128328442573547363e-01 -3.435936942696571350e-02 3.524408116936683655e-02
8.689041733741760254e-01 4.381093010306358337e-02 6.489312648773193359e-02
-7.324504256248474121e-01 3.086341731250286102e-02 4.967277124524116516e-02
7.051577568054199219e-01 1.239917939528822899e-03 8.754488825798034668e-02
-6.177359819412231445e-01 1.222876757383346558e-01 1.417564321309328079e-02
-6.772128343582153320e-01 7.818441092967987061e-02 5.773804616183042526e-03
-2.907538115978240967e-01 8.436448872089385986e-02 -4.808478429913520813e-02
6.410330533981323242e-01 -5.366570875048637390e-02 6.905574351549148560e-02
4.896211624145507812e-01 -8.586850762367248535e-02 2.137722074985504150e-02
-6.824479699134826660e-01 1.288252770900726318e-01 -6.433121394366025925e-03
-6.446525454521179199e-01 1.661100387573242188e-01 -9.216709062457084656e-03
5.037613958120346069e-02 -1.007568687200546265e-01 1.432166397571563721e-01
-4.716614782810211182e-01 9.532007575035095215e-02 1.185173075646162033e-02
2.382810860872268677e-01 -4.339963942766189575e-02 -1.540654152631759644e-01
1.104658767580986023e-01 -3.944851632695645094e-04 -3.782336115837097168e-01
7.714785933494567871e-01 8.852709084749221802e-02 4.482065141201019287e-02
-2.600652910768985748e-02 -2.496156096458435059e-02 -3.686825633049011230e-01
2.023498117923736572e-01 -2.718395320698618889e-03 8.713628351688385010e-02
-8.725491762161254883e-01 3.464813828468322754e-01 8.195293485186994076e-04
-7.691223025321960449e-01 5.466436967253684998e-02 2.580843269824981689e-01
-1.007548049092292786e-01 6.270132143981754780e-04 5.312590003013610840e-01
4.062081500887870789e-02 -1.219281274825334549e-02 4.303092658519744873e-01
5.481966212391853333e-02 -8.566419780254364014e-02 -1.449485421180725098e-01
9.644579142332077026e-02 -2.023712918162345886e-02 2.894188463687896729e-01
6.832899898290634155e-02 -2.705563604831695557e-02 3.313003778457641602e-01
1.142198890447616577e-01 -2.514032833278179169e-02 -3.182204961776733398e-01
1.835542172193527222e-01 -1.273158788681030273e-01 2.834941446781158447e-01
-2.609260082244873047e-01 8.870586007833480835e-02 -4.050014913082122803e-02
8.921868354082107544e-02 -9.996582753956317902e-03 2.213613986968994141e-01
2.151876129209995270e-02 -4.306765645742416382e-02 1.089197769761085510e-01
1.671335995197296143e-01 -6.932020187377929688e-02 3.061969876289367676e-01
1.994385421276092529e-01 -3.142255172133445740e-02 -2.242680341005325317e-01
9.644579142332077026e-02 -2.023712918162345886e-02 2.894188463687896729e-01
1.834520697593688965e-01 -4.585123807191848755e-02 -2.989907562732696533e-01
-8.666500449180603027e-01 3.541682064533233643e-01 4.496929701417684555e-03
1.184080466628074646e-01 -1.957314647734165192e-02 2.677375078201293945e-01
1.819198131561279297e-01 -7.177180796861648560e-02 -3.037662506103515625e-01
-8.148599863052368164e-01 5.456221848726272583e-02 2.461838424205780029e-01
-7.220387458801269531e-02 -8.183422498404979706e-03 -3.966716825962066650e-01
2.465041577816009521e-01 -6.176111474633216858e-02 -8.373514562845230103e-02
2.966598272323608398e-01 -4.832837358117103577e-02 9.970074146986007690e-02
1.535987257957458496e-01 -2.886879816651344299e-02 -2.735553979873657227e-01
2.392515242099761963e-01 -9.858617931604385376e-02 2.399782389402389526e-01
9.537322074174880981e-02 2.440174110233783722e-03 3.983362913131713867e-01
-1.836750656366348267e-01 2.940778248012065887e-02 7.215133905410766602e-01
9.396685957908630371e-01 5.147218331694602966e-02 -6.871832883916795254e-04
-3.333579003810882568e-02 -8.272739499807357788e-02 -5.618017539381980896e-02
7.823755592107772827e-02 -5.964149534702301025e-02 1.352234035730361938e-01
7.494142055511474609e-01 6.835246831178665161e-02 7.107320427894592285e-02
-2.358046919107437134e-02 -2.723440341651439667e-02 3.068609535694122314e-01
7.483671903610229492e-01 9.838457405567169189e-02 -8.450583554804325104e-03
8.901003599166870117e-01 -2.634058520197868347e-02 -5.983203649520874023e-02
8.068225383758544922e-01 -5.420200154185295105e-02 -6.113444641232490540e-02
-3.810289204120635986e-01 -7.414679974317550659e-02 -3.983617573976516724e-02
9.394311904907226562e-02 -3.785800188779830933e-02 -8.434804528951644897e-02
2.185074798762798309e-02 -4.148432984948158264e-02 -1.975302547216415405e-01
1.839117407798767090e-01 -5.729205161333084106e-02 -1.417818814516067505e-01
1.368461102247238159e-01 -9.386173635721206665e-02 3.010384142398834229e-01
9.266624599695205688e-02 -3.658112138509750366e-02 2.638047337532043457e-01
-3.111403621733188629e-02 -2.273979783058166504e-02 -2.795566916465759277e-01
-1.511402726173400879e-01 9.169374406337738037e-02 -3.383486345410346985e-02
-1.342599987983703613e-01 3.505156561732292175e-02 7.299407720565795898e-01
2.423160225152969360e-01 -5.553064402192831039e-03 -8.317331969738006592e-02
-6.652612686157226562e-01 3.081233985722064972e-02 1.299371421337127686e-01
-5.353596061468124390e-02 -8.081275969743728638e-03 -4.667465686798095703e-01
-4.165771007537841797e-01 -1.535946410149335861e-02 8.353549242019653320e-02
-7.613588571548461914e-01 4.848429188132286072e-02 2.574458718299865723e-01
3.612441420555114746e-01 -8.528114855289459229e-02 -1.948278583586215973e-02
-7.157489061355590820e-01 -6.395795382559299469e-03 3.838519752025604248e-02
-7.898331880569458008e-01 5.264690890908241272e-02 -2.558624930679798126e-02
4.038407206535339355e-01 8.191289007663726807e-02 -5.196648836135864258e-02
-3.869280517101287842e-01 8.566690236330032349e-02 5.003029853105545044e-02
2.193322479724884033e-01 -1.115847676992416382e-01 -2.912273406982421875e-01
-6.438608169555664062e-01 3.114433214068412781e-02 -1.049312651157379150e-01
-3.651956617832183838e-01 3.540909290313720703e-02 -8.158998936414718628e-02
4.294292628765106201e-01 9.256201982498168945e-02 3.588252142071723938e-02
-2.934097349643707275e-01 -1.819412410259246826e-02 -8.046634495258331299e-02
3.923422656953334808e-03 -4.876251146197319031e-02 -9.471626579761505127e-02
-4.021228849887847900e-01 8.298546075820922852e-02 -5.048531293869018555e-02
4.340440034866333008e-02 -7.092906534671783447e-02 1.533550322055816650e-01
2.673938274383544922e-01 -8.630264550447463989e-02 2.591824531555175781e-01
9.526927471160888672e-01 3.282980248332023621e-02 -1.274088490754365921e-02
3.071226365864276886e-02 7.394451647996902466e-03 -3.936071991920471191e-01
4.561415016651153564e-01 9.422196447849273682e-02 3.169436752796173096e-02
2.767660915851593018e-01 -1.141896098852157593e-01 -2.463579624891281128e-01
-5.911003947257995605e-01 2.361076511442661285e-02 6.052621454000473022e-02
1.003274917602539062e-01 2.210338599979877472e-03 -3.803021311759948730e-01
1.434347927570343018e-01 -1.903686299920082092e-02 -8.401605486869812012e-02
-7.223376035690307617e-01 -1.408258639276027679e-02 -1.067234668880701065e-02
9.439589381217956543e-01 3.231905400753021240e-02 3.057071939110755920e-02
-7.368505001068115234e-02 5.198231432586908340e-03 -5.739019513130187988e-01
2.445633113384246826e-01 -1.128105744719505310e-01 -2.320314049720764160e-01
-1.511913686990737915e-01 1.594951748847961426e-02 6.130045652389526367e-01
4.529417678713798523e-02 -6.012669950723648071e-02 -1.430076807737350464e-01
-7.373612374067306519e-02 -8.436178416013717651e-02 3.455457091331481934e-02
1.225961968302726746e-01 -4.605554789304733276e-02 2.848476469516754150e-01
8.795533180236816406e-01 -4.447222501039505005e-02 5.608268454670906067e-02
-7.864622473716735840e-01 4.618591815233230591e-02 -1.895625591278076172e-01
3.698758184909820557e-01 8.913999795913696289e-02 4.397790879011154175e-02
-7.450915575027465820e-01 5.918450653553009033e-02 -3.031068667769432068e-02
-2.665442824363708496e-01 2.948439493775367737e-02 -8.322439342737197876e-02
1.070949360728263855e-01 -8.637924492359161377e-02 -3.454991430044174194e-02
-4.780969619750976562e-01 -6.027992442250251770e-02 -3.552033752202987671e-02
-1.495825052261352539e-01 5.864821746945381165e-02 7.743203639984130859e-02
5.166909098625183105e-01 3.308518230915069580e-02 -8.227951079607009888e-02
-2.914943993091583252e-01 -8.814135193824768066e-02 6.284554954618215561e-03
3.052659630775451660e-01 -8.127176016569137573e-02 -3.866144642233848572e-02
-2.364100068807601929e-01 2.363630756735801697e-02 -8.406713604927062988e-02
2.670107781887054443e-01 -7.330406457185745239e-02 -2.807314395904541016e-01
2.115944027900695801e-01 -5.491705238819122314e-02 -2.401778846979141235e-01
-5.784593224525451660e-01 -4.082034900784492493e-02 3.935562074184417725e-02
8.856823444366455078e-01 7.294921576976776123e-02 -2.826768718659877777e-02
-3.580451607704162598e-01 -8.032686263322830200e-02 -2.990208566188812256e-02
1.993108540773391724e-01 -5.256760865449905396e-02 -2.311631441116333008e-01
-5.488945171236991882e-02 -2.797498926520347595e-02 3.735393881797790527e-01
1.887127757072448730e-01 -5.902859941124916077e-02 -1.326394677162170410e-01
9.726300090551376343e-02 -8.489869534969329834e-03 4.017838537693023682e-01
2.976302504539489746e-01 -1.263454556465148926e-01 -2.786884307861328125e-01
6.383516192436218262e-01 8.977843821048736572e-02 -3.861037269234657288e-02
1.228515654802322388e-01 2.690510451793670654e-02 -8.391391485929489136e-02
7.920107841491699219e-01 9.733753651380538940e-02 1.279661804437637329e-02
1.831456124782562256e-01 -9.715679101645946503e-03 -2.394628375768661499e-01
-5.685508251190185547e-01 -4.763887450098991394e-02 -1.447743549942970276e-02
-1.420744806528091431e-01 3.530694544315338135e-02 7.360697984695434570e-01
1.266055703163146973e-01 -8.145051449537277222e-02 -6.317745149135589600e-02
-8.019710332155227661e-02 2.292125672101974487e-02 -5.837338566780090332e-01
2.117476314306259155e-01 -1.474655885249376297e-02 -9.476734697818756104e-02
-1.967247277498245239e-01 3.660935908555984497e-02 -7.744734883308410645e-01
-6.050693988800048828e-01 1.924902647733688354e-01 4.875418380834162235e-04
8.985532522201538086e-01 4.547086730599403381e-02 -4.925951361656188965e-02
-1.681993454694747925e-01 1.758391968905925751e-02 -6.377456784248352051e-01
1.164161190390586853e-01 -3.195883706212043762e-02 -2.645661830902099609e-01
8.169609308242797852e-01 -2.483387291431427002e-02 7.875999063253402710e-02
2.904031276702880859e-01 -2.751531638205051422e-02 -8.302009105682373047e-02
1.637371033430099487e-01 -1.031574010848999023e-01 -2.458727508783340454e-01
-9.332337975502014160e-02 9.616215713322162628e-03 -6.091437339782714844e-01
-7.775496244430541992e-01 3.941847756505012512e-02 -1.102430745959281921e-01
2.596228756010532379e-02 -3.675989061594009399e-02 -1.327416002750396729e-01
-5.651288032531738281e-01 6.888876110315322876e-02 -6.013848632574081421e-02
5.780755355954170227e-02 -6.176111474633216858e-02 -1.181341633200645447e-01
3.361595794558525085e-03 6.347419228404760361e-03 -8.386283367872238159e-02
5.320900678634643555e-01 -6.370195746421813965e-02 -5.671646073460578918e-02
-5.260564088821411133e-01 -1.114577148109674454e-02 -6.945967674255371094e-02
3.249988704919815063e-02 -8.568975329399108887e-02 4.625074565410614014e-02
-6.777746677398681641e-01 -2.582983672618865967e-02 3.526504384353756905e-03
2.471094951033592224e-02 -5.100981891155242920e-02 1.701842546463012695e-01
2.690027058124542236e-01 -3.433382511138916016e-02 2.911809384822845459e-01
-6.723606586456298828e-01 1.042837351560592651e-01 -6.407584063708782196e-03
-6.681981086730957031e-01 1.847772859036922455e-02 -4.846784844994544983e-02
2.591452300548553467e-01 -6.587263941764831543e-02 7.257991284132003784e-02
7.517305016517639160e-02 -4.702595993876457214e-02 2.031020820140838623e-01
-1.105356663465499878e-01 2.251265384256839752e-02 7.021560072898864746e-01
8.812132477760314941e-01 7.902714610099792480e-02 8.812767453491687775e-03
7.948888838291168213e-02 -1.141640543937683105e-01 -1.696688532829284668e-01
5.288723111152648926e-01 9.271524846553802490e-02 3.544838353991508484e-02
2.504369318485260010e-01 -2.046696469187736511e-02 1.530485749244689941e-01
2.619798779487609863e-01 -1.219785436987876892e-01 -2.402800470590591431e-01
-3.200453519821166992e-01 -2.021158672869205475e-02 8.422501385211944580e-02
9.994442760944366455e-02 -3.545747697353363037e-02 -2.675285637378692627e-01
-3.210668563842773438e-01 -5.494258925318717957e-02 6.785547733306884766e-02
2.299558669328689575e-01 -2.468064799904823303e-02 -2.781521677970886230e-01
1.834520697593688965e-01 -4.585123807191848755e-02 -2.989907562732696533e-01
2.192736044526100159e-02 -1.484871469438076019e-02 -2.558068335056304932e-01
3.089102357625961304e-02 -4.628537595272064209e-02 -1.938528418540954590e-01
-7.800523638725280762e-01 3.714564070105552673e-02 -1.346569210290908813e-01
1.542626917362213135e-01 -7.647139020264148712e-03 -8.337762206792831421e-02
4.306482151150703430e-03 -1.272909622639417648e-02 -2.916614711284637451e-01
1.554374098777770996e-01 -4.225045070052146912e-02 -2.169643044471740723e-01
-8.188182711601257324e-01 2.166991308331489563e-02 2.561644464731216431e-02
-6.446525454521179199e-01 1.661100387573242188e-01 -9.216709062457084656e-03
7.047415524721145630e-02 -1.120444536209106445e-01 1.639275550842285156e-01
3.012821078300476074e-01 -8.745183795690536499e-02 -1.059573516249656677e-02
2.970684170722961426e-01 -9.534292668104171753e-02 -2.243446260690689087e-01
2.023498117923736572e-01 -2.718395320698618889e-03 8.713628351688385010e-02
2.236991822719573975e-01 -1.065283417701721191e-01 -2.383136451244354248e-01
-6.103301048278808594e-01 1.793129146099090576e-01 -5.513771437108516693e-03
5.923765525221824646e-02 8.773475885391235352e-03 4.358764588832855225e-01
6.154699921607971191e-01 -3.405291214585304260e-02 -7.584404945373535156e-02
2.222435474395751953e-01 -7.189949601888656616e-02 -2.307545542716979980e-01
7.931012660264968872e-02 -1.452687382698059082e-01 -1.180064752697944641e-01
-5.962078571319580078e-01 -3.770477697253227234e-02 -3.161309659481048584e-02
4.289440810680389404e-01 3.982708230614662170e-02 8.453145623207092285e-02
2.191279679536819458e-01 -6.347210705280303955e-02 3.057373166084289551e-01
-8.116753399372100830e-02 3.460997249931097031e-04 4.554126262664794922e-01
-5.919686555862426758e-01 1.683062613010406494e-01 -4.645496141165494919e-03
9.323393702507019043e-01 -3.298034518957138062e-02 -3.881467506289482117e-02
2.368254512548446655e-01 -8.826903998851776123e-02 -3.065498471260070801e-01
-4.533000588417053223e-01 -7.075030356645584106e-02 2.048340626060962677e-02
-6.656008958816528320e-02 6.653866730630397797e-03 -5.379451513290405273e-01
1.798002123832702637e-01 -1.144960522651672363e-01 -2.806548178195953369e-01
1.115053519606590271e-02 -3.075858019292354584e-02 -2.870902717113494873e-01
-2.175377905368804932e-01 -7.813064008951187134e-02 4.152631014585494995e-02
-5.691892504692077637e-01 1.155706681311130524e-02 7.766187936067581177e-02
6.214892864227294922e-02 -5.936123896390199661e-03 -2.722785174846649170e-01
-1.249388158321380615e-01 -1.352075953036546707e-02 8.573172241449356079e-02
-3.828420639038085938e-01 9.897194057703018188e-02 -5.850333836860954762e-04
2.432098239660263062e-01 -9.414265304803848267e-02 3.089805543422698975e-01
-2.826328873634338379e-01 6.056353077292442322e-02 -7.216665148735046387e-02
6.797733902931213379e-01 2.961208485066890717e-02 8.744274079799652100e-02
5.489447712898254395e-01 -1.747907325625419617e-02 -8.061957359313964844e-02
1.098785176873207092e-01 -6.988203525543212891e-02 -7.872979342937469482e-02
7.287468016147613525e-02 -6.549028679728507996e-03 -4.266526997089385986e-01
3.927574157714843750e-01 -6.219524890184402466e-02 -5.804441496729850769e-02
2.979877591133117676e-01 -5.085659399628639221e-02 2.930962443351745605e-01
-7.554852366447448730e-01 -8.055732585489749908e-03 5.722729954868555069e-03
-8.343706727027893066e-01 5.596678331494331360e-02 -2.735043168067932129e-01
2.742378711700439453e-01 -2.493602782487869263e-02 -1.209688261151313782e-01
3.637723624706268311e-01 3.002001205459237099e-03 8.772364258766174316e-02
1.831456124782562256e-01 -9.715679101645946503e-03 -2.394628375768661499e-01
7.517305016517639160e-02 -4.702595993876457214e-02 2.031020820140838623e-01
-2.176730707287788391e-02 1.472371723502874374e-02 5.917573571205139160e-01
9.537653326988220215e-01 3.875450044870376587e-02 -8.404083200730383396e-04
2.089129537343978882e-01 -4.414022341370582581e-02 1.878561824560165405e-01
-5.144188553094863892e-02 -1.303555350750684738e-02 4.256359040737152100e-01
2.398644089698791504e-01 -6.112266331911087036e-02 3.188124895095825195e-01
1.662397831678390503e-01 -1.236895397305488586e-01 2.818342149257659912e-01
-7.324504256248474121e-01 3.086341731250286102e-02 4.967277124524116516e-02
1.791106909513473511e-01 -6.819655001163482666e-02 -8.123246580362319946e-02
8.815963268280029297e-01 4.948025941848754883e-02 5.751278623938560486e-02
6.353636980056762695e-01 -8.821795135736465454e-02 5.237516947090625763e-03
1.169779449701309204e-01 -6.628124415874481201e-02 1.069278493523597717e-01
-2.586531639099121094e-01 -6.186325103044509888e-02 6.254367530345916748e-02
4.276596009731292725e-02 -1.066056545823812485e-02 -2.597651481628417969e-01
1.236687749624252319e-01 -5.678129196166992188e-02 2.852051556110382080e-01
1.977275311946868896e-01 -3.487011790275573730e-02 2.199313044548034668e-01
-1.889868676662445068e-01 -8.686447143554687500e-02 1.739336736500263214e-02
-6.315773129463195801e-01 8.730130642652511597e-02 1.300091762095689774e-02
8.536251634359359741e-02 1.827278989367187023e-03 4.281130433082580566e-01
-3.499572724103927612e-02 -5.249098688364028931e-02 -1.980920881032943726e-01
-1.308635175228118896e-01 5.933773145079612732e-02 7.707451283931732178e-02
3.122632205486297607e-01 9.434964507818222046e-02 3.136238083243370056e-02
-7.164204865694046021e-02 -8.152713626623153687e-02 5.618483573198318481e-02
8.023534417152404785e-01 -8.648140728473663330e-02 4.364667402114719152e-04
3.540681004524230957e-01 -3.183115646243095398e-02 8.312690258026123047e-02
3.097860813140869141e-01 -5.558103695511817932e-02 7.582318037748336792e-02
-3.640029579401016235e-02 4.552194476127624512e-02 -7.862763851881027222e-02
3.592191264033317566e-02 -1.630434952676296234e-02 -2.294265925884246826e-01
-2.826328873634338379e-01 6.056353077292442322e-02 -7.216665148735046387e-02
-1.723364293575286865e-01 2.529624477028846741e-02 -7.366269230842590332e-01
4.075180888175964355e-01 9.143837541341781616e-02 -3.449883684515953064e-02
-4.620849490165710449e-01 -3.101394884288311005e-02 -6.774865835905075073e-02
2.198940813541412354e-01 -5.678129196166992188e-02 1.317247599363327026e-01
-6.453675627708435059e-01 2.991853095591068268e-02 1.135675981640815735e-01
7.674947381019592285e-01 -7.330406457185745239e-02 4.900879785418510437e-02
-6.367104053497314453e-01 -1.745353825390338898e-02 5.120502412319183350e-02
1.467802077531814575e-01 -4.684720188379287720e-02 2.037916034460067749e-01
4.333875775337219238e-01 -4.342517256736755371e-02 7.559333741664886475e-02
-5.647277459502220154e-02 3.870275802910327911e-03 4.536760747432708740e-01
-7.944044470787048340e-01 1.898847892880439758e-02 3.312446922063827515e-02
-3.875665068626403809e-01 -7.925429195165634155e-02 3.340538218617439270e-02
5.660729110240936279e-02 8.385373651981353760e-02 5.319694802165031433e-02
-6.671331077814102173e-02 1.648511504754424095e-03 5.489054322242736816e-01
1.650395244359970093e-01 4.166578128933906555e-02 8.399517834186553955e-02
2.110581099987030029e-01 -1.112783178687095642e-01 -2.323123216629028320e-01
-8.006866574287414551e-01 4.953132942318916321e-02 2.499889433383941650e-01
-8.767959475517272949e-02 -2.932847850024700165e-02 8.230969309806823730e-02
9.249334931373596191e-01 -5.782832577824592590e-02 -5.462696310132741928e-03
1.169779449701309204e-01 -6.628124415874481201e-02 1.069278493523597717e-01
1.709642261266708374e-01 -9.868903085589408875e-03 -1.660935878753662109e-01
-6.129936501383781433e-02 1.209335029125213623e-02 -4.977746605873107910e-01
3.747969865798950195e-02 1.168475672602653503e-02 -4.695557057857513428e-01
-5.370374917984008789e-01 4.204884171485900879e-02 -7.377551496028900146e-02
-7.888372540473937988e-01 2.206836789846420288e-01 -1.453308272175490856e-03
1.148072555661201477e-01 -9.996582753956317902e-03 3.800004124641418457e-01
5.134987235069274902e-01 2.440242655575275421e-02 8.825993537902832031e-02
4.742476046085357666e-01 -8.344244211912155151e-02 -2.545856125652790070e-02
2.922673821449279785e-01 -8.418302983045578003e-02 3.307339549064636230e-02
7.230594754219055176e-01 7.547743618488311768e-02 6.468882411718368530e-02
1.036218330264091492e-01 -2.488495036959648132e-02 -3.250645399093627930e-01
3.083304464817047119e-01 6.773956865072250366e-02 7.155841588973999023e-02
-6.993283033370971680e-01 2.675188146531581879e-02 1.084090247750282288e-01
2.713777124881744385e-01 -8.625157922506332397e-02 -2.670989744365215302e-02
5.318526551127433777e-02 5.129341781139373779e-02 -7.691662758588790894e-02
1.436646431684494019e-01 -3.354215994477272034e-02 2.621448040008544922e-01
1.112064719200134277e-01 -6.829932332038879395e-03 -8.330100774765014648e-02
5.497364401817321777e-01 6.051245704293251038e-02 7.643608003854751587e-02
8.576932549476623535e-01 -2.669811062514781952e-02 -6.716129928827285767e-02
-5.122150778770446777e-01 2.460672892630100250e-02 -7.816796749830245972e-02
-4.780969619750976562e-01 -6.027992442250251770e-02 -3.552033752202987671e-02
2.272744178771972656e-01 -2.396559715270996094e-02 8.831101655960083008e-02
-6.438608169555664062e-01 3.114433214068412781e-02 -1.049312651157379150e-01
-6.771617531776428223e-01 2.509711384773254395e-01 -3.266471205279231071e-03
2.443334758281707764e-01 -1.689171232283115387e-02 -9.898103773593902588e-02
-5.338963866233825684e-01 4.204884171485900879e-02 7.812155038118362427e-02
-7.519176602363586426e-02 -1.086485758423805237e-02 -4.244820177555084229e-01
7.275797128677368164e-01 -7.391695678234100342e-02 -4.407539963722229004e-02
-7.554852366447448730e-01 -8.055732585489749908e-03 5.722729954868555069e-03
-1.510202046483755112e-02 1.806912571191787720e-02 -5.705054998397827148e-01
-6.349993348121643066e-01 1.727746240794658661e-02 -4.473937302827835083e-02
