2.124869674444198608e-01 -7.368997484445571899e-02 -5.578989535570144653e-02
-6.156295537948608398e-02 -5.254956334829330444e-02 7.943375408649444580e-02
-6.008563637733459473e-01 8.092281222343444824e-02 -9.080816991627216339e-03
-6.326419860124588013e-02 -3.023327700793743134e-02 6.974846720695495605e-01
1.869559846818447113e-02 -2.415384165942668915e-02 9.507016837596893311e-02
8.226697891950607300e-02 -3.771373257040977478e-02 -3.000680804252624512e-01
-7.039439678192138672e-02 2.880980074405670166e-02 8.476264774799346924e-02
1.996526122093200684e-01 -3.891460970044136047e-02 1.496850103139877319e-01
-6.075362563133239746e-01 2.037864550948143005e-02 7.035212963819503784e-02
-6.845924258232116699e-01 3.271264582872390747e-02 -1.756022870540618896e-01
8.790733218193054199e-01 3.766529727727174759e-03 5.929406359791755676e-02
-6.963010430335998535e-01 2.558254003524780273e-01 -5.303061101585626602e-03
-3.897773921489715576e-01 3.266261145472526550e-02 -8.523637056350708008e-02
1.641893386840820312e-02 -2.415384165942668915e-02 6.004388332366943359e-01
8.486511707305908203e-01 6.753805279731750488e-02 -3.201527986675500870e-03
7.324934122152626514e-04 5.888173729181289673e-02 7.422996312379837036e-02
1.285757571458816528e-01 -4.376815259456634521e-02 9.264339506626129150e-02
3.284215331077575684e-01 -1.518219858407974243e-01 -2.823051512241363525e-01
1.201572082936763763e-02 4.602235928177833557e-02 8.151027560234069824e-02
-4.930400848388671875e-02 -3.321044519543647766e-02 -5.517517328262329102e-01
8.014667034149169922e-01 -7.686729729175567627e-02 -1.323384698480367661e-02
6.666182875633239746e-01 1.022633910179138184e-01 1.596245169639587402e-02
2.260969132184982300e-01 -6.988719850778579712e-02 -7.993250340223312378e-02
5.489073991775512695e-01 -1.972560957074165344e-02 -8.258444815874099731e-02
1.034574359655380249e-01 -4.126632213592529297e-02 1.740277707576751709e-01
-6.030329465866088867e-01 -2.998309023678302765e-02 -3.504976257681846619e-02
1.530936360359191895e-01 -3.728842362761497498e-02 -3.896334469318389893e-01
-5.928005576133728027e-01 3.771629557013511658e-02 -8.068305999040603638e-02
8.125247955322265625e-01 -1.609036028385162354e-01 -4.952806048095226288e-03
-7.385318279266357422e-01 2.362611442804336548e-01 -4.902768880128860474e-03
2.557184994220733643e-01 -4.644510522484779358e-02 2.190856486558914185e-01
1.923973262310028076e-01 -3.836420550942420959e-02 -1.686221957206726074e-01
-7.653013467788696289e-01 3.098148107528686523e-01 -3.977093379944562912e-03
-7.248718142509460449e-01 7.636949419975280762e-02 2.251723408699035645e-02
1.627006530761718750e-01 -3.563722223043441772e-02 2.871352732181549072e-01
3.627966344356536865e-01 -7.071280479431152344e-02 -5.216224491596221924e-02
6.227739155292510986e-02 -5.194911360740661621e-02 -3.289141654968261719e-01
1.175927519798278809e-01 -9.010195732116699219e-02 -2.546777203679084778e-02
5.416771173477172852e-01 5.167553201317787170e-03 8.656395226716995239e-02
1.524681895971298218e-01 -2.245260216295719147e-02 9.451976418495178223e-02
-3.491227328777313232e-01 -4.569455608725547791e-02 -6.199442222714424133e-02
-1.401202827692031860e-01 8.374987542629241943e-02 5.529114603996276855e-02
1.038577258586883545e-01 -5.362533777952194214e-02 -3.983398079872131348e-01
1.033573672175407410e-01 -6.288209557533264160e-02 6.817554682493209839e-02
-7.653013467788696289e-01 3.098148107528686523e-01 -3.977093379944562912e-03
-1.144014969468116760e-01 -2.090147137641906738e-02 -7.422907352447509766e-01
1.298767179250717163e-01 -6.083059310913085938e-02 -1.553375273942947388e-01
-3.064039722084999084e-02 8.194856345653533936e-02 5.681725963950157166e-02
3.463222086429595947e-02 8.747759461402893066e-02 4.903658106923103333e-02
3.260574489831924438e-02 -7.043760269880294800e-02 7.818284630775451660e-02
-6.758110523223876953e-01 2.073650658130645752e-01 -6.604010239243507385e-03
3.024025559425354004e-01 -8.419764786958694458e-02 -3.253865838050842285e-01
-8.131111860275268555e-01 6.245934590697288513e-02 3.756748437881469727e-01
-1.694278093054890633e-03 1.038395389914512634e-01 -9.531145915389060974e-03
4.262679517269134521e-01 -5.495131388306617737e-02 6.029479205608367920e-02
-6.601496338844299316e-01 4.672286659479141235e-02 9.171771258115768433e-02
-7.673277854919433594e-01 5.823126435279846191e-02 -3.011688888072967529e-01
-2.558797299861907959e-01 -5.610215291380882263e-02 4.903658106923103333e-02
9.842876344919204712e-02 -1.386123299598693848e-01 1.873875260353088379e-01
-2.683387994766235352e-01 1.051404923200607300e-01 -7.479648571461439133e-03
1.541444212198257446e-01 -7.801813632249832153e-02 -6.502163410186767578e-02
2.074709348380565643e-02 -3.423620015382766724e-02 -4.190799295902252197e-01
-8.081825971603393555e-01 4.529682546854019165e-02 1.956935971975326538e-01
-5.360591411590576172e-01 3.276268392801284790e-02 7.530574500560760498e-02
-6.983774900436401367e-01 1.486222147941589355e-01 7.055955473333597183e-03
1.654026210308074951e-01 -2.082641609013080597e-02 -9.476833045482635498e-02
2.188416123390197754e-01 -4.684539139270782471e-02 2.841831445693969727e-01
6.897351741790771484e-01 -1.249533891677856445e-02 8.306140452623367310e-02
3.232677876949310303e-01 5.850646272301673889e-02 7.453018426895141602e-02
1.832656562328338623e-01 -3.718834370374679565e-02 2.916135489940643311e-01
1.030571460723876953e-01 -7.216387242078781128e-02 -2.904610931873321533e-01
-3.164489269256591797e-01 5.693031474947929382e-02 7.728219032287597656e-02
6.141299605369567871e-01 5.447852611541748047e-02 -7.778093963861465454e-02
-8.675634860992431641e-02 -7.916897535324096680e-02 4.135597869753837585e-02
3.373780846595764160e-01 -1.217750534415245056e-01 2.359729707241058350e-01
-9.456203877925872803e-02 -2.477929927408695221e-02 -7.621302008628845215e-01
1.298767179250717163e-01 -6.083059310913085938e-02 -1.553375273942947388e-01
1.566712558269500732e-01 -6.643468886613845825e-02 2.794546782970428467e-01
-3.540263473987579346e-01 -5.785342305898666382e-02 4.305722191929817200e-02
5.487322807312011719e-01 8.555119484663009644e-02 5.193869769573211670e-02
-7.433603405952453613e-01 4.557202756404876709e-02 -9.569401293992996216e-02
1.526683270931243896e-01 -1.055132001638412476e-01 2.870352268218994141e-01
3.750932216644287109e-02 -4.732074961066246033e-02 -4.666146337985992432e-01
1.257486939430236816e-01 -4.096610471606254578e-02 1.586915850639343262e-01
8.144261240959167480e-01 -7.524110376834869385e-02 1.898965984582901001e-02
1.524681895971298218e-01 -2.245260216295719147e-02 9.451976418495178223e-02
-3.751167058944702148e-01 3.741514869034290314e-03 8.461254090070724487e-02
-5.215985774993896484e-01 1.474954560399055481e-02 7.755739241838455200e-02
-7.673277854919433594e-01 5.823126435279846191e-02 -3.011688888072967529e-01
-4.350604414939880371e-01 2.735873870551586151e-02 8.438737690448760986e-02
3.286717236042022705e-01 1.050904467701911926e-01 -3.927057143300771713e-03
-7.660518884658813477e-01 3.747872114181518555e-01 -2.626108238473534584e-03
1.573467403650283813e-01 -4.251723736524581909e-02 9.917315840721130371e-02
-3.879634290933609009e-02 -2.718105167150497437e-02 -7.271546721458435059e-01
-2.353147119283676147e-01 -3.263502940535545349e-02 7.177817076444625854e-02
-6.898213028907775879e-01 2.318069152534008026e-02 -5.551469326019287109e-02
-6.013567447662353516e-01 9.465783834457397461e-02 -2.584304474294185638e-02
3.549408912658691406e-01 -1.403386145830154419e-01 -3.020695745944976807e-01
-6.807396411895751953e-01 3.113649785518646240e-02 1.578159481287002563e-01
2.750075757503509521e-01 -6.881142407655715942e-02 -1.207622960209846497e-01
6.598009169101715088e-02 9.480794519186019897e-02 -3.942795470356941223e-02
1.832656562328338623e-01 -1.108420863747596741e-01 -2.551102936267852783e-01
3.284215331077575684e-01 -1.518219858407974243e-01 -2.823051512241363525e-01
1.227465048432350159e-01 -8.822557330131530762e-02 -3.920279443264007568e-02
4.003990590572357178e-01 3.156180679798126221e-02 -8.488611876964569092e-02
8.265600204467773438e-01 -1.490449458360671997e-01 2.244218066334724426e-02
7.028697729110717773e-01 -7.924403250217437744e-02 5.880097858607769012e-03
-3.836229443550109863e-01 -6.300719082355499268e-02 -3.514983505010604858e-02
2.688280642032623291e-01 6.663739681243896484e-02 -7.007531821727752686e-02
-4.242275357246398926e-01 9.468284994363784790e-02 -4.125428944826126099e-02
5.039495825767517090e-01 -1.489709131419658661e-02 8.281122148036956787e-02
6.543343663215637207e-01 8.319947868585586548e-02 5.529114603996276855e-02
7.697435617446899414e-01 8.820219896733760834e-03 8.451245725154876709e-02
-1.946600526571273804e-01 -6.385780870914459229e-02 3.992993757128715515e-02
-6.951751708984375000e-01 4.809886962175369263e-02 -1.209374219179153442e-01
-4.470441639423370361e-01 9.735980629920959473e-02 -4.927787464112043381e-03
1.598735898733139038e-01 -5.460105091333389282e-02 -3.515056371688842773e-01
-7.535678148269653320e-01 5.352783203125000000e-02 2.186603397130966187e-01
3.991731703281402588e-01 -5.242447182536125183e-02 6.289669126272201538e-02
1.777866631746292114e-01 -5.510142445564270020e-02 -3.323666751384735107e-01
8.442729115486145020e-01 -7.394015789031982422e-02 2.004042826592922211e-02
4.958436787128448486e-01 -7.889377325773239136e-02 -1.103224232792854309e-02
3.000258207321166992e-01 -1.176220327615737915e-01 3.312174379825592041e-01
1.791126281023025513e-01 6.273454427719116211e-02 -7.252710312604904175e-02
-7.046070098876953125e-01 5.202673748135566711e-02 -1.868605017662048340e-01
-7.652512788772583008e-01 4.161914438009262085e-02 9.194288402795791626e-02
-1.978874206542968750e-01 9.723472595214843750e-02 -3.697616606950759888e-02
-3.389653265476226807e-01 -4.749587178230285645e-02 5.894380807876586914e-02
8.476003408432006836e-01 4.707312211394309998e-02 4.623453691601753235e-02
1.399090290069580078e-01 -5.320002511143684387e-02 3.774761855602264404e-01
-1.112742200493812561e-01 -7.561638206243515015e-02 3.505137935280799866e-02
1.564711034297943115e-01 -5.487625300884246826e-02 3.503313958644866943e-01
6.443770527839660645e-01 -7.624182850122451782e-02 2.201686985790729523e-02
8.966861963272094727e-01 3.513941541314125061e-02 -1.796229742467403412e-02
-2.249821871519088745e-01 6.200902163982391357e-02 -7.377801835536956787e-02
4.830843806266784668e-01 8.152325451374053955e-02 -5.829171836376190186e-02
5.739883333444595337e-02 -3.491168469190597534e-02 3.737734854221343994e-01
1.277751773595809937e-01 -6.463336944580078125e-02 1.572655439376831055e-01
-3.058912158012390137e-01 3.006071597337722778e-02 8.496279269456863403e-02
-7.355796098709106445e-01 4.995022341609001160e-02 -2.923874855041503906e-01
-6.886704564094543457e-01 1.943555772304534912e-01 7.831521332263946533e-03
3.084319829940795898e-01 -1.418146789073944092e-01 -3.063977062702178955e-01
6.270894408226013184e-01 1.144713442772626877e-02 8.771479874849319458e-02
5.014353990554809570e-02 -9.057729691267013550e-02 -2.206528931856155396e-02
-6.586735248565673828e-01 2.961038239300251007e-02 -1.508342325687408447e-01
3.355517685413360596e-01 6.173381954431533813e-02 -7.317758351564407349e-02
-8.098087906837463379e-01 4.744839668273925781e-02 -2.137050777673721313e-01
1.986018568277359009e-01 -4.141642898321151733e-02 9.306871145963668823e-02
2.271226495504379272e-01 -3.606253117322921753e-02 9.356907010078430176e-02
1.756350845098495483e-01 -8.925133943557739258e-02 -2.904610931873321533e-01
3.685758709907531738e-01 6.633717566728591919e-02 6.960158050060272217e-02
-4.400891363620758057e-01 8.460049331188201904e-02 5.501594394445419312e-02
-8.131111860275268555e-01 6.245934590697288513e-02 3.756748437881469727e-01
-4.359360933303833008e-01 -5.119857192039489746e-02 -4.693343490362167358e-02
-4.015609920024871826e-01 1.008873805403709412e-01 3.059813007712364197e-02
1.449126750230789185e-01 -6.510872393846511841e-02 2.803553342819213867e-01
-1.015171036124229431e-01 3.398857638239860535e-02 -8.448582887649536133e-02
1.892076060175895691e-02 3.498930856585502625e-02 -8.423564583063125610e-02
4.116072356700897217e-01 6.235927715897560120e-02 7.210341095924377441e-02
7.287271786481142044e-03 -4.239214211702346802e-02 5.357165932655334473e-01
-7.822887897491455078e-01 2.874484956264495850e-01 -2.475998597219586372e-03
-6.954377889633178711e-02 5.317661445587873459e-03 8.643887192010879517e-02
5.099539756774902344e-01 8.347467333078384399e-02 5.486583337187767029e-02
5.628926157951354980e-01 -1.607294194400310516e-02 8.268612623214721680e-02
1.791126281023025513e-01 6.273454427719116211e-02 -7.252710312604904175e-02
4.886760935187339783e-02 -4.929719120264053345e-02 -4.375434219837188721e-01
1.249731332063674927e-01 -1.312819868326187134e-01 -1.559629738330841064e-01
-3.511992692947387695e-01 1.054657176136970520e-01 -7.554703392088413239e-03
3.594191670417785645e-01 -1.074896380305290222e-01 -2.250883877277374268e-01
1.603739559650421143e-01 -3.523692861199378967e-02 3.523578643798828125e-01
3.232677876949310303e-01 5.850646272301673889e-02 7.453018426895141602e-02
3.128852248191833496e-01 -6.498363614082336426e-02 7.960888743400573730e-02
-8.308742046356201172e-01 5.890675634145736694e-02 -3.474777042865753174e-01
-6.869941949844360352e-01 3.053605556488037109e-02 -1.473567038774490356e-01
2.316259443759918213e-01 -8.627416938543319702e-02 -4.988558962941169739e-02
-7.016299366950988770e-01 5.052563920617103577e-02 -1.616671383380889893e-01
-8.085829615592956543e-01 4.872432723641395569e-02 2.691471576690673828e-01
-3.064039722084999084e-02 8.194856345653533936e-02 5.681725963950157166e-02
1.470392197370529175e-01 -8.787532895803451538e-02 -4.180469363927841187e-02
-6.795638203620910645e-01 2.210490964353084564e-02 -4.845954477787017822e-02
-6.542453169822692871e-01 1.514993011951446533e-01 -8.255214430391788483e-03
4.591545462608337402e-02 -4.634502902626991272e-02 -1.882365047931671143e-01
-3.836229443550109863e-01 -6.300719082355499268e-02 -3.514983505010604858e-02
-6.914975047111511230e-01 3.676560148596763611e-02 -2.091267555952072144e-01
6.828176975250244141e-02 -5.540164187550544739e-02 1.589917987585067749e-01
1.191188618540763855e-01 -3.441132232546806335e-02 3.119784295558929443e-01
-6.209210753440856934e-01 1.782938539981842041e-01 5.529841873794794083e-03
7.648775726556777954e-02 -4.436858370900154114e-02 -5.036416053771972656e-01
-6.075362563133239746e-01 2.037864550948143005e-02 7.035212963819503784e-02
6.425382941961288452e-02 -9.312915802001953125e-02 2.627724781632423401e-03
-7.013796567916870117e-01 1.832975000143051147e-01 7.456247229129076004e-03
2.169778756797313690e-02 -4.461877048015594482e-02 -4.211564660072326660e-01
2.459113597869873047e-01 -1.344092786312103271e-01 -2.468292564153671265e-01
5.274543911218643188e-02 -5.109849199652671814e-02 3.728477954864501953e-01
2.255214750766754150e-01 -7.454059273004531860e-02 5.276430025696754456e-02
1.365065425634384155e-01 -6.323234736919403076e-02 2.072019726037979126e-01
3.463222086429595947e-02 8.747759461402893066e-02 4.903658106923103333e-02
-9.187121759168803692e-04 -2.808170206844806671e-02 -5.298107266426086426e-01
-3.370639681816101074e-01 -2.135179564356803894e-02 -7.855650037527084351e-02
3.643353283405303955e-02 -3.823911398649215698e-02 -5.864770412445068359e-01
-2.150499373674392700e-01 -2.845698222517967224e-02 -7.580449432134628296e-02
-3.824971020221710205e-01 5.377801135182380676e-02 -8.033280074596405029e-02
6.700207591056823730e-01 -3.798893466591835022e-02 -7.257714122533798218e-02
-6.253743171691894531e-01 7.556891441345214844e-02 9.332616813480854034e-03
1.425109207630157471e-01 -1.383621692657470703e-01 1.236159950494766235e-01
-7.730069756507873535e-01 4.206947609782218933e-02 -2.365717887878417969e-01
1.324035525321960449e-01 -6.688500940799713135e-02 -1.104547753930091858e-01
1.929727494716644287e-01 3.078624233603477478e-02 8.433733880519866943e-02
1.671038717031478882e-01 -9.600626677274703979e-02 3.013706803321838379e-01
5.743759870529174805e-01 -7.001228630542755127e-02 3.885415568947792053e-02
7.536067962646484375e-01 4.734832420945167542e-02 -7.447852939367294312e-02
1.164044998586177826e-02 -4.244218394160270691e-02 -5.440711379051208496e-01
-1.365300267934799194e-02 -2.190219797194004059e-02 -6.984087824821472168e-01
-4.775664508342742920e-01 -5.335013568401336670e-02 -3.607551008462905884e-02
1.128893196582794189e-01 -1.171717122197151184e-01 -1.523353308439254761e-01
-7.922210097312927246e-01 3.002077937126159668e-01 -2.000651787966489792e-03
5.384497642517089844e-01 8.525098115205764771e-02 -5.306290462613105774e-02
-1.913200318813323975e-02 -2.107659354805946350e-02 6.496747732162475586e-01
5.653443932533264160e-01 1.099679991602897644e-02 -8.831362426280975342e-02
-3.104695379734039307e-01 9.195490740239620209e-03 -8.681253343820571899e-02
-8.308742046356201172e-01 5.890675634145736694e-02 -3.474777042865753174e-01
-1.550311446189880371e-01 -7.038757205009460449e-02 2.774604968726634979e-02
-2.881406433880329132e-02 5.142629891633987427e-02 -7.960727065801620483e-02
-5.318810939788818359e-01 1.004620715975761414e-01 -1.926324702799320221e-02
1.321283578872680664e-01 -1.082651987671852112e-01 1.387270241975784302e-01
3.584684729576110840e-01 8.875352889299392700e-02 -4.803423583507537842e-02
7.573720812797546387e-02 9.373216331005096436e-02 4.023015871644020081e-02
3.355643898248672485e-02 -4.519418999552726746e-02 3.664181232452392578e-01
1.784121245145797729e-01 1.009624376893043518e-01 -2.326616644859313965e-02
-3.156733512878417969e-01 -5.087333917617797852e-02 -5.566480010747909546e-02
8.837767243385314941e-01 2.032861486077308655e-02 4.841112345457077026e-02
-6.174685359001159668e-01 4.514671862125396729e-02 5.874366313219070435e-02
-6.335051655769348145e-01 4.704810678958892822e-02 -9.331727027893066406e-02
6.598009169101715088e-02 9.480794519186019897e-02 -3.942795470356941223e-02
-6.833665370941162109e-01 -1.484705135226249695e-02 6.255371496081352234e-03
-7.584838569164276123e-02 -2.990803495049476624e-02 6.721411347389221191e-01
-6.077364087104797363e-01 3.916637971997261047e-03 6.064504757523536682e-02
1.495660692453384399e-01 -6.328239291906356812e-02 -2.478549927473068237e-01
-7.075592279434204102e-01 2.787671387195587158e-01 -4.627568181604146957e-03
-7.886683344841003418e-01 5.973235890269279480e-02 3.676690161228179932e-01
-6.795136928558349609e-01 4.552198946475982666e-02 -2.159817665815353394e-01
3.073561787605285645e-01 -8.842573314905166626e-02 2.459375001490116119e-02
1.832656562328338623e-01 -3.718834370374679565e-02 2.916135489940643311e-01
1.132645905017852783e-01 -7.871864736080169678e-02 2.838328778743743896e-01
3.599195480346679688e-01 -8.910123258829116821e-02 -2.679196596145629883e-01
-7.940223217010498047e-01 1.892018020153045654e-01 1.126629649661481380e-03
2.356788814067840576e-01 -8.414761722087860107e-02 2.477565556764602661e-01
3.013267815113067627e-01 -5.815462674945592880e-03 -8.701267093420028687e-02
-7.472881674766540527e-01 2.435414642095565796e-01 -4.252294544130563736e-03
9.952330589294433594e-01 -4.304261505603790283e-02 9.832981042563915253e-03
-4.733884334564208984e-01 -1.069402042776346207e-02 -7.888174057006835938e-02
-6.914975047111511230e-01 3.676560148596763611e-02 -2.091267555952072144e-01
1.336544603109359741e-01 -3.323546051979064941e-02 4.139277637004852295e-01
-2.190902642905712128e-02 -9.230355173349380493e-02 -1.049958169460296631e-03
-5.786025896668434143e-02 -2.690584957599639893e-02 -7.382878065109252930e-01
5.414645746350288391e-02 -7.869363576173782349e-02 -6.382075697183609009e-02
1.199194416403770447e-01 -3.971518948674201965e-02 -4.626867473125457764e-01
3.541152775287628174e-01 -1.018105000257492065e-01 3.287406265735626221e-01
-6.833665370941162109e-01 -1.484705135226249695e-02 6.255371496081352234e-03
3.900415301322937012e-01 -7.864360511302947998e-02 -2.334122173488140106e-02
-7.924461960792541504e-01 4.161914438009262085e-02 -1.348976045846939087e-01
1.947990804910659790e-01 -6.988719850778579712e-02 1.313716471195220947e-01
7.747471928596496582e-01 2.122926525771617889e-02 8.003419637680053711e-02
3.374531269073486328e-01 -1.398132145404815674e-01 -3.068980872631072998e-01
1.034073904156684875e-01 -3.113393485546112061e-02 4.136525690555572510e-01
-1.913200318813323975e-02 -2.107659354805946350e-02 6.496747732162475586e-01
2.527413368225097656e-01 -5.029791966080665588e-02 2.939652800559997559e-01
4.331355914473533630e-02 -4.714560881257057190e-02 -3.198575675487518311e-01
-1.428222507238388062e-01 1.114691793918609619e-02 7.748911380767822266e-01
-6.951751708984375000e-01 4.809886962175369263e-02 -1.209374219179153442e-01
-1.313889026641845703e-01 -4.979754611849784851e-02 6.239632889628410339e-02
3.528393805027008057e-01 -1.483694761991500854e-01 -2.860578596591949463e-01
1.603239327669143677e-01 -4.426851496100425720e-02 2.798299789428710938e-01
-3.836229443550109863e-01 -6.300719082355499268e-02 -3.514983505010604858e-02
8.228322863578796387e-01 -9.473031759262084961e-02 2.269236184656620026e-02
6.543343663215637207e-01 8.319947868585586548e-02 5.529114603996276855e-02
-6.414359807968139648e-01 5.760580673813819885e-02 -5.448894575238227844e-02
3.681004941463470459e-01 -8.392244577407836914e-02 -3.183814883232116699e-01
1.940485090017318726e-01 1.042148098349571228e-01 -7.954995147883892059e-03
9.598072171211242676e-01 -1.439671777188777924e-02 3.007274493575096130e-02
1.321283578872680664e-01 -1.082651987671852112e-01 1.387270241975784302e-01
7.771365344524383545e-02 -3.861439228057861328e-02 2.893368899822235107e-01
3.623963594436645508e-01 -9.518066048622131348e-02 3.267641961574554443e-01
3.623963594436645508e-01 -9.518066048622131348e-02 3.267641961574554443e-01
2.510901391506195068e-01 -7.464066892862319946e-02 -5.471410602331161499e-02
-7.165407538414001465e-01 3.303047418594360352e-01 -8.748304680921137333e-04
-5.167700648307800293e-01 1.027637496590614319e-01 -9.906420484185218811e-03
-7.824388742446899414e-01 5.642995238304138184e-02 -3.659912049770355225e-01
4.072524898219853640e-04 -4.089105129241943359e-02 9.129240363836288452e-02
-2.011647969484329224e-01 5.527910962700843811e-02 7.755739241838455200e-02
-2.509010732173919678e-01 -1.222013775259256363e-02 -8.290967345237731934e-02
-6.951751708984375000e-01 4.809886962175369263e-02 -1.209374219179153442e-01
1.573467403650283813e-01 -4.251723736524581909e-02 9.917315840721130371e-02
1.832656562328338623e-01 -3.718834370374679565e-02 2.916135489940643311e-01
-6.486161947250366211e-01 4.074350744485855103e-02 -5.644036829471588135e-02
-7.402580380439758301e-01 2.508207969367504120e-02 2.356800250709056854e-02
-7.588967084884643555e-01 4.211951047182083130e-02 -2.458285242319107056e-01
2.693534493446350098e-01 -5.387552455067634583e-02 3.091263473033905029e-01
7.990649342536926270e-01 -2.002582699060440063e-02 -7.835635542869567871e-02
4.988709092140197754e-01 -7.734263688325881958e-02 1.753860339522361755e-02
3.750932216644287109e-02 -4.732074961066246033e-02 -4.666146337985992432e-01
-7.215193510055541992e-01 5.140127986669540405e-02 1.783309131860733032e-01
4.716636240482330322e-02 -9.167904034256935120e-03 9.019161015748977661e-02
4.072524898219853640e-04 -4.089105129241943359e-02 9.129240363836288452e-02
1.665784865617752075e-01 -5.530156195163726807e-02 3.393233716487884521e-01
5.186853408813476562e-01 -4.744582623243331909e-02 -6.662279367446899414e-02
1.032322719693183899e-01 5.022542551159858704e-02 -8.038283884525299072e-02
3.659739494323730469e-01 -5.855393409729003906e-02 2.967172861099243164e-01
2.289739996194839478e-01 -4.041570052504539490e-02 2.115801721811294556e-01
8.253840804100036621e-01 -1.264784783124923706e-01 1.015821844339370728e-02
-7.096357345581054688e-01 8.857840299606323242e-02 -4.552513360977172852e-03
9.772825241088867188e-02 -6.183132156729698181e-02 -8.233425766229629517e-02
9.250068068504333496e-01 -4.499404132366180420e-02 -3.995333984494209290e-02
-6.077364087104797363e-01 3.916637971997261047e-03 6.064504757523536682e-02
4.038641974329948425e-02 -4.384320601820945740e-02 -5.328128933906555176e-01
2.336023896932601929e-01 -9.960889071226119995e-02 2.383246868848800659e-01
5.163586735725402832e-01 -5.627727508544921875e-02 -5.899223312735557556e-02
-4.872985482215881348e-01 9.270641207695007324e-02 -4.122927039861679077e-02
1.598735898733139038e-01 -5.460105091333389282e-02 -3.515056371688842773e-01
6.318929195404052734e-01 -8.192199282348155975e-03 -8.473601192235946655e-02
2.169778756797313690e-02 -4.461877048015594482e-02 -4.211564660072326660e-01
-1.401202827692031860e-01 8.374987542629241943e-02 5.529114603996276855e-02
2.255214750766754150e-01 -7.454059273004531860e-02 5.276430025696754456e-02
6.828176975250244141e-02 -5.540164187550544739e-02 1.589917987585067749e-01
9.322121143341064453e-01 1.012116484344005585e-02 -3.047142364084720612e-02
-6.053847074508666992e-01 4.569711908698081970e-02 -6.637261807918548584e-02
2.438848763704299927e-01 -8.840072154998779297e-02 3.715291246771812439e-02
-7.965241074562072754e-01 4.439616948366165161e-02 -2.036978006362915039e-01
2.615477740764617920e-01 -1.113674566149711609e-01 3.303668200969696045e-01
2.970736622810363770e-01 5.627983808517456055e-02 7.590618729591369629e-02
-7.013046741485595703e-01 1.615056023001670837e-02 -3.627565875649452209e-02
-7.644256949424743652e-01 4.607239365577697754e-02 -1.316202133893966675e-01
7.020190954208374023e-01 4.597232118248939514e-02 8.108496665954589844e-02
6.022963523864746094e-01 -7.649201899766921997e-02 -2.179009094834327698e-02
8.141635358333587646e-02 -1.059395167976617813e-02 -9.146592766046524048e-02
-3.879634290933609009e-02 -2.718105167150497437e-02 -7.271546721458435059e-01
8.301376104354858398e-01 -7.291441410779953003e-02 3.062314912676811218e-02
1.848167926073074341e-01 -5.052307248115539551e-02 8.884062618017196655e-02
5.589773505926132202e-02 -4.847158491611480713e-02 9.149255603551864624e-02
5.652319267392158508e-02 -2.898236177861690521e-02 4.594109654426574707e-01
-6.657787561416625977e-01 -7.791904266923666000e-03 -3.387390449643135071e-02
-7.580210566520690918e-01 3.320310413837432861e-01 4.979440476745367050e-03
1.959749311208724976e-01 -6.826101988554000854e-02 -1.755272448062896729e-01
3.006012439727783203e-01 -6.510872393846511841e-02 -1.221132799983024597e-01
-6.775873899459838867e-01 4.494656994938850403e-02 2.154580056667327881e-01
3.013017475605010986e-01 -4.672030732035636902e-02 -2.855825424194335938e-01
-7.282117009162902832e-02 -8.484811335802078247e-02 2.096610330045223236e-02
-7.751084566116333008e-01 3.341575860977172852e-01 4.128820262849330902e-03
1.599486470222473145e-01 1.051154658198356628e-01 -3.676874563097953796e-03
-4.350604414939880371e-01 2.735873870551586151e-02 8.438737690448760986e-02
9.636099934577941895e-01 -5.540261045098304749e-03 2.191679552197456360e-02
3.665494024753570557e-01 -8.902616798877716064e-02 2.412267923355102539e-01
1.181681677699089050e-01 7.501851022243499756e-02 6.409756839275360107e-02
-7.282117009162902832e-02 -8.484811335802078247e-02 2.096610330045223236e-02
-7.451116442680358887e-01 5.172651633620262146e-02 1.877627968788146973e-01
3.355643898248672485e-02 -4.519418999552726746e-02 3.664181232452392578e-01
2.252963185310363770e-01 -4.479389637708663940e-02 -2.648924291133880615e-01
-6.075362563133239746e-01 2.037864550948143005e-02 7.035212963819503784e-02
2.932835370302200317e-02 -4.384320601820945740e-02 -3.446756601333618164e-01
-5.784900188446044922e-01 -4.461877048015594482e-02 1.426121126860380173e-02
8.463133126497268677e-03 -3.601249307394027710e-02 6.251568794250488281e-01
3.033282458782196045e-01 -4.366807267069816589e-02 2.801802158355712891e-01
9.952330589294433594e-01 -4.304261505603790283e-02 9.832981042563915253e-03
6.951891779899597168e-01 8.985433727502822876e-02 -4.455669969320297241e-02
6.753122806549072266e-02 -5.375042930245399475e-02 2.632929086685180664e-01
-3.444317355751991272e-02 -1.935033872723579407e-02 -6.962071657180786133e-01
-6.521688103675842285e-01 2.818434312939643860e-02 -1.386003047227859497e-01
5.654695034027099609e-01 5.505394935607910156e-02 7.673178613185882568e-02
4.630948007106781006e-01 -5.915436893701553345e-02 -5.501432716846466064e-02
1.573467403650283813e-01 -4.251723736524581909e-02 9.917315840721130371e-02
-1.396699547767639160e-01 -1.474697329103946686e-02 -8.293469995260238647e-02
5.039495825767517090e-01 -1.489709131419658661e-02 8.281122148036956787e-02
2.785227447748184204e-02 -3.203458711504936218e-02 4.458760917186737061e-01
-1.477258354425430298e-01 5.743068084120750427e-02 -7.627984136343002319e-02
1.276250630617141724e-01 -6.048034504055976868e-02 2.978180944919586182e-01
-1.184544637799263000e-01 2.348090894520282745e-02 7.793943881988525391e-01
1.978763192892074585e-01 -3.961512073874473572e-02 -2.970158755779266357e-01
3.549408912658691406e-01 -1.403386145830154419e-01 -3.020695745944976807e-01
-2.294715959578752518e-03 -8.942645788192749023e-02 -2.721904963254928589e-02
4.579036310315132141e-02 -4.794619977474212646e-02 3.412247300148010254e-01
1.538692116737365723e-01 -1.364857852458953857e-01 1.874125450849533081e-01
-5.534968972206115723e-01 -7.316555362194776535e-03 -6.719821691513061523e-02
-3.312847316265106201e-01 7.454316318035125732e-02 6.577379256486892700e-02
-6.601496338844299316e-01 4.672286659479141235e-02 9.171771258115768433e-02
-7.756088376045227051e-01 2.979061305522918701e-01 3.453327110037207603e-03
-7.939722537994384766e-01 5.460361763834953308e-02 -2.522832453250885010e-01
3.606951236724853516e-01 -7.846845686435699463e-02 -2.997678816318511963e-01
-3.962571322917938232e-01 1.044149547815322876e-01 -1.375923119485378265e-02
8.729564398527145386e-02 -3.516187146306037903e-02 -3.377205729484558105e-01
-8.010147511959075928e-02 -1.199496537446975708e-02 7.620817422866821289e-01
1.284506767988204956e-01 -4.156654700636863708e-02 -4.443233609199523926e-01
-7.761592268943786621e-01 2.410146147012710571e-01 -2.200797898694872856e-03
7.997404932975769043e-01 -7.358991354703903198e-02 -3.114691562950611115e-02
-2.509010732173919678e-01 -1.222013775259256363e-02 -8.290967345237731934e-02
2.580201923847198486e-01 -4.214196652173995972e-02 -1.078528761863708496e-01
1.371570080518722534e-01 -5.595204234123229980e-02 3.535587191581726074e-01
-6.854304671287536621e-02 -5.815462674945592880e-03 8.436235040426254272e-02
-2.748435437679290771e-01 2.675830386579036713e-02 8.556322753429412842e-02
-7.660518884658813477e-01 3.747872114181518555e-01 -2.626108238473534584e-03
1.394837200641632080e-01 -5.977983400225639343e-02 -3.194572329521179199e-01
-4.467189311981201172e-01 -6.503365933895111084e-02 -2.851272467523813248e-03
-6.522801239043474197e-03 -9.117773175239562988e-02 1.253495179116725922e-02
5.972553044557571411e-02 -4.066588729619979858e-02 -3.048215508460998535e-01
7.079484462738037109e-01 9.328183531761169434e-02 3.820367902517318726e-02
3.306231498718261719e-01 -7.178859412670135498e-02 -6.324533373117446899e-02
-4.037249833345413208e-02 -1.882494986057281494e-02 7.079922556877136230e-01
-7.551939487457275391e-01 7.807073742151260376e-02 1.453641150146722794e-02
2.575698494911193848e-01 -7.248910516500473022e-02 -8.053294569253921509e-02
1.385580301284790039e-01 -6.126052176114171743e-05 8.723945170640945435e-02
-9.911535680294036865e-02 8.029736578464508057e-02 -6.029318273067474365e-02
-3.323605358600616455e-01 -6.743541359901428223e-02 2.061584591865539551e-02
2.446104139089584351e-01 -1.057133376598358154e-01 -3.085492849349975586e-01
4.669101908802986145e-02 -7.231397926807403564e-02 -7.550428062677383423e-02
7.486157119274139404e-02 -3.013320639729499817e-02 -5.380917787551879883e-01
1.947990804910659790e-01 -6.988719850778579712e-02 1.313716471195220947e-01
-2.840002477169036865e-01 8.725243806838989258e-02 5.183862894773483276e-02
-8.149625062942504883e-01 3.136175870895385742e-01 1.501903519965708256e-03
1.309024542570114136e-01 -1.509463489055633545e-01 -1.828075647354125977e-01
-7.563948035240173340e-01 5.065073445439338684e-02 1.721013635396957397e-01
-5.055118203163146973e-01 1.582532748579978943e-02 7.988408952951431274e-02
1.196942776441574097e-01 -3.230978548526763916e-02 -4.011168479919433594e-01
-7.381564974784851074e-01 1.514742821455001831e-01 -3.451710334047675133e-03
3.558291494846343994e-02 -2.755632251501083374e-02 -6.136718988418579102e-01
-7.163406610488891602e-01 3.621520474553108215e-02 1.983955651521682739e-01
-1.842524558305740356e-01 5.602965503931045532e-02 7.698196917772293091e-02
-3.846736848354339600e-01 -6.783571094274520874e-02 -1.363413874059915543e-02
5.215624570846557617e-01 8.612661063671112061e-02 -5.178697779774665833e-02
-4.942286014556884766e-01 -4.179171100258827209e-02 -4.931016638875007629e-02
-4.184233248233795166e-01 -4.466881230473518372e-02 5.851849913597106934e-02
4.902396202087402344e-01 1.164728216826915741e-02 8.776482939720153809e-02
7.311029732227325439e-02 -5.535159260034561157e-02 -2.490808963775634766e-01
-3.579792082309722900e-01 -5.067318305373191833e-02 -5.436385422945022583e-02
6.195089221000671387e-01 1.050904467701911926e-01 3.503363579511642456e-03
4.053653031587600708e-02 -2.903239987790584564e-02 -9.664469957351684570e-02
-7.568201422691345215e-01 3.894219174981117249e-02 2.071269303560256958e-01
-2.691394090652465820e-01 2.800920978188514709e-02 -8.586183190345764160e-02
7.455509305000305176e-01 -7.771791517734527588e-02 -1.258337218314409256e-02
2.839140892028808594e-01 1.014377847313880920e-01 2.034064754843711853e-02
3.519387245178222656e-01 -4.817137122154235840e-02 -2.733235955238342285e-01
-7.205687165260314941e-01 2.926012501120567322e-02 1.105314418673515320e-01
-1.171535179018974304e-01 9.891093522310256958e-02 -3.409906849265098572e-02
6.172699108719825745e-02 -4.226705059409141541e-02 2.453548014163970947e-01
5.522224307060241699e-02 -3.233481198549270630e-02 4.143781363964080811e-01
2.058071047067642212e-01 8.745258301496505737e-02 -4.981053248047828674e-02
1.339046359062194824e-01 -5.812862515449523926e-02 3.369466066360473633e-01
-6.584483385086059570e-01 1.939302682876586914e-01 6.855809129774570465e-03
2.675271332263946533e-01 -3.616259992122650146e-02 -9.379262477159500122e-02
-5.198096111416816711e-02 -8.407255262136459351e-02 4.383278638124465942e-02
2.963981926441192627e-01 -2.730613574385643005e-02 -9.434301406145095825e-02
-9.363635629415512085e-02 -2.490438334643840790e-02 6.820233464241027832e-01
2.289739996194839478e-01 -4.041570052504539490e-02 2.115801721811294556e-01
-8.041546344757080078e-01 2.995322942733764648e-01 -1.125012990087270737e-03
-5.871464014053344727e-01 3.348821029067039490e-02 8.241093158721923828e-02
1.337295174598693848e-01 -4.181672632694244385e-02 1.336232870817184448e-01
-7.680033445358276367e-01 4.392082244157791138e-02 1.166609153151512146e-01
-2.000763826072216034e-02 -4.479389637708663940e-02 8.859043568372726440e-02
4.108066558837890625e-01 -7.278931885957717896e-02 -3.587536513805389404e-02
-7.483139038085937500e-01 5.773089826107025146e-02 2.921389341354370117e-01
2.675271332263946533e-01 -3.616259992122650146e-02 -9.379262477159500122e-02
-6.798139810562133789e-01 2.785910293459892273e-02 1.182120516896247864e-01
3.948450386524200439e-01 1.034142225980758667e-01 -1.190788019448518753e-02
-6.853930354118347168e-01 -1.041881926357746124e-02 1.898965984582901001e-02
8.399323374032974243e-02 -5.830374732613563538e-02 1.993462443351745605e-01
1.195942088961601257e-01 -7.424037158489227295e-02 7.120275497436523438e-02
-4.400891363620758057e-01 8.460049331188201904e-02 5.501594394445419312e-02
5.995069444179534912e-02 -2.778148464858531952e-02 4.789502024650573730e-01
4.699124023318290710e-02 -4.822139814496040344e-02 2.932897806167602539e-01
7.747471928596496582e-01 2.122926525771617889e-02 8.003419637680053711e-02
-5.604269504547119141e-01 1.011876091361045837e-01 -6.779137998819351196e-03
2.500393688678741455e-01 -6.893651932477951050e-02 -1.337467730045318604e-01
-8.258955478668212891e-01 3.166197538375854492e-01 7.513559539802372456e-04
2.109108269214630127e-01 -1.269788593053817749e-01 -2.765759527683258057e-01
1.832656562328338623e-01 -1.108420863747596741e-01 -2.551102936267852783e-01
4.716636240482330322e-02 -9.167904034256935120e-03 9.019161015748977661e-02
-7.588967084884643555e-01 4.211951047182083130e-02 -2.458285242319107056e-01
2.988249659538269043e-01 -1.296558082103729248e-01 -3.175308704376220703e-01
6.425382941961288452e-02 -9.312915802001953125e-02 2.627724781632423401e-03
-3.616068661212921143e-01 5.748071521520614624e-02 -7.775592058897018433e-02
1.325536668300628662e-01 -8.709975332021713257e-02 -4.740877822041511536e-02
3.693390265107154846e-02 -5.184905230998992920e-02 9.582071751356124878e-02
5.454675108194351196e-02 -5.202417448163032532e-02 -1.726751625537872314e-01
2.023545801639556885e-01 -7.118815928697586060e-02 -1.043002828955650330e-01
-7.730069756507873535e-01 4.206947609782218933e-02 -2.365717887878417969e-01
-7.409335970878601074e-01 3.679062053561210632e-02 -1.911636441946029663e-01
1.407846659421920776e-01 -6.245678663253784180e-02 -2.531338632106781006e-01
4.312465786933898926e-01 6.861384212970733643e-02 -6.887444108724594116e-02
-6.808897256851196289e-01 4.995022341609001160e-02 1.480838358402252197e-01
2.058071047067642212e-01 8.745258301496505737e-02 -4.981053248047828674e-02
-5.781022086739540100e-02 -2.182714454829692841e-02 6.640852689743041992e-01
4.825839996337890625e-01 1.052155420184135437e-01 -3.626838326454162598e-03
7.821275591850280762e-01 9.150553494691848755e-02 9.232543408870697021e-03
-1.425220221281051636e-01 -7.168851792812347412e-02 -2.123968675732612610e-02
4.108066558837890625e-01 -7.278931885957717896e-02 -3.587536513805389404e-02
-8.168889284133911133e-01 5.172651633620262146e-02 -3.154042959213256836e-01
1.076855212450027466e-01 -5.802854523062705994e-02 3.276148140430450439e-01
-6.075362563133239746e-01 2.037864550948143005e-02 7.035212963819503784e-02
3.021023571491241455e-01 -4.329280182719230652e-02 -2.740991413593292236e-01
8.526916056871414185e-02 -5.535159260034561157e-02 3.529582917690277100e-01
-7.576207518577575684e-01 5.725555121898651123e-02 -2.824302315711975098e-01
3.626465499401092529e-01 -5.317501351237297058e-02 2.716990411281585693e-01
1.034073904156684875e-01 -3.113393485546112061e-02 4.136525690555572510e-01
-2.294715959578752518e-03 -8.942645788192749023e-02 -2.721904963254928589e-02
6.542342901229858398e-01 2.923511154949665070e-02 -8.533645421266555786e-02
2.015790194272994995e-01 -1.204991266131401062e-01 -2.588630318641662598e-01
-5.068878531455993652e-01 2.690841257572174072e-02 -8.040785789489746094e-02
-2.205039113759994507e-01 6.392512004822492599e-04 8.473762869834899902e-02
2.580201923847198486e-01 -4.214196652173995972e-02 -1.078528761863708496e-01
8.454363793134689331e-02 -5.545166879892349243e-02 -3.493540585041046143e-01
3.284215331077575684e-01 -1.518219858407974243e-01 -2.823051512241363525e-01
2.188416123390197754e-01 -4.684539139270782471e-02 2.841831445693969727e-01
7.536067962646484375e-01 4.734832420945167542e-02 -7.447852939367294312e-02
5.384497642517089844e-01 8.525098115205764771e-02 -5.306290462613105774e-02
-7.181419134140014648e-01 3.186202421784400940e-02 1.438307315111160278e-01
7.911467552185058594e-02 -5.012277886271476746e-02 4.471020102500915527e-01
3.558291494846343994e-02 -2.755632251501083374e-02 -6.136718988418579102e-01
-3.156733512878417969e-01 -5.087333917617797852e-02 -5.566480010747909546e-02
5.945407152175903320e-01 2.202985435724258423e-02 -9.039013087749481201e-02
1.768109351396560669e-01 -3.458645567297935486e-02 9.404440969228744507e-02
2.675271332263946533e-01 8.432529121637344360e-02 -5.426378175616264343e-02
-4.400891363620758057e-01 8.460049331188201904e-02 5.501594394445419312e-02
2.902437150478363037e-01 -4.351796582341194153e-02 1.476335078477859497e-01
-8.795721828937530518e-02 3.556472808122634888e-02 8.353675901889801025e-02
1.348303258419036865e-01 1.892759092152118683e-02 8.653894066810607910e-02
3.105835318565368652e-01 -7.116312533617019653e-02 -6.714817881584167480e-02
6.012706160545349121e-01 -6.265787873417139053e-03 -8.508626371622085571e-02
1.201572082936763763e-02 4.602235928177833557e-02 8.151027560234069824e-02
-2.351646125316619873e-01 -2.287889132276177406e-03 8.408714830875396729e-02
3.453215211629867554e-02 -4.844657331705093384e-02 -1.723749488592147827e-01
-7.639753818511962891e-01 3.548967093229293823e-02 3.510141372680664062e-02
-3.858745694160461426e-01 -2.933261729776859283e-02 -7.245204597711563110e-02
-6.181314215064048767e-02 -2.775646932423114777e-02 -6.131215095520019531e-01
-6.442379951477050781e-01 4.709814116358757019e-02 -9.579408168792724609e-02
8.111613243818283081e-02 -2.940767072141170502e-02 -4.509281516075134277e-01
-3.444317355751991272e-02 -1.935033872723579407e-02 -6.962071657180786133e-01
4.001989364624023438e-01 -7.871864736080169678e-02 1.158425863832235336e-02
8.261847496032714844e-01 6.210909411311149597e-02 4.250681772828102112e-02
3.649732172489166260e-01 -1.254527419805526733e-01 3.019961416721343994e-01
-2.943952195346355438e-02 1.031890660524368286e-01 -1.253333687782287598e-02
-4.217380657792091370e-02 -1.819949224591255188e-02 -7.394886612892150879e-01
2.171153575181961060e-01 -8.822557330131530762e-02 2.504335045814514160e-01
-7.588216066360473633e-01 1.566530764102935791e-01 -2.100724726915359497e-03
-2.535029947757720947e-01 1.065164878964424133e-01 -9.926467464538291097e-05
2.159895300865173340e-01 3.646538406610488892e-02 -8.396044373512268066e-02
1.941986382007598877e-01 -1.207493171095848083e-01 -2.847068905830383301e-01
-4.229015707969665527e-01 9.445668198168277740e-03 -8.561165630817413330e-02
-7.575957179069519043e-01 3.794406056404113770e-01 -2.420989403617568314e-05
-7.247717380523681641e-01 2.658317238092422485e-02 -7.607969641685485840e-02
-3.446945250034332275e-01 1.005121096968650818e-01 3.119856677949428558e-02
-6.365073919296264648e-01 2.160454541444778442e-02 -6.862425804138183594e-02
5.344594642519950867e-02 -2.695588022470474243e-02 -5.596324801445007324e-01
-5.318810939788818359e-01 1.004620715975761414e-01 -1.926324702799320221e-02
6.454278230667114258e-01 -6.290812045335769653e-03 8.441238850355148315e-02
-1.775976121425628662e-01 -3.696318343281745911e-02 -7.090091705322265625e-02
-7.149520516395568848e-02 -2.588009834289550781e-02 -7.537491321563720703e-01
-4.571265280246734619e-01 -1.209504436701536179e-02 7.878328114748001099e-02
-3.446945250034332275e-01 1.005121096968650818e-01 3.119856677949428558e-02
-3.422677516937255859e-01 -6.570915877819061279e-02 2.814634144306182861e-02
-7.348541021347045898e-01 3.132172524929046631e-01 4.704239778220653534e-03
-2.086452543735504150e-01 -5.352527648210525513e-02 5.449056252837181091e-02
-1.097731366753578186e-01 -2.345333062112331390e-02 7.520244121551513672e-01
-1.922332942485809326e-01 -2.085143141448497772e-02 8.030939847230911255e-02
-2.708780020475387573e-02 -2.808170206844806671e-02 -5.531027317047119141e-01
2.607598155736923218e-02 -4.699549823999404907e-02 4.354684948921203613e-01
2.133376002311706543e-01 -3.971518948674201965e-02 -1.610166430473327637e-01
1.629008054733276367e-01 -6.330740451812744141e-02 2.628425657749176025e-01
1.996526122093200684e-01 -3.891460970044136047e-02 1.496850103139877319e-01
6.015708446502685547e-01 5.953221023082733154e-02 7.392974197864532471e-02
-2.386921793222427368e-01 -6.973709166049957275e-02 1.928987912833690643e-02
-7.266731858253479004e-01 4.602235928177833557e-02 9.119233489036560059e-02
1.926224827766418457e-01 -7.389012724161148071e-02 2.700978815555572510e-01
-5.557985305786132812e-01 3.606509044766426086e-02 -7.260216027498245239e-02
-5.520207881927490234e-01 8.657693862915039062e-02 4.345751181244850159e-02
9.732170104980468750e-01 -4.086603596806526184e-02 2.419345639646053314e-02
2.906940281391143799e-01 -4.336785525083541870e-02 -2.688453197479248047e-01
2.553182244300842285e-01 7.849604636430740356e-02 6.177087128162384033e-02
9.855385869741439819e-02 -1.247772425413131714e-01 1.261428296566009521e-01
3.440329730510711670e-01 1.935290172696113586e-02 -8.716278523206710815e-02
2.642497420310974121e-01 -6.923673301935195923e-02 -1.213127002120018005e-01
-6.365073919296264648e-01 2.160454541444778442e-02 -6.862425804138183594e-02
7.373198866844177246e-01 -1.317082624882459641e-02 8.198562264442443848e-02
2.832886278629302979e-01 -7.026247680187225342e-02 -9.589415043592453003e-02
2.340527027845382690e-01 -1.011350005865097046e-01 3.238870799541473389e-01
-5.979292392730712891e-01 1.800701618194580078e-01 3.928673919290304184e-03
3.821857869625091553e-01 -1.262136385776102543e-03 8.536308258771896362e-02
1.832656562328338623e-01 -3.718834370374679565e-02 2.916135489940643311e-01
4.838099181652069092e-01 7.624440640211105347e-02 6.339705735445022583e-02
6.331439018249511719e-01 -5.299988761544227600e-02 6.234629079699516296e-02
2.092596143484115601e-01 -7.196372002363204956e-02 9.504514932632446289e-02
1.509670913219451904e-01 -6.455831974744796753e-02 -2.021967023611068726e-01
1.593732386827468872e-01 -5.104846134781837463e-02 8.869051188230514526e-02
-7.248328067362308502e-03 -3.573729097843170166e-02 6.369404792785644531e-01
1.508059329353272915e-03 -3.363575786352157593e-02 -4.445735514163970947e-01
-3.164489269256591797e-01 5.693031474947929382e-02 7.728219032287597656e-02
3.723786175251007080e-01 1.517485547810792923e-02 -8.793835341930389404e-02
6.551849246025085449e-01 7.514360547065734863e-02 -6.477145105600357056e-02
-1.940096020698547363e-01 -6.658479571342468262e-02 -3.687609732151031494e-02
8.018919825553894043e-01 -7.461565732955932617e-02 2.366807311773300171e-02
-3.962571322917938232e-01 1.044149547815322876e-01 -1.375923119485378265e-02
8.167278170585632324e-01 2.745881676673889160e-02 -7.157640904188156128e-02
3.376532793045043945e-01 -5.785342305898666382e-02 3.129040598869323730e-01
5.982560664415359497e-02 -4.539433866739273071e-02 -1.630181074142456055e-01
6.235244497656822205e-02 -5.630229040980339050e-02 7.347941398620605469e-02
-6.210711598396301270e-01 2.175465412437915802e-02 6.127050518989562988e-02
-6.734343171119689941e-01 5.995752662420272827e-02 4.498362168669700623e-02
-9.443694353103637695e-02 -8.102031797170639038e-02 2.126632072031497955e-02
2.494889646768569946e-01 -8.942645788192749023e-02 2.954736351966857910e-02
-6.790884137153625488e-01 7.752033323049545288e-02 3.232438862323760986e-02
1.034574359655380249e-01 -4.126632213592529297e-02 1.740277707576751709e-01
-5.975790023803710938e-01 1.409666240215301514e-01 6.705699954181909561e-03
9.083696603775024414e-01 -7.098800688982009888e-02 -1.049958169460296631e-03
-7.203935980796813965e-01 4.684795811772346497e-02 -1.046505346894264221e-01
-6.871693134307861328e-01 1.342117041349411011e-01 7.831521332263946533e-03
-4.648321568965911865e-01 8.932895213365554810e-02 -4.738376289606094360e-02
3.766317367553710938e-01 -5.059813708066940308e-02 6.564869731664657593e-02
9.893287420272827148e-01 -4.581964761018753052e-02 -1.218308135867118835e-02
-4.077154994010925293e-01 -3.788885846734046936e-02 -6.617246568202972412e-02
-7.829642295837402344e-01 5.325262993574142456e-02 3.490304350852966309e-01
-7.448364496231079102e-01 5.377801135182380676e-02 -3.093999028205871582e-01
-8.168889284133911133e-01 5.172651633620262146e-02 -3.154042959213256836e-01
1.302019506692886353e-01 1.036894246935844421e-01 -1.030671130865812302e-02
-3.899649158120155334e-02 -2.920752391219139099e-02 5.547305345535278320e-01
4.366381466388702393e-02 -8.770020306110382080e-02 4.230666905641555786e-02
3.478857576847076416e-01 -1.204240843653678894e-01 2.810558378696441650e-01
1.686299741268157959e-01 -9.097759425640106201e-02 -2.663685083389282227e-01
2.318010628223419189e-01 -2.287791296839714050e-02 -9.544382244348526001e-02
-7.577208280563354492e-01 5.642995238304138184e-02 2.666953802108764648e-01
-7.149395942687988281e-01 5.330266803503036499e-02 -2.094519883394241333e-01
