1.998323500156402588e-01 -5.427989736199378967e-02 -8.584907650947570801e-02
1.131085455417633057e-01 -5.115442443639039993e-03 3.354347050189971924e-01
-3.557033836841583252e-01 9.452252089977264404e-02 1.982362940907478333e-03
1.747088730335235596e-01 -1.916242390871047974e-02 2.871765196323394775e-01
-1.846473217010498047e-01 -3.277753014117479324e-03 8.515664935111999512e-02
-9.588444977998733521e-02 -2.183085121214389801e-02 8.216097205877304077e-02
-5.467978119850158691e-01 5.069490894675254822e-02 6.919644773006439209e-02
-1.315053999423980713e-01 2.396031841635704041e-02 6.448712348937988281e-01
7.897286117076873779e-02 -4.637532308697700500e-02 -2.478173822164535522e-01
3.165129721164703369e-01 -4.889269918203353882e-02 2.567917108535766602e-01
2.033063471317291260e-01 4.329380393028259277e-02 7.961841672658920288e-02
9.908673912286758423e-02 -4.617393016815185547e-02 -8.547145873308181763e-02
9.599035978317260742e-02 -5.316825117915868759e-03 -3.246479034423828125e-01
1.382571905851364136e-01 -2.248536795377731323e-02 -1.207148060202598572e-01
4.264704510569572449e-02 -7.321060448884963989e-02 8.404900133609771729e-02
5.400043353438377380e-02 3.264528140425682068e-02 8.263926953077316284e-02
3.617503046989440918e-01 8.850597590208053589e-02 3.261889517307281494e-02
1.359915584325790405e-01 -5.173734202980995178e-02 -1.394189447164535522e-01
-7.851452380418777466e-02 1.404183264821767807e-02 6.073622107505798340e-01
-5.515053272247314453e-01 8.563616126775741577e-02 -3.200228884816169739e-02
-8.609418869018554688e-01 2.976500391960144043e-01 -1.567145111039280891e-03
4.053010344505310059e-01 -4.564527794718742371e-02 -6.414924561977386475e-02
1.176901981234550476e-01 -1.518496032804250717e-02 3.583428859710693359e-01
8.621805906295776367e-01 7.297373563051223755e-02 1.320988498628139496e-02
2.535532712936401367e-01 -1.247162297368049622e-01 2.371561527252197266e-01
3.307110071182250977e-01 8.971431851387023926e-02 2.607370354235172272e-02
1.207110509276390076e-01 -1.163545250892639160e-02 -2.281566411256790161e-01
7.693898677825927734e-01 -1.104930266737937927e-01 5.783608648926019669e-03
5.760046839714050293e-01 9.157717972993850708e-02 1.844603754580020905e-02
9.028614163398742676e-01 -6.744580715894699097e-02 1.411614194512367249e-02
9.400179982185363770e-01 2.501761913299560547e-02 1.484618242830038071e-02
5.760029330849647522e-02 -1.387632191181182861e-01 -1.858898103237152100e-01
3.595081344246864319e-02 -1.066917777061462402e-01 1.922964155673980713e-01
5.005335807800292969e-01 -3.995599597692489624e-02 7.053066045045852661e-02
1.797184646129608154e-01 -1.503391936421394348e-02 -2.757099866867065430e-01
-2.081613987684249878e-02 -2.125185541808605194e-02 2.810089290142059326e-01
-6.887295097112655640e-02 2.728326432406902313e-02 6.337947845458984375e-01
2.511617541313171387e-01 -5.002552270889282227e-02 -2.676040232181549072e-01
-3.835204541683197021e-01 -3.252972662448883057e-02 -7.318665087223052979e-02
-6.079215928912162781e-02 1.656319480389356613e-03 4.523419141769409180e-01
1.074696257710456848e-01 -3.011303953826427460e-02 1.065795719623565674e-01
1.415549665689468384e-01 -9.067725390195846558e-03 3.352836370468139648e-01
-1.603311486542224884e-02 -1.568844541907310486e-02 -3.538998663425445557e-01
7.373670488595962524e-02 6.323146820068359375e-02 6.622593849897384644e-02
7.947633415460586548e-02 -1.259206235408782959e-02 -2.520969510078430176e-01
8.406569361686706543e-01 -4.896822199225425720e-02 -5.732714384794235229e-02
-2.471790909767150879e-01 8.188527077436447144e-02 -4.111520573496818542e-02
9.840217828750610352e-01 -3.650718927383422852e-02 2.267523668706417084e-02
-6.895021535456180573e-03 -5.448128283023834229e-02 5.927796661853790283e-02
2.007386088371276855e-01 -2.855226397514343262e-02 2.269355803728103638e-01
5.787989497184753418e-01 9.338969737291336060e-02 9.383464232087135315e-03
2.700169682502746582e-01 -1.369758695363998413e-01 2.746903002262115479e-01
-2.777652740478515625e-01 -4.582149907946586609e-02 6.667906790971755981e-02
4.502866268157958984e-01 4.810200631618499756e-02 -7.434464246034622192e-02
1.508440971374511719e-01 -6.759685277938842773e-02 2.518828213214874268e-01
4.682589694857597351e-02 -2.397062443196773529e-02 2.026931941509246826e-01
3.583266735076904297e-01 9.283587336540222168e-02 1.076802425086498260e-02
4.732199907302856445e-01 6.096582487225532532e-02 6.813914328813552856e-02
-8.181967139244079590e-01 7.619598507881164551e-02 2.093824371695518494e-02
1.282883584499359131e-01 -4.635014384984970093e-02 -1.762482374906539917e-01
-4.163470864295959473e-01 7.984618842601776123e-02 -4.305359348654747009e-02
-1.886751353740692139e-01 5.326263606548309326e-02 -7.435149550437927246e-01
9.239050745964050293e-02 -6.908209621906280518e-02 8.646568655967712402e-02
-3.315113782882690430e-01 -1.349832210689783096e-02 -8.076395839452743530e-02
2.950145602226257324e-01 -5.269395187497138977e-02 2.322472482919692993e-01
-8.043008446693420410e-01 7.133743166923522949e-02 -2.661509253084659576e-02
-9.669001400470733643e-02 3.365223854780197144e-02 -6.913800239562988281e-01
6.374790668487548828e-01 -7.129739969968795776e-02 -3.177572414278984070e-02
-4.674751162528991699e-01 -4.481454566121101379e-02 5.950452759861946106e-02
2.168498486280441284e-01 -4.770953953266143799e-02 -8.547145873308181763e-02
-3.254714235663414001e-02 8.578720688819885254e-02 3.765365853905677795e-02
-7.785731554031372070e-01 2.594613432884216309e-01 7.142994552850723267e-03
-8.901183009147644043e-01 6.763688474893569946e-02 1.397083103656768799e-01
2.434082180261611938e-01 -3.756448999047279358e-02 -1.413321644067764282e-01
-4.702442288398742676e-01 -4.599770903587341309e-02 -5.556497722864151001e-02
6.812060475349426270e-01 9.296174347400665283e-02 -9.169637225568294525e-03
-3.698007464408874512e-01 -2.044230233877897263e-03 -8.305477350950241089e-02
7.388775050640106201e-02 -8.952323347330093384e-02 8.452032692730426788e-03
3.936959207057952881e-01 6.058821827173233032e-02 6.831536442041397095e-02
8.160369396209716797e-01 8.795215189456939697e-02 -1.844057114794850349e-03
-8.844542503356933594e-01 7.325064390897750854e-02 -1.876016259193420410e-01
1.159028485417366028e-01 -5.198908224701881409e-02 -8.547145873308181763e-02
6.126577258110046387e-01 1.205310132354497910e-02 8.696915954351425171e-02
-3.324176073074340820e-01 -3.821900486946105957e-02 7.178934663534164429e-02
4.989710450172424316e-02 -1.901138201355934143e-02 -3.586073815822601318e-01
-7.819716334342956543e-01 9.512668848037719727e-02 7.092647254467010498e-03
1.786108314990997314e-01 -4.234750941395759583e-02 -8.547145873308181763e-02
7.873891592025756836e-01 3.105933405458927155e-02 -7.892627269029617310e-02
3.863451480865478516e-01 -1.946451514959335327e-02 8.200991898775100708e-02
-8.338297009468078613e-01 7.058221846818923950e-02 2.541918493807315826e-02
1.287666708230972290e-01 -5.448128283023834229e-02 1.224139034748077393e-01
1.107170507311820984e-01 -1.385075598955154419e-02 -2.127754539251327515e-01
6.215675175189971924e-02 -8.841162547469139099e-03 -3.043326139450073242e-01
1.588997244834899902e-01 -2.515379711985588074e-02 -2.735198438167572021e-01
2.289081066846847534e-01 8.442782610654830933e-02 -3.731396049261093140e-02
-6.208088397979736328e-01 1.083932891488075256e-01 -3.732093144208192825e-03
3.556079268455505371e-01 1.502361241728067398e-02 8.621395379304885864e-02
-8.275865912437438965e-01 6.066374108195304871e-02 1.327855139970779419e-01
9.289398044347763062e-02 -2.933265082538127899e-02 1.254851073026657104e-01
-7.936019301414489746e-01 1.583129614591598511e-01 7.218516431748867035e-03
-8.488350361585617065e-02 3.342567011713981628e-02 -8.013461530208587646e-02
-7.324295639991760254e-01 -1.022572722285985947e-02 -1.125906314700841904e-02
1.234298199415206909e-01 -3.066685609519481659e-02 -2.595735490322113037e-01
-2.287266850471496582e-01 -4.574597626924514771e-02 -6.437581777572631836e-02
-6.822832822799682617e-01 1.506097763776779175e-01 -4.562828689813613892e-03
6.041741967201232910e-01 -7.258126139640808105e-02 2.768482640385627747e-02
3.372813761234283447e-01 5.482341349124908447e-02 7.189004868268966675e-02
-5.205684527754783630e-02 3.042998723685741425e-02 -8.073879033327102661e-02
-5.415112972259521484e-01 -3.041512332856655121e-02 5.960522592067718506e-02
2.365106046199798584e-01 -7.587902992963790894e-02 -7.960596680641174316e-02
5.204209089279174805e-01 -7.746497541666030884e-02 -1.642666524276137352e-03
-7.570244073867797852e-01 2.389950454235076904e-01 -3.883135970681905746e-03
-2.839328348636627197e-01 -1.455562375485897064e-02 -8.056256920099258423e-02
2.887714505195617676e-01 -4.020773619413375854e-02 -9.413125365972518921e-02
-2.804588675498962402e-01 -7.378959655761718750e-02 -1.946572773158550262e-02
2.012169063091278076e-01 -7.983132451772689819e-02 -2.770945429801940918e-01
1.358656883239746094e-01 6.957527250051498413e-02 6.184569373726844788e-02
-5.397995114326477051e-01 -5.110800266265869141e-02 3.425519540905952454e-02
7.865080237388610840e-01 3.473470732569694519e-02 8.062536269426345825e-02
4.710550308227539062e-01 4.246307164430618286e-02 8.047432452440261841e-02
-7.785731554031372070e-01 2.594613432884216309e-01 7.142994552850723267e-03
-8.149745464324951172e-01 2.382649928331375122e-01 7.092647254467010498e-03
-2.494195401668548584e-01 8.790180087089538574e-02 -3.215333074331283569e-02
8.050108551979064941e-01 -4.285098612308502197e-02 -6.437581777572631836e-02
-4.291875287890434265e-02 -9.869289351627230644e-04 4.222592115402221680e-01
2.067030593752861023e-02 7.536524534225463867e-02 5.318590253591537476e-02
-4.556434452533721924e-01 -3.285697847604751587e-02 -6.618832796812057495e-02
-1.571826934814453125e-01 2.662874571979045868e-02 6.784279942512512207e-01
2.301147021353244781e-02 -1.777786761522293091e-02 -3.468511998653411865e-01
2.535532712936401367e-01 -9.201545268297195435e-02 -2.176339924335479736e-01
-9.784801304340362549e-02 -8.136294782161712646e-03 8.420003950595855713e-02
2.808416783809661865e-01 -8.395982533693313599e-02 6.612524390220642090e-02
6.198053434491157532e-02 4.425439052283763885e-03 -4.163812696933746338e-01
-4.113140702247619629e-02 1.754099875688552856e-02 6.332157850265502930e-01
-9.265952110290527344e-01 5.253259837627410889e-02 1.399027369916439056e-02
-3.456104174256324768e-02 -5.891188606619834900e-02 5.270760133862495422e-02
-5.603430792689323425e-02 -4.108482040464878082e-03 -4.099871516227722168e-01
3.574942052364349365e-02 -2.613557688891887665e-02 -2.779252827167510986e-01
1.325930953025817871e-01 -1.008262857794761658e-01 2.684723734855651855e-01
5.639195069670677185e-02 -3.177450969815254211e-02 2.502968609333038330e-01
2.625151574611663818e-01 8.749902993440628052e-02 3.508592769503593445e-02
-3.034425675868988037e-01 -5.850910395383834839e-02 -5.095817148685455322e-02
2.748754918575286865e-01 -8.091380447149276733e-02 -2.072120457887649536e-01
2.071075886487960815e-01 -1.213893759995698929e-02 8.339448273181915283e-02
-8.576692938804626465e-01 1.868097335100173950e-01 9.432683873455971479e-05
1.314099133014678955e-01 -1.599052920937538147e-02 1.760089397430419922e-01
1.577417403459548950e-01 -7.665942609310150146e-02 -2.434371560811996460e-01
2.326086610555648804e-01 -7.205260545015335083e-02 -2.798385024070739746e-01
-8.750644326210021973e-01 3.003184497356414795e-01 3.568313084542751312e-03
-1.661211438477039337e-02 9.059540182352066040e-02 -1.928951032459735870e-02
-1.687374711036682129e-01 2.881886437535285950e-02 7.054142951965332031e-01
-6.887295097112655640e-02 2.728326432406902313e-02 6.337947845458984375e-01
-5.006983876228332520e-03 -5.055417865514755249e-02 1.223132014274597168e-01
1.100373566150665283e-01 -5.850910395383834839e-02 5.331177264451980591e-02
3.936959207057952881e-01 6.058821827173233032e-02 6.831536442041397095e-02
1.875475347042083740e-01 -7.978098094463348389e-02 7.795693725347518921e-02
-4.427987616509199142e-03 9.233240038156509399e-02 1.298332028090953827e-02
9.995288252830505371e-01 -2.877882495522499084e-02 1.066732872277498245e-02
-7.093720883131027222e-02 -5.002552270889282227e-02 -6.150599941611289978e-02
1.735760569572448730e-01 -4.234353546053171158e-03 8.498042821884155273e-02
4.269739240407943726e-02 -7.668459415435791016e-02 6.991951726377010345e-03
-1.326130479574203491e-01 2.063737250864505768e-02 -6.205157637596130371e-01
-8.303557038307189941e-01 3.548701107501983643e-01 4.675961099565029144e-03
-8.520303964614868164e-01 1.145608797669410706e-01 1.906841411255300045e-03
3.969936668872833252e-01 8.203630894422531128e-02 4.372054338455200195e-02
-4.598978161811828613e-01 9.057023376226425171e-02 -1.561413332819938660e-02
5.161161422729492188e-01 -3.290732949972152710e-02 -7.311113178730010986e-02
7.318557500839233398e-01 -6.948488205671310425e-02 3.694878891110420227e-02
5.186839103698730469e-01 -7.051700353622436523e-02 3.480901569128036499e-02
-3.375530838966369629e-01 -5.307156592607498169e-02 6.139256432652473450e-02
4.992245137691497803e-01 -1.641848310828208923e-02 8.279030770063400269e-02
-4.861540794372558594e-01 5.875052884221076965e-02 -6.367094814777374268e-02
-8.761216998100280762e-01 3.136354088783264160e-01 3.719355911016464233e-03
-9.108363986015319824e-01 8.027414232492446899e-02 2.733057439327239990e-01
-2.733615972101688385e-02 9.262815001420676708e-04 5.099647641181945801e-01
-8.620999455451965332e-01 6.708306074142456055e-02 1.886210292577743530e-01
7.587665319442749023e-01 -7.650838792324066162e-02 1.283227745443582535e-02
-3.791654109954833984e-01 -5.858461558818817139e-02 -5.088264495134353638e-02
9.200047850608825684e-01 -5.183804035186767578e-02 -3.713774681091308594e-02
9.681119322776794434e-01 -4.008186608552932739e-02 -2.875486575067043304e-02
-7.255067825317382812e-01 5.273398756980895996e-02 5.104612931609153748e-02
3.840291500091552734e-01 -3.842039778828620911e-02 -6.930988281965255737e-02
-2.132447808980941772e-01 7.370377331972122192e-02 -5.329933762550354004e-02
2.535532712936401367e-01 -6.102649122476577759e-02 2.516814470291137695e-01
-1.281321197748184204e-01 1.892555505037307739e-02 6.312019228935241699e-01
4.809073288924992085e-04 1.668507978320121765e-02 -5.387260317802429199e-01
-8.519548177719116211e-01 1.508111655712127686e-01 2.536186715587973595e-03
-6.422066092491149902e-01 -3.174933791160583496e-02 2.514227107167243958e-02
5.302890539169311523e-01 -7.429308444261550903e-02 -1.672178134322166443e-02
9.964056313037872314e-02 -2.779704518616199493e-02 7.878767699003219604e-02
-5.296040773391723633e-01 8.820389211177825928e-02 -2.840243093669414520e-02
6.504184603691101074e-01 -2.673974446952342987e-02 7.961841672658920288e-02
1.550967432558536530e-02 -2.381958253681659698e-02 2.339590638875961304e-01
-5.010570287704467773e-01 1.202793046832084656e-02 -7.867453992366790771e-02
-2.091162800788879395e-01 -5.465751141309738159e-02 -5.667262896895408630e-02
3.457649648189544678e-01 -2.533000893890857697e-02 8.044914901256561279e-02
8.159094303846359253e-02 -3.386393189430236816e-02 -2.482957094907760620e-01
1.048515364527702332e-01 -8.916683495044708252e-03 -2.772959470748901367e-01
-5.411085486412048340e-01 6.715858727693557739e-02 -5.606845766305923462e-02
-8.757441043853759766e-01 5.658558383584022522e-02 3.302167728543281555e-02
-1.607321947813034058e-01 -7.474620640277862549e-02 -1.445613708347082138e-02
5.991393923759460449e-01 -3.904974460601806641e-02 7.133621722459793091e-02
-1.961769163608551025e-01 -3.202624991536140442e-02 -7.358942925930023193e-02
1.508944481611251831e-01 -8.295287191867828369e-02 2.455390244722366333e-01
3.444038331508636475e-02 -3.819382563233375549e-02 1.282793879508972168e-01
9.756640791893005371e-01 -1.045229006558656693e-02 -2.890590950846672058e-02
1.907194256782531738e-01 -8.924632519483566284e-02 1.522378996014595032e-02
2.323803491890430450e-02 -2.842639200389385223e-02 -3.610996007919311523e-01
4.821818470954895020e-01 -4.738227650523185730e-02 -6.294090300798416138e-02
-8.914777636528015137e-01 3.283369243144989014e-01 9.432683873455971479e-05
-8.536666631698608398e-01 7.674980908632278442e-02 -2.137572318315505981e-01
1.759172230958938599e-01 -1.279345434159040451e-02 2.095404565334320068e-01
1.759172230958938599e-01 -1.279345434159040451e-02 2.095404565334320068e-01
-5.468984842300415039e-01 9.057023376226425171e-02 1.942781731486320496e-02
1.998323500156402588e-01 -5.427989736199378967e-02 -8.584907650947570801e-02
5.895967781543731689e-02 -1.469447165727615356e-01 -1.317157596349716187e-01
6.379304826259613037e-02 -2.331610769033432007e-02 3.262211084365844727e-01
-8.442516922950744629e-01 3.577902913093566895e-01 5.733261350542306900e-03
2.550367824733257294e-02 -2.603487670421600342e-02 2.742623388767242432e-01
-4.291875287890434265e-02 -9.869289351627230644e-04 4.222592115402221680e-01
-9.132798761129379272e-02 1.665990985929965973e-02 -5.678269863128662109e-01
4.264704510569572449e-02 -7.321060448884963989e-02 8.404900133609771729e-02
1.462372988462448120e-01 -3.054099529981613159e-02 2.524114847183227539e-01
-1.172318533062934875e-01 -7.368891686201095581e-02 -1.994403079152107239e-02
4.823329150676727295e-01 -2.072319947183132172e-02 -7.955561578273773193e-02
-7.469800114631652832e-01 3.277115151286125183e-02 -4.597375541925430298e-02
3.769301474094390869e-01 8.694519847631454468e-02 -3.383997827768325806e-02
2.326086610555648804e-01 -7.205260545015335083e-02 -2.798385024070739746e-01
1.028879880905151367e-01 -7.560211420059204102e-02 8.231201022863388062e-02
-1.603545844554901123e-01 -5.329811945557594299e-02 -5.868652835488319397e-02
-1.794866919517517090e-01 7.206747680902481079e-02 5.814514309167861938e-02
2.754293084144592285e-01 -1.273846626281738281e-01 2.888883352279663086e-01
-8.996861428022384644e-02 1.215380150824785233e-02 -5.795328021049499512e-01
7.856833748519420624e-03 -7.419238239526748657e-02 -1.730077899992465973e-02
-8.652718067169189453e-01 2.670426666736602783e-02 5.380827933549880981e-03
-4.404384493827819824e-01 9.223170578479766846e-02 9.886940941214561462e-03
1.317623555660247803e-01 -7.582469377666711807e-03 -3.368823528289794922e-01
3.368516638875007629e-02 -2.603487670421600342e-02 -2.005157917737960815e-01
-7.798587530851364136e-02 6.665903609246015549e-03 -5.303683280944824219e-01
-1.181884482502937317e-01 1.547673810273408890e-02 5.787647962570190430e-01
1.125529874116182327e-02 2.874333970248699188e-02 8.341965079307556152e-02
-8.522569537162780762e-01 6.177138909697532654e-02 -5.735231935977935791e-02
7.999761104583740234e-01 -7.467069476842880249e-02 -1.601691357791423798e-02
-7.745956778526306152e-01 2.500463426113128662e-01 -4.562828689813613892e-03
-5.006983876228332520e-03 -5.055417865514755249e-02 1.223132014274597168e-01
-8.003485202789306641e-01 2.848113775253295898e-01 -4.235569853335618973e-03
9.468132257461547852e-02 -7.783861365169286728e-03 3.005186319351196289e-01
2.037091255187988281e-01 -7.799363136291503906e-02 -2.209065854549407959e-01
-2.602712064981460571e-02 4.238754883408546448e-02 -7.789415866136550903e-02
-7.851452380418777466e-02 1.404183264821767807e-02 6.073622107505798340e-01
-1.801160275936126709e-01 5.558261182159185410e-03 -8.459038287401199341e-02
-5.113027691841125488e-01 5.167669057846069336e-02 -6.769875437021255493e-02
1.543432623147964478e-01 -3.809313476085662842e-02 -2.092007696628570557e-01
3.004520833492279053e-01 4.850478470325469971e-02 -7.379081845283508301e-02
9.389606714248657227e-01 -6.336764246225357056e-02 -4.059352912008762360e-03
1.590255945920944214e-01 -8.884353935718536377e-02 -2.439979650080204010e-02
4.750559478998184204e-02 -1.027394905686378479e-01 -1.528114229440689087e-01
-3.217439055442810059e-01 -6.938418000936508179e-02 3.720052912831306458e-02
7.410945296287536621e-01 -6.334247440099716187e-02 4.613723233342170715e-02
4.800907149910926819e-02 -2.643766067922115326e-02 2.860185205936431885e-01
-4.289357736706733704e-02 1.298453100025653839e-02 6.094516515731811523e-01
-8.003485202789306641e-01 2.848113775253295898e-01 -4.235569853335618973e-03
6.687952876091003418e-01 8.931154012680053711e-02 2.984977513551712036e-02
-3.869441151618957520e-01 7.111087441444396973e-02 -5.707540735602378845e-02
-7.930732965469360352e-01 7.393034547567367554e-02 -2.565848641097545624e-02
1.217179968953132629e-01 -1.981694996356964111e-02 -1.529372930526733398e-01
-7.189363837242126465e-01 7.820989191532135010e-02 -3.336167335510253906e-02
3.230078220367431641e-01 -7.313509285449981689e-02 2.167905271053314209e-01
3.480809330940246582e-01 7.513868808746337891e-02 -5.126025527715682983e-02
1.475966721773147583e-01 2.312957867980003357e-02 8.452730625867843628e-02
1.849294453859329224e-01 -8.839040994644165039e-02 3.579079359769821167e-02
2.394290268421173096e-02 -5.767836421728134155e-02 5.454528704285621643e-02
-5.892929807305335999e-02 2.458966523408889771e-02 -6.060659885406494141e-01
3.124348223209381104e-01 -7.535037398338317871e-02 2.229832857847213745e-01
-2.132447808980941772e-01 7.370377331972122192e-02 -5.329933762550354004e-02
-6.841982901096343994e-02 5.684132222086191177e-03 5.348364710807800293e-01
8.244953751564025879e-01 3.163833171129226685e-02 -7.489846646785736084e-02
1.865640096366405487e-02 -1.312070898711681366e-02 3.014752566814422607e-01
-1.560516003519296646e-02 8.277030661702156067e-03 4.681258797645568848e-01
1.769493520259857178e-01 -6.752131879329681396e-02 -3.786778822541236877e-02
2.836863398551940918e-01 -6.696749478578567505e-02 -8.413726091384887695e-02
-3.483795374631881714e-02 9.661595337092876434e-03 5.865435004234313965e-01
1.056822761893272400e-01 -6.251173466444015503e-02 -4.504232481122016907e-02
-3.415826335549354553e-02 -8.685480803251266479e-02 2.519262023270130157e-02
-3.921819850802421570e-02 -4.224681854248046875e-02 2.107488214969635010e-01
3.595081344246864319e-02 -1.954003609716892242e-02 -3.395507931709289551e-01
4.956984892487525940e-02 -1.634335666894912720e-01 1.769907176494598389e-01
8.597117662429809570e-02 -1.020054705440998077e-02 -2.702724337577819824e-01
3.840291500091552734e-01 -3.842039778828620911e-02 -6.930988281965255737e-02
4.202290773391723633e-01 -4.501593858003616333e-02 -6.455203145742416382e-02
8.194337040185928345e-02 -1.936381496489048004e-02 8.195957541465759277e-02
9.256185293197631836e-01 2.690565027296543121e-02 3.088190220296382904e-02
7.076445501297712326e-03 -2.721804939210414886e-02 -2.608574330806732178e-01
3.326745629310607910e-01 -1.000207141041755676e-01 2.176464349031448364e-01
-7.174763083457946777e-01 1.056493446230888367e-01 -7.936120033264160156e-03
-5.626086890697479248e-02 -4.526767134666442871e-02 -8.250095695257186890e-02
-1.186667606234550476e-01 1.311040204018354416e-02 -5.602244734764099121e-01
-5.789951086044311523e-01 8.848080784082412720e-02 -2.734513208270072937e-02
-3.960821926593780518e-01 -7.391546666622161865e-02 -1.229119021445512772e-02
2.532746270298957825e-02 -1.541153248399496078e-02 -3.754738271236419678e-01
-2.579031288623809814e-01 -1.716976286843419075e-03 8.548390865325927734e-02
1.670056879520416260e-01 -2.794808708131313324e-02 -7.628303021192550659e-02
-1.261937320232391357e-01 3.898908570408821106e-02 -7.415262460708618164e-01
1.998323500156402588e-01 -5.427989736199378967e-02 -8.584907650947570801e-02
6.127567216753959656e-02 -3.942735120654106140e-02 -1.954306960105895996e-01
-1.248846948146820068e-01 -6.525168195366859436e-03 5.399467945098876953e-01
-1.022282540798187256e-01 2.056185156106948853e-02 -6.581757664680480957e-01
-1.557998917996883392e-02 1.026576198637485504e-02 -8.476659655570983887e-02
6.432169675827026367e-02 2.789141610264778137e-03 4.033788144588470459e-01
-5.606434345245361328e-01 -5.186321213841438293e-02 -1.697351969778537750e-02
-8.065412640571594238e-01 2.493414729833602905e-01 7.394732907414436340e-03
3.131882846355438232e-02 5.281348247081041336e-03 4.268408417701721191e-01
-1.664718240499496460e-01 -2.588383480906486511e-02 8.007153868675231934e-02
-4.404384493827819824e-01 9.223170578479766846e-02 9.886940941214561462e-03
-3.921819850802421570e-02 -4.224681854248046875e-02 2.107488214969635010e-01
2.602746784687042236e-01 -5.838323384523391724e-02 -2.221149206161499023e-01
-5.965933576226234436e-02 1.890038326382637024e-02 6.518443822860717773e-01
5.240207314491271973e-01 -6.215931102633476257e-02 -4.463954642415046692e-02
-1.046197712421417236e-01 -3.303319960832595825e-02 7.526333630084991455e-02
1.306295394897460938e-01 -6.842759251594543457e-02 3.855991363525390625e-02
1.975918859243392944e-01 -1.212422549724578857e-01 2.471249699592590332e-01
-4.441390037536621094e-01 4.792578890919685364e-02 7.430673390626907349e-02
-8.010281920433044434e-01 6.182173267006874084e-02 -4.345637187361717224e-02
1.729467213153839111e-01 -2.477619238197803497e-02 2.684975564479827881e-01
-1.070112884044647217e-01 -7.489725202322006226e-02 1.613004691898822784e-02
1.019313856959342957e-01 -7.657990325242280960e-03 -4.064124524593353271e-01
-3.874164074659347534e-03 5.802048742771148682e-02 6.975027173757553101e-02
1.729467213153839111e-01 -2.477619238197803497e-02 2.684975564479827881e-01
9.259189665317535400e-02 -4.536837339401245117e-02 1.690861433744430542e-01
-1.467103809118270874e-01 -5.157887244422454387e-06 -8.345755934715270996e-02
-6.366180181503295898e-01 1.108099743723869324e-01 7.621297147125005722e-03
7.978362441062927246e-01 8.100817911326885223e-03 -8.257648348808288574e-02
1.019799895584583282e-02 -4.818783327937126160e-02 -6.273951381444931030e-02
4.347778111696243286e-02 -7.487207651138305664e-02 -1.382357925176620483e-01
-5.933693647384643555e-01 -1.020054705440998077e-02 6.330577284097671509e-02
-2.746940553188323975e-01 -2.384475246071815491e-02 8.105331659317016602e-02
2.206007540225982666e-01 -8.607442677021026611e-02 2.944517433643341064e-01
-8.669332861900329590e-01 5.905261263251304626e-02 8.231201022863388062e-02
-5.698822140693664551e-01 6.678097695112228394e-02 -5.511185154318809509e-02
1.611653715372085571e-01 -6.767236441373825073e-02 4.007034748792648315e-02
8.166663050651550293e-01 7.048152387142181396e-02 -4.778626933693885803e-02
5.573743209242820740e-02 -1.243134513497352600e-01 1.515651792287826538e-01
-1.799667440354824066e-02 3.976262232754379511e-04 4.161922931671142578e-01
-5.522874742746353149e-02 4.206029325723648071e-02 -7.809554785490036011e-02
7.763882279396057129e-01 -1.528605520725250244e-01 1.419166289269924164e-02
8.406569361686706543e-01 -4.896822199225425720e-02 -5.732714384794235229e-02
-8.077496290206909180e-01 9.585672616958618164e-02 -2.372707007452845573e-03
5.519384741783142090e-01 9.137579053640365601e-02 2.057884354144334793e-03
1.784094274044036865e-01 -4.209576919674873352e-02 -1.723966449499130249e-01
8.514044433832168579e-02 -1.299484632909297943e-02 -3.880355358123779297e-01
-8.563854098320007324e-01 7.554146647453308105e-02 2.018876224756240845e-01
4.760394692420959473e-01 -6.608641147613525391e-02 4.122833907604217529e-02
-7.127436399459838867e-01 2.018384784460067749e-01 -3.606224199756979942e-03
2.193168848752975464e-01 -1.170382201671600342e-01 -2.293650060892105103e-01
1.590255945920944214e-01 -5.860980600118637085e-02 -2.583148777484893799e-01
1.712852418422698975e-01 -1.244102139025926590e-02 -2.271748632192611694e-01
3.826194405555725098e-01 -7.175052911043167114e-02 3.130985796451568604e-02
-1.077916622161865234e-01 1.444461662322282791e-02 5.963612794876098633e-01
1.740543693304061890e-01 -7.177569717168807983e-02 2.505234479904174805e-01
-8.317906260490417480e-01 1.663473993539810181e-02 -4.343232722021639347e-04
-1.383023262023925781e-01 -3.086824901401996613e-02 -7.082030922174453735e-02
-7.691833376884460449e-01 6.136860698461532593e-02 -3.816987201571464539e-02
7.509374618530273438e-01 8.986536413431167603e-02 2.441223151981830597e-02
-6.768205761909484863e-01 1.411696076393127441e-01 -4.739045631140470505e-03
1.251398958265781403e-02 -4.158832598477602005e-03 4.827015399932861328e-01
-5.686504393815994263e-02 2.270162478089332581e-02 5.906216502189636230e-01
-3.468673825263977051e-01 9.079679101705551147e-02 -1.833290420472621918e-02
5.478082224726676941e-02 -3.998117521405220032e-02 9.781907498836517334e-02
2.252830862998962402e-01 7.073327153921127319e-02 -5.775510147213935852e-02
-4.223905876278877258e-02 -9.898464195430278778e-03 3.685382902622222900e-01
5.288037657737731934e-01 -6.500395387411117554e-02 4.283946380019187927e-02
-1.742001920938491821e-01 -7.411687076091766357e-02 2.010750956833362579e-02
2.726853489875793457e-01 -1.412302553653717041e-01 -2.563765048980712891e-01
-7.904803752899169922e-01 6.018543615937232971e-02 -1.281410753726959229e-01
-9.085142053663730621e-03 -1.118232775479555130e-02 -3.305133879184722900e-01
2.665177881717681885e-01 -3.154794499278068542e-02 1.351518481969833374e-01
4.307500272989273071e-02 -5.186321213841438293e-02 1.228418573737144470e-01
2.369385659694671631e-01 -2.162946015596389771e-02 -1.604894250631332397e-01
1.348083764314651489e-01 -9.193596430122852325e-03 2.747658193111419678e-01
7.506101727485656738e-01 3.332497924566268921e-02 -8.008427172899246216e-02
8.945289254188537598e-01 8.277030661702156067e-03 -6.155634671449661255e-02
1.875475347042083740e-01 -5.274429172277450562e-02 8.782507479190826416e-02
-6.895021535456180573e-03 -5.448128283023834229e-02 5.927796661853790283e-02
5.999180302023887634e-02 -8.798763155937194824e-02 4.495406150817871094e-02
9.710069894790649414e-01 -3.444293513894081116e-02 3.395310789346694946e-02
3.258524835109710693e-01 -1.251441836357116699e-01 2.267845422029495239e-01
7.919942587614059448e-02 -5.855944380164146423e-02 5.321107804775238037e-02
1.807254254817962646e-01 -1.646882481873035431e-02 1.426284611225128174e-01
2.234202027320861816e-01 -3.623027354478836060e-02 -1.630319803953170776e-01
5.827998369932174683e-02 -4.944652691483497620e-02 1.387013494968414307e-01
1.325930953025817871e-01 -8.569681644439697266e-02 -6.430029124021530151e-02
5.929214358329772949e-01 8.281669765710830688e-02 4.268841817975044250e-02
8.858926594257354736e-02 -2.993681840598583221e-02 -7.499916106462478638e-02
-2.129930406808853149e-01 1.457048766314983368e-02 -8.391068875789642334e-02
1.354629099369049072e-01 -8.967033587396144867e-03 3.101350367069244385e-01
7.708482444286346436e-02 -5.168700218200683594e-02 8.820268511772155762e-02
1.183429732918739319e-02 -1.407731883227825165e-02 -2.954210937023162842e-01
-6.978155374526977539e-01 1.699181050062179565e-01 7.243690080940723419e-03
-2.638441324234008789e-01 -4.410575143992900848e-03 -8.257648348808288574e-02
-6.636547446250915527e-01 7.974549382925033569e-02 -3.613079339265823364e-02
-1.575099527835845947e-01 2.987616136670112610e-02 -8.083948493003845215e-02
-1.041162833571434021e-01 2.949855662882328033e-02 6.630970835685729980e-01
1.324420571327209473e-01 7.808401435613632202e-02 4.913291707634925842e-02
3.972688317298889160e-02 -3.816865757107734680e-02 2.026931941509246826e-01
7.567509263753890991e-02 -3.288215771317481995e-02 2.543498575687408447e-01
-2.373630180954933167e-02 1.459565758705139160e-02 5.154274702072143555e-01
1.669805198907852173e-01 -9.989484399557113647e-02 2.336066365242004395e-01
-7.158903479576110840e-01 7.891475409269332886e-02 1.069250330328941345e-02
-5.877825617790222168e-02 -7.341200113296508789e-02 2.368219010531902313e-02
1.540159881114959717e-01 -4.559493437409400940e-02 -1.759461462497711182e-01
-8.750644326210021973e-01 3.003184497356414795e-01 3.568313084542751312e-03
3.508248925209045410e-01 -7.630698382854461670e-02 -5.368391051888465881e-03
-6.789117306470870972e-02 1.738994754850864410e-02 5.601865053176879883e-01
3.816610947251319885e-02 -1.274853646755218506e-01 1.515651792287826538e-01
-4.584377408027648926e-01 3.070690110325813293e-02 -7.726480811834335327e-02
7.791573405265808105e-01 1.887520402669906616e-02 -8.184643089771270752e-02
-4.861540794372558594e-01 5.875052884221076965e-02 -6.367094814777374268e-02
6.354652047157287598e-01 9.288622438907623291e-02 1.192601956427097321e-02
-4.233454167842864990e-01 -2.364337071776390076e-02 -3.046668507158756256e-02
3.682451546192169189e-01 6.803967058658599854e-02 -6.085147708654403687e-02
5.161161422729492188e-01 -3.290732949972152710e-02 -7.311113178730010986e-02
5.518126487731933594e-01 7.674980908632278442e-02 5.180134251713752747e-02
-6.711078435182571411e-02 -3.263041749596595764e-02 8.460282534360885620e-02
-3.028149716556072235e-02 -3.089342825114727020e-02 7.669824361801147461e-02
2.480150461196899414e-01 -1.334515511989593506e-01 2.793222963809967041e-01
1.640100181102752686e-01 -5.785457789897918701e-02 1.000847220420837402e-01
9.390110373497009277e-01 3.080759570002555847e-02 -6.476039066910743713e-03
1.461617648601531982e-01 -1.030124817043542862e-02 3.154467046260833740e-01
2.535532712936401367e-01 -7.985649257898330688e-02 -2.201513797044754028e-01
-1.397624015808105469e-01 -7.502312213182449341e-02 1.545035373419523239e-02
8.369815945625305176e-01 -2.892986685037612915e-02 7.340047508478164673e-02
3.014841973781585693e-01 -5.873565748333930969e-02 -2.214855849742889404e-01
-4.223905876278877258e-02 -9.898464195430278778e-03 3.685382902622222900e-01
-1.024800017476081848e-01 -7.781741768121719360e-02 2.861625887453556061e-02
2.983357384800910950e-02 -3.338563442230224609e-02 2.611216306686401367e-01
-8.989291787147521973e-01 7.166469842195510864e-02 -1.820130497217178345e-01
1.888296566903591156e-02 4.236237332224845886e-02 8.024775981903076172e-02
8.705886006355285645e-01 4.933552443981170654e-02 -5.239307880401611328e-02
-3.070945106446743011e-02 1.995768584311008453e-02 5.647933483123779297e-01
-2.551340162754058838e-01 1.001401897519826889e-02 8.717055618762969971e-02
6.102392822504043579e-02 -5.115442443639039993e-03 -8.245060592889785767e-02
-5.930925011634826660e-01 8.981502056121826172e-02 2.343045361340045929e-02
-7.719776630401611328e-01 5.643454194068908691e-02 9.686248004436492920e-02
7.692640423774719238e-01 -1.453587561845779419e-01 3.208911512047052383e-04
-4.450469836592674255e-02 -5.518217105418443680e-03 -4.243865311145782471e-01
1.735760569572448730e-01 -4.234353546053171158e-03 8.498042821884155273e-02
5.522657632827758789e-01 -3.200107067823410034e-02 7.596820592880249023e-02
-6.428611278533935547e-01 -3.529884666204452515e-02 6.513649597764015198e-03
1.941682398319244385e-01 -2.341679856181144714e-02 2.552057802677154541e-01
2.981109023094177246e-01 -4.748296737670898438e-02 2.601650059223175049e-01
1.258951146155595779e-02 -2.807395905256271362e-02 2.109501957893371582e-01
2.344211786985397339e-01 -2.527966722846031189e-02 -8.547145873308181763e-02
-7.095969319343566895e-01 -7.708340417593717575e-03 -3.089464083313941956e-02
1.013020277023315430e-01 -9.092904627323150635e-03 2.765028178691864014e-01
-1.734388875775039196e-03 -8.841558545827865601e-02 3.679774701595306396e-02
1.815309822559356689e-01 -2.684044465422630310e-02 -2.481698244810104370e-01
-1.300704926252365112e-01 2.839482622221112251e-03 -8.403655886650085449e-02
-1.261433959007263184e-01 -3.235350549221038818e-02 7.647167891263961792e-02
-7.733118534088134766e-01 1.418996453285217285e-01 -6.022910121828317642e-03
3.139955997467041016e-01 -1.030667573213577271e-01 -2.498816549777984619e-01
5.883146524429321289e-01 -1.830651424825191498e-02 8.231201022863388062e-02
1.519265770912170410e-01 4.314276203513145447e-02 -7.736550271511077881e-02
-4.027549922466278076e-02 1.731840311549603939e-03 -5.043889284133911133e-01
-8.243391513824462891e-01 3.094565272331237793e-01 -3.857962554320693016e-03
-4.121431112289428711e-01 8.792698383331298828e-02 3.307202458381652832e-02
-7.189363837242126465e-01 7.820989191532135010e-02 -3.336167335510253906e-02
4.101074486970901489e-02 -4.171816259622573853e-02 2.493150830268859863e-01
6.354652047157287598e-01 9.288622438907623291e-02 1.192601956427097321e-02
4.750559478998184204e-02 -1.027394905686378479e-01 -1.528114229440689087e-01
1.294463574886322021e-01 -7.758690975606441498e-03 -3.201669454574584961e-01
6.240363121032714844e-01 4.445180296897888184e-02 -7.678650319576263428e-02
4.269739240407943726e-02 -7.668459415435791016e-02 6.991951726377010345e-03
4.536581784486770630e-02 -9.551460295915603638e-02 1.402117758989334106e-01
2.311737537384033203e-01 -8.438777923583984375e-02 7.078240066766738892e-02
1.364950239658355713e-01 -2.726839855313301086e-02 -9.332569688558578491e-02
-1.024800017476081848e-01 -7.781741768121719360e-02 2.861625887453556061e-02
-1.560516003519296646e-02 8.277030661702156067e-03 4.681258797645568848e-01
5.583578348159790039e-01 -6.326694786548614502e-02 4.586032405495643616e-02
-6.464610099792480469e-01 1.277267932891845703e-01 6.261911243200302124e-03
2.901308238506317139e-01 -8.652755618095397949e-02 -2.991971373558044434e-01
-8.027843199670314789e-03 8.027414232492446899e-02 -4.350672289729118347e-02
-5.340598821640014648e-01 6.970113515853881836e-02 5.703749880194664001e-02
-8.295249342918395996e-01 2.343630641698837280e-01 5.632565822452306747e-03
3.139955997467041016e-01 -1.030667573213577271e-01 -2.498816549777984619e-01
1.370236873626708984e-01 9.220653027296066284e-02 -1.120871584862470627e-02
7.373670488595962524e-02 6.323146820068359375e-02 6.622593849897384644e-02
6.219217181205749512e-01 7.136260718107223511e-02 -5.747818574309349060e-02
1.540159881114959717e-01 -4.559493437409400940e-02 -1.759461462497711182e-01
5.974006652832031250e-02 -1.138663217425346375e-01 1.608291268348693848e-01
5.412396192550659180e-01 -7.371408492326736450e-02 2.194519713521003723e-02
-7.999978959560394287e-02 2.078841440379619598e-02 -8.265200257301330566e-02
1.849294453859329224e-01 -8.839040994644165039e-02 3.579079359769821167e-02
-7.672449946403503418e-01 2.623059749603271484e-01 6.161215715110301971e-03
-8.950272202491760254e-01 7.239473611116409302e-02 1.885706931352615356e-01
3.139955997467041016e-01 -1.030667573213577271e-01 -2.498816549777984619e-01
1.159028485417366028e-01 -5.198908224701881409e-02 -8.547145873308181763e-02
3.856888785958290100e-02 -1.496131271123886108e-01 1.713266074657440186e-01
-2.551340162754058838e-01 1.001401897519826889e-02 8.717055618762969971e-02
2.520931959152221680e-01 -6.200825050473213196e-02 2.786425948143005371e-01
-7.750757783651351929e-02 2.622596174478530884e-02 6.254118680953979492e-01
-9.108363986015319824e-01 8.027414232492446899e-02 2.733057439327239990e-01
-5.467978119850158691e-01 5.069490894675254822e-02 6.919644773006439209e-02
-7.141029834747314453e-01 5.731562152504920959e-02 5.217894911766052246e-02
1.590255945920944214e-01 -8.884353935718536377e-02 -2.439979650080204010e-02
-7.234928011894226074e-01 2.889832947403192520e-03 4.047312587499618530e-02
-8.203365206718444824e-01 6.421324610710144043e-02 -1.667073667049407959e-01
6.240849569439888000e-02 -9.571200236678123474e-03 4.228130280971527100e-01
7.508367300033569336e-01 8.744867891073226929e-02 3.493488579988479614e-02
4.546651244163513184e-02 -5.287016183137893677e-02 2.128634154796600342e-01
4.042940735816955566e-01 -4.040912911295890808e-02 7.015305012464523315e-02
6.144198775291442871e-01 9.039402008056640625e-02 2.443740330636501312e-02
1.768738180398941040e-01 -2.049663662910461426e-02 9.764286875724792480e-02
1.380306333303451538e-01 -1.082777231931686401e-01 -2.437392473220825195e-01
3.255503773689270020e-01 -6.925832480192184448e-02 6.834053993225097656e-02
2.067030593752861023e-02 7.536524534225463867e-02 5.318590253591537476e-02
8.514044433832168579e-02 -1.299484632909297943e-02 -3.880355358123779297e-01
-1.283603999763727188e-02 -5.039921496063470840e-03 4.572004377841949463e-01
7.964013218879699707e-01 7.085913419723510742e-02 -5.131060630083084106e-02
-5.281206220388412476e-02 4.148526117205619812e-03 -5.193170309066772461e-01
7.587665319442749023e-01 -7.650838792324066162e-02 1.283227745443582535e-02
3.220260441303253174e-01 -1.265790909528732300e-01 -2.224421948194503784e-01
3.214218616485595703e-01 -1.351130157709121704e-01 -2.701213955879211426e-01
1.704545021057128906e-01 -1.644365489482879639e-02 -1.405769437551498413e-01
6.839751005172729492e-01 5.817153304815292358e-02 -6.764841079711914062e-02
1.484274119138717651e-01 -1.074721738696098328e-01 2.680192291736602783e-01
2.808416783809661865e-01 -8.395982533693313599e-02 6.612524390220642090e-02
7.752553820610046387e-01 -1.026136130094528198e-01 4.600439686328172684e-03
7.429052889347076416e-02 1.228364882990717888e-03 -8.370929956436157227e-02
-7.316743135452270508e-01 8.661793917417526245e-02 1.927677355706691742e-02
-4.441390037536621094e-01 4.792578890919685364e-02 7.430673390626907349e-02
1.185772474855184555e-03 -4.586787428706884384e-03 8.490490913391113281e-02
-5.036751031875610352e-01 -5.141008645296096802e-02 4.462680593132972717e-02
-7.126446813344955444e-02 1.723890565335750580e-02 -5.586888194084167480e-01
-1.783538758754730225e-01 -7.764121145009994507e-02 2.108231885358691216e-03
1.074947938323020935e-01 -3.731274604797363281e-02 -7.003992050886154175e-02
-1.672773957252502441e-01 -1.148441061377525330e-02 8.352035284042358398e-02
-6.079215928912162781e-02 1.656319480389356613e-03 4.523419141769409180e-01
9.744870476424694061e-03 -1.012502610683441162e-02 -3.264604210853576660e-01
2.380461990833282471e-01 -6.744580715894699097e-02 8.737194538116455078e-02
-8.162583708763122559e-01 5.280951038002967834e-02 4.920843988656997681e-02
3.900708556175231934e-01 2.010872587561607361e-02 -8.292891085147857666e-02
3.363751173019409180e-01 -6.764718890190124512e-02 -2.267720848321914673e-01
4.809073288924992085e-04 1.668507978320121765e-02 -5.387260317802429199e-01
-2.451400011777877808e-01 -6.372009217739105225e-02 -4.322981089353561401e-02
-3.921819850802421570e-02 -4.224681854248046875e-02 2.107488214969635010e-01
2.535532712936401367e-01 -1.332753300666809082e-01 2.660556733608245850e-01
-3.622485995292663574e-01 -1.349832210689783096e-02 -8.076395839452743530e-02
7.410945296287536621e-01 -6.334247440099716187e-02 4.613723233342170715e-02
2.748754918575286865e-01 -8.091380447149276733e-02 -2.072120457887649536e-01
2.700924575328826904e-01 -7.300921529531478882e-02 -2.947413921356201172e-01
1.434178352355957031e-01 -5.337364971637725830e-02 -1.282921284437179565e-01
-8.409287333488464355e-01 6.454050540924072266e-02 -2.598574571311473846e-02
7.807936072349548340e-01 -5.480855330824851990e-02 -5.672297254204750061e-02
-8.581493794918060303e-02 -5.531201884150505066e-02 -7.671098411083221436e-02
-2.370340228080749512e-01 7.287304103374481201e-02 -5.458319932222366333e-02
7.027044296264648438e-01 2.677978761494159698e-02 8.402383327484130859e-02
2.326086610555648804e-01 -7.205260545015335083e-02 -2.798385024070739746e-01
-1.914442479610443115e-01 5.268364027142524719e-02 7.332494854927062988e-02
-1.208082679659128189e-02 -2.507827617228031158e-02 2.503220438957214355e-01
3.486833721399307251e-02 -5.740145221352577209e-02 -1.820633858442306519e-01
8.101193606853485107e-02 -4.871648922562599182e-02 -1.432202011346817017e-01
4.760628566145896912e-02 -1.193290352821350098e-01 1.340693831443786621e-01
-1.782045885920524597e-02 -2.723927143961191177e-03 4.782961010932922363e-01
3.401260077953338623e-01 -1.729956269264221191e-02 -8.000874519348144531e-02
7.940098643302917480e-01 5.066973343491554260e-02 -6.895744800567626953e-02
-5.122610554099082947e-02 -6.450046598911285400e-02 7.994566857814788818e-02
2.092977017164230347e-01 -1.262518316507339478e-01 2.352177649736404419e-01
6.138660907745361328e-01 6.348320841789245605e-02 6.647767126560211182e-02
-2.814171835780143738e-02 -7.441895455121994019e-02 -1.616795733571052551e-02
1.704545021057128906e-01 -1.644365489482879639e-02 -1.405769437551498413e-01
5.505791306495666504e-01 -6.928350031375885010e-02 -3.457001596689224243e-02
-1.044452935457229614e-02 -3.680927306413650513e-02 -7.036717981100082397e-02
-5.071238875389099121e-01 9.293656796216964722e-02 6.136042531579732895e-03
-4.291875287890434265e-02 -9.869289351627230644e-04 4.222592115402221680e-01
3.471998572349548340e-01 -6.945971399545669556e-02 -3.502314537763595581e-02
-7.095969319343566895e-01 -7.708340417593717575e-03 -3.089464083313941956e-02
6.432169675827026367e-02 2.789141610264778137e-03 4.033788144588470459e-01
-2.441330403089523315e-01 4.249217454344034195e-03 -8.431346714496612549e-02
3.401242941617965698e-02 -2.170101273804903030e-03 -3.662098944187164307e-01
1.457841545343399048e-01 -4.881718009710311890e-02 -1.593566238880157471e-01
-8.718925118446350098e-01 5.376611277461051941e-02 -2.407253533601760864e-02
-4.434844851493835449e-01 -2.653835155069828033e-02 -7.150000333786010742e-02
4.748041927814483643e-02 -9.251891821622848511e-02 -1.866450309753417969e-01
1.335748583078384399e-01 -6.432425230741500854e-02 -8.547145873308181763e-02
1.775014400482177734e-02 9.321347624063491821e-02 8.527554571628570557e-03
-1.845214515924453735e-01 8.399987220764160156e-02 -3.796848282217979431e-02
-9.422299265861511230e-02 3.156280890107154846e-02 -7.382284998893737793e-01
2.148359417915344238e-01 -8.854145556688308716e-02 -3.016459941864013672e-02
1.624492406845092773e-01 -1.111978963017463684e-01 -2.652880251407623291e-01
-5.789951086044311523e-01 8.848080784082412720e-02 -2.734513208270072937e-02
-6.057800650596618652e-01 -4.453763365745544434e-02 -3.178268903866410255e-03
-6.842216849327087402e-01 7.763089239597320557e-02 -3.776708990335464478e-02
-5.059675872325897217e-02 -6.956040859222412109e-02 -3.459519147872924805e-02
-3.280121684074401855e-01 9.034366905689239502e-02 2.292697504162788391e-02
1.511713564395904541e-01 -7.625664025545120239e-02 -2.540353238582611084e-01
8.617525696754455566e-01 -2.663905359804630280e-02 -6.878123432397842407e-02
8.828734159469604492e-01 6.413772702217102051e-02 2.395910397171974182e-02
-5.696573853492736816e-02 1.054267492145299911e-02 -5.050182938575744629e-01
-3.911229670047760010e-01 -5.166183039546012878e-02 -5.961796641349792480e-02
5.120614543557167053e-02 -8.066205680370330811e-02 1.299660354852676392e-01
-1.207310035824775696e-01 2.954890392720699310e-02 7.416394352912902832e-01
-1.784736872650682926e-03 -2.049663662910461426e-02 -2.986685037612915039e-01
1.884286105632781982e-01 -4.675292968750000000e-02 2.620530426502227783e-01
2.651835680007934570e-01 -4.131538048386573792e-02 2.484088391065597534e-01
4.536347687244415283e-01 -7.429308444261550903e-02 -1.657073758542537689e-02
2.369385659694671631e-01 -2.162946015596389771e-02 -1.604894250631332397e-01
4.355347752571105957e-01 6.957527250051498413e-02 -6.007108837366104126e-02
1.258968412876129150e-01 -4.280063509941101074e-02 -2.005409747362136841e-01
3.139955997467041016e-01 -1.030667573213577271e-01 -2.498816549777984619e-01
2.205504029989242554e-01 -1.180703416466712952e-01 -2.750806212425231934e-01
2.377693057060241699e-01 2.421205118298530579e-02 -8.197230100631713867e-02
-7.189363837242126465e-01 7.820989191532135010e-02 -3.336167335510253906e-02
-1.292397528886795044e-01 1.643334701657295227e-02 -5.887212157249450684e-01
3.004017472267150879e-01 9.351557493209838867e-02 -4.663524217903614044e-03
-1.914442479610443115e-01 5.268364027142524719e-02 7.332494854927062988e-02
-4.981811158359050751e-03 -7.346234470605850220e-02 2.345562539994716644e-02
-6.035144329071044922e-01 7.810918986797332764e-02 -4.161868616938591003e-02
3.124348223209381104e-01 -7.535037398338317871e-02 2.229832857847213745e-01
1.550967432558536530e-02 -2.381958253681659698e-02 2.339590638875961304e-01
-9.495303034782409668e-02 -7.147361338138580322e-02 3.360067307949066162e-02
7.708482444286346436e-02 -5.168700218200683594e-02 8.820268511772155762e-02
7.003615796566009521e-02 -1.100902482867240906e-01 -1.914280503988265991e-01
3.270356357097625732e-01 -6.009504944086074829e-02 7.697515934705734253e-02
2.289081066846847534e-01 8.442782610654830933e-02 -3.731396049261093140e-02
-3.349350094795227051e-01 7.018337026238441467e-03 8.722090721130371094e-02
1.901152580976486206e-01 -8.947289735078811646e-02 -5.871867295354604721e-03
7.919942587614059448e-02 -5.855944380164146423e-02 5.321107804775238037e-02
