5.506442785263061523e-01 -2.639484405517578125e-02 -9.461218863725662231e-02
-7.886791229248046875e-01 2.622253894805908203e-01 -2.214744454249739647e-03
-1.894856095314025879e-01 6.410190463066101074e-02 -6.453372538089752197e-02
-7.800309062004089355e-01 2.549314796924591064e-01 -1.671236306428909302e-01
-2.275469899177551270e-01 9.670808911323547363e-03 1.652125567197799683e-01
-7.418032884597778320e-01 2.598257660865783691e-01 -1.241679638624191284e-01
-7.747802734375000000e-01 2.473287284374237061e-01 -5.042024888098239899e-03
5.350586175918579102e-01 9.121054410934448242e-02 -3.521471051499247551e-03
-1.958529502153396606e-01 5.673671886324882507e-02 1.300022155046463013e-01
-2.738288342952728271e-01 9.023643285036087036e-02 -1.990552693605422974e-01
-2.738288342952728271e-01 -9.016310423612594604e-02 -1.675504632294178009e-02
-8.637300878763198853e-02 -5.685344710946083069e-02 6.133722066879272461e-01
9.403814077377319336e-01 -1.950483024120330811e-02 -2.856228267773985863e-03
6.439445614814758301e-01 -3.794155269861221313e-02 -9.221255779266357422e-02
8.371025323867797852e-01 3.456988930702209473e-02 2.285064570605754852e-02
-1.104167699813842773e-01 -5.008222907781600952e-02 -6.010519266128540039e-01
6.363417506217956543e-01 -3.661106526851654053e-02 1.024421751499176025e-01
-5.315153598785400391e-01 1.040877401828765869e-01 1.814643107354640961e-02
5.873752236366271973e-01 -1.115221381187438965e-01 -3.768642991781234741e-02
6.066910028457641602e-01 8.812192082405090332e-02 2.736479230225086212e-02
-6.532784104347229004e-01 2.013794630765914917e-01 -1.095793303102254868e-02
-4.300895631313323975e-01 -5.629771854728460312e-03 -6.843014061450958252e-02
5.036258697509765625e-01 6.037179753184318542e-02 7.742429524660110474e-02
3.267901539802551270e-01 5.431333556771278381e-02 -7.277797162532806396e-02
-7.458871603012084961e-02 -5.694848671555519104e-02 -4.899563193321228027e-01
7.779936492443084717e-02 -1.353283226490020752e-01 -8.095095306634902954e-02
8.100677281618118286e-02 -9.612651914358139038e-02 -1.570974737405776978e-01
3.963317573070526123e-01 -5.344665609300136566e-03 1.047467589378356934e-01
1.103487238287925720e-01 -6.108249723911285400e-02 -2.494949102401733398e-01
-7.866358757019042969e-01 2.560243904590606689e-01 5.665922537446022034e-02
-9.183748811483383179e-02 -5.630699917674064636e-02 -6.044256091117858887e-01
-1.093925163149833679e-02 -9.783715009689331055e-02 5.414080619812011719e-02
5.475794076919555664e-01 4.515178501605987549e-03 -9.306787699460983276e-02
-3.293053209781646729e-01 5.994413793087005615e-02 -5.916425958275794983e-02
-7.726657986640930176e-01 2.530783116817474365e-01 8.680896461009979248e-02
-7.220122814178466797e-01 2.068677246570587158e-01 -2.286020433530211449e-03
5.875890254974365234e-01 8.733788132667541504e-02 -2.188691683113574982e-02
5.156979337334632874e-02 -6.405232846736907959e-02 2.706060111522674561e-01
-1.789842844009399414e-01 -6.651392206549644470e-03 1.036063432693481445e-01
3.289997279644012451e-01 8.360777050256729126e-02 -3.557190671563148499e-02
-2.700749635696411133e-01 4.158796742558479309e-03 1.431170105934143066e-01
7.385542243719100952e-02 -5.713855847716331482e-02 -4.252852499485015869e-01
9.017761796712875366e-02 8.196842670440673828e-02 4.903269186615943909e-02
6.169784665107727051e-01 -1.142306253314018250e-01 4.309302940964698792e-02
7.810795307159423828e-01 -7.020582258701324463e-02 -7.453612238168716431e-02
7.515237927436828613e-01 2.867773920297622681e-02 -7.002197206020355225e-02
8.609561920166015625e-01 1.012222189456224442e-02 -3.060634806752204895e-02
-7.992042303085327148e-01 2.571173012256622314e-01 1.223052293062210083e-02
-3.358126059174537659e-02 -6.383850425481796265e-02 -4.364042878150939941e-01
1.409023702144622803e-01 -9.876374155282974243e-02 -1.381618231534957886e-01
-1.162824966013431549e-02 -7.300934940576553345e-02 4.192877113819122314e-01
5.501749459654092789e-03 -7.139375060796737671e-02 2.776148021221160889e-01
4.079497456550598145e-01 -1.201465278863906860e-01 1.745742931962013245e-02
8.029402047395706177e-02 -1.746489107608795166e-01 -7.006949186325073242e-02
-3.238171041011810303e-01 1.854205504059791565e-03 -8.209136873483657837e-02
5.801287889480590820e-01 4.293293505907058716e-02 8.840079605579376221e-02
-4.999638199806213379e-01 7.740676403045654297e-02 1.612694375216960907e-02
-1.933582574129104614e-01 3.525888919830322266e-02 -2.012173086404800415e-01
-6.136965751647949219e-01 7.187099009752273560e-02 9.926750790327787399e-04
-6.476001143455505371e-01 1.963188648223876953e-01 2.111626416444778442e-02
-2.896283566951751709e-01 7.627564016729593277e-03 -1.947787106037139893e-01
1.348439157009124756e-01 -6.196156516671180725e-02 -2.836360931396484375e-01
7.294282317161560059e-01 -6.642121006734669209e-04 -8.703317493200302124e-02
4.242270812392234802e-02 -1.127100735902786255e-01 -2.216022312641143799e-01
-4.103699028491973877e-01 7.073057442903518677e-02 -1.435075253248214722e-01
-6.035515666007995605e-01 -3.254834190011024475e-02 9.807138703763484955e-03
-7.623307704925537109e-01 2.625817656517028809e-01 2.104498818516731262e-02
1.317315250635147095e-01 -6.821009516716003418e-02 3.399575352668762207e-01
-4.400207102298736572e-01 -7.279551029205322266e-02 1.562882913276553154e-03
-8.246259689331054688e-01 2.504648566246032715e-01 9.118137881159782410e-03
-6.360296607017517090e-01 2.406525313854217529e-01 -5.517198704183101654e-03
4.118461906909942627e-01 -1.921973004937171936e-02 1.058159023523330688e-01
-5.274763107299804688e-01 -2.991112321615219116e-02 4.846248403191566467e-02
-3.203958272933959961e-01 4.656801372766494751e-02 -9.461218863725662231e-02
-2.736150026321411133e-01 2.810753136873245239e-02 -1.148308143019676208e-01
2.961652278900146484e-01 9.263606369495391846e-02 6.813547573983669281e-03
-6.731855869293212891e-02 -4.190924763679504395e-02 -6.429146528244018555e-01
-3.457463383674621582e-01 8.522335439920425415e-02 -1.499690581113100052e-02
-2.755632400512695312e-01 8.289501070976257324e-02 4.304550960659980774e-02
2.240101844072341919e-01 -6.916043907403945923e-02 -1.527021080255508423e-01
1.305198371410369873e-01 -1.178181841969490051e-01 6.457167677581310272e-03
3.691070154309272766e-02 -1.131852567195892334e-01 1.208797097206115723e-02
3.410980105400085449e-03 -7.719086855649948120e-02 1.495318412780761719e-01
-3.385474681854248047e-01 3.506882116198539734e-02 1.262245923280715942e-01
9.633111953735351562e-02 -5.991831794381141663e-02 -2.706876397132873535e-01
2.385029643774032593e-01 -5.492900311946868896e-02 9.897340834140777588e-02
-5.825726985931396484e-01 3.499754145741462708e-02 4.950786381959915161e-02
-6.976570188999176025e-02 -5.982328578829765320e-02 -8.023820072412490845e-02
1.075689643621444702e-01 -9.743325412273406982e-02 -1.131677031517028809e-01
-5.683888196945190430e-01 -2.451791055500507355e-02 4.093098640441894531e-02
4.605989754199981689e-01 -8.583901822566986084e-02 -7.033083587884902954e-02
6.617398262023925781e-01 -5.644955113530158997e-02 -8.841118216514587402e-02
-2.330589890480041504e-01 7.807200402021408081e-02 1.431645154953002930e-01
1.224894002079963684e-01 3.350074589252471924e-02 -8.558389544486999512e-02
-7.342453300952911377e-02 -6.013214215636253357e-02 5.808466672897338867e-01
-3.873952627182006836e-01 1.910299621522426605e-02 -6.115999072790145874e-02
-7.659658193588256836e-01 2.366373240947723389e-01 5.768166389316320419e-03
-3.095619082450866699e-01 4.490490257740020752e-02 -9.026435017585754395e-02
3.757594525814056396e-02 -5.395489186048507690e-02 -4.899325668811798096e-01
-6.138628125190734863e-01 2.321324683725833893e-02 4.475613310933113098e-02
1.974004656076431274e-01 -8.833368122577667236e-02 -2.069193869829177856e-01
-4.224630594253540039e-01 2.492387033998966217e-02 -7.945416122674942017e-02
6.635454297065734863e-01 -9.933394193649291992e-02 6.421447545289993286e-02
6.024170666933059692e-02 -8.966416865587234497e-02 -1.508489251136779785e-01
-3.944964334368705750e-02 9.192329645156860352e-02 1.693473756313323975e-02
1.369821876287460327e-01 -6.265056878328323364e-02 -2.318659871816635132e-01
6.679909676313400269e-02 -8.308301866054534912e-02 -3.548408150672912598e-01
-7.086836695671081543e-01 1.806381493806838989e-01 6.813547573983669281e-03
3.963317573070526123e-01 -5.344665609300136566e-03 1.047467589378356934e-01
-3.254326879978179932e-01 7.158588618040084839e-02 1.501495838165283203e-01
-3.427025675773620605e-02 8.821695297956466675e-02 -2.552199363708496094e-02
-2.138382494449615479e-01 3.763475269079208374e-02 1.230409294366836548e-01
1.827651411294937134e-01 -1.001654937863349915e-01 1.389829963445663452e-01
-7.831433415412902832e-01 2.609899342060089111e-01 4.929403960704803467e-02
3.719580173492431641e-02 -9.624531865119934082e-02 2.283868640661239624e-01
-2.557458542287349701e-02 -6.440870463848114014e-02 3.755717873573303223e-01
8.740472197532653809e-01 -7.115616649389266968e-02 6.580631434917449951e-02
-4.331544637680053711e-01 -1.394530292600393295e-02 7.633139938116073608e-02
4.434715956449508667e-02 9.085416048765182495e-02 1.990457251667976379e-02
7.942656278610229492e-01 -1.511515974998474121e-01 1.363228447735309601e-02
-3.452236652374267578e-01 7.035043835639953613e-02 -1.235027238726615906e-01
8.101839423179626465e-01 -5.918179824948310852e-02 8.478947728872299194e-02
-2.377632111310958862e-01 8.427301049232482910e-02 -1.423433423042297363e-01
7.217066884040832520e-01 -1.203366070985794067e-01 -7.646475569345057011e-05
-3.555322438478469849e-02 8.973750472068786621e-02 2.753110229969024658e-02
5.506442785263061523e-01 -2.639484405517578125e-02 -9.461218863725662231e-02
1.028172299265861511e-01 -1.122824177145957947e-01 2.833889797329902649e-02
-2.061404287815093994e-01 8.762298524379730225e-02 2.814882621169090271e-02
-6.594794988632202148e-01 1.268485337495803833e-01 1.405994035303592682e-02
-2.617832124233245850e-01 -7.899652421474456787e-02 5.478229001164436340e-02
1.733567118644714355e-01 -9.127976000308990479e-02 2.261772900819778442e-01
-4.982769489288330078e-01 1.128071695566177368e-01 3.534852061420679092e-03
-4.335583448410034180e-01 4.611660167574882507e-02 6.782579421997070312e-02
-2.844014763832092285e-01 2.109872549772262573e-02 8.412423729896545410e-02
7.351065874099731445e-01 -9.562758356332778931e-02 6.837224215269088745e-02
-7.330838441848754883e-01 1.789037585258483887e-01 1.871745567768812180e-03
-7.547755241394042969e-01 2.530783116817474365e-01 8.761675655841827393e-02
8.417354226112365723e-01 -1.680202484130859375e-01 -6.491304840892553329e-03
1.240812316536903381e-01 -6.611933559179306030e-02 -1.473326683044433594e-01
6.577245593070983887e-01 3.316812589764595032e-02 -8.349312841892242432e-02
-2.645154297351837158e-01 8.410670608282089233e-02 1.307387351989746094e-01
-2.405192106962203979e-01 1.622819900512695312e-02 1.504346728324890137e-01
7.294282317161560059e-01 -6.642121006734669209e-04 -8.703317493200302124e-02
-3.419924676418304443e-01 8.657759428024291992e-02 1.712947934865951538e-01
-6.092748045921325684e-02 -4.601950198411941528e-02 5.832700133323669434e-01
-3.789134025573730469e-01 4.435845836997032166e-02 -6.446243822574615479e-02
5.634528771042823792e-02 -1.105005294084548950e-01 2.876655198633670807e-02
2.794866561889648438e-01 6.165476143360137939e-02 7.633139938116073608e-02
1.191869527101516724e-01 6.279517710208892822e-02 -6.664824485778808594e-02
5.730249285697937012e-01 2.133631147444248199e-02 -8.995549380779266357e-02
1.872079968452453613e-01 7.593372464179992676e-02 5.680177733302116394e-02
-4.101772233843803406e-02 7.001781463623046875e-02 6.780203431844711304e-02
2.452504187822341919e-01 -4.414256662130355835e-02 1.010404080152511597e-01
-4.780345559120178223e-01 5.394247826188802719e-03 7.264880836009979248e-02
-4.838289692997932434e-02 -6.184276938438415527e-02 -5.799541473388671875e-01
-7.330838441848754883e-01 1.789037585258483887e-01 1.871745567768812180e-03
3.660394847393035889e-01 -1.184359192848205566e-01 -1.611356437206268311e-02
2.144591808319091797e-01 -6.894661486148834229e-02 8.756925165653228760e-02
-3.413034677505493164e-01 7.474578917026519775e-02 -1.996967494487762451e-01
-3.761098980903625488e-01 -7.645434141159057617e-02 -2.801665291190147400e-02
-3.564614951610565186e-01 4.785097762942314148e-02 1.381514370441436768e-01
-3.944964334368705750e-02 9.192329645156860352e-02 1.693473756313323975e-02
7.283644285053014755e-03 -5.583182722330093384e-02 4.166980087757110596e-01
-3.348886072635650635e-01 7.627564016729593277e-03 -1.444816142320632935e-01
1.459154486656188965e-01 -6.540656834840774536e-02 1.505534797906875610e-01
-2.504028081893920898e-01 2.121751941740512848e-02 1.274838000535964966e-01
-6.706935167312622070e-01 4.182556644082069397e-03 2.021343447268009186e-02
9.414532780647277832e-02 4.126983135938644409e-02 9.037276357412338257e-02
-3.795311748981475830e-01 2.958056889474391937e-02 1.072889342904090881e-01
8.855701684951782227e-01 -6.229418888688087463e-02 6.395313143730163574e-02
5.563252791762351990e-02 -7.046716660261154175e-02 1.312614381313323975e-01
-3.323226571083068848e-01 4.383576288819313049e-02 -2.061115950345993042e-01
-3.037885427474975586e-01 1.957817003130912781e-02 -7.047338783740997314e-02
7.858339697122573853e-02 -8.313053101301193237e-02 7.813705503940582275e-02
9.342754483222961426e-01 -2.520690858364105225e-02 -2.412023395299911499e-02
1.688425540924072266e-01 4.564142227172851562e-02 -7.760098576545715332e-02
-3.323226571083068848e-01 4.383576288819313049e-02 -2.061115950345993042e-01
-5.574360489845275879e-01 -3.067140653729438782e-02 3.777108713984489441e-02
7.113716602325439453e-01 5.994413793087005615e-02 -5.876036360859870911e-02
-7.561534643173217773e-01 2.632945477962493896e-01 1.064811423420906067e-01
-9.171871095895767212e-02 8.695773780345916748e-02 4.283168166875839233e-02
-3.288776874542236328e-01 3.076850064098834991e-02 1.148204281926155090e-01
1.960700005292892456e-01 -5.937187001109123230e-02 9.571846574544906616e-02
-3.811915591359138489e-02 -6.638067960739135742e-02 4.458736479282379150e-01
-8.077810406684875488e-01 2.464734017848968506e-01 1.154152210801839828e-02
4.908199906349182129e-01 -6.982567906379699707e-02 -8.057082444429397583e-02
7.266722321510314941e-01 -1.061289235949516296e-01 -4.348354414105415344e-02
-2.400915324687957764e-01 4.668680950999259949e-02 1.408361792564392090e-01
6.679909676313400269e-02 -8.308301866054534912e-02 -3.548408150672912598e-01
-6.134114265441894531e-01 -2.648987993597984314e-02 2.054605633020401001e-02
-3.104884624481201172e-01 3.898900002241134644e-02 -7.306308299303054810e-02
-3.238171041011810303e-01 1.854205504059791565e-03 -8.209136873483657837e-02
6.197345256805419922e-01 8.909601718187332153e-02 -9.983828291296958923e-03
7.966177463531494141e-01 -6.811505556106567383e-02 -7.372831553220748901e-02
-2.061404287815093994e-01 8.762298524379730225e-02 2.814882621169090271e-02
7.439447641372680664e-01 3.388088569045066833e-02 7.823208719491958618e-02
-4.953071475028991699e-01 -2.648987993597984314e-02 5.965281650424003601e-02
-6.211091876029968262e-01 1.581862270832061768e-01 -1.072034705430269241e-02
1.562504619359970093e-01 9.064032882452011108e-02 -9.057239629328250885e-03
4.629510939121246338e-01 3.547271713614463806e-02 9.310501068830490112e-02
-6.528745889663696289e-01 1.677464693784713745e-02 3.389842435717582703e-02
6.050305441021919250e-02 9.118679165840148926e-02 1.800387911498546600e-02
8.207089900970458984e-01 -1.630309075117111206e-01 2.413361333310604095e-02
1.892987787723541260e-01 3.879892826080322266e-02 -8.173499256372451782e-02
2.166212201118469238e-01 -9.009182453155517578e-02 1.835067421197891235e-01
1.417101770639419556e-01 -9.938145428895950317e-02 1.280540078878402710e-01
-5.683888196945190430e-01 -2.451791055500507355e-02 4.093098640441894531e-02
-7.126513719558715820e-01 2.815649509429931641e-01 1.168407406657934189e-02
2.794866561889648438e-01 6.165476143360137939e-02 7.633139938116073608e-02
-3.285687863826751709e-01 2.356962487101554871e-02 1.481775939464569092e-01
2.961652278900146484e-01 9.263606369495391846e-02 6.813547573983669281e-03
1.271698623895645142e-01 -9.348930418491363525e-02 -2.358099073171615601e-01
7.566794157028198242e-01 3.799113631248474121e-02 7.355163246393203735e-02
1.354853957891464233e-01 -9.377440810203552246e-02 -2.278507649898529053e-01
2.935544401407241821e-02 -8.011318743228912354e-02 2.531433701515197754e-01
2.045280635356903076e-01 -9.919138997793197632e-02 -1.305828094482421875e-01
-6.898166239261627197e-02 -7.866390794515609741e-02 -6.783617287874221802e-02
-3.235319852828979492e-01 -1.329455291852355003e-03 -1.535098999738693237e-01
1.065948605537414551e-01 -8.400961011648178101e-02 -3.223152160644531250e-01
9.647815823554992676e-01 -9.334675222635269165e-02 -1.882123411633074284e-03
7.912984490394592285e-02 -8.398583531379699707e-02 3.470851480960845947e-01
-3.477895557880401611e-01 4.953784868121147156e-02 2.156759798526763916e-01
-5.804703105241060257e-04 -9.123222529888153076e-02 6.445206701755523682e-02
-2.847103178501129150e-01 6.320837419480085373e-03 -1.323884576559066772e-01
5.774704366922378540e-02 -8.294046670198440552e-02 3.562084734439849854e-01
-2.616169154644012451e-01 2.097992971539497375e-02 -7.596164196729660034e-02
3.446329236030578613e-01 -7.457741349935531616e-02 8.733166009187698364e-02
9.360335469245910645e-01 -5.735238268971443176e-02 4.734582826495170593e-02
-2.456035614013671875e-01 4.580773413181304932e-02 2.093086391687393188e-01
-1.143844723701477051e-01 -9.505738317966461182e-02 5.155111104249954224e-02
4.047661125659942627e-01 8.543719351291656494e-02 -3.086769208312034607e-02
-2.405192106962203979e-01 1.622819900512695312e-02 1.504346728324890137e-01
-3.254326879978179932e-01 4.614035412669181824e-02 2.132763415575027466e-01
1.214440241456031799e-01 -6.785371899604797363e-02 -1.182283014059066772e-01
6.411885619163513184e-01 -9.600772708654403687e-02 -5.921177938580513000e-02
1.672982424497604370e-01 9.178074449300765991e-02 1.289576571434736252e-02
6.998275965452194214e-02 -7.785611599683761597e-02 3.978336453437805176e-01
-4.057132005691528320e-01 2.485259436070919037e-02 -1.726593971252441406e-01
1.048604846000671387e-01 -6.471756845712661743e-02 -1.859642416238784790e-01
5.615019798278808594e-01 -1.000136416405439377e-02 -9.575260430574417114e-02
-7.142431735992431641e-01 1.262070536613464355e-01 6.338374223560094833e-03
-5.574360489845275879e-01 -3.067140653729438782e-02 3.777108713984489441e-02
1.198786217719316483e-02 -8.191884309053421021e-02 7.193604856729507446e-02
-2.557458542287349701e-02 -6.440870463848114014e-02 3.755717873573303223e-01
-7.874436378479003906e-01 2.539573907852172852e-01 -1.614690572023391724e-01
-3.254326879978179932e-01 7.158588618040084839e-02 1.501495838165283203e-01
5.392639040946960449e-01 9.385703131556510925e-03 -9.216504544019699097e-02
-6.898166239261627197e-02 -7.866390794515609741e-02 -6.783617287874221802e-02
-5.495956540107727051e-01 9.301619231700897217e-02 2.087867818772792816e-02
-7.412092685699462891e-01 2.635321319103240967e-01 -7.964340969920158386e-03
-7.748752832412719727e-01 2.622966766357421875e-01 5.076707527041435242e-02
3.833621740341186523e-02 -6.414736062288284302e-02 4.954579770565032959e-01
-5.155256986618041992e-01 -2.313990890979766846e-02 -4.640585556626319885e-02
-8.149086236953735352e-01 2.609424293041229248e-01 1.502683609724044800e-01
2.451553940773010254e-01 -8.080218732357025146e-02 1.627416759729385376e-01
-2.331539988517761230e-01 1.054894998669624329e-01 -1.622530966997146606e-01
-2.330589890480041504e-01 7.807200402021408081e-02 1.431645154953002930e-01
7.265772223472595215e-01 -9.883500635623931885e-02 6.397689133882522583e-02
-4.953071475028991699e-01 -2.648987993597984314e-02 5.965281650424003601e-02
8.141067624092102051e-02 -1.793056130409240723e-01 -1.178244054317474365e-01
-3.541331291198730469e-01 -5.450133979320526123e-02 -5.904547125101089478e-02
7.901371456682682037e-03 -1.133753135800361633e-01 5.839442834258079529e-03
7.125833630561828613e-01 2.991318888962268829e-02 8.764052391052246094e-02
-4.204673171043395996e-01 3.224153816699981689e-02 -6.130254268646240234e-02
8.884449601173400879e-01 -1.133753135800361633e-01 2.318326570093631744e-02
-7.297101020812988281e-01 2.601583898067474365e-01 1.161271631717681885e-01
6.411885619163513184e-01 -9.600772708654403687e-02 -5.921177938580513000e-02
-2.648243308067321777e-01 4.951408877968788147e-02 8.165333420038223267e-02
-2.616169154644012451e-01 2.097992971539497375e-02 -7.596164196729660034e-02
2.166212201118469238e-01 -9.009182453155517578e-02 1.835067421197891235e-01
6.200433373451232910e-01 7.096815854310989380e-02 6.217123195528984070e-02
-2.352447807788848877e-01 1.245057024061679840e-02 -1.788366436958312988e-01
4.580567777156829834e-01 -1.432544458657503128e-02 -9.656039625406265259e-02
-7.351508140563964844e-01 2.347128540277481079e-01 7.407514378428459167e-03
9.027951955795288086e-01 -8.500746637582778931e-02 -3.901691362261772156e-02
-4.284264743328094482e-01 4.039076343178749084e-02 9.973368048667907715e-02
-7.400450706481933594e-01 2.638410031795501709e-01 3.655939549207687378e-02
2.279541045427322388e-01 8.930985629558563232e-02 -1.357138622552156448e-02
-2.369765006005764008e-02 -7.058595865964889526e-02 -4.310348331928253174e-01
7.798942923545837402e-02 -5.941938981413841248e-02 4.312858581542968750e-01
5.817470699548721313e-02 -7.652562856674194336e-02 4.151299297809600830e-01
8.812935948371887207e-01 -4.122024774551391602e-02 6.585382670164108276e-02
-2.909113466739654541e-01 -4.323045257478952408e-03 -1.601148098707199097e-01
-5.996788740158081055e-01 1.594929397106170654e-01 2.016591653227806091e-02
1.990160793066024780e-01 -6.787747144699096680e-02 -1.184183657169342041e-01
-6.849963068962097168e-01 2.556204795837402344e-01 -3.844670578837394714e-02
-1.581479310989379883e-01 1.028853189200162888e-02 7.075277566909790039e-01
-1.965419203042984009e-01 7.567238062620162964e-02 5.663546547293663025e-02
1.554189175367355347e-01 -8.773970603942871094e-02 2.676599323749542236e-01
-7.888692021369934082e-01 2.388706207275390625e-01 1.080500334501266479e-02
-1.880336552858352661e-02 -6.559664011001586914e-02 -3.452185690402984619e-01
5.458714440464973450e-02 -1.006644293665885925e-01 2.281492650508880615e-01
-3.559863269329071045e-01 4.927650094032287598e-02 -1.032603383064270020e-01
7.566794157028198242e-01 3.799113631248474121e-02 7.355163246393203735e-02
-3.465040028095245361e-02 -5.887294188141822815e-02 5.975964665412902832e-01
-2.924318909645080566e-01 -2.018454018980264664e-03 1.846471577882766724e-01
-3.306358158588409424e-01 7.928369194269180298e-02 1.306436955928802490e-01
1.627603322267532349e-01 -7.792738080024719238e-02 -2.806187570095062256e-01
-4.128883183002471924e-01 -3.055261075496673584e-02 7.443071156740188599e-02
-6.405913829803466797e-01 2.563662827014923096e-02 3.824625909328460693e-02
-7.458871603012084961e-02 -5.694848671555519104e-02 -4.899563193321228027e-01
8.745698928833007812e-01 -3.705322043970227242e-03 4.898517578840255737e-02
-1.430374234914779663e-01 8.284749090671539307e-02 4.767845198512077332e-02
1.867328435182571411e-01 -9.819351881742477417e-02 1.579661667346954346e-01
8.402412384748458862e-02 -6.645195186138153076e-02 1.778521686792373657e-01
-7.342453300952911377e-02 -6.013214215636253357e-02 5.808466672897338867e-01
-3.457463383674621582e-01 8.522335439920425415e-02 -1.499690581113100052e-02
-3.347698450088500977e-01 2.499514445662498474e-02 2.135851979255676270e-01
4.190002009272575378e-02 -7.246288657188415527e-02 4.553058445453643799e-01
-4.163570702075958252e-01 2.870149724185466766e-02 1.582037657499313354e-01
-3.084927499294281006e-01 1.532536931335926056e-02 2.106391340494155884e-01
-4.375973045825958252e-01 3.022205084562301636e-02 -1.531772911548614502e-01
9.022250175476074219e-01 -1.206836942583322525e-02 4.192885383963584900e-02
-6.182344555854797363e-01 -2.254594117403030396e-02 -1.323876436799764633e-02
1.554189175367355347e-01 -6.718847155570983887e-02 -2.814978361129760742e-01
4.605989754199981689e-01 -8.583901822566986084e-02 -7.033083587884902954e-02
1.674408018589019775e-01 -6.552536785602569580e-02 -2.369028031826019287e-01
6.990884542465209961e-01 -1.162501052021980286e-01 3.083355724811553955e-02
1.526391506195068359e-01 -6.699839979410171509e-02 1.172675788402557373e-01
8.954063057899475098e-01 -3.525682538747787476e-02 -5.039731785655021667e-02
4.371016323566436768e-01 -1.218333989381790161e-01 9.284448809921741486e-03
1.569421589374542236e-02 -1.093838587403297424e-01 2.684210054576396942e-02
5.588410496711730957e-01 2.409231662750244141e-02 -8.943279832601547241e-02
-5.949272513389587402e-01 1.981245130300521851e-01 1.572304591536521912e-02
5.746194347739219666e-02 -6.837639957666397095e-02 1.727678328752517700e-01
-3.347935974597930908e-01 4.096097126603126526e-02 -1.154010146856307983e-01
9.102791547775268555e-01 -6.508841179311275482e-03 -1.582846045494079590e-02
-2.619732916355133057e-01 -9.462972730398178101e-02 1.028231251984834671e-02
2.386217415332794189e-01 -9.961904585361480713e-02 6.411944329738616943e-02
3.538512587547302246e-01 -9.044820815324783325e-02 7.737678289413452148e-02
-1.312531232833862305e-01 -7.146502286195755005e-02 -6.985566020011901855e-02
1.223468482494354248e-01 -6.367218494415283203e-02 -1.921652406454086304e-01
-6.016984581947326660e-01 4.219641536474227905e-02 4.390082135796546936e-02
1.161696016788482666e-01 -1.477778702974319458e-01 1.181466430425643921e-01
3.322308957576751709e-01 5.091584846377372742e-02 8.336396515369415283e-02
2.222784794867038727e-02 -9.503362327814102173e-02 1.581800132989883423e-01
-3.431803882122039795e-01 3.597164899110794067e-02 2.153670936822891235e-01
-7.599073052406311035e-01 2.520091533660888672e-01 1.558049395680427551e-02
-1.490483582019805908e-01 5.635658279061317444e-02 8.065547049045562744e-02
1.861626356840133667e-01 -7.601741701364517212e-03 1.052932068705558777e-01
-2.693384587764739990e-01 8.752794563770294189e-02 -1.244768276810646057e-01
5.273845791816711426e-01 5.828103050589561462e-02 -6.890531629323959351e-02
6.811743378639221191e-01 -9.636411070823669434e-02 6.825345009565353394e-02
9.500063210725784302e-02 -7.666818052530288696e-02 8.279374986886978149e-02
-3.759673237800598145e-01 5.485978350043296814e-02 1.399808526039123535e-01
4.563013091683387756e-02 -5.369354784488677979e-02 -4.580959677696228027e-01
-6.373601555824279785e-01 2.271813601255416870e-01 -7.560443598777055740e-03
-5.622828006744384766e-01 -4.200428724288940430e-02 -5.493439733982086182e-03
-3.734726905822753906e-01 7.811951637268066406e-02 4.135864600539207458e-02
8.029402047395706177e-02 -1.746489107608795166e-01 -7.006949186325073242e-02
3.396198153495788574e-01 3.074474446475505829e-02 -8.622538298368453979e-02
8.460832238197326660e-01 -1.144207045435905457e-01 -6.301234941929578781e-03
1.569157093763351440e-01 -1.021612212061882019e-01 9.507698565721511841e-02
-7.796244323253631592e-02 -4.955954477190971375e-02 -6.762242913246154785e-01
4.105632007122039795e-01 -3.487668186426162720e-02 -9.304411709308624268e-02
8.214930295944213867e-01 -1.859817951917648315e-01 2.190029807388782501e-02
1.191869527101516724e-01 6.279517710208892822e-02 -6.664824485778808594e-02
-1.772973984479904175e-01 5.204176995903253555e-03 -9.145228564739227295e-02
9.214959293603897095e-02 6.022924557328224182e-02 -6.857269257307052612e-02
-7.418032884597778320e-01 2.598257660865783691e-01 -1.241679638624191284e-01
-2.762759923934936523e-01 1.024721488356590271e-01 -1.786228120326995850e-01
1.671583577990531921e-02 4.129359126091003418e-02 -8.147364854812622070e-02
-5.030999779701232910e-01 7.236991822719573975e-02 3.323318064212799072e-02
4.934334158897399902e-01 5.964455660432577133e-03 -9.280652552843093872e-02
-2.113198041915893555e-01 5.940695758908987045e-03 -1.352157443761825562e-01
-1.605475544929504395e-01 1.736861467361450195e-02 7.125170826911926270e-01
1.161696016788482666e-01 -1.477778702974319458e-01 1.181466430425643921e-01
-7.705410826019942760e-04 -4.946450516581535339e-02 5.088103413581848145e-01
-3.084900975227355957e-02 -4.651843011379241943e-02 -5.584526062011718750e-01
-1.416594088077545166e-01 -1.060814112424850464e-01 4.699026700109243393e-03
1.569421589374542236e-02 -1.093838587403297424e-01 2.684210054576396942e-02
-6.251720190048217773e-01 -6.318775005638599396e-03 -2.461916394531726837e-02
-3.912679255008697510e-01 4.561766609549522400e-02 -1.225998923182487488e-01
-7.035966217517852783e-02 9.071160852909088135e-02 -1.390400808304548264e-02
-6.523281335830688477e-01 2.534346878528594971e-01 -4.543093498796224594e-03
4.195202589035034180e-01 -5.069996044039726257e-02 -9.007427841424942017e-02
-1.402787677943706512e-02 3.371457383036613464e-02 9.626491367816925049e-02
-1.445104628801345825e-01 -4.478404670953750610e-02 -6.864168047904968262e-01
1.112515628337860107e-01 -1.760269105434417725e-01 8.554975688457489014e-02
1.921260505914688110e-01 -9.976159781217575073e-02 -1.313430815935134888e-01
-3.700276911258697510e-01 4.580773413181304932e-02 -1.947787106037139893e-01
2.181180268526077271e-01 2.604052796959877014e-02 -8.914770185947418213e-02
4.040322452783584595e-02 8.774177730083465576e-02 3.539521992206573486e-02
1.196146085858345032e-01 7.895107567310333252e-02 5.307166650891304016e-02
-1.869196593761444092e-01 9.059280902147293091e-02 1.503404509276151657e-02
1.671319454908370972e-01 -4.112521931529045105e-02 1.011829599738121033e-01
-4.511397778987884521e-01 1.033037006855010986e-01 5.601855926215648651e-03
2.534022927284240723e-02 -7.521890103816986084e-02 -1.055174171924591064e-01
3.286670744419097900e-01 6.189234927296638489e-02 7.599877566099166870e-02
5.646144151687622070e-01 8.503329008817672729e-02 -3.269711136817932129e-02
6.050305441021919250e-02 7.260750979185104370e-02 6.267016381025314331e-02
-4.999638199806213379e-01 3.826175117865204811e-03 -5.861781165003776550e-02
1.569157093763351440e-01 -1.021612212061882019e-01 9.507698565721511841e-02
-5.731616169214248657e-02 -6.326828896999359131e-02 -4.797401130199432373e-01
4.325426369905471802e-02 -8.317804336547851562e-02 3.269615769386291504e-01
5.205658674240112305e-01 -7.925786823034286499e-02 -7.446483522653579712e-02
1.108001470565795898e-01 -1.746013909578323364e-01 -1.149971187114715576e-01
-3.392601907253265381e-01 -3.834544867277145386e-02 8.108313381671905518e-02
7.214479893445968628e-02 -1.745301187038421631e-01 -8.594027906656265259e-02
9.951926469802856445e-01 -6.576294451951980591e-02 1.848805986810475588e-04
-2.588846385478973389e-01 2.480507642030715942e-02 -8.363568037748336792e-02
-3.301844000816345215e-01 3.592412918806076050e-02 7.179348915815353394e-02
-2.537052631378173828e-01 1.620443910360336304e-02 -8.560765534639358521e-02
-7.214896082878112793e-01 2.657416760921478271e-01 1.843153499066829681e-02
3.092351555824279785e-02 -6.474132835865020752e-02 3.022762835025787354e-01
1.494555026292800903e-01 -1.088849231600761414e-01 4.641924053430557251e-02
-6.222020983695983887e-01 1.872668266296386719e-01 2.004712261259555817e-02
-2.369765006005764008e-02 -7.058595865964889526e-02 -4.310348331928253174e-01
-2.816428244113922119e-02 -6.642819195985794067e-02 4.430226385593414307e-01
1.187592968344688416e-01 -1.011633649468421936e-01 6.397689133882522583e-02
-2.528024315834045410e-01 3.110112063586711884e-02 -1.082021445035934448e-01
2.385029643774032593e-01 -5.492900311946868896e-02 9.897340834140777588e-02
1.644472181797027588e-01 -9.809849411249160767e-02 1.716749221086502075e-01
6.551824212074279785e-01 4.385952278971672058e-02 -7.679318636655807495e-02
-3.036222159862518311e-01 -9.502436034381389618e-03 -8.356440812349319458e-02
-2.400915324687957764e-01 4.668680950999259949e-02 1.408361792564392090e-01
2.113705724477767944e-01 7.032667845487594604e-02 -5.491146072745323181e-02
2.258422411978244781e-02 -8.194259554147720337e-02 -1.108393520116806030e-01
6.761137843132019043e-01 -4.628084972500801086e-02 -9.000300616025924683e-02
1.408548504114151001e-01 3.468868136405944824e-02 9.434046596288681030e-02
2.045280635356903076e-01 -9.919138997793197632e-02 -1.305828094482421875e-01
-1.118898093700408936e-01 7.327274978160858154e-02 -5.331962928175926208e-02
5.659211277961730957e-01 8.764673769474029541e-02 -2.039012312889099121e-02
-4.103699028491973877e-01 7.073057442903518677e-02 -1.435075253248214722e-01
-3.543232083320617676e-01 5.621403083205223083e-02 6.922756135463714600e-02
-8.030055761337280273e-01 2.541712224483489990e-01 -1.393735110759735107e-01
9.012746810913085938e-01 -1.035629957914352417e-01 2.843393012881278992e-02
-5.998927354812622070e-01 2.877277322113513947e-02 -3.702118620276451111e-02
-4.221779704093933105e-01 3.271671012043952942e-02 1.536658555269241333e-01
-9.815730899572372437e-02 -4.390497878193855286e-02 -6.272101402282714844e-01
-2.329639643430709839e-01 8.919105678796768188e-02 -1.996492296457290649e-01
1.743070483207702637e-01 -3.711000457406044006e-02 -9.202248603105545044e-02
7.294282317161560059e-01 -6.642121006734669209e-04 -8.703317493200302124e-02
-3.056179583072662354e-01 9.242223203182220459e-02 2.027750015258789062e-01
-1.869196593761444092e-01 9.059280902147293091e-02 1.503404509276151657e-02
2.300211042165756226e-01 -6.982567906379699707e-02 -8.232896029949188232e-02
7.061209678649902344e-01 -6.775867938995361328e-02 -8.042826503515243530e-02
-7.023638486862182617e-01 1.799966543912887573e-01 -2.547366078943014145e-03
2.610736787319183350e-01 -1.213107034564018250e-01 1.284824777394533157e-02
2.883275598287582397e-02 -7.571783661842346191e-02 9.096673130989074707e-02
2.398809641599655151e-01 -1.038005799055099487e-01 -6.087488308548927307e-02
-4.700041413307189941e-01 8.211097121238708496e-02 8.761758916079998016e-03
-9.466478973627090454e-02 -9.106592088937759399e-02 5.960530042648315430e-02
4.453459084033966064e-01 8.888219296932220459e-02 2.451375126838684082e-02
-6.528745889663696289e-01 1.677464693784713745e-02 3.389842435717582703e-02
4.434715956449508667e-02 9.085416048765182495e-02 1.990457251667976379e-02
-2.641353309154510498e-01 -4.663722589612007141e-02 8.516962081193923950e-02
-3.582908809185028076e-01 3.252664208412170410e-02 -5.503025650978088379e-02
4.721219241619110107e-01 -2.031262591481208801e-02 -9.575260430574417114e-02
-4.379537105560302734e-01 6.236752122640609741e-02 -4.711861908435821533e-02
-3.095619082450866699e-01 4.490490257740020752e-02 -9.026435017585754395e-02
-2.409706413745880127e-01 9.387151896953582764e-02 2.025136649608612061e-01
-2.399727553129196167e-01 5.034564062952995300e-02 -1.619917452335357666e-01
-3.209660351276397705e-01 5.421829968690872192e-02 2.230886667966842651e-01
2.708622813224792480e-01 -1.155848652124404907e-01 4.026575013995170593e-02
5.944315195083618164e-01 8.695773780345916748e-02 3.349452838301658630e-02
-2.281409502029418945e-01 6.747563928365707397e-02 -1.280168741941452026e-01
1.168110892176628113e-01 -6.490764021873474121e-02 1.808220148086547852e-01
1.902966350317001343e-01 -6.706967949867248535e-02 1.960275471210479736e-01
-2.234842330217361450e-01 7.681279629468917847e-02 -1.191548854112625122e-01
-2.731873691082000732e-01 5.082081258296966553e-02 1.191920340061187744e-01
5.050989389419555664e-01 -1.188873276114463806e-01 -1.257352251559495926e-02
8.029402047395706177e-02 -1.746489107608795166e-01 -7.006949186325073242e-02
9.902746081352233887e-01 -6.257928907871246338e-02 1.493901014328002930e-02
-3.638029098510742188e-01 6.258135288953781128e-02 -1.941609680652618408e-01
7.548499703407287598e-01 -3.016318893060088158e-03 -8.458603918552398682e-02
4.838587045669555664e-01 9.137684851884841919e-02 1.277697179466485977e-02
2.329434305429458618e-01 -1.028977483510971069e-01 8.108313381671905518e-02
-3.107260763645172119e-01 5.120095238089561462e-02 1.168874353170394897e-01
4.075458645820617676e-01 6.393559277057647705e-02 7.312397658824920654e-02
1.170011535286903381e-01 -6.148639321327209473e-02 -3.464065194129943848e-01
5.730249285697937012e-01 2.133631147444248199e-02 -8.995549380779266357e-02
9.559459984302520752e-02 -7.319940626621246338e-02 -7.482122629880905151e-02
-2.939286828041076660e-01 6.823591142892837524e-02 6.395313143730163574e-02
-2.739001214504241943e-01 8.629249781370162964e-02 -2.221953868865966797e-02
4.158138930797576904e-01 6.868732720613479614e-02 -5.971071124076843262e-02
-4.999638199806213379e-01 3.826175117865204811e-03 -5.861781165003776550e-02
-9.666050225496292114e-02 -5.564175546169281006e-02 -5.934491157531738281e-01
1.921260505914688110e-01 -9.976159781217575073e-02 -1.313430815935134888e-01
-3.800063133239746094e-01 -6.348211318254470825e-02 -4.552678763866424561e-02
1.562742143869400024e-01 -1.442047581076622009e-02 -9.625153988599777222e-02
2.030339278280735016e-02 4.229145124554634094e-02 9.030149132013320923e-02
4.026040434837341309e-01 -3.143167868256568909e-02 -9.368559718132019043e-02
-5.659891963005065918e-01 3.314436599612236023e-02 -4.293709620833396912e-02
-4.026720821857452393e-01 -3.986600786447525024e-02 -6.056602299213409424e-02
4.943151399493217468e-02 1.024101674556732178e-02 1.021333038806915283e-01
-7.351508140563964844e-01 2.347128540277481079e-01 7.407514378428459167e-03
1.428980976343154907e-01 -3.482917323708534241e-02 1.022283360362052917e-01
-4.435369670391082764e-01 2.908163517713546753e-02 -1.649378240108489990e-01
6.378148198127746582e-01 -1.174618005752563477e-01 -1.708766818046569824e-02
-2.002482861280441284e-01 5.085386335849761963e-03 -1.804997473955154419e-01
-3.382861316204071045e-01 2.071858569979667664e-02 -1.967506855726242065e-01
-7.192774116992950439e-02 -4.599573835730552673e-02 -8.874379843473434448e-02
-4.809093773365020752e-01 1.081742271780967712e-01 4.232863648212514818e-05
-2.405192106962203979e-01 1.622819900512695312e-02 1.504346728324890137e-01
3.610290586948394775e-02 -5.523785948753356934e-02 5.078600049018859863e-01
4.056689441204071045e-01 5.255519598722457886e-02 8.234234154224395752e-02
4.997532367706298828e-01 8.075673133134841919e-02 4.943658784031867981e-02
7.872594147920608521e-02 -5.761373043060302734e-02 -4.170172512531280518e-01
3.183795809745788574e-01 3.333443775773048401e-02 -8.458603918552398682e-02
-7.601924538612365723e-01 2.570697665214538574e-01 1.651412993669509888e-01
6.511672139167785645e-01 -1.186259761452674866e-01 2.080740034580230713e-02
-5.846397280693054199e-01 1.051331236958503723e-01 2.064109034836292267e-02
9.530685544013977051e-01 -8.683688938617706299e-02 -2.041388116776943207e-02
-3.494051694869995117e-01 3.601916506886482239e-02 7.305270433425903320e-02
-3.782956898212432861e-01 4.003437981009483337e-02 -7.859884947538375854e-02
-1.581479310989379883e-01 1.028853189200162888e-02 7.075277566909790039e-01
-2.731873691082000732e-01 5.082081258296966553e-02 1.191920340061187744e-01
2.708622813224792480e-01 -1.155848652124404907e-01 4.026575013995170593e-02
6.066910028457641602e-01 8.812192082405090332e-02 2.736479230225086212e-02
2.191871702671051025e-01 -1.206836942583322525e-02 1.060772463679313660e-01
7.884922623634338379e-01 4.913394898176193237e-02 4.898517578840255737e-02
-3.254326879978179932e-01 5.034564062952995300e-02 -1.476890444755554199e-01
-3.780343532562255859e-01 3.590037301182746887e-02 -1.906684488058090210e-01
-2.302792370319366455e-01 -9.253896027803421021e-02 3.658315166831016541e-02
8.477288793073967099e-05 -8.783474564552307129e-02 -4.264019131660461426e-01
9.027951955795288086e-01 -8.500746637582778931e-02 -3.901691362261772156e-02
-4.182340204715728760e-01 -7.433982193470001221e-02 -9.176033549010753632e-03
7.374348640441894531e-01 -1.186022236943244934e-01 1.740991137921810150e-02
7.106589078903198242e-01 -1.057157199829816818e-02 1.021095514297485352e-01
7.276252657175064087e-02 6.279517710208892822e-02 7.683033496141433716e-02
-3.671053647994995117e-01 -3.504299744963645935e-02 7.953882217407226562e-02
9.058152139186859131e-02 -9.189747273921966553e-02 -1.969169825315475464e-01
6.157219409942626953e-02 -5.583182722330093384e-02 9.545712172985076904e-02
-5.932878255844116211e-01 2.153733074665069580e-01 3.938749432563781738e-03
-7.142431735992431641e-01 1.262070536613464355e-01 6.338374223560094833e-03
-2.925031781196594238e-01 -1.638317015022039413e-03 1.560179740190505981e-01
-3.361478447914123535e-01 5.150981247425079346e-02 1.274362802505493164e-01
1.138412579894065857e-01 -6.649946421384811401e-02 1.545686870813369751e-01
6.246050000190734863e-01 -1.096214503049850464e-01 5.000679567456245422e-02
2.318084472790360451e-03 3.495002537965774536e-02 -8.560765534639358521e-02
-2.997258007526397705e-01 9.707893431186676025e-02 1.466332823038101196e-01
7.977581024169921875e-01 5.255519598722457886e-02 3.791363909840583801e-02
5.533290505409240723e-01 3.031708672642707825e-02 9.633618593215942383e-02
3.092351555824279785e-02 -6.474132835865020752e-02 3.022762835025787354e-01
5.084726214408874512e-01 4.808856546878814697e-02 -7.748219370841979980e-02
6.226119771599769592e-02 -1.024463251233100891e-01 -3.071096539497375488e-01
4.297602176666259766e-01 -1.033966839313507080e-01 -4.958952218294143677e-02
-6.749700903892517090e-01 3.860885649919509888e-02 -1.863198168575763702e-02
1.085905879735946655e-01 8.451060205698013306e-02 4.532634094357490540e-02
-8.340317755937576294e-02 -4.487908631563186646e-02 -6.057085990905761719e-01
1.688425540924072266e-01 4.564142227172851562e-02 -7.760098576545715332e-02
1.111327633261680603e-01 9.318251162767410278e-02 2.323160180822014809e-03
-2.519233822822570801e-01 4.193507507443428040e-02 8.771179616451263428e-02
-8.214423060417175293e-01 2.567371428012847900e-01 -1.524407714605331421e-01
-3.710968196392059326e-01 8.341770619153976440e-02 -1.656980961561203003e-01
-4.571744501590728760e-01 7.063554227352142334e-02 -3.274462744593620300e-02
-5.853286981582641602e-01 8.144573122262954712e-02 2.009464055299758911e-02
-1.482643336057662964e-01 1.128639746457338333e-02 -7.021925449371337891e-01
-2.214172482490539551e-01 -4.228009842336177826e-03 1.689189225435256958e-01
-2.465301305055618286e-01 3.304933384060859680e-02 1.212827935814857483e-01
3.719580173492431641e-02 -9.624531865119934082e-02 2.283868640661239624e-01
-6.089448332786560059e-01 9.363392740488052368e-02 1.961946859955787659e-02
-3.111035749316215515e-02 -1.095976904034614563e-01 -6.895201746374368668e-03
8.926027417182922363e-01 -7.980431616306304932e-02 5.559008568525314331e-02
-6.441075801849365234e-01 -4.750702530145645142e-03 2.924172580242156982e-02
-3.189703226089477539e-01 4.376448690891265869e-02 -7.068721204996109009e-02
-2.225338965654373169e-01 8.641128987073898315e-02 -1.251895874738693237e-01
6.551824212074279785e-01 4.385952278971672058e-02 -7.679318636655807495e-02
2.583652138710021973e-01 9.059280902147293091e-02 1.653084158897399902e-02
1.191394329071044922e-01 4.245776310563087463e-02 -7.997685670852661133e-02
7.047667503356933594e-01 -1.086473464965820312e-01 -4.029988124966621399e-02
-1.162824966013431549e-02 -7.241538166999816895e-02 -4.023106098175048828e-01
-7.038606405258178711e-01 9.916968643665313721e-02 5.578096956014633179e-03
-2.352685332298278809e-01 1.083498261868953705e-02 1.823425590991973877e-01
6.040300130844116211e-01 -1.199089512228965759e-01 -6.871442776173353195e-03
-3.301368653774261475e-01 8.028154820203781128e-02 -1.421057581901550293e-01
-5.883672088384628296e-02 -4.901308938860893250e-02 -5.458367466926574707e-01
1.109189391136169434e-01 2.947105793282389641e-03 1.034162715077400208e-01
1.271698623895645142e-01 -9.348930418491363525e-02 -2.358099073171615601e-01
2.042429596185684204e-01 -3.195437416434288025e-02 -9.318666905164718628e-02
5.273845791816711426e-01 5.828103050589561462e-02 -6.890531629323959351e-02
-1.340804100036621094e-01 -4.459397494792938232e-02 -6.899568438529968262e-01
-1.279506683349609375e-01 -7.906780391931533813e-02 -6.384471803903579712e-02
-4.388090372085571289e-01 2.972311899065971375e-02 6.516482681035995483e-02
-7.256658282130956650e-03 7.707414031028747559e-02 5.692056566476821899e-02
-6.141004562377929688e-01 1.121181696653366089e-01 -9.746241383254528046e-03
-5.036464333534240723e-01 -5.749493464827537537e-02 9.712104685604572296e-03
3.100165426731109619e-01 -4.915564879775047302e-02 1.002088487148284912e-01
2.400235235691070557e-01 8.895346522331237793e-02 -1.487811282277107239e-02
1.066899001598358154e-01 -9.824104607105255127e-02 -9.689301997423171997e-02
4.186649024486541748e-01 1.606188900768756866e-02 1.007790639996528625e-01
-3.489299714565277100e-01 -8.044580370187759399e-02 3.753349930047988892e-02
-6.849963068962097168e-01 2.556204795837402344e-01 -3.844670578837394714e-02
7.277888655662536621e-01 5.562006309628486633e-02 6.965521723031997681e-02
-9.711192548274993896e-02 -1.047033965587615967e-01 2.874279394745826721e-02
-2.465301305055618286e-01 3.304933384060859680e-02 1.212827935814857483e-01
8.168363571166992188e-01 1.420871168375015259e-02 -5.628946051001548767e-02
6.486487388610839844e-01 9.124356321990489960e-03 1.016818881034851074e-01
-3.494051694869995117e-01 3.601916506886482239e-02 7.305270433425903320e-02
-2.119850665330886841e-01 1.030661091208457947e-01 -1.568598747253417969e-01
-3.533966243267059326e-01 7.707414031028747559e-02 1.495793610811233521e-01
4.741889238357543945e-01 -6.381473690271377563e-02 -8.434844762086868286e-02
-2.980362623929977417e-02 -6.730725616216659546e-02 -4.171122610569000244e-01
4.593899101018905640e-02 -9.693431854248046875e-02 2.283155769109725952e-01
2.883275598287582397e-02 -7.571783661842346191e-02 9.096673130989074707e-02
-5.065449476242065430e-01 -3.874934837222099304e-02 4.801107197999954224e-02
-2.389986366033554077e-01 7.719292491674423218e-02 1.685150265693664551e-01
7.283644285053014755e-03 -5.583182722330093384e-02 4.166980087757110596e-01
4.924355745315551758e-01 -1.100966110825538635e-01 4.984048753976821899e-02
3.176192939281463623e-01 -9.493858367204666138e-02 7.179348915815353394e-02
1.835518330335617065e-02 -5.122264474630355835e-02 -4.829000234603881836e-01
2.775384485721588135e-01 8.707653731107711792e-02 -2.314612828195095062e-02
-3.413272202014923096e-01 8.672014623880386353e-02 1.923932880163192749e-02
-4.515911638736724854e-01 3.171885013580322266e-02 -1.547216027975082397e-01
2.458443790674209595e-01 -1.004743501543998718e-01 9.987623244524002075e-02
-2.366465628147125244e-01 4.087521228939294815e-03 1.990449130535125732e-01
7.856412529945373535e-01 6.196362525224685669e-02 1.907301880419254303e-02
-9.639917314052581787e-02 1.402792986482381821e-03 -9.435083717107772827e-02
4.510744288563728333e-02 -2.919836901128292084e-02 1.027272716164588928e-01
-3.860172629356384277e-01 1.664139213971793652e-03 -7.560525089502334595e-02
-3.571953997015953064e-02 -8.564895391464233398e-02 -6.075609475374221802e-02
7.912984490394592285e-02 -8.398583531379699707e-02 3.470851480960845947e-01
-6.579799950122833252e-02 -4.568688198924064636e-02 5.904213786125183105e-01
3.532810509204864502e-01 7.217985391616821289e-02 6.150598824024200439e-02
3.294300287961959839e-02 -8.305925130844116211e-02 1.496744006872177124e-01
5.133194327354431152e-01 -1.101441383361816406e-01 4.972169548273086548e-02
9.052185416221618652e-01 7.230654591694474220e-05 4.081301391124725342e-03
-3.864211440086364746e-01 8.201593160629272461e-02 -1.653179526329040527e-01
1.743070483207702637e-01 -3.711000457406044006e-02 -9.202248603105545044e-02
-2.405192106962203979e-01 1.622819900512695312e-02 1.504346728324890137e-01
4.237255156040191650e-01 7.417558133602142334e-02 5.867870897054672241e-02
-9.685058146715164185e-02 -3.924828395247459412e-02 6.886872053146362305e-01
6.141036748886108398e-01 -4.275530111044645309e-03 -9.458842873573303223e-02
6.647809147834777832e-01 -3.307103365659713745e-02 1.027985513210296631e-01
8.101839423179626465e-01 -5.918179824948310852e-02 8.478947728872299194e-02
7.720750570297241211e-01 -1.166064962744712830e-01 2.425240725278854370e-02
