-7.936340570449829102e-02 -8.235852234065532684e-03 -5.335887670516967773e-01
-5.232900381088256836e-02 1.552461297251284122e-03 6.354711651802062988e-01
-7.815700769424438477e-02 -1.766773499548435211e-02 -4.670446217060089111e-01
3.140637651085853577e-02 -9.208090603351593018e-02 5.899568796157836914e-01
-4.914848133921623230e-02 -4.999386891722679138e-02 6.001015901565551758e-01
-3.492139577865600586e-01 -6.880279630422592163e-02 2.305686846375465393e-02
-7.253651022911071777e-01 6.793207675218582153e-02 -3.622141480445861816e-02
-2.987095117568969727e-01 -9.935785084962844849e-03 -9.267561137676239014e-02
1.438212543725967407e-01 -1.136154029518365860e-02 -3.452526926994323730e-01
1.318394690752029419e-01 -4.574404656887054443e-02 2.471189051866531372e-01
-4.706469550728797913e-02 -5.205024033784866333e-02 -6.021617650985717773e-01
9.178139269351959229e-02 -5.849353969097137451e-02 6.219813823699951172e-01
1.018164679408073425e-01 -8.432154357433319092e-02 5.592758059501647949e-01
-8.079763054847717285e-01 1.418791413307189941e-01 4.001175519078969955e-03
6.329356431961059570e-01 6.935782730579376221e-02 6.928405910730361938e-02
3.378602862358093262e-01 -2.051923610270023346e-02 -1.834026426076889038e-01
-8.542285114526748657e-02 -2.221916802227497101e-02 4.713454544544219971e-01
-2.126161707565188408e-03 -2.819635719060897827e-02 4.030191302299499512e-01
6.060109138488769531e-01 1.232347190380096436e-01 3.100816346704959869e-02
-6.389153599739074707e-01 6.919331848621368408e-02 5.195571854710578918e-02
6.404482126235961914e-01 -3.313163667917251587e-02 8.197871595621109009e-02
6.987121105194091797e-01 -7.971527427434921265e-02 -4.617424309253692627e-02
-1.303613781929016113e-01 2.551602385938167572e-02 -9.388202428817749023e-02
8.517359197139739990e-02 -6.200306490063667297e-02 -2.558142840862274170e-01
2.041688412427902222e-01 -2.896406874060630798e-02 3.312655687332153320e-01
-6.924357265233993530e-03 -1.369646042585372925e-01 -6.092527136206626892e-02
2.134636342525482178e-01 2.280161716043949127e-02 -9.437555074691772461e-02
2.518217861652374268e-01 -3.886206075549125671e-02 2.686696648597717285e-01
4.493429362773895264e-01 -1.018418073654174805e-01 2.604546025395393372e-02
-2.534419596195220947e-01 4.595885053277015686e-03 7.391945123672485352e-01
3.545031845569610596e-01 -3.163480199873447418e-03 9.036871045827865601e-02
3.414246737957000732e-01 9.244401007890701294e-02 5.458787456154823303e-02
3.286203444004058838e-01 -1.165928244590759277e-01 -3.532314002513885498e-01
-7.060626745223999023e-01 6.497090309858322144e-02 1.174853667616844177e-01
-2.397054135799407959e-01 5.688251554965972900e-02 -8.316148072481155396e-02
4.231311082839965820e-01 -2.104018628597259521e-02 -7.630691677331924438e-02
-7.761985659599304199e-01 6.743855029344558716e-02 -3.855197131633758545e-02
1.127015277743339539e-01 -2.350782975554466248e-02 2.524929046630859375e-01
-6.499623507261276245e-02 -2.587690949440002441e-03 -5.664358139038085938e-01
1.026938320137560368e-03 -4.130228236317634583e-02 -3.018221259117126465e-01
2.336708903312683105e-01 -5.451788753271102905e-02 1.850439757108688354e-01
-1.142942756414413452e-01 -7.660073693841695786e-03 8.982034772634506226e-02
1.417923122644424438e-01 -1.296165138483047485e-01 -1.702144593000411987e-01
3.840600550174713135e-01 -1.018418073654174805e-01 2.335846982896327972e-02
-8.246192336082458496e-01 7.536242902278900146e-02 -1.255227029323577881e-01
5.237013101577758789e-01 -2.136920206248760223e-02 -9.297721832990646362e-02
-7.269827723503112793e-01 1.856660842895507812e-01 -1.486258860677480698e-02
6.339775323867797852e-01 8.454754203557968140e-02 6.026345491409301758e-02
-4.595724642276763916e-01 1.009162440896034241e-01 -3.759232908487319946e-02
1.588464528322219849e-01 -1.108735334128141403e-02 -3.479396998882293701e-01
1.018164679408073425e-01 -8.432154357433319092e-02 5.592758059501647949e-01
3.511581420898437500e-01 -6.902214884757995605e-02 -3.554522693157196045e-01
-1.821270734071731567e-01 -7.960559427738189697e-02 4.641723260283470154e-02
8.912181109189987183e-02 -4.020555317401885986e-02 1.600110977888107300e-01
6.450022011995315552e-02 9.258109331130981445e-02 -5.423521250486373901e-02
-7.503131777048110962e-02 -2.114985510706901550e-02 4.811886250972747803e-01
-2.096001803874969482e-01 1.295846421271562576e-02 7.881909012794494629e-01
2.743321955204010010e-01 -1.514526177197694778e-02 2.226618230342864990e-01
2.817101776599884033e-02 -3.214458748698234558e-02 -3.779626786708831787e-01
-7.047988474369049072e-02 -1.807901635766029358e-02 5.933841466903686523e-01
1.328813582658767700e-01 -6.600613147020339966e-02 1.417505294084548950e-01
-8.686255216598510742e-01 7.774781435728073120e-02 1.594353169202804565e-01
1.148401498794555664e-01 -3.987653553485870361e-02 5.743832588195800781e-01
1.106202229857444763e-02 -3.910882398486137390e-02 5.901213884353637695e-01
2.257470339536666870e-01 -5.018579959869384766e-02 -2.166061699390411377e-01
-3.780031204223632812e-01 -5.498399585485458374e-02 4.641723260283470154e-02
-1.345289647579193115e-01 8.763462305068969727e-03 9.025903046131134033e-02
1.832761317491531372e-01 -5.767097696661949158e-02 3.413006663322448730e-01
-3.401360288262367249e-02 6.294195353984832764e-02 7.394517213106155396e-02
-7.243781089782714844e-01 1.009162440896034241e-01 1.672325097024440765e-02
6.174991726875305176e-01 8.506849408149719238e-02 -6.629925221204757690e-02
-5.104034394025802612e-02 -3.225425630807876587e-02 5.937131643295288086e-01
7.040312290191650391e-01 -4.278286546468734741e-02 -7.946001738309860229e-02
-7.859321236610412598e-01 6.299678981304168701e-02 7.295811176300048828e-02
-7.595556974411010742e-01 7.020779699087142944e-02 1.565838158130645752e-01
1.000891178846359253e-01 -1.298358589410781860e-01 -1.471831202507019043e-01
-4.764047637581825256e-02 1.031511696055531502e-03 6.076142191886901855e-01
3.817868605256080627e-02 -3.093817830085754395e-02 -5.935524702072143555e-01
3.058083653450012207e-01 5.874695628881454468e-02 7.649506628513336182e-02
2.743321955204010010e-01 -1.514526177197694778e-02 2.226618230342864990e-01
2.805287241935729980e-01 -5.967251211404800415e-02 3.112502396106719971e-01
1.457953602075576782e-01 -4.914390295743942261e-02 2.374402731657028198e-01
-1.660051522776484489e-03 -2.921083196997642517e-02 -3.313241899013519287e-01
2.670389115810394287e-01 -6.707544624805450439e-02 3.218336701393127441e-01
1.173352152109146118e-01 -2.701736427843570709e-02 -2.236252427101135254e-01
-7.306568026542663574e-01 5.595029518008232117e-02 -3.805844113230705261e-02
3.265639841556549072e-01 1.224944218993186951e-01 -2.221068367362022400e-02
-7.015112638473510742e-01 1.504336297512054443e-01 1.768288947641849518e-02
1.044212058186531067e-01 2.214357443153858185e-02 8.897037804126739502e-02
6.404482126235961914e-01 -3.313163667917251587e-02 8.197871595621109009e-02
7.475439906120300293e-01 8.978443592786788940e-02 -5.708670988678932190e-02
-1.661696285009384155e-01 7.273027300834655762e-02 6.730994582176208496e-02
3.148289620876312256e-01 8.866027742624282837e-02 5.658940598368644714e-02
1.875808089971542358e-01 3.470114618539810181e-02 -9.179823100566864014e-02
-3.094300925731658936e-01 1.342457439750432968e-02 8.477159738540649414e-01
1.910354942083358765e-01 -1.020337343215942383e-01 -1.743990555405616760e-02
3.133483827114105225e-01 -1.632424443960189819e-02 -1.422204226255416870e-01
6.863738894462585449e-01 2.225325256586074829e-02 8.450119942426681519e-02
-5.940291285514831543e-02 -1.690003275871276855e-02 -4.559950530529022217e-01
2.518217861652374268e-01 -3.886206075549125671e-02 2.686696648597717285e-01
-7.236925959587097168e-01 2.125634104013442993e-01 -1.456098817288875580e-02
1.960804611444473267e-01 8.454754203557968140e-02 5.815224722027778625e-02
1.013503596186637878e-01 -6.277077645063400269e-02 1.362394690513610840e-01
-5.059916526079177856e-03 -1.369097679853439331e-01 -2.876364812254905701e-02
9.305060505867004395e-01 4.051381349563598633e-02 -3.326024487614631653e-02
-9.329187870025634766e-02 -1.371950656175613403e-02 5.018894076347351074e-01
-8.161195516586303711e-01 3.106385171413421631e-01 -9.653119370341300964e-03
-3.530251085758209229e-01 5.052148178219795227e-02 -9.098495244979858398e-01
7.859569191932678223e-01 3.853970021009445190e-02 -7.230384647846221924e-02
3.584240078926086426e-01 -6.241434440016746521e-02 3.324719667434692383e-01
3.675816953182220459e-01 1.053305864334106445e-01 -5.264495313167572021e-02
-1.268518418073654175e-01 -3.942335897590965033e-04 6.998218297958374023e-01
-3.749048709869384766e-01 9.444553405046463013e-02 -5.091760680079460144e-02
-7.817645072937011719e-01 1.463757306337356567e-01 -1.798827014863491058e-02
8.229466527700424194e-02 -3.548961132764816284e-02 -2.019373923540115356e-01
1.442599445581436157e-01 -8.728270977735519409e-02 -8.118736743927001953e-02
4.076397716999053955e-01 -6.685610860586166382e-02 1.025698259472846985e-01
4.410352408885955811e-01 -8.297803997993469238e-02 4.260608926415443420e-02
3.503630459308624268e-01 -1.087512150406837463e-01 3.569838702678680420e-01
-7.659990191459655762e-01 1.051386669278144836e-01 7.538131438195705414e-03
3.016407787799835205e-01 7.198998332023620605e-02 -7.361992448568344116e-02
-7.261054515838623047e-01 1.682006716728210449e-01 -1.489000767469406128e-02
3.148863092064857483e-02 -5.503882467746734619e-02 8.497771807014942169e-03
1.684727706015110016e-02 -3.019788116216659546e-02 8.513181656599044800e-02
-5.085963010787963867e-01 -3.074625506997108459e-02 -4.206150770187377930e-02
8.491560816764831543e-01 -6.362075358629226685e-02 3.503865003585815430e-02
-1.275098770856857300e-01 -1.563878729939460754e-02 -5.327661633491516113e-01
4.722097516059875488e-01 -9.655008465051651001e-02 -1.420455053448677063e-02
-7.044175267219543457e-01 1.005872339010238647e-01 -2.423963509500026703e-02
5.718751549720764160e-01 -7.022856175899505615e-02 -6.649117171764373779e-02
-8.960438370704650879e-01 2.944617569446563721e-01 -2.486547455191612244e-04
-3.530251085758209229e-01 5.052148178219795227e-02 -9.098495244979858398e-01
1.133047267794609070e-01 -1.327421963214874268e-01 -1.393689215183258057e-01
-5.016869306564331055e-01 1.063724830746650696e-01 -1.543837226927280426e-02
3.473196029663085938e-01 -3.285745903849601746e-02 1.901437640190124512e-01
7.078149318695068359e-01 9.356815367937088013e-02 -5.977370217442512512e-02
-7.862337231636047363e-01 7.961225509643554688e-02 1.450407207012176514e-01
9.112334996461868286e-02 -2.339816093444824219e-02 9.141059964895248413e-02
8.769606798887252808e-02 -2.498841471970081329e-02 -4.387489557266235352e-01
-1.648809760808944702e-01 3.636249806731939316e-03 6.747341156005859375e-01
3.486107289791107178e-02 -7.412195205688476562e-02 4.522122908383607864e-03
2.020576298236846924e-01 -1.613232120871543884e-02 2.286938428878784180e-01
3.458689153194427490e-02 -5.660166591405868530e-02 -1.677194088697433472e-01
1.639736741781234741e-01 -1.411595940589904785e-01 1.239286661148071289e-01
-8.140631914138793945e-01 6.228391453623771667e-02 -4.718871787190437317e-02
-4.990547895431518555e-01 -3.987653553485870361e-02 2.904445398598909378e-03
8.277149796485900879e-01 -6.449814140796661377e-02 -3.346918616443872452e-03
2.721113264560699463e-01 -1.964185573160648346e-02 -9.336107224225997925e-02
-7.261054515838623047e-01 1.682006716728210449e-01 -1.489000767469406128e-02
-7.595556974411010742e-01 7.020779699087142944e-02 1.565838158130645752e-01
3.834568560123443604e-01 -4.363283142447471619e-02 1.516485214233398438e-01
3.102501034736633301e-01 -1.670810021460056305e-02 1.427650004625320435e-01
6.521283984184265137e-01 6.058398261666297913e-02 7.317745685577392578e-02
-8.581792116165161133e-01 7.667849957942962646e-02 -1.471831202507019043e-01
6.247126683592796326e-02 -4.585371538996696472e-02 -2.151255756616592407e-01
1.777650713920593262e-01 -9.734521806240081787e-02 3.286882638931274414e-01
-2.126161707565188408e-03 -2.819635719060897827e-02 4.030191302299499512e-01
-1.905718743801116943e-01 -4.698904231190681458e-03 -6.309235692024230957e-01
1.365554183721542358e-01 -5.599848181009292603e-02 1.547467857599258423e-01
-1.683082580566406250e-01 6.373707950115203857e-02 7.347905635833740234e-02
3.875421881675720215e-01 -1.008273214101791382e-01 -5.146596953272819519e-02
3.606448769569396973e-01 -5.819193646311759949e-02 1.402425318956375122e-01
-2.972289323806762695e-01 -7.963300496339797974e-02 2.157627977430820465e-02
-7.060626745223999023e-01 6.497090309858322144e-02 1.174853667616844177e-01
2.180973291397094727e-01 1.012726873159408569e-01 -4.472107812762260437e-02
-4.994361475110054016e-02 -1.319856662303209305e-02 -5.686566829681396484e-01
6.288503408432006836e-01 -9.597429633140563965e-02 3.370556049048900604e-03
-5.860803127288818359e-01 6.941266357898712158e-02 -6.136396154761314392e-02
-6.338429450988769531e-01 5.548418685793876648e-02 -5.645609274506568909e-02
1.598883569240570068e-01 -1.494124978780746460e-01 1.611626595258712769e-01
5.142145752906799316e-01 -8.848912268877029419e-02 -3.794876858592033386e-02
1.497161835432052612e-01 -1.215555295348167419e-01 1.640141606330871582e-01
3.639350831508636475e-01 -7.708311825990676880e-02 -8.724679797887802124e-02
3.307041227817535400e-01 -9.295830130577087402e-02 -3.668582737445831299e-01
3.648124337196350098e-01 -3.003337234258651733e-02 1.674414426088333130e-01
-9.181129932403564453e-02 -2.205466106534004211e-02 -5.168910026550292969e-01
2.744418382644653320e-01 -1.252844333648681641e-01 -3.362869024276733398e-01
-6.357348561286926270e-01 -6.947201211005449295e-03 -2.508960105478763580e-02
-1.849511414766311646e-01 2.676614793017506599e-03 7.337382435798645020e-01
1.396262645721435547e-01 -1.670810021460056305e-02 8.949131518602371216e-02
-4.601482748985290527e-01 -4.662142693996429443e-02 2.714218758046627045e-02
-8.542285114526748657e-02 -2.221916802227497101e-02 4.713454544544219971e-01
3.538177311420440674e-01 -5.827418342232704163e-02 -3.191504776477813721e-01
1.232027187943458557e-01 7.286736369132995605e-02 6.720027327537536621e-02
-2.604061961174011230e-01 1.844211667776107788e-02 8.798227310180664062e-01
7.393209636211395264e-02 -8.592294529080390930e-03 -4.159918129444122314e-01
-7.777315378189086914e-02 9.800991415977478027e-02 -4.400820285081863403e-02
-2.043084204196929932e-01 1.125853136181831360e-02 7.646386623382568359e-01
7.360558025538921356e-03 -9.589205682277679443e-02 6.000467538833618164e-01
-7.003322243690490723e-01 6.050172820687294006e-02 8.258192241191864014e-02
5.183547139167785645e-01 1.169285103678703308e-01 -4.439205676317214966e-02
-4.171813279390335083e-02 -1.111477799713611603e-02 4.811612069606781006e-01
1.276195514947175980e-02 -1.703711785376071930e-02 -6.079744696617126465e-01
8.639344573020935059e-01 -7.532835751771926880e-02 -2.703629806637763977e-02
-2.124516665935516357e-01 -7.187364250421524048e-02 -5.914308130741119385e-02
-7.539075613021850586e-01 8.654907345771789551e-02 -3.419246524572372437e-02
8.298810124397277832e-01 1.189848855137825012e-01 1.200730912387371063e-02
-7.269827723503112793e-01 1.856660842895507812e-01 -1.486258860677480698e-02
3.570804893970489502e-01 -4.744396731257438660e-02 1.728976666927337646e-01
2.601021230220794678e-01 -6.090633571147918701e-02 3.341993093490600586e-01
1.067517548799514771e-01 -3.211716189980506897e-02 -3.702307343482971191e-01
-7.942672371864318848e-01 7.900905609130859375e-02 -1.466073393821716309e-01
2.295581549406051636e-01 -3.535251691937446594e-02 -3.328596055507659912e-01
2.625174075365066528e-02 -1.210620030760765076e-01 4.811716452240943909e-02
2.432124465703964233e-01 -8.212808519601821899e-02 -3.156957626342773438e-01
-8.686803579330444336e-01 8.251859247684478760e-02 2.318195104598999023e-01
-3.916574120521545410e-01 8.506849408149719238e-02 5.669908225536346436e-02
2.469413280487060547e-01 -8.558277785778045654e-02 -3.067574203014373779e-01
6.098220348358154297e-01 1.198622658848762512e-01 -4.165023192763328552e-02
-1.670195907354354858e-01 -9.469674900174140930e-03 -5.858479738235473633e-01
1.578868180513381958e-01 -4.154904559254646301e-02 -2.915402650833129883e-01
4.733887612819671631e-01 -4.980194568634033203e-02 -8.181798458099365234e-02
-4.914848133921623230e-02 -4.999386891722679138e-02 6.001015901565551758e-01
8.210273832082748413e-02 -6.356590241193771362e-02 2.508203685283660889e-01
2.910299003124237061e-01 -9.794841706752777100e-02 -6.306389719247817993e-02
2.357272654771804810e-01 -1.119865775108337402e-01 3.397378027439117432e-01
-7.202926874160766602e-01 7.977677136659622192e-02 -1.658823788166046143e-01
1.499629467725753784e-01 -2.147888205945491791e-02 -4.151692390441894531e-01
5.138033032417297363e-01 1.318988949060440063e-01 3.233464900404214859e-03
-5.271286144852638245e-02 -2.561903372406959534e-02 5.159823894500732422e-01
8.117052167654037476e-02 -5.183089524507522583e-02 8.589953184127807617e-02
-5.951831936836242676e-01 1.455805897712707520e-01 8.963881991803646088e-03
-1.551749110221862793e-01 -8.016515523195266724e-03 5.833490490913391113e-01
7.987887263298034668e-01 -8.108618855476379395e-02 -1.020148489624261856e-02
-4.684535041451454163e-02 -3.313163667917251587e-02 -3.617310523986816406e-01
-4.498090595006942749e-02 -6.755268201231956482e-03 -6.279349923133850098e-01
2.326290011405944824e-01 -6.159180402755737305e-02 3.316494226455688477e-01
-7.721132636070251465e-01 5.732121318578720093e-02 -2.358159609138965607e-02
2.636664509773254395e-01 -7.083174586296081543e-02 1.215432733297348022e-01
2.775675356388092041e-01 -6.913180649280548096e-02 3.040392100811004639e-01
2.092412114143371582e-01 -5.018579959869384766e-02 3.311284780502319336e-01
5.891486406326293945e-01 1.301329303532838821e-02 -9.552711248397827148e-02
-1.915290206670761108e-02 -2.079342305660247803e-02 -4.903501272201538086e-01
8.542832732200622559e-01 2.823043055832386017e-02 -6.268003582954406738e-02
7.437054514884948730e-01 -1.500816829502582550e-02 -8.307922631502151489e-02
2.625174075365066528e-02 -1.210620030760765076e-01 4.811716452240943909e-02
2.180973291397094727e-01 1.012726873159408569e-01 -4.472107812762260437e-02
6.200515851378440857e-02 -2.205466106534004211e-02 -3.174231350421905518e-01
3.259059488773345947e-01 -6.614322960376739502e-02 1.274930387735366821e-01
3.321598097681999207e-02 -9.498725086450576782e-02 -5.508517846465110779e-02
-2.251463234424591064e-01 7.310301996767520905e-03 -7.839723229408264160e-01
2.996118366718292236e-01 -1.242699474096298218e-01 3.477713465690612793e-01
1.898291110992431641e-01 -5.687585100531578064e-02 1.753927469253540039e-01
-8.824443817138671875e-01 7.198998332023620605e-02 -1.812536083161830902e-02
-3.261826336383819580e-01 -1.986120268702507019e-02 7.992234826087951660e-02
7.587879151105880737e-02 -7.221378386020660400e-03 4.805031716823577881e-01
2.727419435977935791e-01 -8.821493387222290039e-02 2.986926734447479248e-01
3.606448769569396973e-01 -5.819193646311759949e-02 1.402425318956375122e-01
-1.401496976613998413e-01 6.242100521922111511e-02 7.427418231964111328e-02
1.898291110992431641e-01 -5.687585100531578064e-02 1.753927469253540039e-01
-2.099840193986892700e-01 -4.216482047922909260e-04 -6.917372941970825195e-01
8.903957158327102661e-02 -8.948735892772674561e-03 4.754033386707305908e-01
1.776279658079147339e-01 -1.020063161849975586e-01 1.982151530683040619e-02
-3.429351747035980225e-01 5.082307755947113037e-02 -8.557428419589996338e-02
2.809673845767974854e-01 -4.097326472401618958e-02 2.455560714006423950e-01
5.734404921531677246e-02 -7.412195205688476562e-02 8.979292213916778564e-02
-3.109380602836608887e-01 1.641315780580043793e-02 8.857724666595458984e-01
3.052600026130676270e-01 -1.235022321343421936e-01 3.155549168586730957e-01
9.633282572031021118e-02 -7.732987403869628906e-02 1.638222336769104004e-01
5.944952368736267090e-01 8.816675096750259399e-02 -6.446222215890884399e-02
-3.404675424098968506e-01 -6.644482910633087158e-02 -4.795642942190170288e-02
2.730709612369537354e-01 -1.163460761308670044e-01 -3.522717654705047607e-01
-8.242627382278442383e-01 3.751537203788757324e-01 -2.195351524278521538e-03
-8.462796807289123535e-01 9.046988934278488159e-02 1.729903370141983032e-02
-1.800158470869064331e-01 -4.424716811627149582e-03 6.489609479904174805e-01
3.919316083192825317e-02 8.545234799385070801e-02 -6.278971582651138306e-02
-4.012787342071533203e-02 8.232666552066802979e-02 -6.575088202953338623e-02
5.539735406637191772e-02 -1.539091020822525024e-01 3.311937302350997925e-02
3.110178112983703613e-01 -1.005257219076156616e-01 -5.376910045742988586e-02
8.062464594841003418e-01 -8.009912073612213135e-02 -3.593683009967207909e-03
2.341918498277664185e-01 -2.430295757949352264e-02 8.861393481492996216e-02
-8.395348191261291504e-01 7.876229286193847656e-02 -1.574375629425048828e-01
3.270026743412017822e-01 -1.016772985458374023e-01 3.591603413224220276e-02
3.888856768608093262e-01 -3.903767326846718788e-03 9.036871045827865601e-02
2.555232644081115723e-01 -2.265786379575729370e-02 -7.737622410058975220e-02
1.540482640266418457e-01 -2.586579695343971252e-02 3.963016569614410400e-01
2.357272654771804810e-01 -1.119865775108337402e-01 3.397378027439117432e-01
9.633282572031021118e-02 -7.732987403869628906e-02 1.638222336769104004e-01
-2.675623595714569092e-01 7.419970817863941193e-03 -7.730049490928649902e-01
-1.111935451626777649e-02 -4.226191714406013489e-02 6.022402048110961914e-01
3.080566525459289551e-01 -5.479207262396812439e-02 3.195579648017883301e-01
1.065872460603713989e-01 -1.349082440137863159e-01 1.268349885940551758e-01
-2.891380526125431061e-02 -4.782782495021820068e-02 5.905874967575073242e-01
-6.389701962471008301e-01 5.759539455175399780e-02 6.045538187026977539e-02
9.526351094245910645e-02 -3.442029654979705811e-02 1.915969252586364746e-01
3.473196029663085938e-01 -3.285745903849601746e-02 1.901437640190124512e-01
1.557756066322326660e-01 -1.048415992408990860e-02 -3.685581982135772705e-01
3.264019638299942017e-02 -5.073416605591773987e-02 -2.227204442024230957e-01
-2.160708904266357422e-01 9.448920376598834991e-03 -8.108970522880554199e-01
2.647083699703216553e-01 -6.649965792894363403e-02 -3.204391300678253174e-01
2.216342985630035400e-01 -3.335098549723625183e-02 3.431650698184967041e-01
3.339669108390808105e-01 9.833893179893493652e-02 -5.799151584506034851e-02
-2.778965793550014496e-02 -2.005312591791152954e-02 4.964605569839477539e-01
1.313733607530593872e-01 -1.599522866308689117e-02 2.968830466270446777e-01
-5.660625174641609192e-02 1.065095663070678711e-01 -1.541095506399869919e-02
4.358257651329040527e-01 -1.020337343215942383e-01 6.660747807472944260e-03
8.503649383783340454e-02 -3.543477132916450500e-02 -5.998860597610473633e-01
3.650616854429244995e-02 -8.111359924077987671e-02 -1.266912743449211121e-02
9.656562805175781250e-01 9.503759443759918213e-03 3.106299974024295807e-02
-7.837111353874206543e-01 6.450479477643966675e-02 -9.632223844528198242e-02
4.382111132144927979e-01 8.352191187441349030e-03 9.028645604848861694e-02
-6.066414713859558105e-02 -7.968785613775253296e-02 -5.982958078384399414e-01
-8.489666581153869629e-01 7.089325040578842163e-02 1.128516793251037598e-01
3.022738918662071228e-02 9.173112362623214722e-02 5.009127780795097351e-02
3.709815442562103271e-01 -4.393443465232849121e-02 1.637673974037170410e-01
-4.306162893772125244e-02 -6.507391482591629028e-02 -5.940185785293579102e-01
-8.329269289970397949e-01 6.373707950115203857e-02 -3.419246524572372437e-02
1.446188706904649734e-02 -4.958259686827659607e-02 -1.845268160104751587e-01
2.930040061473846436e-01 -1.739355921745300293e-02 9.121867269277572632e-02
-9.024845808744430542e-02 -4.352316260337829590e-02 -8.508075773715972900e-02
1.402319595217704773e-02 -9.265670180320739746e-02 6.791315227746963501e-02
2.686017453670501709e-01 -5.246151238679885864e-02 3.318961858749389648e-01
-8.090730905532836914e-01 1.652120649814605713e-01 4.933396819978952408e-03
3.518710434436798096e-01 -1.194991692900657654e-01 -3.603053092956542969e-01
1.907064765691757202e-01 -4.878747090697288513e-02 3.420409560203552246e-01
-1.526524424552917480e-01 -2.094166120514273643e-03 6.827402114868164062e-01
3.092904686927795410e-01 -5.643715709447860718e-02 3.502390086650848389e-01
8.473490178585052490e-02 -9.230024367570877075e-02 5.858166813850402832e-01
-1.670195907354354858e-01 -9.469674900174140930e-03 -5.858479738235473633e-01
1.877453178167343140e-01 -4.511341825127601624e-02 -3.359852731227874756e-01
3.675816953182220459e-01 1.053305864334106445e-01 -5.264495313167572021e-02
-1.695694923400878906e-01 -1.216785167343914509e-03 6.914592981338500977e-01
7.108035683631896973e-01 -9.243734180927276611e-02 2.328661968931555748e-03
-7.423619180917739868e-02 -2.298688143491744995e-02 4.647376537322998047e-01
3.646479547023773193e-01 -9.191639721393585205e-02 -3.709709942340850830e-01
8.483608961105346680e-01 5.041180923581123352e-02 -5.069825798273086548e-02
3.313372656702995300e-02 -3.447513654828071594e-02 6.143042445182800293e-01
1.399577688425779343e-02 -6.041280925273895264e-02 -6.277978420257568359e-01
-3.758645057678222656e-01 5.191981419920921326e-02 -9.111382365226745605e-01
9.087658673524856567e-02 -1.018966361880302429e-01 -3.120387531816959381e-02
2.764708101749420166e-01 -6.194823607802391052e-02 -3.411124944686889648e-01
-4.764047637581825256e-02 1.031511696055531502e-03 6.076142191886901855e-01
2.570586800575256348e-01 -1.514526177197694778e-02 -2.582270801067352295e-01
4.344549030065536499e-03 5.512775108218193054e-02 7.852401584386825562e-02
-4.825215637683868408e-01 -3.393940860405564308e-04 -7.312639802694320679e-02
1.367199271917343140e-01 -1.174539700150489807e-02 3.400942683219909668e-01
2.789683640003204346e-02 -6.866569817066192627e-02 5.599887371063232422e-01
3.584240078926086426e-01 -6.241434440016746521e-02 3.324719667434692383e-01
3.834568560123443604e-01 -4.363283142447471619e-02 1.516485214233398438e-01
1.900484412908554077e-01 -3.118494153022766113e-02 -1.016962304711341858e-01
1.568175107240676880e-01 -2.685285545885562897e-02 1.767636388540267944e-01
2.092412114143371582e-01 -5.018579959869384766e-02 3.311284780502319336e-01
-5.865738987922668457e-01 1.685571074485778809e-01 2.986700274050235748e-03
2.357272654771804810e-01 -1.119865775108337402e-01 3.397378027439117432e-01
-1.363933980464935303e-01 9.598095715045928955e-02 4.293511435389518738e-02
-7.415393739938735962e-02 -9.671459347009658813e-02 6.359145976603031158e-03
8.447691202163696289e-01 -6.825444102287292480e-02 -3.183449432253837585e-02
2.450768798589706421e-01 -1.530976966023445129e-02 -2.249687314033508301e-01
-2.604061961174011230e-01 1.844211667776107788e-02 8.798227310180664062e-01
5.373007655143737793e-01 1.211509257555007935e-01 -4.011481255292892456e-02
-7.723874449729919434e-01 7.034488022327423096e-02 -6.750565767288208008e-02
-3.171894550323486328e-01 1.034387350082397461e-01 2.344072423875331879e-02
2.758401930332183838e-01 -4.272803664207458496e-02 2.370564043521881104e-01
-8.081682920455932617e-01 3.542335629463195801e-01 -5.814562086015939713e-03
-7.947881221771240234e-01 6.774014979600906372e-02 1.214061826467514038e-01
6.949282884597778320e-01 -3.971203044056892395e-02 -8.206474781036376953e-02
1.135240718722343445e-01 -1.044465452432632446e-01 -6.038343310356140137e-01
1.260542124509811401e-01 -2.282237261533737183e-02 -4.334572255611419678e-01
-7.474094033241271973e-01 1.055773496627807617e-01 -1.127079594880342484e-02
-5.435795336961746216e-02 1.803083717823028564e-02 8.971066772937774658e-02
8.064658045768737793e-01 1.264700740575790405e-01 -5.101687274873256683e-03
1.311814337968826294e-01 -1.783225312829017639e-02 -9.448522329330444336e-02
-8.132680654525756836e-01 2.788333594799041748e-01 4.796305671334266663e-03
-1.468397527933120728e-01 -7.056870032101869583e-03 6.262038350105285645e-01
1.831390410661697388e-01 -8.802301436662673950e-02 -3.470074534416198730e-01
-3.618537783622741699e-01 -5.945317447185516357e-02 4.553984478116035461e-02
-7.415393739938735962e-02 -9.671459347009658813e-02 6.359145976603031158e-03
1.359522044658660889e-01 -1.276698112487792969e-01 1.333331167697906494e-01
1.657309383153915405e-02 -4.316672310233116150e-02 5.795105099678039551e-01
-2.424746602773666382e-01 5.692623555660247803e-03 7.325044274330139160e-01
1.423680782318115234e-01 6.020012870430946350e-02 7.561767846345901489e-02
5.342024564743041992e-01 -9.276635944843292236e-02 -2.646051533520221710e-02
-6.161581873893737793e-01 5.200206488370895386e-02 -2.245744876563549042e-02
-8.559308648109436035e-01 8.191538602113723755e-02 2.365080565214157104e-01
2.727419435977935791e-01 -8.821493387222290039e-02 2.986926734447479248e-01
1.008842438459396362e-01 -9.166962653398513794e-02 -5.769918560981750488e-01
-7.556896805763244629e-01 7.275769114494323730e-02 -1.827720254659652710e-01
-5.032496992498636246e-03 -3.908139839768409729e-02 3.193386197090148926e-01
7.017579674720764160e-02 -1.602264307439327240e-02 3.482922613620758057e-01
-3.671455085277557373e-01 -3.798467293381690979e-02 -6.775241345167160034e-02
1.170336157083511353e-01 -3.123978152871131897e-02 1.898970007896423340e-01
1.751603186130523682e-01 1.003678813576698303e-01 3.328387811779975891e-02
7.574170827865600586e-02 -4.157647117972373962e-02 6.217894554138183594e-01
1.733781397342681885e-01 -7.442355155944824219e-02 -8.351791650056838989e-02
2.318613082170486450e-01 -2.981403470039367676e-02 -3.406189680099487305e-01
-5.742630958557128906e-01 -8.674548007547855377e-03 -4.614682495594024658e-02
-1.821270734071731567e-01 -7.960559427738189697e-02 4.641723260283470154e-02
-6.275093555450439453e-01 6.551927328109741211e-02 1.488622743636369705e-02
3.124983906745910645e-01 1.187655404210090637e-01 2.415359951555728912e-02
-1.343918591737747192e-01 -2.934791520237922668e-02 -5.179877281188964844e-01
1.438486725091934204e-01 -5.303730070590972900e-02 -2.116982936859130859e-01
1.359522044658660889e-01 -1.276698112487792969e-01 1.333331167697906494e-01
8.810734748840332031e-02 1.077982336282730103e-01 -3.456591628491878510e-03
3.474018573760986328e-01 -6.512875854969024658e-02 1.267801672220230103e-01
-7.022241353988647461e-01 6.620472669601440430e-02 -1.892049238085746765e-02
1.389408111572265625e-01 1.076885610818862915e-01 -4.662995226681232452e-03
-8.421943187713623047e-01 2.068604230880737305e-01 2.054479205980896950e-03
4.661229252815246582e-01 5.194723233580589294e-02 -8.546461164951324463e-02
3.486107289791107178e-02 -7.412195205688476562e-02 4.522122908383607864e-03
6.756532788276672363e-01 1.020129770040512085e-01 5.036546289920806885e-02
5.564411729574203491e-02 -1.389113068580627441e-01 5.743937194347381592e-02
1.691831499338150024e-01 -6.915924698114395142e-02 -1.150214970111846924e-01
6.167863011360168457e-01 -9.580978751182556152e-02 8.854209445416927338e-03
5.638441070914268494e-02 -4.678593575954437256e-02 -2.604479491710662842e-01
3.157088533043861389e-02 -2.060149051249027252e-02 -4.874163568019866943e-01
2.329056896269321442e-02 -1.331534534692764282e-01 2.352297864854335785e-02
9.554018266499042511e-03 4.204924032092094421e-02 8.403509110212326050e-02
1.107274070382118225e-01 -2.959468774497509003e-02 -2.113418579101562500e-01
4.076397716999053955e-01 -6.685610860586166382e-02 1.025698259472846985e-01
3.978514373302459717e-01 -1.906607672572135925e-02 8.982034772634506226e-02
8.964276313781738281e-02 -3.537993133068084717e-02 -1.941780298948287964e-01
1.777650713920593262e-01 -9.734521806240081787e-02 3.286882638931274414e-01
1.286863684654235840e-01 -3.554445132613182068e-02 1.448762118816375732e-01
-5.049197748303413391e-02 -5.432595312595367432e-02 -6.124436855316162109e-01
-6.297850608825683594e-01 9.244401007890701294e-02 -4.047124832868576050e-02
4.958467930555343628e-02 -3.921849280595779419e-02 3.210934102535247803e-01
-7.922631502151489258e-02 -8.015396445989608765e-02 4.726719856262207031e-02
-3.773725032806396484e-01 -6.334656476974487305e-02 -4.112928733229637146e-02
-1.739813387393951416e-02 -4.708753898739814758e-02 -5.908380746841430664e-01
-1.739813387393951416e-02 -4.708753898739814758e-02 -5.908380746841430664e-01
-8.449361920356750488e-01 2.588180303573608398e-01 -8.857989683747291565e-03
7.242110967636108398e-01 1.223847493529319763e-01 3.040496259927749634e-02
-5.583853647112846375e-02 -3.672343492507934570e-02 -4.060115218162536621e-01
1.661397218704223633e-01 -2.940275520086288452e-02 -3.483509421348571777e-01
5.301994085311889648e-01 -3.052690811455249786e-02 -9.026280790567398071e-02
1.425051838159561157e-01 -3.570896014571189880e-02 3.349395990371704102e-01
-3.439746052026748657e-02 -3.198007866740226746e-02 3.427263796329498291e-01
2.329056896269321442e-02 -8.034589141607284546e-02 -8.897414803504943848e-02
8.869658708572387695e-01 5.658091604709625244e-02 3.015819750726222992e-02
-3.618537783622741699e-01 -5.945317447185516357e-02 4.553984478116035461e-02
-2.547306418418884277e-01 8.434445597231388092e-03 -7.913203835487365723e-01
-6.293736398220062256e-03 -7.225751131772994995e-02 1.624787300825119019e-01
-5.630464851856231689e-02 -2.169822901487350464e-02 4.778435826301574707e-01
1.276195514947175980e-02 -1.703711785376071930e-02 -6.079744696617126465e-01
-3.774248436093330383e-02 -8.399252593517303467e-02 6.044062972068786621e-01
-1.640584170818328857e-01 9.640852920711040497e-03 -7.880576252937316895e-01
-4.464391469955444336e-01 6.837076693773269653e-02 7.002435624599456787e-02
9.027338773012161255e-02 -3.834111243486404419e-02 3.235884606838226318e-01
7.040312290191650391e-01 -4.278286546468734741e-02 -7.946001738309860229e-02
-6.966581940650939941e-01 2.582696676254272461e-01 2.548008225858211517e-03
-7.236925959587097168e-01 2.125634104013442993e-01 -1.456098817288875580e-02
-8.894359469413757324e-01 8.915381133556365967e-02 2.593474388122558594e-01
2.738112211227416992e-01 -1.140977665781974792e-01 -3.263066411018371582e-01
-1.163232252001762390e-01 -1.020997203886508942e-02 5.418103933334350586e-01
4.018021747469902039e-02 1.051386669278144836e-01 1.614746637642383575e-02
-7.306019663810729980e-01 7.577370107173919678e-02 -1.126086935400962830e-01
6.440126299858093262e-01 8.887963742017745972e-02 -6.402353197336196899e-02
-4.939524456858634949e-02 -8.016515523195266724e-03 5.100051760673522949e-01
2.252285741269588470e-02 -5.808226019144058228e-02 1.313315927982330322e-01
-3.565894663333892822e-01 3.766231611371040344e-02 -8.938542753458023071e-02
-1.241648569703102112e-01 -1.216785167343914509e-03 -6.916276216506958008e-01
1.822616457939147949e-01 -8.314254879951477051e-02 -3.322015702724456787e-01
1.557756066322326660e-01 -1.048415992408990860e-02 -3.685581982135772705e-01
2.233068048954010010e-01 -2.644158527255058289e-02 -8.683553338050842285e-02
-2.604061961174011230e-01 1.844211667776107788e-02 8.798227310180664062e-01
-2.648205459117889404e-01 2.436445653438568115e-02 8.855909854173660278e-02
-7.894690632820129395e-01 1.915335953235626221e-01 6.605911068618297577e-03
-2.665753066539764404e-01 8.489284664392471313e-03 7.869022488594055176e-01
2.744418382644653320e-01 -1.252844333648681641e-01 -3.362869024276733398e-01
-7.232265472412109375e-01 4.221374914050102234e-02 3.857560455799102783e-02
1.062308177351951599e-01 -3.932817280292510986e-02 1.473164409399032593e-01
-1.030253693461418152e-01 9.546000510454177856e-02 -4.957411065697669983e-02
-7.257490158081054688e-01 6.343548744916915894e-02 -1.097846180200576782e-01
6.911994218826293945e-01 -8.336188644170761108e-02 -4.055350273847579956e-02
1.800956130027770996e-01 -7.856369018554687500e-02 -9.426587820053100586e-02
-6.765057444572448730e-01 7.410118728876113892e-02 -1.338852643966674805e-01
2.353733405470848083e-02 -1.150299906730651855e-01 -4.691453650593757629e-02
2.074042260646820068e-01 -2.263044938445091248e-02 -1.515974700450897217e-01
2.055946141481399536e-01 9.175854176282882690e-02 -5.656576529145240784e-02
-2.433495223522186279e-02 -9.208090603351593018e-02 5.749420821666717529e-02
-7.559912800788879395e-01 7.001586258411407471e-02 5.409434437751770020e-02
9.633282572031021118e-02 -7.732987403869628906e-02 1.638222336769104004e-01
8.856223821640014648e-01 -5.561461299657821655e-02 -3.745523840188980103e-02
-2.754313945770263672e-01 1.114885229617357254e-02 8.239168524742126465e-01
5.944404006004333496e-01 -5.854836851358413696e-02 7.092916220426559448e-02
2.869196608662605286e-02 -5.065191164612770081e-02 5.637176036834716797e-01
1.253687590360641479e-01 1.778407394886016846e-02 8.971066772937774658e-02
1.185715198516845703e-02 -4.015071317553520203e-02 3.118534386157989502e-01
1.074097976088523865e-01 -1.521543115377426147e-01 1.539790779352188110e-01
-8.090730905532836914e-01 1.652120649814605713e-01 4.933396819978952408e-03
-7.204846739768981934e-01 4.884896427392959595e-02 -4.381627216935157776e-02
-1.018189713358879089e-01 -3.876352682709693909e-03 -6.632222533226013184e-01
7.987887263298034668e-01 -9.531626850366592407e-02 -6.225835997611284256e-03
3.312250971794128418e-01 -7.138011604547500610e-02 -3.594005107879638672e-01
8.183379173278808594e-01 -5.372275784611701965e-02 4.954291507601737976e-02
1.313733607530593872e-01 -1.018143966794013977e-01 2.971950732171535492e-02
2.803392708301544189e-02 -4.589225165545940399e-03 5.003814101219177246e-01
-9.392251074314117432e-02 -3.176072984933853149e-02 -5.315871834754943848e-01
-1.343918591737747192e-01 -2.934791520237922668e-02 -5.179877281188964844e-01
7.706027626991271973e-01 1.158043667674064636e-01 -3.624883666634559631e-02
3.258785307407379150e-01 4.437978938221931458e-02 -8.880963921546936035e-02
-7.698923945426940918e-01 4.676518216729164124e-02 3.295486047863960266e-02
-8.634434342384338379e-01 9.244401007890701294e-02 2.739888131618499756e-01
-7.975025177001953125e-01 7.401893287897109985e-02 -1.056170389056205750e-01
5.068116188049316406e-01 4.281694442033767700e-02 8.378832787275314331e-02
-2.665753066539764404e-01 8.489284664392471313e-03 7.869022488594055176e-01
9.499181061983108521e-03 2.429842250421643257e-03 9.045096486806869507e-02
-3.022738695144653320e-01 1.479547936469316483e-02 8.403678536415100098e-01
-9.053660631179809570e-01 9.159403294324874878e-02 2.905220389366149902e-01
9.967784583568572998e-02 -6.951567530632019043e-02 8.381573855876922607e-02
9.024596959352493286e-02 -6.381267309188842773e-02 5.980726480484008789e-01
5.292123556137084961e-01 -7.360099256038665771e-02 -6.246069073677062988e-02
5.314058065414428711e-01 1.172464154660701752e-02 9.006711095571517944e-02
1.359796226024627686e-01 9.022312611341476440e-02 5.236699432134628296e-02
-3.094574809074401855e-01 -8.083941787481307983e-02 -2.853389829397201538e-03
-2.414302527904510498e-02 -2.971546957269310951e-03 -5.402787923812866211e-01
5.621990188956260681e-02 1.232783496379852295e-02 -9.558195620775222778e-02
-1.905718743801116943e-01 -4.698904231190681458e-03 -6.309235692024230957e-01
3.562853932380676270e-01 1.253459155559539795e-01 -1.360134780406951904e-02
8.635506629943847656e-01 5.682768300175666809e-02 3.701276332139968872e-02
-6.518816947937011719e-02 -5.877886898815631866e-03 -6.406570672988891602e-01
8.503649383783340454e-02 -3.543477132916450500e-02 -5.998860597610473633e-01
-3.993594646453857422e-02 -1.777741499245166779e-02 4.324389100074768066e-01
-2.625174224376678467e-01 1.030000373721122742e-01 -3.049100004136562347e-02
2.937169075012207031e-01 1.220283135771751404e-01 7.976824417710304260e-03
3.426036834716796875e-01 -1.282730102539062500e-01 -3.394948244094848633e-01
-2.087776064872741699e-01 2.402427606284618378e-03 7.272949218750000000e-01
2.446108013391494751e-01 -4.083617031574249268e-02 2.593474388122558594e-01
4.075849056243896484e-01 -2.065633051097393036e-02 9.387824684381484985e-02
-4.253270626068115234e-01 -5.262603238224983215e-02 3.769822046160697937e-02
1.584900319576263428e-01 8.598953485488891602e-03 9.025903046131134033e-02
9.128761291503906250e-01 -3.472189977765083313e-02 -4.252761602401733398e-02
-5.951831936836242676e-01 1.455805897712707520e-01 8.963881991803646088e-03
8.729825019836425781e-01 3.365924954414367676e-02 -5.552387237548828125e-02
1.286863684654235840e-01 -3.554445132613182068e-02 1.448762118816375732e-01
-2.454084008932113647e-01 1.745505817234516144e-02 8.646603822708129883e-01
-8.915472030639648438e-01 9.189563244581222534e-02 -2.845211923122406006e-01
-1.203537061810493469e-01 -7.934261113405227661e-03 -5.628988742828369141e-01
-5.042642354965209961e-01 -2.372717857360839844e-02 -5.152080208063125610e-02
8.971105813980102539e-01 7.917356491088867188e-02 1.219923701137304306e-02
5.114452838897705078e-01 -7.423160970211029053e-02 6.846151500940322876e-02
-8.448265194892883301e-01 9.005860984325408936e-02 2.488462775945663452e-01
-4.306162893772125244e-02 -6.507391482591629028e-02 -5.940185785293579102e-01
4.511550813913345337e-02 -8.018138259649276733e-02 -6.349266171455383301e-01
7.437054514884948730e-01 -1.500816829502582550e-02 -8.307922631502151489e-02
1.298105269670486450e-01 -3.642183169722557068e-02 -6.915074586868286133e-02
-8.373961448669433594e-01 9.280043840408325195e-02 -2.861663103103637695e-01
8.306238055229187012e-02 -7.000920176506042480e-02 9.481046348810195923e-02
3.352829813957214355e-01 -6.124649662524461746e-03 -9.585613012313842773e-02
-1.273702736943960190e-02 -8.153598755598068237e-03 -6.013118624687194824e-01
-4.663448035717010498e-01 1.091691479086875916e-01 -6.938710808753967285e-03
2.252285741269588470e-02 -5.808226019144058228e-02 1.313315927982330322e-01
3.124983906745910645e-01 1.187655404210090637e-01 2.415359951555728912e-02
-6.695140600204467773e-01 -1.079691573977470398e-03 3.535065567120909691e-03
2.336708903312683105e-01 1.333113526925444603e-03 9.042353928089141846e-02
1.062308177351951599e-01 -3.932817280292510986e-02 1.473164409399032593e-01
-8.701061606407165527e-01 5.921306833624839783e-02 -1.900274679064750671e-02
-2.251463234424591064e-01 7.310301996767520905e-03 -7.839723229408264160e-01
7.542614340782165527e-01 -5.018579959869384766e-02 -6.761533021926879883e-02
5.157774090766906738e-01 -2.490616030991077423e-02 8.644789457321166992e-02
-1.740112751722335815e-01 8.696034550666809082e-02 5.562976747751235962e-02
-2.405279725790023804e-01 1.049741581082344055e-01 1.686034165322780609e-02
7.469956278800964355e-01 1.268539130687713623e-01 -2.465091086924076080e-02
-1.298130154609680176e-01 -1.929657766595482826e-03 6.096157431602478027e-01
-7.944566011428833008e-02 2.844977937638759613e-02 8.781880885362625122e-02
7.859569191932678223e-01 3.853970021009445190e-02 -7.230384647846221924e-02
4.334951937198638916e-01 5.005537346005439758e-02 -8.628716319799423218e-02
7.431844472885131836e-01 1.235088929533958435e-01 2.659382298588752747e-02
-1.241648569703102112e-01 -1.216785167343914509e-03 -6.916276216506958008e-01
6.178007721900939941e-01 -3.931192215532064438e-03 8.913488686084747314e-02
6.310437917709350586e-01 2.277420274913311005e-02 8.727044612169265747e-02
1.630688756704330444e-01 -1.303567886352539062e-01 -1.610841900110244751e-01
3.727388381958007812e-02 -8.122327923774719238e-02 -2.399287186563014984e-02
-1.436318159103393555e-01 8.160267956554889679e-03 -7.626409530639648438e-01
-4.253270626068115234e-01 -5.262603238224983215e-02 3.769822046160697937e-02
-1.871421001851558685e-02 -1.847403706051409245e-03 5.575210452079772949e-01
5.270189046859741211e-01 -3.784757852554321289e-02 7.811274379491806030e-02
2.825576364994049072e-01 -1.583071984350681305e-02 -2.278476655483245850e-01
-2.087776064872741699e-01 2.402427606284618378e-03 7.272949218750000000e-01
2.611439824104309082e-01 -1.007176637649536133e-01 -3.724516034126281738e-01
2.764708101749420166e-01 -6.194823607802391052e-02 -3.411124944686889648e-01
4.015803337097167969e-01 5.455196648836135864e-02 7.877077907323837280e-02
1.170336157083511353e-01 -3.123978152871131897e-02 1.898970007896423340e-01
2.514653503894805908e-01 -9.016162157058715820e-02 3.080697059631347656e-01
2.052132412791252136e-02 -8.125069737434387207e-02 -5.755112171173095703e-01
2.769643366336822510e-01 -1.029659509658813477e-01 -3.158328831195831299e-01
2.801174521446228027e-01 8.818301372230052948e-03 -9.580130130052566528e-02
4.969410300254821777e-01 -8.733754605054855347e-02 -6.950718164443969727e-02
1.296185851097106934e-01 -1.360983774065971375e-02 8.990260213613510132e-02
5.797467380762100220e-02 8.399917930364608765e-02 -6.424287706613540649e-02
7.787185907363891602e-01 1.526159048080444336e-02 -7.918583601713180542e-02
2.910299003124237061e-01 -9.794841706752777100e-02 -6.306389719247817993e-02
7.587879151105880737e-02 -7.221378386020660400e-03 4.805031716823577881e-01
2.526468411087989807e-02 -3.025272116065025330e-02 5.918487310409545898e-01
1.438486725091934204e-01 -5.303730070590972900e-02 -2.116982936859130859e-01
5.551226139068603516e-01 6.908364593982696533e-02 -7.578597217798233032e-02
6.812191102653741837e-03 -5.394210666418075562e-02 2.535896301269531250e-01
-6.912842392921447754e-01 6.190006062388420105e-02 -9.994145482778549194e-02
2.159038633108139038e-01 -1.580329425632953644e-02 2.225247323513031006e-01
1.079307496547698975e-01 3.700427711009979248e-02 8.557051420211791992e-02
2.758401930332183838e-01 -4.272803664207458496e-02 2.370564043521881104e-01
3.309783041477203369e-01 -2.117727883160114288e-02 1.897598952054977417e-01
-2.891380526125431061e-02 -4.782782495021820068e-02 5.905874967575073242e-01
-1.905718743801116943e-01 -4.698904231190681458e-03 -6.309235692024230957e-01
-8.877360820770263672e-01 8.262826502323150635e-02 1.008803024888038635e-02
6.167613714933395386e-02 -1.403918862342834473e-01 2.601804025471210480e-02
1.065598353743553162e-01 -9.857903420925140381e-02 -6.204223632812500000e-01
-5.841585248708724976e-02 -1.969669386744499207e-02 5.008200407028198242e-01
3.707348108291625977e-01 -5.687585100531578064e-02 -1.447154730558395386e-01
9.937874041497707367e-03 -1.232117600739002228e-02 -5.655310153961181641e-01
-1.026140972971916199e-01 -4.078133404254913330e-02 -4.149224758148193359e-01
1.751877367496490479e-01 -7.143494486808776855e-02 9.777162969112396240e-02
1.862647235393524170e-01 -1.226634625345468521e-02 -3.195069134235382080e-01
6.812191102653741837e-03 -5.394210666418075562e-02 2.535896301269531250e-01
7.582396268844604492e-02 -8.072973787784576416e-02 -6.267011761665344238e-01
-7.060626745223999023e-01 6.497090309858322144e-02 1.174853667616844177e-01
-3.376434743404388428e-01 -3.513317182660102844e-02 6.975017488002777100e-02
-1.729145199060440063e-01 -7.660073693841695786e-03 -6.072341799736022949e-01
-7.655329108238220215e-01 7.906389236450195312e-02 -1.435913294553756714e-01
-7.193330526351928711e-01 7.632206380367279053e-02 1.155935078859329224e-01
7.376185655593872070e-01 5.954208970069885254e-02 -7.189257442951202393e-02
1.718975603580474854e-01 -3.326873108744621277e-02 1.096985861659049988e-01
-8.123906850814819336e-01 7.314154505729675293e-02 -1.036155074834823608e-01
1.910354942083358765e-01 -1.020337343215942383e-01 -1.743990555405616760e-02
4.278495162725448608e-02 -4.859553650021553040e-02 1.556790024042129517e-01
3.899549841880798340e-01 -3.711844328790903091e-03 -9.591097384691238403e-02
3.875421881675720215e-01 -5.342115834355354309e-02 1.402150988578796387e-01
-3.634415566921234131e-02 -1.635165885090827942e-02 -9.423846006393432617e-02
-1.631810516119003296e-01 -2.121580764651298523e-03 -6.834569573402404785e-01
-3.678284585475921631e-02 -6.222242116928100586e-02 -6.200933456420898438e-01
-8.684859424829483032e-02 -5.035030841827392578e-02 7.594669610261917114e-02
8.553002774715423584e-02 -8.374575525522232056e-02 8.055297285318374634e-02
-5.040448904037475586e-01 -1.710309996269643307e-03 6.259400397539138794e-02
6.411611437797546387e-01 1.020678132772445679e-01 5.033804103732109070e-02
2.252285741269588470e-02 -5.808226019144058228e-02 1.313315927982330322e-01
3.415617644786834717e-01 -5.520333349704742432e-02 3.341718912124633789e-01
-7.921559810638427734e-01 8.432819694280624390e-02 1.914598345756530762e-01
