6.161604821681976318e-02 -5.713430792093276978e-02 1.487927287817001343e-01
6.752018332481384277e-01 -4.425904899835586548e-02 7.380851358175277710e-02
-2.710892856121063232e-01 1.054934412240982056e-01 1.666611433029174805e-02
1.705199480056762695e-02 -4.698526114225387573e-02 -5.944903492927551270e-01
2.095330804586410522e-01 -2.989922836422920227e-02 3.249435424804687500e-01
-7.503889799118041992e-01 6.746148318052291870e-02 7.302574068307876587e-02
-7.322503328323364258e-01 6.227899342775344849e-02 -8.309689909219741821e-02
2.123672366142272949e-01 1.057093739509582520e-01 -3.348531574010848999e-02
1.771154999732971191e-01 -4.231562092900276184e-02 -2.598415613174438477e-01
1.264512091875076294e-01 -3.359714895486831665e-02 -3.314517438411712646e-01
-2.877974510192871094e-01 1.415197737514972687e-02 8.268356919288635254e-01
1.199461072683334351e-01 -3.473081812262535095e-02 3.317725658416748047e-01
8.153990507125854492e-01 3.175086155533790588e-02 -6.630778312683105469e-02
7.535600662231445312e-01 -8.315475285053253174e-02 -1.423990633338689804e-02
-6.822068095207214355e-01 6.989078223705291748e-02 -4.185288026928901672e-02
2.923450171947479248e-01 -7.975374162197113037e-02 3.063729405403137207e-01
2.035677880048751831e-01 -7.019851356744766235e-02 -9.810453653335571289e-02
4.501587152481079102e-02 -3.937347233295440674e-02 -2.432143986225128174e-01
2.235150188207626343e-01 -2.082986384630203247e-02 3.235669434070587158e-01
1.120104044675827026e-01 -2.676813863217830658e-02 -2.102029919624328613e-01
-7.245845198631286621e-01 7.369667291641235352e-02 -8.115346729755401611e-02
2.782821059226989746e-01 -6.013044342398643494e-02 3.546079397201538086e-01
-8.197318911552429199e-01 2.987842857837677002e-01 -8.490577340126037598e-03
-2.979464828968048096e-01 3.269558772444725037e-02 -8.842781186103820801e-01
3.689757287502288818e-01 -9.867524355649948120e-02 -6.358196493238210678e-03
-1.854971647262573242e-01 8.969483897089958191e-03 -7.735833525657653809e-01
1.367797516286373138e-02 -1.098588574677705765e-03 5.304888486862182617e-01
-8.314464688301086426e-01 7.283292710781097412e-02 1.225563585758209229e-01
-8.783953636884689331e-02 -1.381189469248056412e-02 5.149953365325927734e-01
2.415093220770359039e-02 -6.013044342398643494e-02 -6.141405701637268066e-01
-6.819369196891784668e-01 7.361570000648498535e-02 3.755804523825645447e-02
2.160921692848205566e-01 -9.244005382061004639e-02 -6.479621678590774536e-02
4.889018833637237549e-01 -2.471673488616943359e-02 8.568505942821502686e-02
2.074006944894790649e-01 -5.098010599613189697e-02 3.276967406272888184e-01
-7.245305180549621582e-01 7.242804765701293945e-02 6.635867804288864136e-02
3.597349673509597778e-02 -4.844283312559127808e-02 2.289594411849975586e-01
5.366780161857604980e-01 -8.885011076927185059e-02 1.971622742712497711e-02
-3.108217418193817139e-01 1.496173534542322159e-02 8.284552097320556641e-01
-6.458174437284469604e-03 -2.574243210256099701e-02 4.096989333629608154e-01
-7.933605313301086426e-01 6.381754577159881592e-02 -1.758693531155586243e-02
8.283553123474121094e-01 -8.791362866759300232e-03 -6.765738874673843384e-02
8.539978265762329102e-01 2.470590546727180481e-02 -5.910087004303932190e-02
4.240397512912750244e-01 7.145632803440093994e-02 6.943579018115997314e-02
-6.458174437284469604e-03 -2.574243210256099701e-02 4.096989333629608154e-01
2.473760694265365601e-01 6.662473082542419434e-02 7.232394069433212280e-02
7.425742149353027344e-01 1.582549139857292175e-02 7.745245099067687988e-02
-7.766523957252502441e-01 7.469538599252700806e-02 1.825329214334487915e-01
4.434471130371093750e-01 -9.036164730787277222e-02 -2.222958393394947052e-02
8.609618544578552246e-01 3.844491764903068542e-02 -5.097623169422149658e-02
-2.877974510192871094e-01 1.415197737514972687e-02 8.268356919288635254e-01
3.627040982246398926e-02 -1.702396944165229797e-02 -3.540711402893066406e-01
-3.776907920837402344e-02 -4.855081066489219666e-02 7.548202574253082275e-02
-7.826716303825378418e-01 6.257590651512145996e-02 -5.119217187166213989e-02
-5.797446370124816895e-01 1.789390891790390015e-01 -2.093435265123844147e-03
-1.436687819659709930e-02 -6.667207926511764526e-04 5.364271402359008789e-01
1.552518457174301147e-01 1.013096570968627930e-01 -3.559070080518722534e-02
-1.195553094148635864e-01 -2.045197412371635437e-02 8.703467249870300293e-02
-8.311765789985656738e-01 8.049869537353515625e-02 1.617219746112823486e-01
-3.194862306118011475e-01 9.523642063140869141e-02 4.560170695185661316e-02
-3.479994088411331177e-02 -3.211258351802825928e-02 8.344471454620361328e-02
-1.680562738329172134e-03 -1.409449726343154907e-01 -2.773598581552505493e-02
-3.612255305051803589e-02 -7.462523132562637329e-02 5.763485431671142578e-01
3.945548459887504578e-02 -5.818700417876243591e-02 6.235848069190979004e-01
2.571742534637451172e-01 -5.052123963832855225e-02 -3.373090624809265137e-01
9.478225708007812500e-01 3.995648026466369629e-02 -1.977329887449741364e-02
-1.027391999959945679e-01 -1.367694232612848282e-02 -5.150253772735595703e-01
2.433987706899642944e-02 -2.441981993615627289e-02 -5.835314989089965820e-01
1.491961348801851273e-02 -1.594427600502967834e-02 -3.826018869876861572e-01
4.974314272403717041e-01 -9.492332488298416138e-02 -3.526679426431655884e-02
1.585486810654401779e-03 -4.930659011006355286e-02 -1.865848451852798462e-01
1.843493878841400146e-01 6.586895138025283813e-02 -7.588998973369598389e-02
-7.115743160247802734e-01 2.546520829200744629e-01 7.029913831502199173e-03
-2.346498668193817139e-01 1.852470263838768005e-02 -8.629813790321350098e-01
1.178947016596794128e-01 -4.245058447122573853e-02 -9.759168326854705811e-02
1.910974234342575073e-01 3.588066622614860535e-02 -8.927810192108154297e-02
5.040174722671508789e-01 1.156155019998550415e-01 3.971742093563079834e-02
9.916214644908905029e-02 -9.360072016716003418e-02 5.722997188568115234e-01
-7.322503328323364258e-01 6.227899342775344849e-02 -8.309689909219741821e-02
-3.204673901200294495e-02 -2.819871529936790466e-02 3.880242407321929932e-01
-2.621643431484699249e-02 4.640760272741317749e-02 -8.593107759952545166e-02
2.615469694137573242e-01 8.913619071245193481e-02 -5.926282703876495361e-02
5.351125001907348633e-01 -3.699816390872001648e-02 -8.439252525568008423e-02
-4.095415025949478149e-02 -8.391053229570388794e-02 5.793712288141250610e-02
2.743412256240844727e-01 -9.737963229417800903e-02 -3.084004521369934082e-01
3.661415576934814453e-01 1.107838973402976990e-01 -4.603666812181472778e-02
5.756722018122673035e-02 -3.143778070807456970e-02 -3.573642075061798096e-01
6.617056727409362793e-01 1.193674057722091675e-01 3.728812560439109802e-02
3.327792584896087646e-01 -6.072427332401275635e-02 -3.035418689250946045e-01
4.041735231876373291e-01 -8.669071644544601440e-02 -7.567405700683593750e-02
-1.871261559426784515e-02 -1.489158906042575836e-02 -5.842602849006652832e-01
6.015671491622924805e-01 -5.672943964600563049e-02 6.970570981502532959e-02
1.320385932922363281e-01 -1.270439922809600830e-01 1.562965512275695801e-01
4.670652151107788086e-01 -9.735261648893356323e-02 -2.525270543992519379e-02
4.253259301185607910e-02 -2.825270220637321472e-02 2.750890254974365234e-01
2.061590552330017090e-01 -3.729507699608802795e-02 -2.771705389022827148e-01
8.128618001937866211e-01 -7.408539950847625732e-02 1.564041152596473694e-02
-2.818861603736877441e-01 1.226252410560846329e-02 7.837292551994323730e-01
-8.595008403062820435e-02 -6.693247705698013306e-02 6.163505464792251587e-02
-7.654776573181152344e-01 4.889088124036788940e-02 3.256449848413467407e-02
8.112692832946777344e-01 -7.395043224096298218e-02 -2.336325496435165405e-02
-8.349554538726806641e-01 8.279303461313247681e-02 2.388385534286499023e-01
8.096943050622940063e-02 -4.263952374458312988e-02 -2.694777548313140869e-01
-7.692565321922302246e-01 9.871841222047805786e-02 1.801572367548942566e-02
-8.284503817558288574e-01 7.124039530754089355e-02 8.700768649578094482e-02
1.980519481003284454e-02 -5.848391726613044739e-02 -5.550277829170227051e-01
-7.966265678405761719e-01 7.755655795335769653e-02 2.028310149908065796e-01
5.484101548790931702e-02 -5.089912936091423035e-02 -2.309599518775939941e-01
1.595975905656814575e-01 -8.555705845355987549e-02 -7.686170935630798340e-02
2.648670077323913574e-01 -7.308667898178100586e-02 1.014754772186279297e-01
3.285994287580251694e-03 -3.672823682427406311e-02 -3.155803680419921875e-01
1.344138979911804199e-01 -6.938875466585159302e-02 -9.618809819221496582e-02
-2.148646265268325806e-01 8.456630632281303406e-03 7.652935981750488281e-01
6.073164939880371094e-01 -3.238249942660331726e-02 -8.568815141916275024e-02
-4.701294898986816406e-01 -4.083104431629180908e-02 1.887947134673595428e-02
-2.456991374492645264e-02 -9.640789777040481567e-02 -2.147380448877811432e-02
-8.793035745620727539e-01 6.813628971576690674e-02 -9.975145570933818817e-03
-8.554694652557373047e-01 8.222619444131851196e-02 -2.090962976217269897e-01
8.493821620941162109e-01 -7.319465279579162598e-02 2.222650125622749329e-02
2.853810489177703857e-01 -5.602763593196868896e-02 3.097739517688751221e-01
3.169888556003570557e-01 -5.192482471466064453e-02 3.329062163829803467e-01
4.768809303641319275e-02 -5.038627609610557556e-02 -5.878232717514038086e-01
9.935108572244644165e-02 -7.816119492053985596e-02 6.134627461433410645e-01
7.914030551910400391e-01 -7.314065843820571899e-02 -4.198823124170303345e-03
3.475884720683097839e-02 -7.878201454877853394e-02 -1.510365586727857590e-02
3.024131059646606445e-01 -1.448670029640197754e-02 1.723838597536087036e-01
5.350584387779235840e-01 1.311629861593246460e-01 9.702137671411037445e-03
-6.503561139106750488e-01 1.779673844575881958e-01 1.067385543137788773e-02
-6.095169782638549805e-01 1.550240516662597656e-01 -1.407795399427413940e-02
3.198770284652709961e-01 -1.095530912280082703e-01 -3.007616698741912842e-01
-6.252088397741317749e-02 2.505680732429027557e-02 8.854623138904571533e-02
-8.183552622795104980e-01 7.734061777591705322e-02 1.915752887725830078e-01
-1.215352211147546768e-02 -8.472029119729995728e-02 -7.378460466861724854e-02
4.899815618991851807e-01 -9.168427437543869019e-02 -1.815376989543437958e-02
-1.595941558480262756e-02 -3.170770406723022461e-02 -3.118014633655548096e-01
-3.852486237883567810e-02 2.090002037584781647e-02 -9.238220751285552979e-02
3.326713144779205322e-01 -5.276159197092056274e-02 1.469842493534088135e-01
-2.818861603736877441e-01 1.226252410560846329e-02 7.837292551994323730e-01
-7.132980041205883026e-03 -3.354316949844360352e-02 3.390064835548400879e-01
-1.099191159009933472e-01 -1.092374324798583984e-02 8.892412483692169189e-02
8.806836605072021484e-02 -5.497493967413902283e-02 1.660677045583724976e-01
5.304428339004516602e-01 8.294678293168544769e-03 9.019275009632110596e-02
5.121460184454917908e-03 -5.292354524135589600e-02 -5.622886419296264648e-01
-1.545371413230895996e-01 5.649444647133350372e-03 -7.364960908889770508e-01
-2.540666982531547546e-02 -3.699816390872001648e-02 2.891249656677246094e-01
4.693231359124183655e-02 -9.098248928785324097e-02 -6.072036623954772949e-01
-8.627303838729858398e-01 3.541721999645233154e-01 -6.142259109765291214e-03
-5.371780395507812500e-01 3.652847558259963989e-02 6.571086496114730835e-02
3.980638459324836731e-02 -9.997087717056274414e-02 5.921928882598876953e-01
5.276896357536315918e-01 -3.994031250476837158e-02 7.998971641063690186e-02
5.956464260816574097e-02 -3.877964243292808533e-02 -1.846414059400558472e-01
4.709426313638687134e-02 -1.074207127094268799e-01 -4.582072794437408447e-02
-7.460972666740417480e-01 7.356171309947967529e-02 -1.793239563703536987e-01
-3.004932217299938202e-02 -1.937229000031948090e-02 3.968506753444671631e-01
7.593093514442443848e-01 1.879462786018848419e-02 -7.786042243242263794e-02
3.977763950824737549e-01 1.658127270638942719e-02 8.970689773559570312e-02
2.878912985324859619e-01 -5.546079203486442566e-02 1.511140614748001099e-01
-1.002829149365425110e-01 -1.375791803002357483e-02 -9.146447479724884033e-02
-2.579981088638305664e-01 1.793088391423225403e-02 -8.272168040275573730e-01
2.209237664937973022e-01 -6.644660234451293945e-02 3.364691734313964844e-01
2.668374180793762207e-01 -5.716129764914512634e-02 3.084243535995483398e-01
2.438941001892089844e-01 -1.084463968873023987e-01 -3.226792812347412109e-01
6.480206251144409180e-01 -4.080405831336975098e-02 7.675065845251083374e-02
-1.043317317962646484e-01 -1.692418009042739868e-03 -6.556275486946105957e-01
8.868917822837829590e-02 -5.956360325217247009e-02 -1.384848058223724365e-01
-1.482209861278533936e-01 -9.214314073324203491e-02 -1.675017736852169037e-02
2.433987706899642944e-02 -2.441981993615627289e-02 -5.835314989089965820e-01
1.754959523677825928e-01 -3.826679661870002747e-02 3.276967406272888184e-01
9.559917449951171875e-02 -8.326272666454315186e-02 7.675065845251083374e-02
3.322029858827590942e-02 -2.313236007466912270e-03 -4.966977238655090332e-01
-2.452308088541030884e-01 9.798045502975583076e-04 8.959893137216567993e-02
-7.668541669845581055e-01 6.843321025371551514e-02 1.259573549032211304e-01
3.454655706882476807e-01 -1.184335052967071533e-01 -3.504002094268798828e-01
-7.309547066688537598e-01 7.321081310510635376e-02 7.445632666349411011e-02
4.997797608375549316e-01 6.416844576597213745e-02 7.380851358175277710e-02
8.186016231775283813e-02 -9.767654538154602051e-02 3.882667794823646545e-02
-2.142168134450912476e-01 1.258642785251140594e-02 8.182791471481323242e-01
9.600405395030975342e-02 -1.475580334663391113e-01 1.586718559265136719e-01
-2.818861603736877441e-01 1.226252410560846329e-02 7.837292551994323730e-01
-2.818591594696044922e-01 2.740512602031230927e-02 -8.831444382667541504e-01
8.664951920509338379e-01 -6.404431164264678955e-02 1.874450966715812683e-02
5.981391668319702148e-01 1.114047169685363770e-01 -4.784514382481575012e-02
-4.165595024824142456e-02 -2.517560124397277832e-02 5.963227152824401855e-01
-1.253856271505355835e-01 -3.718711435794830322e-02 8.123135566711425781e-02
-7.073904871940612793e-01 1.131780352443456650e-02 -1.503912972111720592e-05
1.491516083478927612e-01 -2.185556106269359589e-02 -2.045616209506988525e-01
2.500483095645904541e-01 -1.184065192937850952e-01 -3.398733139038085938e-01
-2.719530165195465088e-01 -6.450317800045013428e-02 -5.537595227360725403e-02
-6.768353581428527832e-01 5.634071677923202515e-02 4.141792282462120056e-02
1.282866746187210083e-01 -4.396214336156845093e-02 -2.561706304550170898e-01
8.639484643936157227e-02 -7.875502854585647583e-02 5.920849442481994629e-01
-7.863425612449645996e-01 6.484324485063552856e-02 -7.416249811649322510e-02
2.484827637672424316e-01 -7.897097617387771606e-02 -8.811744302511215210e-02
-7.854788303375244141e-01 1.346179693937301636e-01 -1.054198108613491058e-02
5.222371816635131836e-01 -3.432593867182731628e-02 -8.560717105865478516e-02
-8.827140182256698608e-02 2.130489982664585114e-02 -9.232822060585021973e-02
-5.839284062385559082e-01 8.228018134832382202e-02 -5.480911955237388611e-02
1.458045989274978638e-01 -1.176237463951110840e-01 1.545150578022003174e-01
1.215656325221061707e-01 -5.664845183491706848e-02 -1.552469432353973389e-01
6.594653129577636719e-01 -2.169360965490341187e-02 -8.622799068689346313e-02
2.785789966583251953e-01 -1.184335052967071533e-01 -3.321265578269958496e-01
8.974187821149826050e-02 -5.019732564687728882e-02 -2.077466994524002075e-01
1.910974234342575073e-01 3.588066622614860535e-02 -8.927810192108154297e-02
3.583853691816329956e-02 -3.802387043833732605e-02 -2.144137471914291382e-01
-1.229563280940055847e-01 -9.547133930027484894e-03 -5.737063884735107422e-01
-8.195429444313049316e-01 7.070054858922958374e-02 -8.271901309490203857e-02
-9.175339341163635254e-02 -2.717301808297634125e-02 -8.827939629554748535e-02
2.392514348030090332e-01 -3.689845325425267220e-03 9.011177718639373779e-02
3.389334976673126221e-01 9.960914403200149536e-02 5.043330416083335876e-02
-1.337261945009231567e-01 -7.492214441299438477e-02 5.132404714822769165e-02
1.158702820539474487e-01 6.195509061217308044e-02 -7.826530188322067261e-02
8.120520710945129395e-01 4.137882031500339508e-03 6.894993036985397339e-02
2.749890685081481934e-01 -1.089862510561943054e-01 3.166839480400085449e-01
8.730273246765136719e-01 -6.247875466942787170e-02 -5.440462846308946609e-03
9.756245017051696777e-01 2.200669422745704651e-02 -2.047509513795375824e-02
-3.984113037586212158e-01 4.397830739617347717e-02 8.079948276281356812e-02
9.219371080398559570e-01 -2.047896198928356171e-02 3.728812560439109802e-02
1.243728175759315491e-01 -4.002128913998603821e-02 -2.845393717288970947e-01
1.928789019584655762e-01 -4.558167234063148499e-02 -2.349278032779693604e-01
-3.104708492755889893e-01 3.447707369923591614e-02 -8.851149082183837891e-01
1.009976118803024292e-01 -3.384008631110191345e-02 -1.725219190120697021e-01
9.406062215566635132e-02 -5.003537237644195557e-02 -1.292534917593002319e-01
-6.704382896423339844e-01 5.563892424106597900e-02 -3.945058211684226990e-02
2.930643409490585327e-02 -3.397503867745399475e-02 -5.691986680030822754e-01
1.151954755187034607e-01 -1.015364155173301697e-01 5.885219573974609375e-01
-6.055045500397682190e-02 -2.556173596531152725e-03 -6.417805552482604980e-01
-1.663057357072830200e-01 -6.712960079312324524e-03 5.843111872673034668e-01
7.759635448455810547e-01 8.551923930644989014e-02 4.660042002797126770e-02
5.727665424346923828e-01 4.165698215365409851e-02 8.441643416881561279e-02
9.964799880981445312e-02 -5.108806863427162170e-02 2.016163766384124756e-01
1.046415492892265320e-01 -2.787481248378753662e-02 2.098219841718673706e-01
2.644526585936546326e-02 -9.832435101270675659e-02 5.822598338127136230e-01
-7.935494780540466309e-01 4.891787469387054443e-02 2.867762371897697449e-02
-6.920049786567687988e-01 1.056202221661806107e-02 -2.433497272431850433e-02
3.346147239208221436e-01 -1.462166290730237961e-02 1.381038427352905273e-01
-3.854550719261169434e-01 -6.010345369577407837e-02 4.681596532464027405e-03
4.899815618991851807e-01 -9.168427437543869019e-02 -1.815376989543437958e-02
9.762357920408248901e-02 -3.340820595622062683e-02 1.791318953037261963e-01
-5.697305798530578613e-01 5.518005788326263428e-02 -3.097504377365112305e-02
6.426128000020980835e-02 -9.883719682693481445e-02 -1.588642783463001251e-02
1.033999025821685791e-01 -6.112916395068168640e-02 -2.371411621570587158e-01
-7.966265678405761719e-01 7.755655795335769653e-02 2.028310149908065796e-01
-6.352135539054870605e-01 3.887679055333137512e-02 -5.259576067328453064e-02
2.686459124088287354e-01 -1.753681339323520660e-02 9.407962113618850708e-02
-3.474595397710800171e-02 -1.516150590032339096e-02 -5.171307921409606934e-01
-7.245305180549621582e-01 7.242804765701293945e-02 6.635867804288864136e-02
3.346322476863861084e-02 -1.802267879247665405e-02 -5.854209661483764648e-01
-6.138721480965614319e-02 -8.629401214420795441e-03 -5.863386988639831543e-01
7.613782584667205811e-02 -5.735025554895401001e-02 1.525446325540542603e-01
7.729943990707397461e-01 1.184766665101051331e-01 2.581645734608173370e-02
5.309016704559326172e-01 -5.386826395988464355e-02 -7.537714391946792603e-02
5.366780161857604980e-01 -8.885011076927185059e-02 1.971622742712497711e-02
5.350044965744018555e-01 -8.080644160509109497e-02 4.452202096581459045e-02
1.655358672142028809e-01 -2.477071247994899750e-02 -3.794168233871459961e-01
1.467223316431045532e-01 -6.593375653028488159e-02 1.449868381023406982e-01
-4.159562289714813232e-01 1.026052832603454590e-01 2.811079099774360657e-02
-5.045538395643234253e-02 -2.313236007466912270e-03 5.347806215286254883e-01
4.501587152481079102e-02 -3.937347233295440674e-02 -2.432143986225128174e-01
2.748271226882934570e-01 -6.193891912698745728e-02 3.107996582984924316e-01
3.036817312240600586e-01 -1.102818623185157776e-01 -3.025971353054046631e-01
3.440795093774795532e-02 -3.251746296882629395e-02 -2.542002201080322266e-01
3.960488736629486084e-01 -5.197881162166595459e-02 1.289804875850677490e-01
7.746044546365737915e-02 -3.783491998910903931e-02 1.720329672098159790e-01
-4.479149580001831055e-01 9.024286270141601562e-02 -5.489009618759155273e-02
-1.363714337348937988e-01 -8.521436713635921478e-03 5.794526338577270508e-01
5.381531268358230591e-02 -5.432713031768798828e-02 1.658247858285903931e-01
-1.012816205620765686e-01 -1.154456194490194321e-02 -5.046334266662597656e-01
-4.227676615118980408e-02 -1.680803112685680389e-02 5.022820234298706055e-01
8.582356572151184082e-01 -5.937466397881507874e-02 -3.191976621747016907e-02
-7.654776573181152344e-01 4.889088124036788940e-02 3.256449848413467407e-02
3.435396775603294373e-02 -5.003537237644195557e-02 -5.273072421550750732e-02
4.692785739898681641e-01 -6.339648365974426270e-02 8.414650708436965942e-02
-1.253586262464523315e-01 -5.930189974606037140e-03 -5.987011194229125977e-01
7.829720526933670044e-02 -6.291063129901885986e-02 -1.158923730254173279e-01
1.002148315310478210e-01 -9.719067066907882690e-02 4.206573218107223511e-02
5.804592967033386230e-01 1.223095580935478210e-01 3.372516110539436340e-02
1.528765261173248291e-01 -1.374629735946655273e-01 -1.305761039257049561e-01
5.951066315174102783e-02 -1.845454610884189606e-02 4.744801223278045654e-01
1.516618877649307251e-01 -6.690546870231628418e-02 -1.029091402888298035e-01
-5.594735145568847656e-01 2.713520079851150513e-02 -6.285278499126434326e-02
6.161604821681976318e-02 -5.713430792093276978e-02 1.487927287817001343e-01
-6.810826063156127930e-02 -1.394685823470354080e-02 -5.120562314987182617e-01
4.361862242221832275e-01 1.307229325175285339e-02 -9.300301969051361084e-02
2.735584676265716553e-01 -7.640671730041503906e-02 -3.073207736015319824e-01
-5.545339584350585938e-01 5.690755322575569153e-02 1.604529470205307007e-02
2.915622591972351074e-01 -1.475662644952535629e-02 -1.615091264247894287e-01
2.223543524742126465e-01 -1.939927786588668823e-02 1.428544521331787109e-01
-1.453058421611785889e-01 7.080031093209981918e-03 7.500429749488830566e-01
-6.095169782638549805e-01 1.550240516662597656e-01 -1.407795399427413940e-02
-4.859293252229690552e-02 1.620338112115859985e-02 -9.281408041715621948e-02
6.615073233842849731e-02 -4.520378261804580688e-02 -6.209696531295776367e-01
3.033038377761840820e-01 4.921479150652885437e-02 -8.466245234012603760e-02
1.035618558526039124e-01 -3.365113586187362671e-02 1.706023812294006348e-01
-1.919482797384262085e-01 -8.669071644544601440e-02 2.373806014657020569e-02
-6.868764758110046387e-01 6.945068016648292542e-03 2.549215918406844139e-03
-7.883939743041992188e-01 3.752718493342399597e-02 2.260438911616802216e-02
3.689757287502288818e-01 -9.867524355649948120e-02 -6.358196493238210678e-03
4.799135029315948486e-01 1.322426646947860718e-01 -2.498317742720246315e-03
-1.116196215152740479e-01 -1.807665638625621796e-02 5.057370066642761230e-01
1.629176139831542969e-01 -4.531174525618553162e-02 2.424824833869934082e-01
1.046415492892265320e-01 -2.787481248378753662e-02 2.098219841718673706e-01
-3.118299320340156555e-02 -1.521549280732870102e-02 4.253003895282745361e-01
-2.387796789407730103e-01 -8.737375959753990173e-03 -9.095161408185958862e-02
-1.563456207513809204e-01 -3.176991827785968781e-03 -6.362471580505371094e-01
4.709426313638687134e-02 -1.074207127094268799e-01 -4.582072794437408447e-02
3.033038377761840820e-01 4.921479150652885437e-02 -8.466245234012603760e-02
1.517968475818634033e-01 -9.481537342071533203e-02 -6.074739620089530945e-02
2.868561632931232452e-02 -2.868458069860935211e-02 -5.941663980484008789e-01
-5.817150473594665527e-01 2.365321852266788483e-02 -5.815614387392997742e-02
-2.492796331644058228e-01 1.973935030400753021e-02 8.524512052536010742e-01
-4.886285588145256042e-02 -2.182857319712638855e-02 4.462193250656127930e-01
5.282024741172790527e-01 -9.324981272220611572e-02 9.270262904465198517e-03
-1.228483542799949646e-01 6.370957940816879272e-02 7.410542666912078857e-02
4.986730515956878662e-01 -5.151994526386260986e-02 7.370054721832275391e-02
1.385976821184158325e-01 -8.062570355832576752e-03 -3.908614814281463623e-01
-1.363714337348937988e-01 -8.521436713635921478e-03 5.794526338577270508e-01
3.422265052795410156e-01 9.175442904233932495e-02 5.604767426848411560e-02
-4.701294898986816406e-01 -4.083104431629180908e-02 1.887947134673595428e-02
1.008626446127891541e-01 -3.537863492965698242e-02 3.219204246997833252e-01
1.033189296722412109e-01 -9.567910432815551758e-02 5.942443013191223145e-01
-5.893808007240295410e-01 5.428931489586830139e-02 5.791013315320014954e-02
1.969722658395767212e-02 -1.203499361872673035e-01 -2.730410918593406677e-02
-5.754258632659912109e-01 -1.718592084944248199e-02 -1.607537269592285156e-02
-8.321213126182556152e-01 8.740869164466857910e-02 2.171638458967208862e-01
-4.419766664505004883e-01 2.346426807343959808e-02 7.823523133993148804e-02
-8.041668683290481567e-02 -9.206217527389526367e-02 1.385893020778894424e-02
2.500483095645904541e-01 -1.184065192937850952e-01 -3.398733139038085938e-01
3.319330513477325439e-02 -9.778449684381484985e-02 -4.125905409455299377e-02
3.346147239208221436e-01 -1.462166290730237961e-02 1.381038427352905273e-01
-2.014320157468318939e-02 -2.595837041735649109e-02 -3.499143719673156738e-01
-6.188293099403381348e-01 6.797434389591217041e-02 -3.310742229223251343e-02
1.583734713494777679e-02 -5.853789672255516052e-02 9.297294914722442627e-02
1.293933540582656860e-01 -4.061511531472206116e-02 -7.877815514802932739e-02
8.586675524711608887e-01 -6.482708454132080078e-02 -7.708195480518043041e-04
6.423428654670715332e-02 -2.655220031738281250e-02 9.192024916410446167e-02
2.274018824100494385e-01 -7.014454156160354614e-02 -3.487267196178436279e-01
5.837699025869369507e-02 -1.173268333077430725e-01 -6.323067098855972290e-02
8.327550292015075684e-01 5.005154758691787720e-02 4.808498919010162354e-02
4.431407153606414795e-02 -6.026540696620941162e-02 -1.221545562148094177e-01
2.295882552862167358e-01 -2.755090780556201935e-02 3.323394060134887695e-01
3.937450796365737915e-02 -1.132862269878387451e-02 3.926668763160705566e-01
-8.038065433502197266e-01 6.773141026496887207e-02 -5.329755693674087524e-02
-3.208088278770446777e-01 4.287163168191909790e-02 8.900243639945983887e-01
4.331536218523979187e-02 -3.251746296882629395e-02 -3.491855859756469727e-01
7.203501462936401367e-02 -2.803676389157772064e-02 5.818818807601928711e-01
4.099498391151428223e-01 -2.350208722054958344e-02 -1.045826599001884460e-01
-1.229563280940055847e-01 -9.547133930027484894e-03 -5.737063884735107422e-01
4.492234289646148682e-01 -3.000719286501407623e-02 8.409252017736434937e-02
-6.427443623542785645e-01 -2.637149533256888390e-03 -7.761789020150899887e-03
-2.067399770021438599e-01 7.835811935365200043e-03 -9.313798695802688599e-02
-6.952170729637145996e-01 5.793325603008270264e-02 5.286259949207305908e-02
2.013004720211029053e-01 -3.591847792267799377e-02 -3.286175727844238281e-01
-4.041430726647377014e-02 -7.570490986108779907e-02 5.005541443824768066e-02
-2.492796331644058228e-01 2.014423906803131104e-02 -8.570970296859741211e-01
-1.099191159009933472e-01 -1.092374324798583984e-02 8.892412483692169189e-02
-8.865104317665100098e-01 2.756249904632568359e-01 -9.057803545147180557e-04
2.658117115497589111e-01 -2.444680780172348022e-02 2.767625451087951660e-01
2.081294953823089600e-01 -9.670481085777282715e-02 -5.437724292278289795e-02
-1.854971647262573242e-01 8.969483897089958191e-03 -7.735833525657653809e-01
-3.920912742614746094e-03 -9.848630428314208984e-02 1.102475356310606003e-02
-7.296860218048095703e-01 5.982270836830139160e-02 -3.707526996731758118e-02
8.936223387718200684e-01 7.690873742103576660e-02 7.434796076267957687e-03
3.805553615093231201e-01 7.388561964035034180e-02 6.800519675016403198e-02
-7.598092555999755859e-01 7.034964859485626221e-02 -1.507662385702133179e-01
-6.164809465408325195e-01 2.030970901250839233e-01 3.493941156193614006e-03
1.087443530559539795e-01 -3.273340314626693726e-02 3.406799733638763428e-01
1.482878625392913818e-01 -6.766124814748764038e-02 -1.610502600669860840e-01
8.120520710945129395e-01 4.137882031500339508e-03 6.894993036985397339e-02
2.236499786376953125e-01 -4.450198635458946228e-02 -3.390365242958068848e-01
2.926959097385406494e-01 -1.102278903126716614e-01 3.478868901729583740e-01
-5.488116145133972168e-01 -1.821161806583404541e-02 -3.631949052214622498e-02
6.345151364803314209e-02 -2.706505358219146729e-02 -5.940314531326293945e-01
1.928789019584655762e-01 -4.558167234063148499e-02 -2.349278032779693604e-01
2.211396992206573486e-01 -3.138379007577896118e-02 3.125271499156951904e-01
9.414254426956176758e-01 4.632662981748580933e-02 1.545146666467189789e-02
4.831525683403015137e-01 -6.828206777572631836e-02 7.529307901859283447e-02
-1.740794777870178223e-01 -3.905774326995015144e-03 -6.050712466239929199e-01
5.930646061897277832e-01 -7.090850733220577240e-03 8.943697065114974976e-02
6.388338655233383179e-02 -8.355963975191116333e-02 7.664269208908081055e-02
8.677098751068115234e-01 -4.026421532034873962e-02 -4.646854102611541748e-02
1.804355084896087646e-01 -9.252104163169860840e-02 3.242417275905609131e-01
4.486025869846343994e-01 7.245503365993499756e-02 6.884195655584335327e-02
1.138364057987928391e-02 -2.706505358219146729e-02 3.975524604320526123e-01
-5.983422398567199707e-01 1.080846861004829407e-01 1.626123115420341492e-02
1.353586167097091675e-01 -4.177577793598175049e-02 -2.705574333667755127e-01
-4.973375797271728516e-01 6.926996260881423950e-02 -6.860211491584777832e-02
-1.253856271505355835e-01 -3.718711435794830322e-02 8.123135566711425781e-02
-3.858329951763153076e-01 1.496173534542322159e-02 8.239202201366424561e-02
2.898077666759490967e-01 -7.076535373926162720e-02 2.966287732124328613e-01
4.709426313638687134e-02 -1.074207127094268799e-01 -4.582072794437408447e-02
2.709402441978454590e-01 -7.759437710046768188e-02 3.039706349372863770e-01
-1.002829149365425110e-01 -1.375791803002357483e-02 -9.146447479724884033e-02
-1.177198439836502075e-01 8.392670750617980957e-02 5.969161912798881531e-02
-8.171946406364440918e-01 2.233411967754364014e-01 -7.788780611008405685e-03
-2.583854272961616516e-02 -9.465342015027999878e-02 3.734210878610610962e-02
3.206597864627838135e-01 -5.432713031768798828e-02 -3.496444523334503174e-01
1.901526898145675659e-01 -4.685029760003089905e-02 2.262872010469436646e-01
9.224769473075866699e-01 4.422124102711677551e-02 -2.789793722331523895e-02
7.500415295362472534e-02 -4.145187512040138245e-02 1.516268998384475708e-01
-6.886849403381347656e-01 1.029291823506355286e-01 -1.936841569840908051e-02
-1.705705076456069946e-01 4.662354290485382080e-02 -8.582311123609542847e-02
-2.456991374492645264e-02 -9.640789777040481567e-02 -2.147380448877811432e-02
1.104988530278205872e-01 -3.921151906251907349e-02 -1.284437328577041626e-01
4.722922667860984802e-02 -6.739958655089139938e-03 4.278916716575622559e-01
1.113356053829193115e-01 -2.479770965874195099e-02 -2.256424874067306519e-01
4.713299870491027832e-01 6.916199624538421631e-02 7.078539580106735229e-02
-6.503561139106750488e-01 1.779673844575881958e-01 1.067385543137788773e-02
3.187163472175598145e-01 1.104869842529296875e-01 3.974441066384315491e-02
4.738672375679016113e-01 -9.160330891609191895e-02 1.526252180337905884e-02
8.661078661680221558e-02 7.364269345998764038e-02 -7.046457380056381226e-02
-6.667768210172653198e-02 -1.491857785731554031e-02 -4.563984274864196777e-01
2.915082573890686035e-01 7.720565795898437500e-02 -6.827820092439651489e-02
-2.588348388671875000e-01 1.102088857442140579e-02 7.624323964118957520e-01
2.626266479492187500e-01 -5.165490880608558655e-02 3.332841098308563232e-01
-7.379996776580810547e-01 7.593702524900436401e-02 -1.962750256061553955e-01
4.899815618991851807e-01 -9.168427437543869019e-02 -1.815376989543437958e-02
3.457354903221130371e-01 -7.357253134250640869e-02 -9.985902905464172363e-02
1.353586167097091675e-01 -1.217535436153411865e-01 -1.608882993459701538e-01
-8.085840940475463867e-01 3.004308044910430908e-01 5.275423172861337662e-03
1.137648895382881165e-01 -1.442379951477050781e-01 1.329483389854431152e-01
1.319306194782257080e-01 -6.431421637535095215e-02 -1.750861853361129761e-01
8.804137259721755981e-02 -9.238607436418533325e-02 -6.611883640289306641e-02
-8.061008453369140625e-01 3.212147653102874756e-01 4.654604010283946991e-03
-3.791119456291198730e-01 -6.174997985363006592e-02 -4.765659105032682419e-03
-1.409695670008659363e-02 -3.567555174231529236e-02 -2.846203744411468506e-01
4.431407153606414795e-02 -6.026540696620941162e-02 -1.221545562148094177e-01
4.555571451783180237e-02 -6.247875466942787170e-02 1.056862547993659973e-01
-7.931175827980041504e-01 6.092938780784606934e-02 3.199766203761100769e-02
2.667834460735321045e-01 -1.212136968970298767e-01 -3.323694765567779541e-01
2.406280338764190674e-01 -1.443272270262241364e-02 2.842123508453369141e-01
-5.488116145133972168e-01 -1.821161806583404541e-02 -3.631949052214622498e-02
2.696176171302795410e-01 -4.182975366711616516e-02 2.267190814018249512e-01
4.182904064655303955e-01 4.033436998724937439e-02 8.482131361961364746e-02
3.880767151713371277e-02 -3.014215454459190369e-02 -3.202773630619049072e-02
2.288054674863815308e-01 -1.456767600029706955e-02 -1.922801882028579712e-01
-2.067669630050659180e-01 1.026510726660490036e-02 7.880480289459228516e-01
2.786869704723358154e-01 -7.864706963300704956e-02 -3.564194738864898682e-01
-7.330060601234436035e-01 7.369667291641235352e-02 -1.799177825450897217e-01
7.927526235580444336e-01 -3.467684239149093628e-02 -6.541703641414642334e-02
-2.452308088541030884e-01 9.798045502975583076e-04 8.959893137216567993e-02
-8.097447156906127930e-01 9.178142994642257690e-02 -2.654829323291778564e-01
3.199849724769592285e-01 -1.079065650701522827e-01 -3.618988990783691406e-01
-7.802963852882385254e-01 3.045523911714553833e-02 -1.974630728363990784e-02
2.778232395648956299e-01 -1.526947971433401108e-02 -1.122484356164932251e-01
3.176096975803375244e-01 -9.959297627210617065e-02 2.929578423500061035e-01
8.677098751068115234e-01 -4.026421532034873962e-02 -4.646854102611541748e-02
2.523696124553680420e-01 -9.894517064094543457e-02 3.584948182106018066e-01
2.458915263414382935e-01 -6.480009108781814575e-02 -3.193862736225128174e-01
2.930643409490585327e-02 -3.397503867745399475e-02 -5.691986680030822754e-01
1.249666437506675720e-01 -1.125761941075325012e-01 1.389136016368865967e-01
4.523180425167083740e-02 -2.612032182514667511e-02 -4.039256870746612549e-01
-2.193723171949386597e-01 1.247846335172653198e-02 -8.132348060607910156e-01
4.050817713141441345e-02 -9.854027628898620605e-02 2.479075454175472260e-02
1.006197184324264526e-01 -2.220646291971206665e-02 -9.443360567092895508e-02
4.241476953029632568e-01 1.304611861705780029e-01 -3.335074521601200104e-03
-1.779933273792266846e-01 8.402642793953418732e-03 -6.997327804565429688e-01
-8.628653883934020996e-01 1.028212159872055054e-01 -9.678231552243232727e-03
2.047999761998653412e-02 -5.127701908349990845e-02 -6.126020550727844238e-01
6.956928409636020660e-03 -2.520258910953998566e-02 -3.298862278461456299e-01
-8.133441954851150513e-02 7.078152149915695190e-02 -7.256995886564254761e-02
-9.196933358907699585e-02 -4.590272874338552356e-05 -5.818849802017211914e-01
3.338049650192260742e-01 -4.817291721701622009e-02 1.666885316371917725e-01
3.095295466482639313e-02 -4.841584712266921997e-02 2.147075682878494263e-01
-5.983422398567199707e-01 1.080846861004829407e-01 1.626123115420341492e-02
1.319306194782257080e-01 -6.431421637535095215e-02 -1.750861853361129761e-01
-4.122407361865043640e-02 -2.266532927751541138e-02 4.380946755409240723e-01
-4.784160852432250977e-01 4.953869432210922241e-02 -7.777944207191467285e-02
1.517698615789413452e-01 -3.702514991164207458e-02 7.596788555383682251e-02
7.343861460685729980e-02 -4.666135460138320923e-02 -1.230452954769134521e-01
4.158881008625030518e-01 6.384453922510147095e-02 7.402445375919342041e-02
1.306349933147430420e-01 -5.986051633954048157e-02 -9.410970658063888550e-02
-6.264140605926513672e-01 8.827244490385055542e-02 -4.393127933144569397e-02
-3.922665491700172424e-02 -4.949552938342094421e-02 5.894666910171508789e-01
2.949362695217132568e-01 -7.694654911756515503e-02 3.649729192256927490e-01
3.038166761398315430e-01 -6.606871634721755981e-02 -3.623037636280059814e-01
-8.595008403062820435e-02 -6.693247705698013306e-02 6.163505464792251587e-02
-8.986394107341766357e-02 -3.122184053063392639e-02 -5.113544464111328125e-01
-5.487846136093139648e-01 6.940492242574691772e-02 5.977259203791618347e-02
3.325903117656707764e-01 -1.008616015315055847e-01 -3.656238019466400146e-01
2.204378992319107056e-01 4.859397187829017639e-02 8.185217529535293579e-02
-2.067399770021438599e-01 7.835811935365200043e-03 -9.313798695802688599e-02
5.084981918334960938e-01 8.578916639089584351e-02 6.093325465917587280e-02
-6.806682348251342773e-01 7.647687196731567383e-02 -1.213717833161354065e-01
4.006375372409820557e-01 -1.643013954162597656e-02 7.035352289676666260e-02
-5.754258632659912109e-01 -1.718592084944248199e-02 -1.607537269592285156e-02
-7.985700368881225586e-01 6.846019625663757324e-02 5.445513874292373657e-02
5.084981918334960938e-01 8.578916639089584351e-02 6.093325465917587280e-02
3.672482669353485107e-01 -9.729864448308944702e-02 4.754514247179031372e-02
-1.620139628648757935e-01 7.268971297889947891e-03 7.566830515861511230e-01
-4.532687738537788391e-02 -5.049423873424530029e-02 -5.934646129608154297e-01
-5.750210285186767578e-01 3.921943251043558121e-03 -5.024744570255279541e-02
-4.295872449874877930e-01 8.538428694009780884e-02 -6.028852984309196472e-02
1.899907439947128296e-01 -7.775633037090301514e-02 3.219204246997833252e-01
4.594804346561431885e-01 -3.159973025321960449e-02 9.000381082296371460e-02
2.644081413745880127e-01 -1.413580868393182755e-02 -2.523377239704132080e-01
-7.406178116798400879e-01 7.653085142374038696e-02 1.063610613346099854e-01
-6.701413393020629883e-01 1.403943002223968506e-01 1.234736945480108261e-02
9.011976420879364014e-02 -1.858950965106487274e-02 4.590406119823455811e-01
-6.868764758110046387e-01 7.388561964035034180e-02 -8.638994395732879639e-02
-9.596416354179382324e-02 2.167453523725271225e-03 -6.005095839500427246e-01
-3.358974754810333252e-01 8.767861872911453247e-02 5.496798455715179443e-02
9.332238696515560150e-03 -5.964458733797073364e-02 1.736795008182525635e-01
3.043064381927251816e-03 -1.518850401043891907e-02 -3.982033431529998779e-01
-7.002470642328262329e-02 -8.515216410160064697e-02 -3.656242042779922485e-02
1.832062564790248871e-02 -1.485837399959564209e-01 5.672248080372810364e-02
5.727665424346923828e-01 4.165698215365409851e-02 8.441643416881561279e-02
-6.764305233955383301e-01 6.713758409023284912e-02 1.259303689002990723e-01
-7.933605313301086426e-01 6.381754577159881592e-02 -1.758693531155586243e-02
-1.655323989689350128e-02 -2.404192835092544556e-02 -3.586328327655792236e-01
-1.563456207513809204e-01 -3.176991827785968781e-03 -6.362471580505371094e-01
1.588148027658462524e-01 -4.455596581101417542e-02 -2.457516491413116455e-01
3.876543045043945312e-01 9.329298883676528931e-02 5.604767426848411560e-02
4.847086966037750244e-02 -1.484487801790237427e-01 -3.575265407562255859e-02
1.109847053885459900e-01 -9.173826873302459717e-02 6.115462779998779297e-01
-1.069594174623489380e-02 -2.078543911920860410e-04 5.464681982994079590e-01
3.794216811656951904e-01 -5.851090699434280396e-02 1.250126361846923828e-01
-6.597223877906799316e-01 4.785698838531970978e-03 -2.843778207898139954e-02
8.495711088180541992e-01 5.177904292941093445e-02 -4.487600550055503845e-02
-1.681951880455017090e-01 7.318382710218429565e-02 6.770828366279602051e-02
2.579840123653411865e-01 -6.050832569599151611e-02 -3.291574120521545410e-01
-7.548697590827941895e-01 1.557528376579284668e-01 9.216278791427612305e-03
4.951640665531158447e-01 5.083431676030158997e-02 -8.396064490079879761e-02
4.110025167465209961e-01 1.282208263874053955e-01 8.001631125807762146e-03
4.974314272403717041e-01 -9.492332488298416138e-02 -3.526679426431655884e-02
3.199849724769592285e-01 -1.079065650701522827e-01 -3.618988990783691406e-01
9.522762894630432129e-01 -3.543261438608169556e-02 4.087768960744142532e-03
5.796265322715044022e-03 -3.151875361800193787e-02 5.774012207984924316e-01
2.205728590488433838e-01 -7.135918736457824707e-02 9.380970150232315063e-02
5.743226408958435059e-02 8.201026171445846558e-02 6.117618456482887268e-02
-4.689958095550537109e-01 9.715285897254943848e-02 4.125596955418586731e-02
-5.263541340827941895e-01 -9.979012422263622284e-03 -5.264974758028984070e-02
1.428894400596618652e-01 -9.597601741552352905e-02 -1.420747637748718262e-01
-1.853622049093246460e-01 1.064111739397048950e-01 -1.558951474726200104e-02
-1.053844317793846130e-01 8.051751181483268738e-03 6.886358857154846191e-01
-2.095296420156955719e-02 -3.635858185589313507e-03 -5.037156939506530762e-01
-2.818591594696044922e-01 2.740512602031230927e-02 -8.831444382667541504e-01
3.980462551116943359e-01 -5.208677798509597778e-02 -1.289565712213516235e-01
-1.748892366886138916e-01 7.709769159555435181e-02 -6.790031492710113525e-02
-5.642065778374671936e-02 -5.876203067600727081e-03 6.091439723968505859e-01
-2.011525928974151611e-01 7.908542756922543049e-04 -6.724436879158020020e-01
-2.426935285329818726e-01 1.177666988223791122e-02 -8.015472292900085449e-01
8.296508789062500000e-01 2.457095123827457428e-02 6.195895746350288391e-02
-5.450421571731567383e-02 -4.148711916059255600e-03 -5.238788127899169922e-01
3.353435099124908447e-01 -1.141957342624664307e-01 -3.448398411273956299e-01
-1.853622049093246460e-01 1.064111739397048950e-01 -1.558951474726200104e-02
1.520667672157287598e-01 -1.445971149951219559e-02 -2.697207033634185791e-01
-4.019203186035156250e-01 -9.466158226132392883e-03 7.348460704088211060e-02
3.156122565269470215e-01 -7.835015654563903809e-02 -2.941485941410064697e-01
-8.311765789985656738e-01 8.049869537353515625e-02 1.617219746112823486e-01
-2.818591594696044922e-01 2.740512602031230927e-02 -8.831444382667541504e-01
1.025631502270698547e-01 -1.931830123066902161e-02 4.485136568546295166e-01
7.712706923484802246e-03 -4.164081439375877380e-02 -2.704494595527648926e-01
1.583734713494777679e-02 -5.853789672255516052e-02 9.297294914722442627e-02
-5.324505269527435303e-03 4.611068964004516602e-02 8.295885473489761353e-02
-7.935494780540466309e-01 6.775840371847152710e-02 9.731868654489517212e-02
1.149795427918434143e-01 -4.023722559213638306e-02 6.087390780448913574e-01
-1.919482797384262085e-01 -8.669071644544601440e-02 2.373806014657020569e-02
-7.322503328323364258e-01 6.227899342775344849e-02 -8.309689909219741821e-02
1.263972371816635132e-01 -1.678103208541870117e-02 2.699874937534332275e-01
-1.859290450811386108e-01 8.924415707588195801e-02 5.410423874855041504e-02
-2.447719424962997437e-01 -8.399152010679244995e-02 -2.471286244690418243e-02
-8.075854182243347168e-01 3.676683008670806885e-01 3.894512701663188636e-05
2.461884319782257080e-01 -4.568963497877120972e-02 2.157872468233108521e-01
-1.029011458158493042e-01 1.784989796578884125e-02 -9.273309260606765747e-02
3.542380332946777344e-01 -1.445971149951219559e-02 -1.211288496851921082e-01
3.335525840520858765e-02 -8.955188840627670288e-02 5.896826386451721191e-01
-3.120998293161392212e-02 -4.175700247287750244e-03 -6.149233579635620117e-01
3.085133135318756104e-01 -7.459823787212371826e-02 -9.257114678621292114e-02
-1.036299392580986023e-01 7.322958670556545258e-03 -7.040784955024719238e-01
-7.826716303825378418e-01 6.257590651512145996e-02 -5.119217187166213989e-02
5.478703603148460388e-02 -5.367932468652725220e-02 -1.721980273723602295e-01
2.566613852977752686e-01 -9.810840338468551636e-02 3.931253403425216675e-02
-1.740794777870178223e-01 -3.905774326995015144e-03 -6.050712466239929199e-01
-4.513429403305053711e-01 3.741921484470367432e-02 -8.193623274564743042e-02
1.817041635513305664e-01 -9.574132971465587616e-03 -3.325314521789550781e-01
9.910815209150314331e-02 -1.397573053836822510e-01 1.315987259149551392e-01
6.303138136863708496e-01 7.369667291641235352e-02 -7.059952616691589355e-02
1.990061253309249878e-01 -1.105869654566049576e-02 -3.238129913806915283e-01
1.532544195652008057e-01 -4.371920600533485413e-02 2.540621161460876465e-01
-8.640799522399902344e-01 8.503338694572448730e-02 -2.334972172975540161e-01
-4.333931505680084229e-01 -4.846983402967453003e-02 -2.727711945772171021e-02
-4.041430726647377014e-02 -7.570490986108779907e-02 5.005541443824768066e-02
2.850841283798217773e-01 -1.155453473329544067e-01 -3.451907336711883545e-01
-8.516905903816223145e-01 3.119834363460540771e-01 3.952808212488889694e-03
-7.985700368881225586e-01 6.846019625663757324e-02 5.445513874292373657e-02
2.749890685081481934e-01 -1.089862510561943054e-01 3.166839480400085449e-01
-3.311468362808227539e-01 1.817381009459495544e-02 -8.689196705818176270e-01
-2.854491174221038818e-01 1.023893430829048157e-01 2.886657044291496277e-02
-6.701104808598756790e-03 -8.337070047855377197e-02 5.754308104515075684e-01
-1.468443870544433594e-01 7.026043720543384552e-03 -7.508829236030578613e-01
-6.326222419738769531e-01 1.951524638570845127e-03 3.037813305854797363e-02
2.578490376472473145e-01 -1.059091538190841675e-01 -3.591726720333099365e-01
2.615469694137573242e-01 8.913619071245193481e-02 -5.926282703876495361e-02
6.180499494075775146e-02 -4.930659011006355286e-02 -1.202381104230880737e-01
-1.177198439836502075e-01 8.392670750617980957e-02 5.969161912798881531e-02
7.349259406328201294e-02 -8.674471825361251831e-02 -5.674711465835571289e-01
-7.438299059867858887e-01 6.114532053470611572e-02 -6.676664948463439941e-02
-8.349554538726806641e-01 7.858225703239440918e-02 1.825059354305267334e-01
4.410448074340820312e-01 1.294894665479660034e-01 9.000341407954692841e-03
3.192467615008354187e-02 -2.107279188930988312e-02 -4.536722004413604736e-01
-8.158990144729614258e-01 7.671979814767837524e-02 -1.890411376953125000e-01
-8.627303838729858398e-01 3.541721999645233154e-01 -6.142259109765291214e-03
5.047193169593811035e-01 -7.570490986108779907e-02 -7.068050652742385864e-02
2.949362695217132568e-01 -7.694654911756515503e-02 3.649729192256927490e-01
5.972659587860107422e-02 -1.253434866666793823e-01 2.411595173180103302e-02
1.839715093374252319e-01 -5.559575557708740234e-02 -1.650990694761276245e-01
2.916432321071624756e-01 -1.559338346123695374e-02 -8.660588413476943970e-02
2.853810489177703857e-01 -5.602763593196868896e-02 3.097739517688751221e-01
2.118004262447357178e-01 -2.085685357451438904e-02 -3.394953906536102295e-01
-4.406540691852569580e-01 4.006444662809371948e-02 7.947686314582824707e-02
6.259140968322753906e-01 -2.485168725252151489e-02 8.398456126451492310e-02
-1.374780982732772827e-01 8.051751181483268738e-03 6.790806055068969727e-01
-4.185204803943634033e-01 1.062762141227722168e-01 -1.623732596635818481e-02
-1.009307280182838440e-01 -1.953424140810966492e-02 -4.596104919910430908e-01
5.519191175699234009e-02 -1.319295912981033325e-01 -3.151488676667213440e-02
-4.434072673320770264e-01 -4.679631814360618591e-02 -1.901751756668090820e-02
2.864876985549926758e-01 -3.880663961172103882e-02 2.382717281579971313e-01
-3.194862306118011475e-01 9.523642063140869141e-02 4.560170695185661316e-02
6.066186353564262390e-03 -9.250229224562644958e-03 5.852289199829101562e-01
-8.774141073226928711e-01 6.422242522239685059e-02 5.977219901978969574e-03
-6.918160319328308105e-01 7.896014302968978882e-02 1.464174240827560425e-01
7.535600662231445312e-01 -8.315475285053253174e-02 -1.423990633338689804e-02
2.648670077323913574e-01 -7.308667898178100586e-02 1.014754772186279297e-01
6.891567111015319824e-01 -1.389288064092397690e-02 -8.628197759389877319e-02
1.009976118803024292e-01 -3.384008631110191345e-02 -1.725219190120697021e-01
8.894385695457458496e-01 5.755536630749702454e-02 2.619434706866741180e-02
2.415093220770359039e-02 -6.013044342398643494e-02 -6.141405701637268066e-01
