6.879346817731857300e-02 -2.822990529239177704e-02 -4.476974010467529297e-01
5.039952397346496582e-01 1.912703551352024078e-02 1.137517839670181274e-01
2.362725585699081421e-01 -2.221812680363655090e-02 2.041269838809967041e-01
1.898245653137564659e-03 -5.118583329021930695e-03 6.479210853576660156e-01
-6.339608430862426758e-01 6.679590791463851929e-02 6.985445320606231689e-02
9.065706282854080200e-02 -3.132086992263793945e-02 2.481093853712081909e-01
-5.446065664291381836e-01 1.176975369453430176e-01 1.325298380106687546e-02
-5.728789567947387695e-01 1.706125289201736450e-01 1.146646402776241302e-02
5.510119199752807617e-01 5.270225927233695984e-02 1.069176495075225830e-01
-6.587452888488769531e-01 1.090337242931127548e-02 5.510857701301574707e-02
-8.072533011436462402e-01 4.624106884002685547e-01 9.311298839747905731e-03
2.611420452594757080e-01 -2.179276943206787109e-02 2.441960722208023071e-01
2.130478173494338989e-01 -2.740754187107086182e-02 -1.470800340175628662e-01
2.898397743701934814e-01 -1.665291935205459595e-01 3.257804512977600098e-01
8.254683762788772583e-02 -5.345444660633802414e-03 4.583798348903656006e-01
4.744031280279159546e-02 -5.712615326046943665e-02 -1.273432523012161255e-01
2.116015851497650146e-01 -3.239844739437103271e-02 1.243858337402343750e-01
4.210213124752044678e-01 -1.105232387781143188e-01 3.990898653864860535e-02
4.605233073234558105e-01 -8.026582002639770508e-02 -7.491032779216766357e-02
4.389563202857971191e-02 -1.592980325222015381e-01 2.246577739715576172e-01
-6.460411548614501953e-01 5.485742539167404175e-02 -6.396435946226119995e-02
4.088973999023437500e-02 -6.379014253616333008e-02 1.158502399921417236e-01
-6.371651887893676758e-01 -2.119725756347179413e-02 -5.264430772513151169e-03
-1.910741925239562988e-01 3.049837052822113037e-02 -8.802903294563293457e-01
2.665554529812652618e-05 -6.835570186376571655e-02 -1.537156850099563599e-01
-4.925859346985816956e-02 2.343736775219440460e-02 -1.065288856625556946e-01
5.026057362556457520e-01 7.405541837215423584e-02 9.271056205034255981e-02
-8.272169232368469238e-01 3.627626299858093262e-01 6.390480790287256241e-03
4.080620408058166504e-01 -1.338897794485092163e-01 2.734893262386322021e-01
9.791657328605651855e-02 -6.897956877946853638e-02 1.676309406757354736e-01
-7.478727698326110840e-01 8.312980085611343384e-02 -2.154498547315597534e-01
-7.085977196693420410e-01 2.231872379779815674e-01 1.299776602536439896e-02
1.952676922082901001e-01 -4.277727752923965454e-02 -3.149845004081726074e-01
-8.246363401412963867e-01 7.833739370107650757e-02 -1.539708971977233887e-01
-3.962686657905578613e-01 -3.126415237784385681e-02 -8.120568841695785522e-02
6.741966605186462402e-01 4.235178232192993164e-02 -1.026722714304924011e-01
9.621512889862060547e-02 -1.470340322703123093e-02 5.412119626998901367e-01
3.153178095817565918e-02 -3.208651766180992126e-02 1.072012186050415039e-01
2.050073258578777313e-02 -1.666006259620189667e-02 5.369867086410522461e-01
8.912575989961624146e-02 -1.048233807086944580e-01 -2.062053233385086060e-01
-5.671659857034683228e-02 2.311069983989000320e-03 1.140920743346214294e-01
1.544329673051834106e-01 -4.113255068659782410e-02 1.019834503531455994e-01
-6.681882739067077637e-01 6.101098656654357910e-02 -5.883165448904037476e-02
-2.096199691295623779e-01 3.364605456590652466e-02 -8.971346020698547363e-01
1.073596030473709106e-01 1.251974515616893768e-02 1.148010119795799255e-01
-7.790375947952270508e-01 1.616232246160507202e-01 6.676959310425445437e-05
2.811056971549987793e-01 -1.744976192712783813e-01 -3.199186921119689941e-01
-6.803537011146545410e-01 7.691951841115951538e-02 1.396988630294799805e-01
6.564579159021377563e-02 -9.903846681118011475e-02 1.639728397130966187e-01
-8.356958031654357910e-01 8.605062216520309448e-02 -2.388447374105453491e-01
-7.802286148071289062e-01 9.421756118535995483e-02 -2.893777191638946533e-01
2.024137824773788452e-01 -3.228502348065376282e-02 -1.277402490377426147e-01
1.388930827379226685e-01 -2.139576524496078491e-02 1.093563809990882874e-01
5.376402288675308228e-02 -1.196259558200836182e-01 -2.041919529438018799e-01
-1.779447048902511597e-01 8.193878829479217529e-02 -8.086539059877395630e-02
-5.569573864340782166e-02 1.328540034592151642e-02 -7.796213030815124512e-01
-5.191115196794271469e-03 -7.119145244359970093e-02 -1.330147385597229004e-01
1.979616582393646240e-01 -5.241880565881729126e-02 -2.697543501853942871e-01
3.998099565505981445e-01 -4.635031148791313171e-02 -9.240686893463134766e-02
3.702331781387329102e-01 -3.639684990048408508e-02 1.159069538116455078e-01
-3.140037655830383301e-01 -2.055981662124395370e-03 1.059534922242164612e-01
1.635924279689788818e-01 -7.175859063863754272e-02 7.972284406423568726e-02
-8.362345695495605469e-01 3.473361730575561523e-01 3.412948455661535263e-03
8.020036816596984863e-01 4.541439563035964966e-02 9.268220514059066772e-02
7.202775478363037109e-01 -4.680403321981430054e-02 -9.144271165132522583e-02
8.791927099227905273e-01 -3.971467539668083191e-02 7.952433824539184570e-02
-8.648189306259155273e-01 4.039660096168518066e-01 1.371212187223136425e-03
-1.640211939811706543e-01 2.970436215400695801e-02 8.921921253204345703e-01
-4.667086601257324219e-01 -6.396028399467468262e-02 -7.419597357511520386e-03
3.765699267387390137e-02 -2.970449812710285187e-02 3.092480301856994629e-01
3.343173116445541382e-02 -1.804526895284652710e-01 1.989092081785202026e-01
-4.494106173515319824e-01 1.148334294557571411e-01 -5.287370877340435982e-04
4.057650864124298096e-01 -1.385403871536254883e-01 2.875829637050628662e-01
3.377355337142944336e-01 -9.467140585184097290e-02 -3.813409805297851562e-01
-7.772226929664611816e-01 8.400887995958328247e-02 -2.341374158859252930e-01
3.064005374908447266e-01 1.142662763595581055e-01 4.220594093203544617e-02
-8.205245137214660645e-01 4.122463762760162354e-01 7.411349099129438400e-03
-6.820137053728103638e-02 8.911322057247161865e-02 8.173622190952301025e-02
4.605233073234558105e-01 -8.026582002639770508e-02 -7.491032779216766357e-02
-1.029545813798904419e-02 2.282705623656511307e-03 5.603815913200378418e-01
-1.377338320016860962e-01 -1.009100452065467834e-01 4.719685018062591553e-02
4.684480279684066772e-02 1.631964929401874542e-02 1.140353679656982422e-01
-2.187227159738540649e-01 5.879910662770271301e-02 1.016998812556266785e-01
3.853476643562316895e-01 -5.119944736361503601e-02 -8.903232961893081665e-02
-9.275739192962646484e-01 8.678790926933288574e-02 -4.385349806398153305e-03
-5.736881867051124573e-02 -1.322881970554590225e-02 -4.876530468463897705e-01
2.121403813362121582e-01 -1.719885692000389099e-02 -3.479358553886413574e-01
-6.502533704042434692e-02 1.697186753153800964e-02 -8.052564263343811035e-01
-8.589641749858856201e-02 -5.487234331667423248e-03 -7.005323767662048340e-01
-1.120703443884849548e-01 2.111205831170082092e-02 8.321877121925354004e-01
1.800527796149253845e-02 -6.750498712062835693e-02 1.671772301197052002e-01
-1.159836724400520325e-01 3.628329932689666748e-02 9.474040865898132324e-01
4.255301952362060547e-01 -1.054188907146453857e-01 -4.757374897599220276e-02
-9.321264177560806274e-02 -4.538615792989730835e-02 9.909098595380783081e-02
7.100535184144973755e-02 -1.130470335483551025e-01 8.927930891513824463e-02
3.514038026332855225e-01 -5.480083450675010681e-02 9.259713441133499146e-02
-4.858782887458801270e-01 1.518535241484642029e-02 9.134940057992935181e-02
-2.159153223037719727e-01 -1.606456004083156586e-02 1.092429533600807190e-01
8.393787741661071777e-01 8.772370219230651855e-02 1.447235420346260071e-02
2.821549177169799805e-01 -2.647174336016178131e-02 -2.608784735202789307e-01
9.785985201597213745e-02 -2.023310400545597076e-02 -5.042138099670410156e-01
1.098834052681922913e-01 -1.034905910491943359e-01 -9.921266138553619385e-02
9.672556072473526001e-02 -7.255259901285171509e-02 1.465329974889755249e-01
5.688770413398742676e-01 -5.531126260757446289e-02 9.262549132108688354e-02
-4.505448341369628906e-01 -1.813465543091297150e-02 -8.058182150125503540e-02
7.734477519989013672e-01 9.764881432056427002e-02 5.003259330987930298e-02
3.712540268898010254e-01 -1.745407097041606903e-02 1.104623228311538696e-01
-6.077171862125396729e-02 2.085684426128864288e-02 -7.091814279556274414e-01
2.294100821018218994e-01 -5.179493874311447144e-02 -1.103004217147827148e-01
-7.494040727615356445e-01 3.320798575878143311e-01 1.112617459148168564e-02
-8.430402874946594238e-01 3.269471526145935059e-01 2.675654832273721695e-03
2.024137824773788452e-01 -3.228502348065376282e-02 -1.277402490377426147e-01
8.555992841720581055e-01 -4.135940223932266235e-02 8.460032194852828979e-02
-9.990499913692474365e-02 1.881510205566883087e-02 -8.119488358497619629e-01
5.890392065048217773e-01 -6.115290895104408264e-02 8.871216326951980591e-02
-7.055503129959106445e-02 2.238814346492290497e-02 7.312635779380798340e-01
-6.836431622505187988e-01 7.913140207529067993e-02 7.371106743812561035e-02
-5.915097594261169434e-01 -9.485634975135326385e-03 5.975919961929321289e-02
2.146641910076141357e-01 -2.896719612181186676e-02 1.422226727008819580e-01
2.742999196052551270e-01 -9.546541422605514526e-02 -3.404724225401878357e-02
6.436273455619812012e-01 1.181512475013732910e-01 -1.655069552361965179e-02
-3.485714495182037354e-01 2.197633963078260422e-03 1.048759073019027710e-01
-7.700766324996948242e-01 8.678790926933288574e-02 1.509851217269897461e-01
4.348597824573516846e-01 2.720890752971172333e-02 1.121354177594184875e-01
-1.700329780578613281e-01 9.050274640321731567e-02 -7.360588759183883667e-02
1.554254740476608276e-01 -4.391157254576683044e-02 -3.266677558422088623e-01
9.188364148139953613e-01 -6.693782657384872437e-02 -4.159032180905342102e-02
-4.361546039581298828e-02 -1.348403561860322952e-02 -4.719146490097045898e-01
-4.667086601257324219e-01 -6.396028399467468262e-02 -7.419597357511520386e-03
1.562325190752744675e-02 -1.098709926009178162e-01 9.866563230752944946e-02
-5.399428308010101318e-02 6.649757269769906998e-03 -7.197871208190917969e-01
1.231830567121505737e-01 -5.216360092163085938e-02 2.887739539146423340e-01
-2.327313125133514404e-01 9.319669008255004883e-02 -6.844483315944671631e-02
7.311384081840515137e-01 1.331375446170568466e-02 -1.055080145597457886e-01
-3.018951117992401123e-01 -1.473175641149282455e-02 -9.805000573396682739e-02
2.995663881301879883e-01 -9.472813457250595093e-02 -2.809555530548095703e-01
-6.694062612950801849e-03 -5.692763626575469971e-02 2.214533835649490356e-01
8.765117079019546509e-02 -4.150119423866271973e-02 3.477574586868286133e-01
3.461860418319702148e-01 -5.397846922278404236e-02 -1.459173858165740967e-01
1.251680850982666016e-01 -2.099875919520854950e-02 1.153681576251983643e-01
-5.764803290367126465e-01 9.495485574007034302e-02 6.035470589995384216e-02
1.446496397256851196e-01 -1.240644697099924088e-02 3.823535442352294922e-01
3.494187891483306885e-01 -6.520801782608032227e-02 3.505932092666625977e-01
-3.558026552200317383e-01 -8.131505548954010010e-02 -2.914140373468399048e-02
-7.933863997459411621e-01 1.396745592355728149e-01 6.055611302144825459e-04
-8.190215826034545898e-01 1.755750924348831177e-01 3.214446362107992172e-03
2.363860011100769043e-01 5.809016898274421692e-02 1.033162474632263184e-01
-6.517409682273864746e-01 1.238794550299644470e-01 1.501114573329687119e-02
3.184808194637298584e-01 -2.919405885040760040e-02 -1.553320586681365967e-01
2.902368009090423584e-01 -1.332091838121414185e-01 -2.857763469219207764e-01
-1.978232711553573608e-01 1.159393787384033203e-01 -2.548329345881938934e-02
-4.823903143405914307e-01 8.451931178569793701e-02 -6.810454279184341431e-02
3.101153671741485596e-01 -1.818421930074691772e-01 3.382577300071716309e-01
2.060718983411788940e-01 -1.128768920898437500e-01 -3.427748084068298340e-01
2.146641910076141357e-01 -2.896719612181186676e-02 1.422226727008819580e-01
8.418174982070922852e-01 -5.216360092163085938e-02 -7.442825287580490112e-02
1.368797123432159424e-01 -5.071737244725227356e-02 3.421710431575775146e-01
4.347026720643043518e-02 -7.499133050441741943e-02 -1.200553849339485168e-01
6.690655369311571121e-03 -7.124815881252288818e-02 1.439808309078216553e-01
2.791773974895477295e-01 -1.159111410379409790e-01 -6.058981642127037048e-02
-3.169245719909667969e-01 -8.278963714838027954e-02 -3.832921758294105530e-02
4.704330489039421082e-02 -4.515930637717247009e-02 3.013646900653839111e-01
1.898245653137564659e-03 -5.118583329021930695e-03 6.479210853576660156e-01
-8.072533011436462402e-01 4.624106884002685547e-01 9.311298839747905731e-03
1.110460758209228516e-01 -9.790416806936264038e-02 1.104623228311538696e-01
9.525097161531448364e-02 -8.975193835794925690e-03 4.242091178894042969e-01
2.399306744337081909e-01 -2.708201296627521515e-03 1.132697090506553650e-01
-5.960752964019775391e-01 1.087082177400588989e-01 -3.319652006030082703e-02
8.477173745632171631e-03 -2.400464378297328949e-02 1.088175997138023376e-01
-1.130344942212104797e-01 -9.421770274639129639e-02 4.677148908376693726e-02
-2.741331756114959717e-01 -3.185965493321418762e-02 -9.481725841760635376e-02
3.500142991542816162e-01 1.202780604362487793e-01 -5.945009179413318634e-03
-8.179440498352050781e-01 1.636933088302612305e-01 2.704012440517544746e-03
2.983470261096954346e-01 -4.579789005219936371e-03 -1.068124622106552124e-01
6.005937978625297546e-02 1.110902503132820129e-01 4.898336902260780334e-02
-7.776764631271362305e-01 2.976539134979248047e-01 -3.251051995903253555e-03
-3.558026552200317383e-01 -8.131505548954010010e-02 -2.914140373468399048e-02
-2.293283939361572266e-01 -3.543269634246826172e-02 1.027774587273597717e-01
4.312867224216461182e-01 -8.094641566276550293e-02 3.044839799404144287e-01
6.278169155120849609e-02 -2.080025151371955872e-02 -3.364227116107940674e-01
6.879346817731857300e-02 -2.822990529239177704e-02 -4.476974010467529297e-01
-6.142393872141838074e-02 -4.566973820328712463e-02 -9.280387312173843384e-02
2.337204068899154663e-01 -1.016473472118377686e-01 1.101274508982896805e-02
-3.595895320177078247e-02 -5.380832776427268982e-02 -3.224708735942840576e-01
-3.143156766891479492e-01 3.452513366937637329e-02 -9.918429702520370483e-02
-3.300540447235107422e-01 8.650434017181396484e-02 7.977955788373947144e-02
2.835574932396411896e-02 7.954197004437446594e-03 -5.772342085838317871e-01
-5.518093109130859375e-01 -7.273749914020299911e-03 7.081860303878784180e-02
-6.376189589500427246e-01 2.383301258087158203e-01 1.143810618668794632e-02
1.418989747762680054e-01 1.084530055522918701e-01 -4.680810123682022095e-02
3.021752834320068359e-01 -8.111655712127685547e-02 -3.143889904022216797e-01
9.065706282854080200e-02 -3.132086992263793945e-02 2.481093853712081909e-01
3.320073187351226807e-01 -1.080844774842262268e-01 -2.862583994865417480e-01
5.084757208824157715e-01 -3.486555069684982300e-02 -1.002051681280136108e-01
2.053629606962203979e-01 -1.357613503932952881e-01 -3.435404598712921143e-01
2.484946399927139282e-01 -4.181312397122383118e-02 3.428516089916229248e-01
1.281586382538080215e-02 -1.148619204759597778e-01 -7.791621983051300049e-02
2.747252881526947021e-01 -3.928930684924125671e-02 -2.805585563182830811e-01
-5.617911815643310547e-01 -2.335242368280887604e-02 5.425785481929779053e-02
-6.719030737876892090e-01 6.866750121116638184e-02 9.401500225067138672e-02
8.765117079019546509e-02 -4.150119423866271973e-02 3.477574586868286133e-01
-6.229864954948425293e-01 1.068933382630348206e-01 -3.362188115715980530e-02
7.399859428405761719e-01 9.384891390800476074e-02 -5.928537622094154358e-02
5.200586095452308655e-02 -3.273873403668403625e-02 3.921085000038146973e-01
-1.449933499097824097e-01 4.722926393151283264e-02 9.528486728668212891e-01
5.753426551818847656e-01 2.729398012161254883e-02 1.121070608496665955e-01
-3.955880999565124512e-01 1.207884922623634338e-01 3.441306063905358315e-03
-7.680632472038269043e-01 7.635237276554107666e-02 -1.619960665702819824e-01
8.365277945995330811e-02 -1.591846197843551636e-01 1.932660788297653198e-01
-6.633107662200927734e-01 2.549192309379577637e-01 1.234554499387741089e-02
2.838280200958251953e-01 -7.201381772756576538e-02 -7.210294157266616821e-02
7.514423727989196777e-01 1.054471135139465332e-01 -3.980380669236183167e-02
3.196718394756317139e-01 -8.128669857978820801e-02 -3.524730205535888672e-01
2.951840311288833618e-02 -1.830479875206947327e-02 -5.211431980133056641e-01
-4.129712283611297607e-01 1.207884922623634338e-01 2.165220677852630615e-03
1.979616582393646240e-01 -5.241880565881729126e-02 -2.697543501853942871e-01
-6.683301329612731934e-01 -1.096021756529808044e-02 1.756331697106361389e-02
8.433335274457931519e-02 -2.791797183454036713e-02 2.748221158981323242e-01
6.812009811401367188e-01 1.138409152626991272e-01 3.851947188377380371e-02
1.450466513633728027e-01 -3.832515329122543335e-02 3.813894093036651611e-01
-1.366999279707670212e-02 1.216108575463294983e-01 3.186088986694812775e-03
5.084757208824157715e-01 -3.486555069684982300e-02 -1.002051681280136108e-01
3.320073187351226807e-01 -1.480401307344436646e-01 3.750089704990386963e-01
3.140570521354675293e-01 -9.878323972225189209e-02 3.745268583297729492e-01
1.368797123432159424e-01 -5.071737244725227356e-02 3.421710431575775146e-01
-1.058317050337791443e-01 2.142399176955223083e-02 8.414323329925537109e-01
-1.641346365213394165e-01 7.266589999198913574e-02 9.319263696670532227e-02
3.561111688613891602e-01 -4.402501136064529419e-02 1.655608564615249634e-01
-7.167930006980895996e-01 3.927364647388458252e-01 -2.173469169065356255e-03
1.468331813812255859e-01 -8.415080606937408447e-02 -3.236051499843597412e-01
2.702731490135192871e-01 -1.178110912442207336e-01 -1.825214177370071411e-02
1.989825367927551270e-01 -7.365854084491729736e-02 -1.487814784049987793e-01
-4.341695830225944519e-02 2.849864307790994644e-03 -1.081169024109840393e-01
2.484946399927139282e-01 -4.181312397122383118e-02 3.428516089916229248e-01
3.587047010660171509e-02 -2.576280571520328522e-02 -4.439825415611267090e-01
-1.145658046007156372e-01 7.755699567496776581e-03 7.003256678581237793e-01
8.660195022821426392e-02 -1.570294350385665894e-01 2.556808292865753174e-01
4.652306139469146729e-01 4.342937096953392029e-02 1.088743060827255249e-01
6.486182212829589844e-01 -9.543705731630325317e-02 4.175222292542457581e-02
1.272098124027252197e-01 -4.850548878312110901e-02 1.159069538116455078e-01
-8.527669310569763184e-01 7.910304516553878784e-02 1.091295182704925537e-01
9.621512889862060547e-02 -1.470340322703123093e-02 5.412119626998901367e-01
-3.577309548854827881e-01 5.681408569216728210e-02 -9.283223748207092285e-02
-1.303892582654953003e-01 4.479052871465682983e-02 9.300776720046997070e-01
-7.451503872871398926e-01 3.817620873451232910e-01 -5.151000805199146271e-03
-4.906009137630462646e-02 -3.356111049652099609e-02 4.809807538986206055e-01
-2.782450020313262939e-01 5.930954217910766602e-02 9.923277795314788818e-02
8.777180314064025879e-01 5.097245052456855774e-02 -4.374549165368080139e-02
2.524646818637847900e-01 -5.380832776427268982e-02 -2.206392586231231689e-01
-8.942822813987731934e-01 9.608915448188781738e-02 3.034347891807556152e-01
-2.016515284776687622e-01 2.428809553384780884e-02 -1.061885952949523926e-01
4.975013732910156250e-01 -9.427440911531448364e-02 4.648791626095771790e-02
1.767786443233489990e-01 -6.271257251501083374e-02 -1.103004217147827148e-01
-8.824005126953125000e-01 9.367877244949340820e-02 2.886321842670440674e-01
1.146191135048866272e-01 3.554599732160568237e-02 1.102071106433868408e-01
3.320073187351226807e-01 -1.080844774842262268e-01 -2.862583994865417480e-01
4.780895635485649109e-02 -2.117026150226593018e-01 2.389782965183258057e-01
-2.535326220095157623e-02 -4.592496156692504883e-02 -2.646500468254089355e-01
2.120836824178695679e-01 1.150319278240203857e-01 3.783889114856719971e-02
-1.695792526006698608e-01 2.658504247665405273e-02 8.221492767333984375e-01
-8.138758689165115356e-02 3.548928722739219666e-02 -8.900168538093566895e-01
-7.467951774597167969e-01 8.551182597875595093e-02 2.341291755437850952e-01
9.113500118255615234e-01 -3.784307837486267090e-02 -6.217783689498901367e-02
1.306127160787582397e-01 -1.120545268058776855e-01 -8.602645248174667358e-02
2.093046307563781738e-01 -9.455798566341400146e-02 4.492825642228126526e-02
-7.914734631776809692e-02 2.082847990095615387e-02 8.408084511756896973e-01
-7.245061993598937988e-01 1.572845280170440674e-01 -2.995834918692708015e-03
-7.665886878967285156e-01 3.268337547779083252e-01 -4.867427051067352295e-03
1.035880595445632935e-01 -5.928131192922592163e-02 2.249980717897415161e-01
-7.125677466392517090e-01 8.239250630140304565e-02 1.045923382043838501e-01
1.636054553091526031e-02 -7.070937752723693848e-02 -1.420891284942626953e-01
7.270680367946624756e-02 -5.278746783733367920e-02 -1.290446966886520386e-01
-6.996650695800781250e-01 8.627747744321823120e-02 -4.300819709897041321e-02
-8.290033936500549316e-01 8.417902886867523193e-02 2.272383123636245728e-01
-1.354368925094604492e-01 3.021480143070220947e-02 8.229715824127197266e-01
-6.172583103179931641e-01 1.012785658240318298e-01 -9.631478227674961090e-03
-2.096199691295623779e-01 3.364605456590652466e-02 -8.971346020698547363e-01
8.393787741661071777e-01 8.772370219230651855e-02 1.447235420346260071e-02
8.594972640275955200e-02 -5.392176285386085510e-02 1.158785969018936157e-01
4.179019927978515625e-01 -9.461469203233718872e-02 -3.906651213765144348e-02
-2.200708538293838501e-02 -1.549741253256797791e-02 -5.035615563392639160e-01
4.357388913631439209e-01 -1.069218292832374573e-01 2.871292531490325928e-01
2.982619702816009521e-01 -4.269219562411308289e-02 2.500376999378204346e-01
3.320073187351226807e-01 -1.021861284971237183e-01 -3.579176962375640869e-01
6.902033090591430664e-02 -6.444235891103744507e-02 1.163890287280082703e-01
1.977915167808532715e-01 -1.333226114511489868e-01 3.160538375377655029e-01
-3.485714495182037354e-01 2.197633963078260422e-03 1.048759073019027710e-01
3.444562554359436035e-01 -9.586242586374282837e-02 -3.245922550559043884e-02
6.207275763154029846e-02 -1.061278209090232849e-01 1.705801188945770264e-01
1.118684411048889160e-01 -1.943909563124179840e-02 -4.998183846473693848e-01
1.053178682923316956e-01 -4.918606206774711609e-02 3.001169562339782715e-01
9.672556072473526001e-02 -7.255259901285171509e-02 1.465329974889755249e-01
6.452437043190002441e-01 -2.630160003900527954e-02 -1.024737656116485596e-01
9.036083817481994629e-01 -6.801541149616241455e-02 5.153553932905197144e-02
-2.259822189807891846e-01 1.431988901458680630e-03 -1.059900894761085510e-01
1.306127160787582397e-01 -1.120545268058776855e-01 -8.602645248174667358e-02
4.200288057327270508e-01 -1.817854940891265869e-01 3.435322046279907227e-01
4.587651491165161133e-01 -6.123796850442886353e-02 9.860891103744506836e-02
4.935313463211059570e-01 7.642263546586036682e-03 -1.092511937022209167e-01
-4.117672145366668701e-02 -1.020727157592773438e-01 -1.776464865542948246e-03
5.045924335718154907e-03 -7.388538867235183716e-02 -1.222389042377471924e-01
-8.104293346405029297e-01 4.915905296802520752e-01 3.895025467500090599e-03
-7.144960165023803711e-01 8.142835646867752075e-02 -8.180119097232818604e-02
4.129111468791961670e-01 -5.831715837121009827e-02 -8.398471027612686157e-02
3.102004528045654297e-01 -9.844294935464859009e-02 2.824219167232513428e-01
3.523679673671722412e-01 -1.778721660375595093e-01 -2.965521514415740967e-01
8.830493092536926270e-01 3.157595917582511902e-02 -5.293330922722816467e-02
4.050561189651489258e-01 -6.523636728525161743e-02 -7.922066003084182739e-02
1.848888844251632690e-01 -3.503569215536117554e-02 1.061236411333084106e-01
-8.001355528831481934e-01 1.018173620104789734e-01 1.248733233660459518e-02
-2.051962018013000488e-01 -4.850548878312110901e-02 -9.022334963083267212e-02
1.542474888265132904e-02 -4.297577589750289917e-02 -3.044922351837158203e-01
1.772890836000442505e-01 -2.258677780628204346e-02 4.484547376632690430e-01
2.094180583953857422e-01 -1.245318055152893066e-01 -3.007206916809082031e-01
5.972061753273010254e-01 3.827644395641982555e-04 -1.078049689531326294e-01
7.874693721532821655e-02 -1.559802293777465820e-01 1.801932901144027710e-01
7.521229386329650879e-01 -9.662808477878570557e-02 3.137339651584625244e-02
4.321091175079345703e-01 -9.081479161977767944e-02 3.730239272117614746e-01
-1.090644598007202148e-01 -1.147065777331590652e-02 -1.052527949213981628e-01
-7.475041151046752930e-01 1.571994572877883911e-01 -1.691392506472766399e-03
5.787585303187370300e-02 -1.902927458286285400e-01 -2.391283214092254639e-01
3.225926458835601807e-01 -5.590677633881568909e-02 -1.558991968631744385e-01
-1.935696601867675781e-01 -7.604056596755981445e-02 7.368270307779312134e-02
7.604033350944519043e-01 -9.640121459960937500e-02 -2.420720830559730530e-02
-7.669572830200195312e-01 8.091791719198226929e-02 8.732264488935470581e-02
9.113500118255615234e-01 -3.784307837486267090e-02 -6.217783689498901367e-02
-7.684602737426757812e-01 1.549728587269783020e-02 3.469663439318537712e-03
-3.263109028339385986e-01 -3.271038085222244263e-02 -8.962784707546234131e-02
-7.350420951843261719e-02 -1.155572943389415741e-02 1.113130524754524231e-01
7.111747860908508301e-01 6.583175808191299438e-02 -8.923084288835525513e-02
-8.090113997459411621e-01 8.806400001049041748e-02 1.735292971134185791e-01
-1.439157575368881226e-01 -7.397047430276870728e-02 9.202998876571655273e-02
4.056800007820129395e-01 1.144931465387344360e-01 -3.498303890228271484e-02
6.167574971914291382e-02 -1.241064369678497314e-01 -2.430416345596313477e-01
5.742083191871643066e-01 7.470763474702835083e-02 -8.616823703050613403e-02
-7.725721001625061035e-01 3.693699240684509277e-01 1.019037980586290359e-02
7.899518013000488281e-01 -5.139794573187828064e-02 8.876887708902359009e-02
-4.052450135350227356e-02 5.667230114340782166e-02 1.038834005594253540e-01
-7.510488033294677734e-01 1.878822147846221924e-01 9.056081064045429230e-03
5.357854533940553665e-03 -4.118926078081130981e-02 -9.575305134057998657e-02
-1.563363224267959595e-01 4.705912247300148010e-02 -9.452005028724670410e-01
-2.114064842462539673e-01 3.860860690474510193e-02 1.089310273528099060e-01
4.088973999023437500e-02 -6.379014253616333008e-02 1.158502399921417236e-01
1.151578947901725769e-01 -4.976793657988309860e-03 4.616693556308746338e-01
-1.312116235494613647e-01 3.497884795069694519e-02 -9.431871175765991211e-01
-9.321264177560806274e-02 -4.538615792989730835e-02 9.909098595380783081e-02
3.783717751502990723e-01 -1.144365519285202026e-01 -2.398034930229187012e-02
2.823250591754913330e-01 -1.162230670452117920e-01 6.021292135119438171e-02
4.197736084461212158e-01 9.109824150800704956e-02 7.966613024473190308e-02
6.910976767539978027e-01 9.526678919792175293e-02 7.047831267118453979e-02
-9.239026904106140137e-02 1.174423098564147949e-01 -1.791185326874256134e-02
-3.859619423747062683e-02 -5.395011603832244873e-02 1.136099994182586670e-01
-7.494040727615356445e-01 1.680603623390197754e-01 -1.663034781813621521e-03
1.197234541177749634e-01 -1.185200139880180359e-01 5.284540355205535889e-03
-8.216021060943603516e-01 8.035077154636383057e-02 -1.818462759256362915e-01
-9.857220202684402466e-02 3.048361279070377350e-03 6.930661201477050781e-01
7.834993302822113037e-02 -8.415080606937408447e-02 -3.244275152683258057e-01
7.148612737655639648e-01 -1.080277711153030396e-01 2.538997307419776917e-02
-1.068242192268371582e-01 5.009336769580841064e-02 -1.011976748704910278e-01
8.180539608001708984e-01 8.154178410768508911e-02 5.241462215781211853e-02
1.633088588714599609e-01 -2.309720776975154877e-02 -2.271047681570053101e-01
3.165524899959564209e-01 -8.009567856788635254e-02 3.535707294940948486e-01
-4.557212442159652710e-02 1.844646222889423370e-02 8.077720403671264648e-01
-5.764803290367126465e-01 9.495485574007034302e-02 6.035470589995384216e-02
-7.725721001625061035e-01 3.693699240684509277e-01 1.019037980586290359e-02
-7.225495576858520508e-01 7.467927783727645874e-02 1.543029397726058960e-01
5.067306011915206909e-02 -4.978157207369804382e-02 -3.366212248802185059e-01
-7.621933221817016602e-01 8.412230759859085083e-02 -2.312165945768356323e-01
3.980801701545715332e-01 -8.256278932094573975e-02 -5.693170800805091858e-02
1.852575242519378662e-01 -6.109620258212089539e-02 -2.345344126224517822e-01
6.068323925137519836e-02 -8.307321369647979736e-02 -1.973861455917358398e-01
7.118269801139831543e-01 3.398634120821952820e-02 -1.028707697987556458e-01
8.911027312278747559e-01 5.207839235663414001e-02 3.574044257402420044e-02
6.914663910865783691e-01 1.026964411139488220e-01 5.927712097764015198e-02
-4.538895562291145325e-03 -1.158544272184371948e-01 6.996788084506988525e-02
5.575908422470092773e-01 7.374348491430282593e-02 9.290906786918640137e-02
3.665183186531066895e-01 -4.581152647733688354e-02 1.483195126056671143e-01
-8.589205145835876465e-01 4.439499974250793457e-01 5.312897730618715286e-03
1.190712377429008484e-01 -1.620635017752647400e-02 -3.338705599308013916e-01
-3.892928063869476318e-01 7.465092837810516357e-02 -7.958930730819702148e-02
6.960886120796203613e-01 -1.427656412124633789e-01 -2.258541528135538101e-03
2.957948744297027588e-01 -1.367538571357727051e-01 3.759164214134216309e-01
4.386727139353752136e-02 -6.897956877946853638e-02 -3.226126432418823242e-01
3.030260205268859863e-01 -2.848512120544910431e-02 -2.100902795791625977e-01
1.210846081376075745e-01 -6.988698989152908325e-02 -1.588200181722640991e-01
3.225926458835601807e-01 -5.590677633881568909e-02 -1.558991968631744385e-01
6.452437043190002441e-01 -2.630160003900527954e-02 -1.024737656116485596e-01
9.389985203742980957e-01 -7.207052409648895264e-02 3.216740489006042480e-02
-6.235973536968231201e-02 6.763182580471038818e-03 6.208680272102355957e-01
-9.038387537002563477e-01 5.721108987927436829e-02 1.132467668503522873e-02
-1.494171172380447388e-01 -4.910099878907203674e-02 -9.711420536041259766e-02
-1.859131455421447754e-01 2.111205831170082092e-02 -1.070109605789184570e-01
6.953076273202896118e-02 -6.041560694575309753e-02 2.085223942995071411e-01
-1.230883505195379257e-02 1.952403970062732697e-02 -7.766438126564025879e-01
6.748903542757034302e-02 -8.738355338573455811e-02 -2.069426178932189941e-01
1.521643698215484619e-01 -5.860073864459991455e-02 2.576942145824432373e-01
5.636026263236999512e-01 -1.017040535807609558e-01 -5.236073862761259079e-03
7.506046444177627563e-02 -3.404318541288375854e-02 -3.910675644874572754e-01
1.513703614473342896e-01 -6.778854131698608398e-02 1.866020858287811279e-01
8.943769335746765137e-02 -1.436447352170944214e-01 -2.461893260478973389e-01
1.015179678797721863e-01 -4.586823284626007080e-02 3.387965261936187744e-01
-4.605420306324958801e-02 2.423137798905372620e-02 -7.305346131324768066e-01
3.994413316249847412e-01 -1.074039041996002197e-01 7.960941642522811890e-02
5.747884884476661682e-02 -7.867780327796936035e-02 -2.347328960895538330e-01
-2.079185247421264648e-01 3.906232118606567383e-02 9.649289846420288086e-01
7.604033350944519043e-01 -9.640121459960937500e-02 -2.420720830559730530e-02
2.363860011100769043e-01 -6.983028352260589600e-02 3.422561287879943848e-01
3.735509812831878662e-01 6.532131880521774292e-02 9.852384030818939209e-02
-4.245280474424362183e-02 -1.379596814513206482e-02 4.753092527389526367e-01
2.316219359636306763e-01 -1.498550027608871460e-01 -3.452986180782318115e-01
7.350081205368041992e-02 -4.995171725749969482e-02 2.762966752052307129e-01
-4.739397466182708740e-01 -5.522620305418968201e-02 4.155372083187103271e-02
-8.311018347740173340e-01 7.178682088851928711e-02 -4.876476526260375977e-02
6.953076273202896118e-02 -6.041560694575309753e-02 2.085223942995071411e-01
-6.031363010406494141e-01 1.277927905321121216e-01 -9.376260451972484589e-03
3.977966308593750000e-01 -7.188678253442049026e-03 -1.063870936632156372e-01
1.573254317045211792e-01 9.769076481461524963e-03 1.153965219855308533e-01
2.648285329341888428e-01 -3.866545110940933228e-02 -1.098183467984199524e-01
5.510119199752807617e-01 5.270225927233695984e-02 1.069176495075225830e-01
-1.745701730251312256e-01 7.018408272415399551e-03 1.150278747081756592e-01
-8.272169232368469238e-01 3.627626299858093262e-01 6.390480790287256241e-03
-8.586806058883666992e-02 1.833302527666091919e-02 -8.198322057723999023e-01
-5.660447478294372559e-01 1.149185076355934143e-01 1.472757197916507721e-02
8.285877108573913574e-02 -1.589860916137695312e-01 -1.714957952499389648e-01
-1.171746850013732910e-01 2.071505412459373474e-02 -8.186978697776794434e-01
-6.255668122321367264e-04 -1.182364597916603088e-01 -8.865826763212680817e-03
-1.596694998443126678e-02 -2.227484621107578278e-02 -1.030692756175994873e-01
9.057199954986572266e-02 -1.179245263338088989e-01 -1.703277230262756348e-02
-1.631420999765396118e-01 7.002865523099899292e-02 -8.886218816041946411e-02
-7.557430863380432129e-02 2.667011320590972900e-02 -8.645518422126770020e-01
5.814961791038513184e-01 2.037476748228073120e-02 -1.074079647660255432e-01
2.092195749282836914e-01 -7.862109690904617310e-02 -1.150077581405639648e-01
-2.894161501899361610e-03 -2.023310400545597076e-02 -4.690505564212799072e-01
3.173748850822448730e-01 -3.798486664891242981e-02 -1.103004217147827148e-01
1.024537682533264160e-01 -4.112449241802096367e-04 -1.074646785855293274e-01
2.690254151821136475e-01 -4.666224122047424316e-02 -9.209494292736053467e-02
6.749339699745178223e-01 -9.400563314557075500e-03 -1.056214496493339539e-01
1.000717356801033020e-01 -4.839204996824264526e-02 3.252132833003997803e-01
5.822050571441650391e-01 1.356897968798875809e-02 1.148577332496643066e-01
7.538243532180786133e-01 -2.085697092115879059e-02 1.056131944060325623e-01
-7.636394500732421875e-01 2.813767194747924805e-01 9.594872593879699707e-03
4.065023660659790039e-01 -1.268004029989242554e-01 3.187194168567657471e-01
3.904520571231842041e-01 3.798473998904228210e-02 1.099802479147911072e-01
4.381209313869476318e-01 -8.451944589614868164e-02 -3.543446362018585205e-01
6.913375854492187500e-02 -4.164298251271247864e-02 3.346846699714660645e-01
3.320073187351226807e-01 -1.402418315410614014e-01 3.351100385189056396e-01
6.939334869384765625e-01 -9.745044261217117310e-02 3.591058775782585144e-02
-3.140037655830383301e-01 -2.055981662124395370e-03 1.059534922242164612e-01
2.252698838710784912e-01 1.171870976686477661e-01 -2.120131812989711761e-02
-6.659480333328247070e-01 1.044966094195842743e-02 -4.660959914326667786e-02
2.809922695159912109e-01 -1.178677976131439209e-01 2.255422621965408325e-02
-3.687052428722381592e-01 1.013920009136199951e-01 -5.355716869235038757e-02
-7.846676558256149292e-02 -7.167352735996246338e-02 -7.411632686853408813e-02
3.241239488124847412e-01 -9.762059152126312256e-02 1.105190441012382507e-01
4.752538353204727173e-02 -2.525237575173377991e-02 -4.607701897621154785e-01
3.637676835060119629e-01 -9.586242586374282837e-02 2.790473699569702148e-01
3.173748850822448730e-01 -3.798486664891242981e-02 -1.103004217147827148e-01
-7.451503872871398926e-01 3.298112750053405762e-01 -5.859937518835067749e-03
-5.042124912142753601e-02 -5.940946284681558609e-03 1.124473512172698975e-01
-8.297690749168395996e-01 7.490614056587219238e-02 1.016715168952941895e-01
-4.514676332473754883e-02 3.285204619169235229e-02 -1.046572923660278320e-01
-8.113083243370056152e-01 3.860860690474510193e-02 2.936001494526863098e-02
6.068323925137519836e-02 -8.307321369647979736e-02 -1.973861455917358398e-01
-8.332003355026245117e-01 9.648615866899490356e-02 -3.444195389747619629e-01
-2.867108397185802460e-02 -4.652045294642448425e-02 3.392785787582397461e-01
-1.669987291097640991e-01 -8.848949521780014038e-02 -5.605262890458106995e-02
5.997300148010253906e-01 1.189452558755874634e-01 -1.266572438180446625e-02
-2.159153223037719727e-01 -1.606456004083156586e-02 1.092429533600807190e-01
6.882619857788085938e-01 -9.041779488325119019e-02 -4.624094814062118530e-02
1.324122771620750427e-02 -2.998806722462177277e-02 -1.015379726886749268e-01
-5.764803290367126465e-01 9.495485574007034302e-02 6.035470589995384216e-02
-8.929210901260375977e-01 8.970873057842254639e-02 -9.064328856766223907e-03
-2.192331403493881226e-01 -9.781908988952636719e-02 -1.303437165915966034e-02
-2.280109561979770660e-02 -4.771147668361663818e-02 2.575524151325225830e-01
1.258486509323120117e-01 -2.167933247983455658e-02 -2.734692096710205078e-01
-8.332003355026245117e-01 9.648615866899490356e-02 -3.444195389747619629e-01
-1.230883505195379257e-02 1.952403970062732697e-02 -7.766438126564025879e-01
6.825904846191406250e-01 -1.012503504753112793e-01 1.875432953238487244e-02
-1.653539836406707764e-01 4.416666179895401001e-02 9.757899045944213867e-01
5.957730114459991455e-02 -4.286235943436622620e-02 2.081253826618194580e-01
9.930608421564102173e-02 -1.198108773678541183e-02 -5.479125976562500000e-01
-1.274967938661575317e-01 2.930735610425472260e-02 -8.055683970451354980e-01
4.262391626834869385e-01 -7.028400897979736328e-02 3.269147574901580811e-01
-7.115752100944519043e-01 1.910298913717269897e-01 1.262911967933177948e-02
5.410016775131225586e-01 -2.114053815603256226e-02 -1.034946367144584656e-01
3.570032864809036255e-02 -1.175558641552925110e-01 3.454943001270294189e-02
7.022138237953186035e-01 -2.012670636177062988e-01 9.736659936606884003e-03
7.165626883506774902e-01 -1.186901777982711792e-01 1.512999529950320721e-03
-8.169515132904052734e-01 2.406837791204452515e-01 4.774106200784444809e-03
-2.426847666501998901e-01 6.656904518604278564e-02 9.563138335943222046e-02
-1.738481968641281128e-02 -3.445492824539542198e-03 -5.195267796516418457e-01
-2.079185247421264648e-01 3.906232118606567383e-02 9.649289846420288086e-01
7.179805040359497070e-01 -1.892435252666473389e-01 9.736659936606884003e-03
9.950045347213745117e-01 -5.213522538542747498e-02 -4.583852365612983704e-03
6.721832752227783203e-01 -5.414861440658569336e-02 9.333442896604537964e-02
8.777180314064025879e-01 5.097245052456855774e-02 -4.374549165368080139e-02
2.169895023107528687e-01 -5.508441105484962463e-02 -2.428431361913681030e-01
4.543413519859313965e-01 7.592700421810150146e-02 9.146282821893692017e-02
-2.387867309153079987e-02 2.539402805268764496e-02 -7.780049443244934082e-01
3.617259263992309570e-01 9.702494740486145020e-02 7.081860303878784180e-02
-1.348130255937576294e-01 -4.666224122047424316e-02 1.058684214949607849e-01
-8.116072416305541992e-02 2.647161670029163361e-02 -7.590622305870056152e-01
8.115731924772262573e-02 -6.727810949087142944e-02 3.276236653327941895e-01
6.896361708641052246e-02 -1.267720460891723633e-01 2.164341211318969727e-01
7.277922630310058594e-01 -1.359746046364307404e-02 -1.029842048883438110e-01
-7.599966228008270264e-02 1.311525702476501465e-02 -7.711141109466552734e-01
-9.837369620800018311e-02 1.022279914468526840e-02 7.284561991691589355e-01
2.957948744297027588e-01 -1.367538571357727051e-01 3.759164214134216309e-01
2.240221500396728516e-01 -3.004478476941585541e-02 3.769372701644897461e-01
8.038185834884643555e-01 -9.708178788423538208e-02 -1.272244006395339966e-02
-8.630890250205993652e-01 4.713716208934783936e-01 2.420437987893819809e-03
-2.879999577999114990e-01 -8.925514668226242065e-02 -2.134310640394687653e-02
4.232048690319061279e-01 -9.586242586374282837e-02 -2.888956367969512939e-01
-1.406699791550636292e-02 -7.156009227037429810e-02 1.301707476377487183e-01
-6.401711106300354004e-01 2.645324170589447021e-01 -4.527137614786624908e-03
2.101116813719272614e-02 -4.853384196758270264e-02 2.786220014095306396e-01
7.031212449073791504e-01 -4.504587128758430481e-02 9.914770722389221191e-02
-1.460141986608505249e-01 1.586592569947242737e-02 7.562181353569030762e-01
2.568033635616302490e-01 -7.300631701946258545e-02 3.250998556613922119e-01
-1.922084987163543701e-01 2.919393032789230347e-02 8.690240383148193359e-01
-7.350420951843261719e-02 -1.155572943389415741e-02 1.113130524754524231e-01
-7.397058010101318359e-01 7.978361845016479492e-02 -1.920549571514129639e-01
-7.566351890563964844e-01 4.481888189911842346e-02 -4.156196489930152893e-02
2.690254151821136475e-01 -4.666224122047424316e-02 -9.209494292736053467e-02
2.092195749282836914e-01 -7.862109690904617310e-02 -1.150077581405639648e-01
6.411448866128921509e-02 -6.617216765880584717e-02 -1.097616255283355713e-01
-1.447948515415191650e-01 -9.314011037349700928e-02 6.784106791019439697e-02
1.384960711002349854e-01 -1.651828363537788391e-02 -3.139069080352783203e-01
3.853476643562316895e-01 -5.119944736361503601e-02 -8.903232961893081665e-02
3.779180347919464111e-01 -6.069918721914291382e-02 -1.098183467984199524e-01
2.484946399927139282e-01 -4.181312397122383118e-02 3.428516089916229248e-01
-6.705703735351562500e-01 3.044597208499908447e-01 -4.271920770406723022e-03
-6.976800560951232910e-01 1.186049729585647583e-01 -6.200226955115795135e-03
-2.046290636062622070e-01 3.673700988292694092e-02 -9.059254527091979980e-01
-4.033297002315521240e-01 -3.319245949387550354e-02 8.477047085762023926e-02
-6.841819286346435547e-01 2.194724231958389282e-01 -7.986746728420257568e-03
4.074097871780395508e-01 1.185766085982322693e-01 2.051249146461486816e-02
-9.040088653564453125e-01 1.015337929129600525e-01 3.585899770259857178e-01
2.024137824773788452e-01 -3.228502348065376282e-02 -1.277402490377426147e-01
-7.445549368858337402e-01 8.426409959793090820e-02 -1.121720224618911743e-01
3.269313275814056396e-01 -1.182081028819084167e-01 1.319626811891794205e-02
4.758210107684135437e-02 -1.152872741222381592e-01 8.148100227117538452e-02
-1.330134738236665726e-02 -2.040324732661247253e-02 4.631439149379730225e-01
3.148794174194335938e-01 -6.634230911731719971e-02 -3.247394561767578125e-01
2.004003971815109253e-01 -1.260347366333007812e-01 3.584482073783874512e-01
4.347026720643043518e-02 -7.499133050441741943e-02 -1.200553849339485168e-01
9.848371893167495728e-02 1.715557533316314220e-03 -5.338756442070007324e-01
-1.945054680109024048e-01 4.246717435307800770e-05 -1.075497493147850037e-01
7.720865607261657715e-01 9.104152768850326538e-02 -5.440789461135864258e-02
9.380474686622619629e-02 -3.999825567007064819e-02 -1.098183467984199524e-01
-8.824005126953125000e-01 9.367877244949340820e-02 2.886321842670440674e-01
4.035815596580505371e-01 -6.750498712062835693e-02 -3.046056628227233887e-01
3.637676835060119629e-01 -9.586242586374282837e-02 2.790473699569702148e-01
7.592689990997314453e-01 4.008319228887557983e-02 1.037699654698371887e-01
-7.599966228008270264e-02 1.311525702476501465e-02 -7.711141109466552734e-01
1.360987313091754913e-02 1.147052086889743805e-02 6.166427731513977051e-01
2.775042951107025146e-01 -1.519818305969238281e-01 -2.981401681900024414e-01
8.765117079019546509e-02 -4.150119423866271973e-02 3.477574586868286133e-01
1.704549342393875122e-01 -3.560284152626991272e-02 3.803969025611877441e-01
-1.938532143831253052e-01 -1.000593230128288269e-01 1.869761571288108826e-02
-6.123241782188415527e-01 1.059143990278244019e-02 6.784106791019439697e-02
3.320073187351226807e-01 -1.134440451860427856e-01 2.986990809440612793e-01
-4.514676332473754883e-02 3.285204619169235229e-02 -1.046572923660278320e-01
2.252698838710784912e-01 1.171870976686477661e-01 -2.120131812989711761e-02
5.370730906724929810e-02 -3.185965493321418762e-02 2.805503010749816895e-01
-2.096199691295623779e-01 3.364605456590652466e-02 -8.971346020698547363e-01
4.060202240943908691e-01 -6.688112020492553711e-02 3.134449720382690430e-01
4.655708670616149902e-01 5.463056266307830811e-02 -9.955295175313949585e-02
-8.329167366027832031e-01 6.594518572092056274e-02 3.619416058063507080e-02
-1.494738161563873291e-01 -8.704326301813125610e-02 -5.128857493400573730e-02
4.327896833419799805e-01 9.728016704320907593e-02 7.039324194192886353e-02
-6.780567169189453125e-01 9.657122939825057983e-02 4.455960541963577271e-02
-6.390935182571411133e-01 2.075622975826263428e-01 -7.419597357511520386e-03
-7.756063342094421387e-01 1.027531623840332031e-01 1.827225275337696075e-02
4.605233073234558105e-01 -8.026582002639770508e-02 -7.491032779216766357e-02
-3.421343266963958740e-01 1.040576025843620300e-01 -4.992742091417312622e-02
2.364994287490844727e-01 -1.242765784263610840e-01 3.653674423694610596e-01
5.200586095452308655e-02 -3.273873403668403625e-02 3.921085000038146973e-01
-5.470736026763916016e-01 -1.532726921141147614e-02 6.656498461961746216e-02
2.004003971815109253e-01 -1.260347366333007812e-01 3.584482073783874512e-01
-8.680232763290405273e-01 9.642945230007171631e-02 -2.790272533893585205e-01
-7.420878410339355469e-01 7.235396653413772583e-02 -4.425592720508575439e-02
1.852575242519378662e-01 -6.109620258212089539e-02 -2.345344126224517822e-01
-5.591822862625122070e-01 1.701021045446395874e-01 1.089931465685367584e-02
4.238287210464477539e-01 8.934008330106735229e-02 -7.621477544307708740e-02
-6.350951790809631348e-01 -2.080025151371955872e-02 1.628723181784152985e-02
1.131445243954658508e-01 -5.264567583799362183e-02 2.784802317619323730e-01
2.710388004779815674e-01 -7.470777630805969238e-02 -3.190112411975860596e-01
-6.123241782188415527e-01 1.059143990278244019e-02 6.784106791019439697e-02
-7.040604948997497559e-01 3.409273922443389893e-01 -4.271920770406723022e-03
-7.432658225297927856e-02 -5.528290942311286926e-02 -8.633838593959808350e-02
-8.214319944381713867e-01 1.015621423721313477e-01 -3.235200941562652588e-01
-4.911680892109870911e-02 -1.100411415100097656e-01 8.082878589630126953e-02
4.741195216774940491e-02 -1.171588674187660217e-01 4.268801957368850708e-02
6.349062919616699219e-02 7.898961007595062256e-02 8.893901854753494263e-02
8.866506814956665039e-01 -4.790997505187988281e-02 -6.606280803680419922e-02
4.262107610702514648e-01 -9.180729836225509644e-02 -4.385891929268836975e-02
3.102004528045654297e-01 -9.844294935464859009e-02 2.824219167232513428e-01
-4.226978719234466553e-01 -7.277946919202804565e-02 1.532307732850313187e-02
2.932426929473876953e-01 -2.970449812710285187e-02 -2.635724544525146484e-01
2.788087427616119385e-01 -1.120261698961257935e-01 3.819565176963806152e-01
7.477689534425735474e-02 6.422895938158035278e-03 -5.817430615425109863e-01
-1.729974709451198578e-02 -8.335679769515991211e-02 1.151980161666870117e-01
-1.130344942212104797e-01 -9.421770274639129639e-02 4.677148908376693726e-02
5.835379362106323242e-01 -7.924495637416839600e-02 -6.291512399911880493e-02
2.946605682373046875e-01 -1.678336411714553833e-01 3.399308025836944580e-01
3.304476439952850342e-01 -1.843376606702804565e-01 -3.171112835407257080e-01
2.424261420965194702e-01 -1.290689855813980103e-01 -2.949357926845550537e-01
8.115731924772262573e-02 -6.727810949087142944e-02 3.276236653327941895e-01
-2.495625615119934082e-02 -6.690946966409683228e-02 -1.415786892175674438e-01
7.136985659599304199e-01 -7.998225837945938110e-02 6.806793063879013062e-02
-8.607637882232666016e-01 8.973708748817443848e-02 -2.624664902687072754e-01
2.714925408363342285e-01 -4.144448414444923401e-02 2.760131061077117920e-01
-2.249329984188079834e-01 9.892490506172180176e-02 -6.013609841465950012e-02
-7.578545212745666504e-01 9.041766077280044556e-02 1.988808512687683105e-01
-1.171332877129316330e-02 -4.337279126048088074e-02 2.967991232872009277e-01
8.121839761734008789e-01 8.304472267627716064e-02 -4.734688997268676758e-02
1.422392576932907104e-01 5.979162082076072693e-02 -9.569633752107620239e-02
1.126624494791030884e-01 -4.328770935535430908e-02 -3.443344533443450928e-01
1.564179956912994385e-01 -6.364835053682327271e-02 -1.098183467984199524e-01
-3.186260163784027100e-01 7.541657239198684692e-02 -8.134747296571731567e-02
1.418139040470123291e-01 -2.031817659735679626e-02 2.792458832263946533e-01
-1.295952498912811279e-01 4.354279488325119019e-02 1.085907369852066040e-01
3.217135667800903320e-01 1.140110716223716736e-01 4.339695349335670471e-02
1.151578947901725769e-01 -4.976793657988309860e-03 4.616693556308746338e-01
-9.463050961494445801e-02 4.579661879688501358e-03 6.735845208168029785e-01
7.616509795188903809e-01 1.606443338096141815e-02 1.082220897078514099e-01
