1.062104105949401855e-01 -2.806530520319938660e-02 8.577392436563968658e-03
1.888727098703384399e-01 -6.114554777741432190e-02 -1.509230285882949829e-01
-3.108816742897033691e-01 4.930926114320755005e-02 6.932242959737777710e-02
3.150885105133056641e-01 3.955122455954551697e-02 -7.250113785266876221e-02
-5.541683435440063477e-01 6.141739711165428162e-02 1.795728802680969238e-01
2.914597690105438232e-01 -3.930492699146270752e-02 1.283559799194335938e-01
-3.383676409721374512e-01 -6.147762387990951538e-02 -3.456742316484451294e-02
1.631237566471099854e-01 -3.777225315570831299e-02 2.976399958133697510e-01
-5.337582230567932129e-01 1.449198555201292038e-02 7.392045855522155762e-02
1.090714037418365479e-01 -3.235959913581609726e-03 3.176158368587493896e-01
-6.817891597747802734e-01 3.491772115230560303e-01 -1.946978503838181496e-03
-1.002665087580680847e-01 -3.340412303805351257e-02 -2.714679539203643799e-01
-2.969598770141601562e-01 4.895163699984550476e-02 8.321094512939453125e-01
-5.903395414352416992e-01 -1.810291782021522522e-02 -1.451491657644510269e-02
2.203692048788070679e-01 -7.476082444190979004e-02 -1.316105388104915619e-02
-6.983931064605712891e-01 5.204253271222114563e-02 3.805584833025932312e-02
4.480736851692199707e-01 -7.179764658212661743e-02 4.824814200401306152e-02
-4.521687924861907959e-01 5.704927071928977966e-02 2.316335216164588928e-02
1.878253817558288574e-01 -7.271724194288253784e-02 1.009466350078582764e-01
2.439723908901214600e-01 -2.645600028336048126e-02 9.806009382009506226e-02
-1.017074286937713623e-02 -5.790424067527055740e-03 -2.891448140144348145e-01
4.249557852745056152e-01 6.210709735751152039e-02 -6.575736403465270996e-02
2.459904104471206665e-01 -1.378304064273834229e-01 2.740112245082855225e-01
1.569164246320724487e-01 -5.618990585207939148e-02 -6.427577883005142212e-02
4.766069948673248291e-01 -7.414773851633071899e-02 2.576890215277671814e-02
2.824169993400573730e-01 -8.750756829977035522e-02 -2.362675219774246216e-01
4.481247663497924805e-01 -3.547323867678642273e-02 6.945015490055084229e-02
-5.210114717483520508e-01 2.505750954151153564e-01 -6.186598329804837704e-04
4.439354240894317627e-01 -6.099228188395500183e-02 -6.292191892862319946e-02
2.294630557298660278e-01 -7.506735622882843018e-02 5.851706862449645996e-02
9.026907682418823242e-01 1.949872076511383057e-02 5.563913146033883095e-04
1.915444806218147278e-02 -7.476082444190979004e-02 -1.093867421150207520e-02
-9.423798322677612305e-02 -2.757995575666427612e-02 -2.838563174009323120e-02
4.899667799472808838e-01 4.555139224976301193e-03 -7.485123723745346069e-02
-6.283242702484130859e-01 6.545343995094299316e-02 1.016874238848686218e-01
5.191897749900817871e-01 7.089444249868392944e-02 5.831271037459373474e-02
-2.299819439649581909e-01 3.978113085031509399e-02 7.656935453414916992e-01
-6.163439154624938965e-01 -9.111220017075538635e-03 2.186057902872562408e-02
-4.254235923290252686e-01 6.545343995094299316e-02 1.064650528132915497e-02
-1.827755421400070190e-01 1.771059818565845490e-02 5.157652497291564941e-01
7.217584252357482910e-01 7.000038027763366699e-02 -5.014961957931518555e-02
8.380118012428283691e-01 3.898924961686134338e-02 4.382892698049545288e-02
-4.608644172549247742e-02 -2.385044284164905548e-02 -7.178588956594467163e-02
-5.880915522575378418e-01 1.514620780944824219e-01 2.702136989682912827e-03
2.730317041277885437e-02 8.852020651102066040e-02 3.751941397786140442e-02
1.217670664191246033e-01 -1.082753166556358337e-01 -2.642899155616760254e-01
2.354811690747737885e-02 -6.352406926453113556e-03 2.882140278816223145e-01
4.046989381313323975e-01 -7.476082444190979004e-02 1.644512824714183807e-02
2.516102194786071777e-01 -5.782475322484970093e-02 -1.657899916172027588e-01
-1.730430424213409424e-01 2.660012058913707733e-02 5.998580455780029297e-01
1.530081033706665039e-01 -1.784746721386909485e-02 -3.220717608928680420e-01
-5.599159002304077148e-01 2.069704681634902954e-01 -1.793710980564355850e-03
-4.943940341472625732e-01 9.411447495222091675e-02 -1.875531859695911407e-02
-5.649347789585590363e-03 8.000852540135383606e-04 -3.514480590820312500e-01
-1.068059355020523071e-01 6.189995910972356796e-03 -4.023839831352233887e-01
-1.107142567634582520e-01 -2.068291418254375458e-02 2.370482087135314941e-01
5.951594114303588867e-01 -1.616152934730052948e-02 7.236223667860031128e-02
-6.016150861978530884e-02 -9.111220017075538635e-03 2.621840834617614746e-01
2.662472724914550781e-01 -2.757995575666427612e-02 -3.147574374452233315e-03
1.085245702415704727e-02 -3.243343532085418701e-02 -7.050865888595581055e-02
-1.443668734282255173e-02 -2.392994938418269157e-03 -3.212288022041320801e-01
9.004939198493957520e-01 1.661218330264091492e-02 -1.543452218174934387e-02
-2.248474806547164917e-01 -6.949862837791442871e-02 -4.126010462641716003e-02
-5.501579046249389648e-01 2.507794499397277832e-01 -1.001828699372708797e-03
-7.748074084520339966e-02 -1.557400450110435486e-02 2.010814100503921509e-01
2.036119401454925537e-01 -4.934394732117652893e-02 3.215752542018890381e-01
5.601122379302978516e-01 9.178991615772247314e-02 -3.185969591140747070e-02
-1.255678129382431507e-03 -2.683916501700878143e-02 -3.049313724040985107e-01
-2.834212481975555420e-01 7.927306741476058960e-02 5.141567438840866089e-02
-3.313533216714859009e-02 8.054742589592933655e-03 5.354856848716735840e-01
1.119969063438475132e-03 1.117119006812572479e-02 -4.494626522064208984e-01
3.472747206687927246e-01 -2.870392240583896637e-02 -1.333125837845727801e-04
8.505797982215881348e-01 1.175871398299932480e-02 -5.520744994282722473e-02
1.836105138063430786e-01 -2.757995575666427612e-02 -7.135163247585296631e-02
5.805885791778564453e-02 -2.706906571984291077e-02 -8.798115700483322144e-02
3.569305837154388428e-01 2.813279442489147186e-02 7.563194632530212402e-02
6.143074855208396912e-02 -7.488853484392166138e-02 2.196275815367698669e-02
2.764395475387573242e-01 6.994929164648056030e-02 -5.937121435999870300e-02
-6.306743621826171875e-01 6.256690621376037598e-02 -2.217581868171691895e-01
3.311560750007629395e-01 -4.012234881520271301e-02 -6.849063932895660400e-02
2.219018638134002686e-01 -1.362977474927902222e-01 2.938338220119476318e-01
4.159773699939250946e-03 -2.487223409116268158e-02 1.131569445133209229e-01
-5.987691879272460938e-01 9.991309046745300293e-02 -2.151335356757044792e-03
-4.123192429542541504e-01 1.241293698549270630e-01 1.297184615395963192e-03
-6.676118373870849609e-01 6.545343995094299316e-02 1.957937031984329224e-01
-7.415634393692016602e-01 3.600053116679191589e-02 -1.142402179539203644e-02
1.528548449277877808e-01 -1.263097971677780151e-01 3.048435449600219727e-01
3.473258018493652344e-01 -7.455645501613616943e-02 -9.071442484855651855e-02
1.696887314319610596e-01 -5.095326155424118042e-02 -1.966734081506729126e-01
-2.597669661045074463e-01 3.216883912682533264e-02 6.523777246475219727e-01
2.729910314083099365e-01 -5.534693226218223572e-02 -1.770296245813369751e-01
-5.927150845527648926e-01 6.545343995094299316e-02 1.567878946661949158e-02
-2.869974672794342041e-01 3.244983032345771790e-02 7.435471564531326294e-02
1.577083021402359009e-01 -1.197193041443824768e-01 2.578159570693969727e-01
2.655320167541503906e-01 -7.404557615518569946e-02 2.673959545791149139e-02
-7.415634393692016602e-01 3.600053116679191589e-02 -1.142402179539203644e-02
-1.263730823993682861e-01 4.401872865855693817e-03 -3.856011927127838135e-01
7.123324871063232422e-01 -7.363685965538024902e-02 -3.076127730309963226e-02
2.256824523210525513e-01 -7.476082444190979004e-02 -4.373714327812194824e-03
5.343121886253356934e-01 6.660294532775878906e-02 6.186341121792793274e-02
-4.828223288059234619e-01 1.442584991455078125e-01 -1.819255645386874676e-03
-6.243393421173095703e-01 3.283839225769042969e-01 7.352035609073936939e-04
-2.950184941291809082e-01 -2.579183317720890045e-02 -6.997222453355789185e-02
2.704876959323883057e-01 -2.658371441066265106e-02 9.685949981212615967e-02
2.585838735103607178e-01 9.385902434587478638e-02 2.788910269737243652e-02
3.980956505984067917e-03 -2.367444336414337158e-03 -7.411044836044311523e-02
-6.336375474929809570e-01 2.271507233381271362e-01 2.523324918001890182e-03
-5.199385881423950195e-01 5.730471760034561157e-02 3.184851631522178650e-02
7.009036093950271606e-02 -5.688240285962820053e-03 -7.375282049179077148e-02
-2.213734090328216553e-01 2.792843990027904510e-02 -7.594966143369674683e-02
-4.574565589427947998e-01 9.692437946796417236e-02 -7.847779430449008942e-03
2.852779924869537354e-01 -3.128392621874809265e-02 -1.218277439475059509e-01
3.018564283847808838e-01 -1.078921407461166382e-01 -3.035775125026702881e-01
-7.965202629566192627e-02 9.628576040267944336e-02 1.511680800467729568e-02
-3.535666763782501221e-01 6.363977491855621338e-02 6.431569159030914307e-02
-5.426988005638122559e-01 1.598151624202728271e-01 -2.253513550385832787e-03
9.716762602329254150e-02 -7.447983324527740479e-02 -3.906326740980148315e-02
-2.612230181694030762e-01 3.993439674377441406e-02 7.257673144340515137e-01
-7.114463448524475098e-01 2.110803686082363129e-02 2.975385636091232300e-02
-1.503339111804962158e-01 4.452954977750778198e-03 3.904179334640502930e-01
2.216464132070541382e-01 7.339502684772014618e-03 7.489115744829177856e-02
-3.240116238594055176e-01 5.301322788000106812e-02 8.494542837142944336e-01
6.275906413793563843e-02 3.625597804784774780e-02 7.320521026849746704e-02
-5.188146829605102539e-01 5.927165225148200989e-02 -1.032568216323852539e-01
-6.070967316627502441e-01 6.167284026741981506e-02 1.888711154460906982e-01
9.622248262166976929e-02 -2.625164203345775604e-02 3.095437586307525635e-01
-4.235588610172271729e-01 3.957677260041236877e-02 -7.247558981180191040e-02
2.939887046813964844e-01 -2.806530520319938660e-02 1.560215558856725693e-02
2.212377190589904785e-01 -9.504321962594985962e-02 -3.376028835773468018e-01
-4.008241891860961914e-01 -9.443294256925582886e-03 -7.132608443498611450e-02
-4.534716010093688965e-01 1.004722341895103455e-02 7.282204180955886841e-02
8.128759860992431641e-01 -4.364750534296035767e-02 -6.202785298228263855e-02
2.560294270515441895e-01 -4.673840105533599854e-02 -1.333125837845727801e-04
2.740639150142669678e-01 -1.318274438381195068e-01 -3.095293939113616943e-01
3.130194246768951416e-01 -6.722515821456909180e-02 -1.236158609390258789e-01
-6.573429703712463379e-01 6.220927834510803223e-02 -2.082961946725845337e-01
-3.759050508961081505e-03 -4.367305338382720947e-02 -6.757102906703948975e-02
1.605309196747839451e-03 6.920849531888961792e-02 5.971766263246536255e-02
-2.097610570490360260e-02 -7.435210794210433960e-02 -1.763135753571987152e-02
-1.929167360067367554e-01 1.663773320615291595e-02 5.977634191513061523e-01
-3.015579283237457275e-01 3.970449417829513550e-02 -7.192646265029907227e-01
7.238937914371490479e-02 -6.965472362935543060e-03 -2.781095504760742188e-01
3.010900914669036865e-01 -6.423643976449966431e-02 -3.314466476440429688e-01
4.876063019037246704e-02 -1.095042563974857330e-02 2.446604967117309570e-01
-3.458266556262969971e-01 9.792061895132064819e-02 1.220550853759050369e-03
-2.628067433834075928e-01 2.828606590628623962e-02 6.158233880996704102e-01
3.150885105133056641e-01 3.955122455954551697e-02 -7.250113785266876221e-02
1.078452691435813904e-01 -1.938014104962348938e-02 -1.606555283069610596e-01
-8.726431429386138916e-02 -1.455221325159072876e-02 3.713872134685516357e-01
-3.042145371437072754e-01 -1.930350810289382935e-02 -7.124944776296615601e-02
7.924402952194213867e-01 7.030691206455230713e-02 -2.159076929092407227e-02
4.709360599517822266e-01 -7.287050783634185791e-02 -3.814366459846496582e-02
-4.013095498085021973e-01 -5.419742316007614136e-02 4.135110601782798767e-02
-3.190919384360313416e-02 1.413150574080646038e-03 -3.572466671466827393e-01
7.588747143745422363e-01 4.067518562078475952e-02 -6.644707173109054565e-02
-5.443848371505737305e-01 5.722808465361595154e-02 -2.915196865797042847e-02
6.585866212844848633e-01 -7.394339144229888916e-02 -2.787473797798156738e-02
-1.839610002934932709e-02 2.332758158445358276e-03 -3.659573793411254883e-01
-1.734262257814407349e-01 8.305366337299346924e-02 -4.764625057578086853e-02
3.747096061706542969e-01 -7.442872971296310425e-02 -3.109335713088512421e-02
-6.768590211868286133e-01 6.614314764738082886e-02 3.090336360037326813e-02
-6.590904295444488525e-02 1.727633923292160034e-02 5.670077204704284668e-01
6.621373295783996582e-01 -6.865565478801727295e-02 5.412339791655540466e-02
-8.113362640142440796e-02 -6.155426427721977234e-02 -1.491349041461944580e-01
-3.982801735401153564e-02 -1.743875071406364441e-02 3.505428433418273926e-01
2.154901772737503052e-01 -4.027561470866203308e-02 -2.634725272655487061e-01
8.150728344917297363e-01 2.956329286098480225e-02 5.777627974748611450e-02
-6.044400930404663086e-01 2.527974545955657959e-01 -1.717077218927443027e-03
4.052864611148834229e-01 -7.409665733575820923e-02 2.615207061171531677e-02
1.476181894540786743e-01 -7.381566613912582397e-02 2.891088835895061493e-02
-1.037150323390960693e-01 1.142663042992353439e-02 -5.565966963768005371e-01
-5.890877842903137207e-01 -1.166567485779523849e-02 4.505506902933120728e-02
9.637574851512908936e-02 -8.012805134057998657e-03 -2.682493627071380615e-01
-5.077793598175048828e-01 1.469662338495254517e-01 -1.998067833483219147e-03
-5.142932534217834473e-01 4.772549495100975037e-02 6.911807507276535034e-02
4.020318761467933655e-02 -1.945677399635314941e-02 -3.381137847900390625e-01
-6.000719666481018066e-01 6.545343995094299316e-02 1.825871318578720093e-01
-8.780075609683990479e-02 8.156926371157169342e-03 5.362520217895507812e-01
5.918641686439514160e-01 4.164588078856468201e-02 7.139154523611068726e-02
-1.330402344465255737e-01 7.135144434869289398e-03 -4.114778339862823486e-01
-1.762976869940757751e-02 -3.910056874155998230e-02 6.850500404834747314e-02
-1.674743294715881348e-01 1.832367293536663055e-02 6.100248098373413086e-01
7.657717466354370117e-01 1.541159301996231079e-02 7.537649571895599365e-02
7.177630811929702759e-02 -7.414773851633071899e-02 9.450940042734146118e-02
1.003502402454614639e-02 -3.830868378281593323e-02 -2.534845769405364990e-01
1.468007713556289673e-01 -6.380217522382736206e-02 3.157255351543426514e-01
1.877742856740951538e-01 -1.226824671030044556e-01 3.173859417438507080e-01
-2.978794872760772705e-01 5.860749259591102600e-02 6.653807312250137329e-02
5.121291056275367737e-02 -2.806530520319938660e-02 3.547584637999534607e-02
-2.797532081604003906e-02 -1.828172616660594940e-02 1.754602044820785522e-01
-1.864795088768005371e-01 2.846487239003181458e-02 -6.130502223968505859e-01
6.103073954582214355e-01 -7.264062017202377319e-02 4.002278670668601990e-02
6.112420931458473206e-02 -6.198852509260177612e-02 -1.471935212612152100e-01
-1.512279808521270752e-01 1.591967651620507240e-03 4.886113703250885010e-01
-1.553917378187179565e-01 1.267832145094871521e-02 -5.656394362449645996e-01
-1.133964285254478455e-01 2.996915485709905624e-03 4.987525641918182373e-01
3.086512982845306396e-01 -5.759484320878982544e-02 -3.267464339733123779e-01
4.843469560146331787e-01 -5.782475322484970093e-02 6.357490271329879761e-02
1.551027595996856689e-01 -1.299371272325515747e-01 2.921223342418670654e-01
1.252922266721725464e-01 -1.664686948060989380e-02 1.908891350030899048e-01
1.957697421312332153e-01 -1.345607191324234009e-01 -2.874077856540679932e-01
2.848693132400512695e-01 3.479993343353271484e-02 -7.390608638525009155e-02
-4.398307502269744873e-01 5.789224058389663696e-02 5.294835194945335388e-02
-4.296640157699584961e-01 -4.957384616136550903e-02 5.110913515090942383e-02
2.256824523210525513e-01 -7.476082444190979004e-02 -4.373714327812194824e-03
-7.505399733781814575e-02 -2.806530520319938660e-02 6.937352567911148071e-02
-6.152710318565368652e-01 7.510929554700851440e-02 3.994615375995635986e-02
-1.211109012365341187e-01 1.140108890831470490e-02 7.532541453838348389e-02
-3.046487867832183838e-01 4.029202088713645935e-02 7.291903495788574219e-01
-5.143443346023559570e-01 1.787181496620178223e-01 -1.614898792468011379e-03
-5.193615332245826721e-02 -7.476082444190979004e-02 1.557661034166812897e-02
6.146755218505859375e-01 9.375684708356857300e-02 -1.732482202351093292e-02
7.907798886299133301e-01 7.306573539972305298e-02 7.070261985063552856e-03
2.445854693651199341e-01 -9.644817560911178589e-02 -2.345560342073440552e-01
-1.187352463603019714e-01 -1.039129798300564289e-03 -4.660666584968566895e-01
2.918174266815185547e-01 -1.122858226299285889e-01 2.449159473180770874e-01
-4.157166779041290283e-01 6.545343995094299316e-02 -2.664859779179096222e-02
-1.772834509611129761e-01 -7.391785085201263428e-02 -2.815573103725910187e-02
-1.860708147287368774e-01 1.671436615288257599e-02 5.063137412071228027e-01
-2.891943156719207764e-01 4.274430125951766968e-02 -7.838158011436462402e-01
-3.338462710380554199e-01 9.549388289451599121e-02 -2.028799615800380707e-02
-6.565511226654052734e-01 3.013066649436950684e-01 -2.151335356757044792e-03
1.091480404138565063e-01 -2.806530520319938660e-02 5.925786495208740234e-02
1.184207275509834290e-01 -3.189699351787567139e-02 2.842035293579101562e-01
-8.343262225389480591e-02 1.541159301996231079e-02 -4.895676374435424805e-01
8.666879683732986450e-02 -2.385044284164905548e-02 -1.184558495879173279e-01
-1.286976486444473267e-01 -7.264062017202377319e-02 4.002278670668601990e-02
-6.149899959564208984e-01 2.452873587608337402e-01 1.808076398447155952e-03
2.485193312168121338e-01 -1.149680092930793762e-01 2.420038431882858276e-01
3.417466580867767334e-02 -1.327499002218246460e-02 -2.183607667684555054e-01
-2.992333471775054932e-01 5.040768161416053772e-02 -8.206000328063964844e-01
2.730317041277885437e-02 8.852020651102066040e-02 3.751941397786140442e-02
1.649885177612304688e-01 -5.317563191056251526e-02 -6.506766378879547119e-02
6.137965619564056396e-02 -9.724285453557968140e-03 -4.030481278896331787e-01
-1.342152804136276245e-01 2.440328150987625122e-02 5.789881348609924316e-01
2.821871042251586914e-01 -1.277147531509399414e-01 -3.153280317783355713e-01
-3.610001802444458008e-01 5.186371877789497375e-02 -8.500529527664184570e-01
-6.005933508276939392e-02 -6.704635173082351685e-02 1.264401376247406006e-01
-5.845001712441444397e-02 -7.442872971296310425e-02 -9.135304391384124756e-02
7.479416131973266602e-01 7.814910262823104858e-02 2.727603353559970856e-02
-4.021014273166656494e-01 9.585150331258773804e-02 -1.811670511960983276e-02
3.059691190719604492e-01 -7.220636308193206787e-02 1.032711938023567200e-01
8.797261714935302734e-01 -4.030116647481918335e-02 -4.971535876393318176e-02
3.491545841097831726e-02 -1.084825117141008377e-02 3.983367979526519775e-01
-1.149035692214965820e-01 2.608923055231571198e-02 -5.905964970588684082e-01
5.820550322532653809e-01 7.562018930912017822e-02 -5.469655990600585938e-02
4.004585742950439453e-01 1.112009771168231964e-02 -7.556648552417755127e-02
8.214589953422546387e-01 5.505679547786712646e-02 -3.119553625583648682e-02
-6.469973921775817871e-01 6.351204961538314819e-02 2.552870512008666992e-01
-8.098033815622329712e-02 -1.774529367685317993e-02 -3.458282649517059326e-01
1.626895070075988770e-01 -1.194666605442762375e-02 -2.764747142791748047e-01
-1.820092201232910156e-01 9.467645734548568726e-02 2.520692162215709686e-02
-1.176368370652198792e-01 -1.166854868642985821e-03 3.371829986572265625e-01
-4.793993532657623291e-01 1.783832348883152008e-02 -7.446807622909545898e-02
-4.745714068412780762e-01 6.545343995094299316e-02 4.967864230275154114e-02
-1.009562164545059204e-01 -5.126266740262508392e-03 2.999390065670013428e-01
1.443484872579574585e-01 -1.126178950071334839e-01 -3.214076161384582520e-01
-1.002665087580680847e-01 1.696980744600296021e-02 -5.044346451759338379e-01
-5.131437778472900391e-01 6.545343995094299316e-02 -7.950035482645034790e-02
-4.432792663574218750e-01 -5.133642628788948059e-02 6.636003497987985611e-03
-5.994589328765869141e-01 6.545343995094299316e-02 -3.231949731707572937e-02
8.165288567543029785e-01 -6.262712925672531128e-02 -5.362368375062942505e-02
5.992976427078247070e-01 6.185165420174598694e-02 -6.509320437908172607e-02
-1.778709739446640015e-01 1.937100477516651154e-02 5.314241051673889160e-01
-3.914237618446350098e-01 5.561877414584159851e-02 -8.773345351219177246e-01
8.868682384490966797e-02 -8.163230866193771362e-02 2.912793755531311035e-01
3.213109821081161499e-02 -1.018409430980682373e-02 2.519406974315643311e-01
2.050935328006744385e-01 -2.747778221964836121e-02 -7.140272110700607300e-02
6.063886359333992004e-02 -3.644676413387060165e-03 -3.093761205673217773e-01
4.351225793361663818e-01 9.153446555137634277e-02 3.207841515541076660e-02
-6.044400930404663086e-01 2.527974545955657959e-01 -1.717077218927443027e-03
-9.970452636480331421e-02 3.543854877352714539e-02 7.346065342426300049e-02
-9.906592220067977905e-02 -3.876848518848419189e-02 -2.407122850418090820e-01
4.475012794137001038e-02 -1.020963490009307861e-02 -2.474305033683776855e-01
1.957697421312332153e-01 -1.345607191324234009e-01 -2.874077856540679932e-01
-2.723093330860137939e-01 4.284648224711418152e-02 -7.846587896347045898e-01
-1.164617910981178284e-01 1.451752707362174988e-02 5.823344588279724121e-01
-2.058423012495040894e-01 3.063616715371608734e-02 6.379705667495727539e-01
-4.173259735107421875e-01 -5.202612653374671936e-02 4.331803694367408752e-02
-5.331196188926696777e-01 5.988472327589988708e-02 -1.253018081188201904e-01
-2.896285653114318848e-01 -6.653545051813125610e-02 -2.217829599976539612e-02
2.417500168085098267e-01 1.216743048280477524e-02 7.540204375982284546e-02
-1.213918924331665039e-01 9.329704940319061279e-02 2.888534218072891235e-02
-1.580483764410018921e-01 9.996131993830204010e-03 4.427332878112792969e-01
3.291635811328887939e-01 -1.856553368270397186e-03 7.389491051435470581e-02
-2.467903196811676025e-01 2.943556755781173706e-02 -6.872828006744384766e-01
-2.047183364629745483e-01 9.511071443557739258e-02 2.252473868429660797e-02
-3.369882702827453613e-01 4.953916370868682861e-02 -6.951241940259933472e-02
2.604486644268035889e-01 -8.472321182489395142e-02 -3.402339816093444824e-01
5.494242161512374878e-02 -2.265269868075847626e-03 -4.335483908653259277e-01
2.220806926488876343e-01 -2.065737359225749969e-02 1.530065089464187622e-01
4.696205724030733109e-03 -2.757995575666427612e-02 -6.039300188422203064e-02
3.738921582698822021e-01 -7.488853484392166138e-02 2.175839990377426147e-02
-6.295760273933410645e-01 1.413150574080646038e-03 4.395665228366851807e-02
1.396993696689605713e-01 -3.424710035324096680e-02 2.736791372299194336e-01
5.282070636749267578e-01 9.633685648441314697e-02 -1.500026416033506393e-02
1.406700611114501953e-01 -6.467069685459136963e-02 -2.515176534652709961e-01
-2.546580433845520020e-01 4.113499075174331665e-02 7.174916565418243408e-02
2.986122667789459229e-01 -3.646947816014289856e-02 -2.813537418842315674e-01
7.741503715515136719e-01 6.956611573696136475e-02 -3.346900641918182373e-02
1.186506301164627075e-01 -7.016279548406600952e-02 -1.104603931307792664e-01
-1.449695527553558350e-01 2.468427270650863647e-02 -6.527209877967834473e-01
6.403629481792449951e-02 -4.354532808065414429e-02 -2.299579977989196777e-01
8.038483560085296631e-02 -5.749268084764480591e-02 1.692528724670410156e-01
5.912766456604003906e-01 -5.026355385780334473e-02 6.556737422943115234e-02
9.113910049200057983e-02 -2.392707578837871552e-02 1.221486404538154602e-01
-1.441776603460311890e-01 -6.203960627317428589e-02 6.150578707456588745e-02
8.002720773220062256e-02 -1.181894075125455856e-02 7.282204180955886841e-02
4.232442975044250488e-01 5.127619579434394836e-02 -6.900152564048767090e-02
-5.521632265299558640e-03 -1.608489453792572021e-02 3.601986765861511230e-01
7.589257955551147461e-01 -8.472603745758533478e-03 7.317966222763061523e-02
-3.210228681564331055e-01 2.243635058403015137e-02 7.532541453838348389e-02
-4.138519167900085449e-01 -5.465722456574440002e-02 -2.276582270860671997e-02
1.001052558422088623e-01 -9.596569463610649109e-03 3.804300427436828613e-01
-2.328173965215682983e-01 2.473536506295204163e-02 6.565415263175964355e-01
-1.201657429337501526e-01 -1.618706993758678436e-02 -7.262885570526123047e-02
6.149309277534484863e-01 -2.714569866657257080e-02 7.116164267063140869e-02
1.773521006107330322e-01 -5.762040615081787109e-02 1.686653345823287964e-01
2.459904104471206665e-01 -3.317422419786453247e-02 3.014716506004333496e-01
2.776657342910766602e-01 -1.147636473178863525e-01 -3.290709853172302246e-01
2.968752384185791016e-01 -2.806530520319938660e-02 6.043291091918945312e-02
-5.987691879272460938e-01 9.991309046745300293e-02 -2.151335356757044792e-03
4.185314755886793137e-03 7.441677153110504150e-03 -4.143388271331787109e-01
8.579110503196716309e-01 -6.622891873121261597e-02 1.759463362395763397e-02
-3.306787610054016113e-01 5.367738381028175354e-02 8.558148741722106934e-01
-2.723093330860137939e-01 4.284648224711418152e-02 -7.846587896347045898e-01
-7.262726128101348877e-02 -6.186079978942871094e-02 -1.477044075727462769e-01
1.570441424846649170e-01 -6.198852509260177612e-02 -1.333125837845727801e-04
4.899923205375671387e-01 9.092140197753906250e-02 3.317683190107345581e-02
2.541391551494598389e-01 -2.198569662868976593e-02 1.489960104227066040e-01
4.200767874717712402e-01 -7.069922238588333130e-02 -1.333125837845727801e-04
-3.084293901920318604e-01 8.910772949457168579e-02 3.644654154777526855e-02
-2.910335361957550049e-01 -5.021246150135993958e-02 6.342162936925888062e-02
-4.013095498085021973e-01 -5.419742316007614136e-02 4.135110601782798767e-02
-3.637949377298355103e-02 7.183959335088729858e-02 -5.781299620866775513e-02
1.846578568220138550e-01 -3.738907724618911743e-02 2.595274448394775391e-01
-5.936858057975769043e-01 4.913044720888137817e-02 -6.488884985446929932e-02
-2.960658371448516846e-01 4.450687766075134277e-02 7.999999523162841797e-01
-1.297449767589569092e-01 3.354540094733238220e-03 5.012559294700622559e-01
9.352345466613769531e-01 -9.417752735316753387e-03 -3.530743066221475601e-03
-2.975218594074249268e-01 2.986982464790344238e-02 7.512105256319046021e-02
-3.154796957969665527e-01 -6.477288156747817993e-02 -1.990482583642005920e-02
1.572229564189910889e-01 -2.806530520319938660e-02 6.952679157257080078e-02
9.371910989284515381e-02 -2.075954712927341461e-02 -3.322896361351013184e-01
-6.817891597747802734e-01 3.491772115230560303e-01 -1.946978503838181496e-03
-9.357383847236633301e-02 -1.189557462930679321e-02 3.905967772006988525e-01
-9.293521195650100708e-02 2.409391338005661964e-03 -3.665704727172851562e-01
-1.286976486444473267e-01 -7.264062017202377319e-02 4.002278670668601990e-02
-1.242528930306434631e-01 -8.012805134057998657e-03 4.188235402107238770e-01
-5.469496548175811768e-02 8.202880053431726992e-06 -4.738066494464874268e-01
1.318060904741287231e-01 -7.509289681911468506e-02 6.158242002129554749e-02
1.180375516414642334e-01 -2.351837046444416046e-02 -3.198493719100952148e-01
5.529086589813232422e-01 6.169838830828666687e-02 -6.588508933782577515e-02
1.756661534309387207e-01 -8.030399680137634277e-02 -3.336945474147796631e-01
2.294630557298660278e-01 -7.506735622882843018e-02 5.851706862449645996e-02
1.351524293422698975e-01 -6.768495589494705200e-02 -3.165286183357238770e-01
-1.130898967385292053e-01 -2.410589344799518585e-02 1.203349754214286804e-01
5.683120489120483398e-01 -7.476082444190979004e-02 -1.906185410916805267e-02
-2.047183364629745483e-01 9.511071443557739258e-02 2.252473868429660797e-02
-4.342364966869354248e-01 9.567269682884216309e-02 1.905067451298236847e-02
5.910978317260742188e-01 6.647522002458572388e-02 6.155687943100929260e-02
8.165288567543029785e-01 -6.262712925672531128e-02 -5.362368375062942505e-02
-1.682917624711990356e-01 2.792843990027904510e-02 6.124515533447265625e-01
-4.970761835575103760e-01 6.545343995094299316e-02 1.373740006238222122e-02
-3.419439196586608887e-01 5.204253271222114563e-02 8.403093218803405762e-01
3.152928948402404785e-01 -5.509148165583610535e-02 1.235535964369773865e-01
9.026907682418823242e-01 1.949872076511383057e-02 5.563913146033883095e-04
-4.994367063045501709e-02 8.511677151545882225e-04 -7.444252818822860718e-02
-4.744437038898468018e-01 5.730471760034561157e-02 3.159306570887565613e-02
-5.912335515022277832e-01 5.791778862476348877e-02 -5.410902947187423706e-02
-8.229353465139865875e-03 -7.468418031930923462e-02 -7.546430826187133789e-02
2.092572897672653198e-01 -5.808020383119583130e-02 -2.449015974998474121e-01
-3.101664483547210693e-01 3.819736465811729431e-02 7.093676924705505371e-01
-6.010937690734863281e-01 5.924610793590545654e-02 1.014064326882362366e-01
-2.248474806547164917e-01 -6.949862837791442871e-02 -4.126010462641716003e-02
5.673053860664367676e-02 -1.092488411813974380e-02 -2.405845522880554199e-01
2.204098552465438843e-02 -6.952416896820068359e-02 -1.132958531379699707e-01
1.361127011477947235e-02 2.381023805355653167e-04 3.506705462932586670e-01
6.350600719451904297e-01 4.006211832165718079e-02 7.088065147399902344e-02
-3.272302150726318359e-01 3.973003849387168884e-02 -7.505822777748107910e-01
-1.700798720121383667e-01 3.500429168343544006e-02 -6.748170852661132812e-01
2.268575131893157959e-01 2.910348773002624512e-02 7.535095512866973877e-02
-1.056308895349502563e-01 -2.009819727391004562e-03 4.624026119709014893e-01
-2.910335361957550049e-01 -5.021246150135993958e-02 6.342162936925888062e-02
7.587980628013610840e-01 3.211775049567222595e-02 6.868381798267364502e-02
-4.027144908905029297e-01 9.605586528778076172e-02 -4.143030673731118441e-04
4.492742717266082764e-01 -2.037638053297996521e-02 -7.216905802488327026e-02
7.156532406806945801e-01 6.739483028650283813e-02 5.292280390858650208e-02
-1.014415547251701355e-01 -4.776018112897872925e-02 6.804520636796951294e-02
1.384987682104110718e-01 -6.760833412408828735e-02 3.147037625312805176e-01
5.912766456604003906e-01 -5.026355385780334473e-02 6.556737422943115234e-02
-4.503040611743927002e-01 2.805616147816181183e-02 7.552976161241531372e-02
2.169972956180572510e-01 -7.373902201652526855e-02 -2.986721694469451904e-02
-6.111838817596435547e-01 6.031898036599159241e-02 1.400043070316314697e-01
-5.210114717483520508e-01 2.505750954151153564e-01 -6.186598329804837704e-04
4.742057621479034424e-01 -7.476082444190979004e-02 1.363522280007600784e-02
-6.681994199752807617e-01 6.540235131978988647e-02 3.534812480211257935e-02
2.204098552465438843e-02 -6.952416896820068359e-02 -1.132958531379699707e-01
2.869639396667480469e-01 -4.022453352808952332e-02 -2.646731138229370117e-01
3.316414356231689453e-01 -7.468418031930923462e-02 -7.523440569639205933e-02
1.681305021047592163e-01 7.850672304630279541e-02 5.202874168753623962e-02
-4.235588610172271729e-01 3.957677260041236877e-02 -7.247558981180191040e-02
6.579225063323974609e-01 3.339497745037078857e-02 -7.260331511497497559e-02
-4.198549091815948486e-01 -3.565204516053199768e-02 6.393252313137054443e-02
-3.759050508961081505e-03 -4.367305338382720947e-02 -6.757102906703948975e-02
-3.500008955597877502e-02 -7.468418031930923462e-02 -7.819758355617523193e-02
-2.466114908456802368e-01 2.969101816415786743e-02 6.925082802772521973e-01
2.994041442871093750e-01 -7.261507958173751831e-02 -9.947622567415237427e-02
-6.033161282539367676e-01 6.545343995094299316e-02 4.730299487709999084e-02
-1.085174232721328735e-01 -2.522986009716987610e-02 -1.939656734466552734e-01
1.663168221712112427e-01 -1.445003878325223923e-02 -2.072233110666275024e-01
-2.058423012495040894e-01 3.063616715371608734e-02 6.379705667495727539e-01
1.384987682104110718e-01 -6.760833412408828735e-02 3.147037625312805176e-01
4.525184333324432373e-01 -7.731813471764326096e-03 -7.352291792631149292e-02
-1.964929997920989990e-01 5.270388443022966385e-03 5.083572864532470703e-01
-2.470561675727367401e-02 -2.604728378355503082e-02 1.021216809749603271e-01
1.309120357036590576e-01 -7.455645501613616943e-02 -5.370031669735908508e-02
-6.177488565444946289e-01 6.545343995094299316e-02 -5.709774792194366455e-02
1.786037981510162354e-01 -6.732734292745590210e-02 -1.231305152177810669e-01
3.322034180164337158e-01 2.624249644577503204e-02 -7.594966143369674683e-02
6.882950067520141602e-01 -1.498928759247064590e-03 7.394599914550781250e-02
-4.574565589427947998e-01 9.692437946796417236e-02 -7.847779430449008942e-03
3.507998585700988770e-01 -7.481190562248229980e-02 9.471453726291656494e-03
2.669369578361511230e-01 -2.760550752282142639e-02 8.740799874067306519e-02
2.362834662199020386e-01 -6.219287216663360596e-02 -2.396394014358520508e-01
-1.929167360067367554e-01 1.663773320615291595e-02 5.977634191513061523e-01
-5.911417677998542786e-02 -2.029974758625030518e-02 3.362889587879180908e-01
2.655320167541503906e-01 -7.404557615518569946e-02 2.673959545791149139e-02
-5.729436278343200684e-01 5.756016448140144348e-02 -4.151554778218269348e-02
-2.470561675727367401e-02 -2.604728378355503082e-02 1.021216809749603271e-01
-4.008241891860961914e-01 -9.443294256925582886e-03 -7.132608443498611450e-02
-5.211495980620384216e-02 -7.476082444190979004e-02 -1.870344742201268673e-03
2.850480973720550537e-01 -5.856554582715034485e-02 -1.333125837845727801e-04
4.315207600593566895e-01 6.251581758260726929e-02 6.523530185222625732e-02
5.127270221710205078e-01 9.809942543506622314e-02 3.775009885430335999e-03
4.586746394634246826e-01 4.090509191155433655e-02 -7.209242880344390869e-02
3.271711170673370361e-01 8.525050431489944458e-02 -4.368683695793151855e-02
-6.441363692283630371e-01 6.545343995094299316e-02 2.668076753616333008e-01
7.599731087684631348e-01 -7.476082444190979004e-02 -2.253513550385832787e-03
2.869639396667480469e-01 -4.022453352808952332e-02 -2.646731138229370117e-01
1.816180348396301270e-01 1.405772753059864044e-02 7.560640573501586914e-02
1.561500877141952515e-01 -6.119663268327713013e-02 1.526744365692138672e-01
-5.845001712441444397e-02 -7.442872971296310425e-02 -9.135304391384124756e-02
-7.837479561567306519e-02 -1.685122773051261902e-02 -1.845397204160690308e-01
5.323093011975288391e-02 -9.366660378873348236e-03 4.091165959835052490e-01
-4.315032660961151123e-01 6.545343995094299316e-02 3.496495634317398071e-02
-6.486833691596984863e-01 6.358868628740310669e-02 -2.585679590702056885e-01
5.242220759391784668e-01 9.173882752656936646e-02 -3.198742121458053589e-02
2.910510599613189697e-01 -6.765941530466079712e-02 3.338366746902465820e-01
1.458556056022644043e-01 -1.250864937901496887e-02 -3.106278181076049805e-01
-2.328173965215682983e-01 2.473536506295204163e-02 6.565415263175964355e-01
5.261786282062530518e-02 -5.164296180009841919e-02 -1.935825198888778687e-01
4.658934101462364197e-02 3.993155900388956070e-03 4.176740348339080811e-01
8.579110503196716309e-01 -6.622891873121261597e-02 1.759463362395763397e-02
1.052397191524505615e-01 -7.189983129501342773e-02 -1.026437580585479736e-01
-1.101011931896209717e-01 1.459416002035140991e-02 -4.819042980670928955e-01
6.882950067520141602e-01 -1.498928759247064590e-03 7.394599914550781250e-02
2.293864339590072632e-01 -2.806530520319938660e-02 7.966799288988113403e-02
1.409766077995300293e-01 -2.757995575666427612e-02 -1.484699640423059464e-02
-1.639747321605682373e-01 2.897576801478862762e-02 6.222606897354125977e-01
-7.883461564779281616e-02 9.740691632032394409e-03 4.403831958770751953e-01
8.505797982215881348e-01 1.175871398299932480e-02 -5.520744994282722473e-02
2.456989884376525879e-02 -1.335162390023469925e-02 -2.175944149494171143e-01
5.445707216858863831e-02 -1.879261620342731476e-02 -3.411024808883666992e-01
1.052397191524505615e-01 -7.189983129501342773e-02 -1.026437580585479736e-01
4.109724983572959900e-02 -7.501904387027025223e-03 2.772553861141204834e-01
6.937615871429443359e-01 7.449623197317123413e-02 4.773725196719169617e-02
-2.869974672794342041e-01 3.244983032345771790e-02 7.435471564531326294e-02
-9.850393980741500854e-02 -1.800073310732841492e-02 1.781423687934875488e-01
1.114470511674880981e-01 -7.476082444190979004e-02 -1.077679917216300964e-04
1.534423679113388062e-01 -3.519224748015403748e-02 -1.333125837845727801e-04
-3.217126131057739258e-01 -3.256114944815635681e-02 -6.767320632934570312e-02
-7.362350076436996460e-02 -5.475940927863121033e-02 -1.333125837845727801e-04
2.660429179668426514e-01 -2.806530520319938660e-02 6.370262056589126587e-02
2.617258727550506592e-01 9.347585588693618774e-02 -2.887097932398319244e-02
-6.234963536262512207e-01 2.096782028675079346e-01 -2.815494546666741371e-03
1.605182141065597534e-01 -1.210476234555244446e-01 -3.151236772537231445e-01
2.488514035940170288e-01 -8.944895118474960327e-02 3.408358991146087646e-01
-5.977834388613700867e-02 9.408608078956604004e-03 -5.419340729713439941e-01
3.522048294544219971e-01 -4.472037777304649353e-02 5.190102010965347290e-02
4.439354240894317627e-01 -6.099228188395500183e-02 -6.292191892862319946e-02
3.329441845417022705e-01 -5.754376202821731567e-02 -9.975721687078475952e-02
-1.714337468147277832e-01 -1.289181504398584366e-02 -7.296094298362731934e-02
3.929228782653808594e-01 -7.455645501613616943e-02 -1.333125837845727801e-04
-9.875939041376113892e-02 9.516179561614990234e-02 2.224374748766422272e-02
6.823431849479675293e-01 6.121304258704185486e-02 -6.036745756864547729e-02
-6.547884941101074219e-01 2.690382767468690872e-03 2.673959545791149139e-02
-4.101223945617675781e-01 8.616724982857704163e-03 -7.311420887708663940e-02
-2.930004596710205078e-01 -4.781127348542213440e-02 -6.427577883005142212e-02
-3.216463327407836914e-02 1.400663610547780991e-02 4.807947278022766113e-01
-6.073011159896850586e-01 6.054887920618057251e-02 1.482552140951156616e-01
9.102519750595092773e-01 -4.712156578898429871e-02 3.322792053222656250e-02
2.732720375061035156e-01 -6.684200465679168701e-02 -3.352783322334289551e-01
5.190365314483642578e-01 4.402152821421623230e-02 7.088065147399902344e-02
2.025135308504104614e-01 -9.895153343677520752e-02 2.391939461231231689e-01
-3.549716472625732422e-01 -3.856413438916206360e-02 6.515866518020629883e-02
4.413705319166183472e-02 -3.235679119825363159e-02 -2.801531255245208740e-01
-5.924341082572937012e-01 5.868412554264068604e-02 8.181373029947280884e-02
4.351225793361663818e-01 9.153446555137634277e-02 3.207841515541076660e-02
-1.443820148706436157e-01 8.772832155227661133e-02 -3.919099271297454834e-02
-1.778709739446640015e-01 1.937100477516651154e-02 5.314241051673889160e-01
-5.284194350242614746e-01 6.545343995094299316e-02 -6.984449923038482666e-02
-6.000719666481018066e-01 6.545343995094299316e-02 1.825871318578720093e-01
8.477850258350372314e-02 -2.806530520319938660e-02 5.085369199514389038e-02
6.184049844741821289e-01 4.261657595634460449e-02 7.088065147399902344e-02
1.264928132295608521e-01 -1.886924915015697479e-02 7.205570489168167114e-02
4.985904321074485779e-02 -2.150034718215465546e-02 1.450876891613006592e-01
-6.253715604543685913e-02 -6.145208328962326050e-02 1.515249311923980713e-01
-7.049070000648498535e-01 6.435502320528030396e-02 -2.859261929988861084e-01
3.086512982845306396e-01 -5.759484320878982544e-02 -3.267464339733123779e-01
4.475012794137001038e-02 -1.020963490009307861e-02 -2.474305033683776855e-01
-1.883186995983123779e-01 3.099379129707813263e-02 6.413935422897338867e-01
1.592154353857040405e-01 -6.589684635400772095e-02 2.462442666292190552e-01
3.304663896560668945e-01 -5.713504552841186523e-02 1.017129793763160706e-01
2.816506624221801758e-01 -3.046649321913719177e-02 -1.333125837845727801e-04
-1.665906794369220734e-02 -6.998397409915924072e-02 5.264181271195411682e-02
3.867155611515045166e-01 -7.442872971296310425e-02 -2.897315658628940582e-02
2.252992987632751465e-01 1.055525965057313442e-03 -7.446807622909545898e-02
-5.264779925346374512e-01 3.788797883316874504e-03 -7.168371230363845825e-02
-1.133964285254478455e-01 2.996915485709905624e-03 4.987525641918182373e-01
8.781830966472625732e-02 -2.806530520319938660e-02 1.537225488573312759e-02
1.064914017915725708e-01 -1.812845841050148010e-02 -1.725593209266662598e-01
-8.984432369470596313e-02 -4.691721871495246887e-02 6.643589586019515991e-02
-1.857131570577621460e-01 -2.614945732057094574e-02 -7.150489836931228638e-02
1.094801202416419983e-01 -5.409524217247962952e-02 1.845540702342987061e-01
-7.551381736993789673e-02 -2.574075013399124146e-02 -7.158152759075164795e-02
-6.389102339744567871e-02 -2.042747288942337036e-02 -1.507953107357025146e-01
-5.915208603255450726e-04 -1.687677763402462006e-02 -3.511670529842376709e-01
-1.277628913521766663e-02 5.372562445700168610e-03 -5.127366185188293457e-01
1.411298662424087524e-01 -4.972712323069572449e-02 2.672674655914306641e-01
3.017031550407409668e-01 -1.283278167247772217e-01 -2.628850042819976807e-01
8.447197079658508301e-02 -2.865283004939556122e-02 2.988150417804718018e-01
4.439354240894317627e-01 -6.099228188395500183e-02 -6.292191892862319946e-02
2.166652232408523560e-01 -1.239852383732795715e-01 -3.203602731227874756e-01
-5.763666033744812012e-01 1.434155255556106567e-01 -2.943217521533370018e-03
3.408374786376953125e-01 -7.154219597578048706e-02 1.061832755804061890e-01
4.231676757335662842e-01 -7.174656540155410767e-02 -1.183273456990718842e-02
3.324588537216186523e-01 -2.806530520319938660e-02 2.954950183629989624e-02
-1.245594248175621033e-01 -2.903885906562209129e-03 -3.165541589260101318e-01
-6.312363743782043457e-01 -2.852794015780091286e-03 -3.354563936591148376e-02
1.443484872579574585e-01 -1.126178950071334839e-01 -3.214076161384582520e-01
2.729910314083099365e-01 -5.534693226218223572e-02 -1.770296245813369751e-01
-2.624236047267913818e-01 3.007418289780616760e-02 -6.919829845428466797e-01
3.184859454631805420e-01 -9.673203341662883759e-03 7.305194437503814697e-02
-3.221468329429626465e-01 3.735439106822013855e-02 7.479910850524902344e-01
-6.029585599899291992e-01 5.750907585024833679e-02 -1.584323495626449585e-02
-3.986529111862182617e-01 1.241293698549270630e-01 8.629264775663614273e-04
-3.360801492817699909e-04 9.156000614166259766e-02 -3.229395300149917603e-02
-4.904601573944091797e-01 4.708405118435621262e-03 -7.234787195920944214e-02
3.867411017417907715e-01 -1.909914985299110413e-02 7.203015685081481934e-02
-4.527052342891693115e-01 7.702514529228210449e-02 -5.316388234496116638e-02
4.042136371135711670e-01 -7.266616076231002808e-02 -4.008505120873451233e-02
-7.505399733781814575e-02 -2.806530520319938660e-02 6.937352567911148071e-02
6.424064934253692627e-02 -2.295638620853424072e-02 -1.269111186265945435e-01
-3.750345110893249512e-02 -3.524333983659744263e-02 2.692088484764099121e-01
6.960501521825790405e-02 -1.189557462930679321e-02 2.357709705829620361e-01
-6.905764937400817871e-01 6.964275240898132324e-02 -1.791234686970710754e-02
1.833701878786087036e-02 -2.310965396463871002e-02 1.297353953123092651e-01
-2.969598770141601562e-01 4.895163699984550476e-02 8.321094512939453125e-01
6.143074855208396912e-02 -7.488853484392166138e-02 2.196275815367698669e-02
-1.477283686399459839e-01 -4.513191990554332733e-03 4.072773754596710205e-01
1.384987682104110718e-01 -5.953624472022056580e-02 -1.581266075372695923e-01
2.235878109931945801e-01 8.287485688924789429e-02 -4.795278236269950867e-02
-3.589414432644844055e-02 -1.534409541636705399e-02 2.031250000000000000e-01
8.502351120114326477e-03 -3.721309592947363853e-03 -4.467038512229919434e-01
-6.316195130348205566e-01 8.078020066022872925e-02 -2.304681017994880676e-02
-3.334375321865081787e-01 7.781703025102615356e-02 -5.288289114832878113e-02
-3.912316635251045227e-03 -2.676253207027912140e-02 -9.081660956144332886e-02
7.977176457643508911e-02 -2.717123925685882568e-02 3.054566383361816406e-01
1.720643639564514160e-01 -6.234613806009292603e-02 6.114816293120384216e-02
1.545048039406538010e-02 -7.483744621276855469e-02 1.378848962485790253e-02
-4.527052342891693115e-01 7.702514529228210449e-02 -5.316388234496116638e-02
2.113519459962844849e-01 -2.254766970872879028e-02 1.352019309997558594e-01
-4.187158122658729553e-02 8.948808535933494568e-03 4.328474998474121094e-01
2.235878109931945801e-01 8.287485688924789429e-02 -4.795278236269950867e-02
-3.210228681564331055e-01 2.243635058403015137e-02 7.532541453838348389e-02
-5.880915522575378418e-01 1.514620780944824219e-01 2.702136989682912827e-03
8.651553094387054443e-02 8.218514919281005859e-02 -4.920446872711181641e-02
1.858839839696884155e-01 -1.016592681407928467e-01 3.321507275104522705e-01
1.426114588975906372e-01 -1.281490176916122437e-01 2.779706418514251709e-01
-4.505083858966827393e-01 -3.166709467768669128e-02 -6.427577883005142212e-02
5.786831378936767578e-01 9.557051211595535278e-02 1.968928985297679901e-02
-2.054336071014404297e-01 1.873238943517208099e-02 5.254977345466613770e-01
-6.560146212577819824e-01 1.132445596158504486e-02 4.554041847586631775e-02
3.150885105133056641e-01 3.955122455954551697e-02 -7.250113785266876221e-02
-1.525052040815353394e-01 2.384130842983722687e-02 -5.693433880805969238e-01
1.289450973272323608e-01 -4.180829972028732300e-02 2.397048324346542358e-01
3.077572286128997803e-01 -6.372555345296859741e-02 -1.333125837845727801e-04
-2.525889277458190918e-01 -4.776018112897872925e-02 -6.509320437908172607e-02
-4.527052342891693115e-01 7.702514529228210449e-02 -5.316388234496116638e-02
1.788081377744674683e-01 -4.265126213431358337e-02 2.359497845172882080e-01
3.315903544425964355e-01 -6.311248987913131714e-02 -1.152372434735298157e-01
-1.340620070695877075e-01 1.801713928580284119e-02 -6.044672131538391113e-01
1.930364817380905151e-01 -2.627718262374401093e-02 -9.544017910957336426e-02
-2.680945098400115967e-01 3.201557323336601257e-02 -6.466923952102661133e-01
7.338561862707138062e-02 -7.481190562248229980e-02 1.128511969000101089e-02
-1.860708147287368774e-01 1.671436615288257599e-02 5.063137412071228027e-01
8.483318090438842773e-01 -4.047997295856475830e-02 -5.799181014299392700e-02
-4.003237560391426086e-02 -9.392211213707923889e-03 -2.550938725471496582e-01
2.938865423202514648e-01 -9.379154443740844727e-02 2.381210625171661377e-01
5.315533876419067383e-01 1.995852962136268616e-02 7.568303495645523071e-02
-4.298172891139984131e-01 2.838823944330215454e-02 -7.582193613052368164e-02
5.765629410743713379e-01 -7.476082444190979004e-02 -5.855301395058631897e-03
5.786831378936767578e-01 9.557051211595535278e-02 1.968928985297679901e-02
1.877742856740951538e-01 -3.258670121431350708e-02 -2.791568934917449951e-01
-3.354404121637344360e-02 -2.806530520319938660e-02 9.675810113549232483e-03
4.709360599517822266e-01 -7.287050783634185791e-02 -3.814366459846496582e-02
-2.597669661045074463e-01 3.216883912682533264e-02 6.523777246475219727e-01
-5.916526913642883301e-02 -2.150034718215465546e-02 1.449088752269744873e-01
-9.050849080085754395e-02 -3.746850881725549698e-03 -3.084309995174407959e-01
-2.370578199625015259e-01 2.396902441978454590e-02 5.749520659446716309e-01
-7.242290675640106201e-02 -7.488853484392166138e-02 2.234592661261558533e-02
4.658934101462364197e-02 3.993155900388956070e-03 4.176740348339080811e-01
-5.469496548175811768e-02 8.202880053431726992e-06 -4.738066494464874268e-01
1.509389877319335938e-01 -2.806530520319938660e-02 1.128511969000101089e-02
-2.622703015804290771e-01 -4.921908490359783173e-03 -7.313975691795349121e-02
-6.345316767692565918e-01 6.545343995094299316e-02 2.280820608139038086e-01
2.084909528493881226e-01 -6.479842215776443481e-02 -1.344978660345077515e-01
-3.244203031063079834e-01 5.181263387203216553e-02 -8.496186733245849609e-01
-7.178430259227752686e-02 4.532430320978164673e-02 -7.076410949230194092e-02
-5.426988005638122559e-01 1.598151624202728271e-01 -2.253513550385832787e-03
-1.625697761774063110e-01 7.084052544087171555e-03 -4.108392298221588135e-01
7.175946831703186035e-01 8.384555578231811523e-02 2.768474444746971130e-02
5.121291056275367737e-02 -2.806530520319938660e-02 3.547584637999534607e-02
-4.003388285636901855e-01 7.875935174524784088e-03 7.289867103099822998e-02
-5.375643968582153320e-01 -3.238234296441078186e-02 -1.083649508655071259e-02
-6.143873929977416992e-02 -7.516952604055404663e-02 7.527431845664978027e-02
