-1.472255438566207886e-01 -3.679034067317843437e-03 -5.910792350769042969e-01
7.707746624946594238e-01 9.947837144136428833e-02 -2.258486300706863403e-02
1.674412488937377930e-01 -2.859128080308437347e-02 2.425293922424316406e-01
1.255581974983215332e-01 -1.306192111223936081e-02 5.958156585693359375e-01
-7.895591259002685547e-01 2.761214971542358398e-01 -4.988543223589658737e-03
2.055141702294349670e-02 -1.303888559341430664e-01 -1.592487096786499023e-01
5.005202889442443848e-01 -5.230688303709030151e-02 -5.987165123224258423e-02
-8.567079901695251465e-01 8.095736056566238403e-02 8.848679810762405396e-02
1.636337041854858398e-01 -5.483618378639221191e-02 -9.188226610422134399e-02
3.879788564518094063e-03 -2.633395232260227203e-02 5.831963419914245605e-01
-8.714784681797027588e-02 5.161203071475028992e-02 8.051814138889312744e-02
7.771905511617660522e-02 -7.044713199138641357e-02 9.088011085987091064e-02
5.340513214468955994e-02 -4.912485554814338684e-02 1.919433623552322388e-01
1.889241486787796021e-02 -1.526358276605606079e-01 -1.539997309446334839e-01
-8.980199098587036133e-01 8.631512522697448730e-02 1.633051484823226929e-01
-1.403175592422485352e-01 -6.876093149185180664e-02 -1.369151379913091660e-02
-1.279702186584472656e-01 -3.135099308565258980e-03 -5.970625281333923340e-01
4.602690339088439941e-01 3.058891557157039642e-02 8.644703775644302368e-02
1.084216590970754623e-02 -1.261189579963684082e-01 -1.829643100500106812e-01
-3.675220534205436707e-02 -1.308911480009555817e-02 -3.575404286384582520e-01
3.240921348333358765e-02 -3.345951065421104431e-02 -1.076835989952087402e-01
-1.337631344795227051e-01 2.574788965284824371e-02 -7.669879794120788574e-01
1.125853359699249268e-01 -1.409540418535470963e-02 1.560436189174652100e-01
3.385634124279022217e-01 8.450729772448539734e-03 -9.141992032527923584e-02
1.842760443687438965e-01 -1.327949762344360352e-02 2.706780433654785156e-01
-2.552783787250518799e-01 3.434207290410995483e-02 -8.986970782279968262e-02
-2.286255210638046265e-01 2.811401151120662689e-02 8.530427813529968262e-01
2.525646239519119263e-02 -1.411043852567672729e-01 -1.795919090509414673e-01
3.529207408428192139e-02 -1.260373592376708984e-01 -1.689035743474960327e-01
-1.431486010551452637e-02 -4.371270164847373962e-02 -1.137212887406349182e-01
-1.638971716165542603e-01 -5.940524116158485413e-02 -8.073158562183380127e-02
-3.300967216491699219e-01 -7.466982879122951999e-06 8.644703775644302368e-02
-2.621047496795654297e-01 7.714980840682983398e-02 9.147795438766479492e-01
1.755186915397644043e-01 -7.463543117046356201e-02 -3.028477132320404053e-01
-7.524627447128295898e-01 8.832769095897674561e-02 -3.650961443781852722e-02
-3.123125992715358734e-02 4.004815418738871813e-04 -4.928716421127319336e-01
2.187615633010864258e-01 -1.013746834360063076e-03 1.538134813308715820e-01
7.768928539007902145e-03 -3.626077249646186829e-02 1.805751174688339233e-01
-6.451714634895324707e-01 1.064951419830322266e-01 -8.818290079943835735e-04
-9.371833205223083496e-01 9.170009195804595947e-02 -2.308850288391113281e-01
-7.650548815727233887e-01 8.171886950731277466e-02 -3.656401112675666809e-02
-4.210427701473236084e-01 -9.580736979842185974e-03 -8.176506310701370239e-02
-8.756369948387145996e-01 1.981211006641387939e-01 -1.289780833758413792e-03
-4.792166650295257568e-01 -4.202650114893913269e-02 -4.578372091054916382e-02
2.700547277927398682e-01 -1.610796339809894562e-02 -1.336293369531631470e-01
3.685886859893798828e-01 -3.827334195375442505e-02 -8.290733397006988525e-02
7.631596326828002930e-01 1.764325052499771118e-02 8.217715471982955933e-02
-8.442816883325576782e-02 9.716196218505501747e-04 -5.479995012283325195e-01
-5.418508648872375488e-01 6.412255018949508667e-02 -7.330685853958129883e-02
1.316502839326858521e-01 -6.193454191088676453e-02 -4.727954417467117310e-02
1.649652374908328056e-03 -9.992844611406326294e-02 -4.393434152007102966e-02
-2.695838809013366699e-01 -4.450140520930290222e-02 6.463522464036941528e-02
-3.116301000118255615e-01 6.480246782302856445e-02 -7.787592709064483643e-02
5.454739555716514587e-02 -1.091337576508522034e-02 2.445963323116302490e-01
1.238991990685462952e-01 -3.938840702176094055e-02 -6.242592930793762207e-01
6.058508530259132385e-02 -8.710432797670364380e-03 -4.015176594257354736e-01
-2.147823721170425415e-01 4.304504394531250000e-02 -8.690847754478454590e-01
2.054079473018646240e-01 -8.744512498378753662e-02 -2.818246185779571533e-01
1.379599422216415405e-01 -1.436736714094877243e-02 -1.226962283253669739e-01
1.889241486787796021e-02 -1.526358276605606079e-01 -1.539997309446334839e-01
-6.232508420944213867e-01 -2.162891067564487457e-02 1.725842617452144623e-02
1.111167073249816895e-01 -7.341157644987106323e-02 -6.187111735343933105e-01
7.703913748264312744e-02 1.380849815905094147e-02 -3.984172046184539795e-01
-6.394057273864746094e-01 7.432134449481964111e-02 5.593224987387657166e-02
3.374185785651206970e-02 -1.094201281666755676e-01 1.506042480468750000e-01
4.900223314762115479e-01 4.187557846307754517e-02 8.429849892854690552e-02
7.415109872817993164e-01 7.916236668825149536e-02 5.876071751117706299e-02
6.390308588743209839e-02 -1.790294796228408813e-02 8.089889585971832275e-02
3.240921348333358765e-02 -2.491972409188747406e-02 -1.713240742683410645e-01
-3.348859399557113647e-02 -3.354109823703765869e-02 2.259121388196945190e-01
7.038434743881225586e-01 -4.890727996826171875e-02 6.001177057623863220e-02
3.462329208850860596e-01 -7.814382016658782959e-02 -1.584006100893020630e-02
3.809334337711334229e-02 -3.651830833405256271e-03 -4.523756504058837891e-01
9.667522460222244263e-02 -8.676519989967346191e-02 -2.688195370137691498e-02
-1.672967672348022461e-01 -6.087386608123779297e-02 -2.323258668184280396e-03
2.381503023207187653e-02 4.425610881298780441e-03 -3.719819486141204834e-01
-3.797852098941802979e-01 1.051081120967864990e-01 -1.442582719027996063e-02
5.177332460880279541e-02 8.042781613767147064e-03 -5.904809236526489258e-01
-9.443658590316772461e-02 1.044009849429130554e-01 1.568101160228252411e-02
3.284436464309692383e-02 -4.803698509931564331e-02 -1.035496965050697327e-01
9.167100489139556885e-02 -1.526630073785781860e-01 1.778282374143600464e-01
1.023593470454216003e-01 -4.248884692788124084e-02 -5.803908705711364746e-01
-8.630720973014831543e-01 8.313310146331787109e-02 -1.057798340916633606e-01
-6.269793957471847534e-02 -7.689776830375194550e-04 5.094386339187622070e-01
9.119532108306884766e-01 1.973739825189113617e-02 -4.591970145702362061e-02
2.187615633010864258e-01 -1.013746834360063076e-03 1.538134813308715820e-01
8.976204991340637207e-01 4.698858037590980530e-02 -3.966444358229637146e-02
-3.731492459774017334e-01 2.115163207054138184e-02 -9.060402959585189819e-02
-8.455029726028442383e-01 5.221036076545715332e-02 -7.300270255655050278e-03
1.070643886923789978e-01 -1.284434553235769272e-02 1.718449443578720093e-01
-6.450082659721374512e-01 -1.820211298763751984e-02 -6.402775645256042480e-03
-4.183800891041755676e-02 -7.012077420949935913e-02 5.825163722038269043e-01
-5.219998210668563843e-02 5.622273311018943787e-03 5.874390006065368652e-01
3.148452192544937134e-02 -1.285666674375534058e-01 1.856387220323085785e-02
1.298824995756149292e-01 -7.868776470422744751e-02 -5.891482234001159668e-01
-1.915835142135620117e-01 3.379813954234123230e-02 -8.618503808975219727e-01
-2.666220068931579590e-02 -2.448457106947898865e-02 -5.754683017730712891e-01
1.018970012664794922e-01 -5.247006192803382874e-02 -1.143740192055702209e-01
-5.691020488739013672e-01 6.325225532054901123e-02 6.874193996191024780e-02
5.492815002799034119e-02 -2.350548468530178070e-02 -2.643914818763732910e-01
5.855102539062500000e-01 1.538591552525758743e-02 -9.239900857210159302e-02
-4.858281090855598450e-02 -3.454738110303878784e-02 6.118617057800292969e-01
1.014074608683586121e-01 -1.236440464854240417e-01 -1.732822507619857788e-01
-1.472255438566207886e-01 -3.679034067317843437e-03 -5.910792350769042969e-01
-7.869221270084381104e-03 -3.963317349553108215e-02 1.574034392833709717e-01
1.020057871937751770e-01 -2.029626257717609406e-02 2.760358154773712158e-01
3.752221167087554932e-02 -3.666873276233673096e-02 2.272719889879226685e-01
-1.764892786741256714e-01 1.527712307870388031e-02 8.843240141868591309e-02
-2.273200750350952148e-01 3.785045444965362549e-02 8.781182765960693359e-01
7.874191999435424805e-01 9.885284304618835449e-02 -1.110782008618116379e-02
4.840118288993835449e-01 -1.268116571009159088e-02 8.293865621089935303e-02
5.136537551879882812e-02 9.711224585771560669e-02 3.722086548805236816e-02
-1.429012417793273926e-01 2.343616448342800140e-02 -7.429460287094116211e-01
-1.145919691771268845e-02 5.159928463399410248e-03 -5.408195853233337402e-01
-1.472255438566207886e-01 -6.653080135583877563e-02 3.395725414156913757e-02
-1.545142829418182373e-01 -6.383831799030303955e-02 -5.995324254035949707e-02
-8.502649515867233276e-02 -4.250162281095981598e-03 5.894243717193603516e-01
-8.567079901695251465e-01 8.095736056566238403e-02 8.848679810762405396e-02
5.762062966823577881e-02 7.743616122752428055e-03 -9.122955054044723511e-02
-3.438608348369598389e-02 1.484198123216629028e-02 5.255935192108154297e-01
5.396564006805419922e-01 -6.897851824760437012e-02 -3.052632324397563934e-02
1.363009363412857056e-01 -9.145584888756275177e-03 3.553688526153564453e-01
7.502657175064086914e-02 7.725860178470611572e-02 -6.813947856426239014e-02
2.575985789299011230e-01 7.891760021448135376e-02 -6.691562384366989136e-02
3.085925579071044922e-01 -6.090106815099716187e-02 2.999145984649658203e-01
3.478647172451019287e-01 -1.379623916000127792e-02 8.253070712089538574e-02
3.264064490795135498e-01 -1.637992635369300842e-02 9.147844463586807251e-02
-2.341192811727523804e-01 -6.231529638171195984e-02 -4.662682116031646729e-02
5.803700089454650879e-01 9.569802135229110718e-02 4.037569090723991394e-02
-9.397424012422561646e-02 -7.175259292125701904e-02 1.617055386304855347e-02
-8.719654679298400879e-01 9.616036713123321533e-02 2.021421492099761963e-01
-2.741257548332214355e-01 1.043737903237342834e-01 1.810152642428874969e-02
8.440946787595748901e-02 -1.575440168380737305e-02 3.499566912651062012e-01
-3.987983986735343933e-02 -4.685313906520605087e-03 4.336955845355987549e-01
7.926927506923675537e-02 -8.624846488237380981e-02 -4.668121039867401123e-02
-2.394252084195613861e-02 -8.464386314153671265e-02 -7.765834778547286987e-02
-5.054887533187866211e-01 -2.010589092969894409e-02 -6.541980057954788208e-02
8.040896616876125336e-03 -1.487466692924499512e-01 1.772027164697647095e-01
-6.583890914916992188e-01 1.490853130817413330e-01 2.680949633941054344e-03
3.033435940742492676e-01 -8.434469997882843018e-02 -2.629500329494476318e-01
1.281147003173828125e-01 9.613315761089324951e-02 3.955978900194168091e-02
-7.565150856971740723e-01 5.707858502864837646e-02 -3.928368911147117615e-02
3.033435940742492676e-01 -8.434469997882843018e-02 -2.629500329494476318e-01
3.283646106719970703e-01 -7.808943092823028564e-02 2.428557425737380981e-01
3.035339415073394775e-01 -7.784465700387954712e-02 2.429917305707931519e-01
-1.906044185161590576e-01 2.204912342131137848e-02 -7.268999218940734863e-01
8.413775563240051270e-01 -4.441981390118598938e-02 -4.368956387042999268e-02
7.508096843957901001e-02 -1.629833690822124481e-02 -3.253122866153717041e-01
-2.257698476314544678e-01 4.239232093095779419e-02 8.892961740493774414e-01
2.522408068180084229e-01 7.391339540481567383e-02 6.675656884908676147e-02
3.328792750835418701e-01 -2.948877774178981781e-02 -8.940736204385757446e-02
1.357569992542266846e-01 -8.589491248130798340e-02 -2.701793797314167023e-02
2.242553234100341797e-01 -2.970635332167148590e-02 -7.964371889829635620e-02
4.272521436214447021e-01 -3.791978210210800171e-02 6.928586959838867188e-02
-1.808951646089553833e-01 -6.993040442466735840e-02 -2.772505395114421844e-02
-4.673342406749725342e-02 -4.930083174258470535e-03 -6.001357436180114746e-01
-2.304502949118614197e-02 -6.208335515111684799e-03 3.628479540348052979e-01
2.608077824115753174e-01 1.111601758748292923e-02 -9.171909093856811523e-02
2.818309068679809570e-01 8.990509808063507080e-02 -5.334442481398582458e-02
-8.630720973014831543e-01 8.313310146331787109e-02 -1.057798340916633606e-01
4.805850386619567871e-01 -2.812893502414226532e-02 -8.075878769159317017e-02
8.072184324264526367e-01 7.146568596363067627e-02 -5.862060189247131348e-02
-8.899697065353393555e-01 9.548044204711914062e-02 2.048074454069137573e-01
-3.011593520641326904e-01 -6.285922974348068237e-02 -4.572932422161102295e-02
6.841775774955749512e-02 -4.739710595458745956e-03 -9.609776735305786133e-02
9.517939388751983643e-02 -7.844298332929611206e-02 -8.823790401220321655e-02
-1.890542060136795044e-01 4.157641902565956116e-02 8.470644801855087280e-02
9.292206168174743652e-02 -1.371464878320693970e-02 5.712297558784484863e-01
1.097296774387359619e-01 -6.391990929841995239e-02 -5.689954757690429688e-01
2.966233901679515839e-02 -6.677556782960891724e-02 -5.648342967033386230e-01
-4.213717207312583923e-02 9.674585424363613129e-03 6.186337471008300781e-01
1.012714803218841553e-01 5.364677635952830315e-04 -2.742910981178283691e-01
2.125335186719894409e-01 -5.097423493862152100e-02 -8.831949532032012939e-02
3.368500173091888428e-01 -8.815222978591918945e-02 3.032326102256774902e-01
8.527976274490356445e-02 -5.641359463334083557e-02 -6.316840052604675293e-01
-1.347150206565856934e-01 -7.368355244398117065e-02 -5.260510835796594620e-03
7.279643416404724121e-02 6.956190615892410278e-02 -7.409556955099105835e-02
6.746587157249450684e-02 -2.230883203446865082e-02 -1.500289887189865112e-01
-1.508699059486389160e-01 2.531273849308490753e-02 -6.883348822593688965e-01
3.431298956274986267e-02 4.820813774131238461e-04 5.075892806053161621e-01
7.233409583568572998e-02 -2.021467313170433044e-02 -9.881745278835296631e-02
4.888800382614135742e-01 8.859965205192565918e-02 5.092804506421089172e-02
4.527329653501510620e-02 -1.597197726368904114e-02 5.721816420555114746e-01
7.649520039558410645e-02 -6.843457370996475220e-02 1.939831227064132690e-01
-1.067567244172096252e-01 2.278344146907329559e-02 -9.144712984561920166e-02
9.667522460222244263e-02 -8.676519989967346191e-02 -2.688195370137691498e-02
-8.075090646743774414e-01 1.563468575477600098e-01 -5.505281966179609299e-03
6.058508530259132385e-02 -1.118534803390502930e-02 6.071566939353942871e-01
-7.102015614509582520e-02 -1.007027551531791687e-02 -8.799313753843307495e-02
-2.736931666731834412e-02 -8.491581678390502930e-02 -5.753272771835327148e-02
3.879788564518094063e-03 -2.633395232260227203e-02 5.831963419914245605e-01
6.139036417007446289e-01 3.368934988975524902e-02 8.598469197750091553e-02
9.206290245056152344e-01 -3.101179935038089752e-02 -2.644680440425872803e-02
-6.990508735179901123e-02 -6.534694228321313858e-03 4.187645614147186279e-01
1.639030873775482178e-02 -8.720035105943679810e-02 2.112036943435668945e-02
-3.761952221393585205e-01 8.846366405487060547e-02 5.149918049573898315e-02
1.980104297399520874e-01 6.180575001053512096e-04 -2.232971340417861938e-01
-1.386857479810714722e-01 -4.115619510412216187e-02 -8.818350732326507568e-02
1.083970367908477783e-01 8.940278552472591400e-03 3.569734692573547363e-01
7.777345180511474609e-02 -3.106619603931903839e-02 7.472522556781768799e-02
7.913082838058471680e-01 -3.976916149258613586e-02 5.631300806999206543e-02
6.274476647377014160e-01 -4.662275686860084534e-02 -6.686122715473175049e-02
-7.650548815727233887e-01 8.171886950731277466e-02 -3.656401112675666809e-02
8.122486993670463562e-03 -1.235480699688196182e-02 -4.288232326507568359e-01
1.902865469455718994e-01 -8.581331372261047363e-02 -2.474478781223297119e-01
8.362075686454772949e-02 -8.584050834178924561e-02 -6.049718335270881653e-02
2.242281287908554077e-01 -1.083594486117362976e-01 -2.626236677169799805e-01
6.140098720788955688e-02 -1.771257445216178894e-02 6.182258129119873047e-01
1.154928095638751984e-02 -2.385904639959335327e-02 -2.572931051254272461e-01
3.724234104156494141e-01 -3.585282340645790100e-02 7.766248285770416260e-02
4.448756575584411621e-01 8.348666131496429443e-02 5.756406113505363464e-02
6.505105495452880859e-01 7.111211866140365601e-02 -7.311648875474929810e-02
3.698669075965881348e-01 -2.453896775841712952e-02 -8.220021426677703857e-02
-4.760890305042266846e-01 9.909761697053909302e-02 3.316854313015937805e-02
2.041569054126739502e-01 -6.289924960583448410e-03 -8.948895335197448730e-02
4.386747777462005615e-01 9.879844635725021362e-02 -3.724392876029014587e-02
-8.784111142158508301e-01 6.390497088432312012e-02 -1.176054216921329498e-02
-4.866439849138259888e-02 -5.936362780630588531e-03 5.402526259422302246e-01
-8.124316334724426270e-01 9.213523566722869873e-02 2.680449746549129486e-02
5.182772129774093628e-02 1.244866661727428436e-02 -4.110093414783477783e-01
1.064932569861412048e-01 -7.513780612498521805e-03 2.166652381420135498e-01
4.603234231472015381e-01 -3.465617448091506958e-02 7.181517034769058228e-02
1.556106507778167725e-01 -9.854140877723693848e-02 -2.843811213970184326e-01
7.924777865409851074e-01 -7.575051486492156982e-02 -1.904928125441074371e-02
-1.585937887430191040e-01 4.048854485154151917e-02 -8.254067301750183105e-01
-8.221681118011474609e-01 1.455769240856170654e-01 1.783455722033977509e-03
-5.095150321722030640e-03 -3.416662290692329407e-02 -6.225458979606628418e-01
1.840312778949737549e-01 -2.679629623889923096e-02 -2.633851766586303711e-01
-8.602436184883117676e-01 2.499853670597076416e-01 -4.743772093206644058e-03
5.084345340728759766e-01 5.577313899993896484e-02 -8.277134597301483154e-02
-6.979630142450332642e-02 -3.362268954515457153e-02 -3.313771486282348633e-01
-2.757847309112548828e-01 1.045913696289062500e-01 -2.176895737648010254e-02
-1.226124465465545654e-01 1.134799094870686531e-03 5.300810337066650391e-01
6.053068861365318298e-02 -5.154537409543991089e-02 5.685694143176078796e-02
-7.996764183044433594e-01 8.182765543460845947e-02 4.421044141054153442e-02
9.943587065208703279e-05 -3.370428085327148438e-02 3.300486207008361816e-01
-2.621047496795654297e-01 7.714980840682983398e-02 9.147795438766479492e-01
-7.907039672136306763e-02 -3.514571115374565125e-02 -9.718564897775650024e-02
1.526190042495727539e-01 -7.160218432545661926e-03 1.732047796249389648e-01
1.108991354703903198e-01 -3.338257956784218550e-04 2.702973186969757080e-01
1.927614510059356689e-01 -1.831089705228805542e-02 -2.590609192848205566e-01
-6.267074495553970337e-02 -2.618357772007584572e-03 4.897753596305847168e-01
5.992990136146545410e-01 9.996791929006576538e-02 3.020409494638442993e-02
-8.351137638092041016e-01 6.442171335220336914e-02 3.537148237228393555e-02
1.631169617176055908e-01 -6.030273810029029846e-02 -4.945528879761695862e-02
-8.724549412727355957e-01 3.129187524318695068e-01 -5.967627745121717453e-03
1.153322160243988037e-01 -3.624637611210346222e-03 2.403536289930343628e-01
2.042385041713714600e-01 -7.404987700283527374e-03 1.147316917777061462e-01
-9.353883266448974609e-01 9.354947507381439209e-02 -2.677638828754425049e-01
-1.508699059486389160e-01 2.531273849308490753e-02 -6.883348822593688965e-01
-3.675738573074340820e-01 -6.323998421430587769e-02 3.488194197416305542e-02
-9.397424012422561646e-02 -7.175259292125701904e-02 1.617055386304855347e-02
1.649652374908328056e-03 1.943823322653770447e-02 5.454744100570678711e-01
-3.087770193815231323e-02 -1.782135851681232452e-02 -2.908539474010467529e-01
3.038875162601470947e-01 -4.833615198731422424e-02 2.467992752790451050e-01
-8.274987339973449707e-01 8.166448026895523071e-02 6.436325609683990479e-02
6.252719163894653320e-01 1.023612320423126221e-01 2.441118098795413971e-02
-4.583593457937240601e-02 -2.200966700911521912e-02 -5.875436663627624512e-01
-1.721921861171722412e-01 2.789643593132495880e-02 -7.288309335708618164e-01
-3.925688564777374268e-03 -7.459384389221668243e-03 -6.012236475944519043e-01
6.824395060539245605e-01 -6.644921004772186279e-02 -3.664559870958328247e-02
-3.125275969505310059e-01 2.327298000454902649e-02 8.764369785785675049e-02
7.159978151321411133e-02 -4.126498848199844360e-02 1.615101695060729980e-01
-9.637013077735900879e-03 1.663696579635143280e-02 5.910833477973937988e-01
-1.304995119571685791e-01 8.748459070920944214e-02 -5.636326968669891357e-02
2.078828513622283936e-01 1.020892634987831116e-01 2.522708289325237274e-02
9.895975142717361450e-02 -3.212687000632286072e-02 -5.696209669113159180e-01
-4.793008789420127869e-02 2.882112562656402588e-02 -9.068561345338821411e-02
-6.862683594226837158e-02 -1.744060218334197998e-02 9.104329347610473633e-02
2.609165906906127930e-01 6.197400391101837158e-02 -8.002447336912155151e-02
2.642592415213584900e-02 -2.676910348236560822e-02 -3.289022445678710938e-01
-2.290606796741485596e-01 -3.454738110303878784e-02 7.222312688827514648e-02
1.649935394525527954e-01 -3.568964451551437378e-02 -2.042593955993652344e-01
-4.398655146360397339e-02 -1.504728756844997406e-02 3.339921832084655762e-01
4.013064205646514893e-01 -7.216052711009979248e-02 1.279815286397933960e-02
2.728559672832489014e-01 -9.451629221439361572e-02 -2.402407228946685791e-01
7.635921984910964966e-02 -6.099542137235403061e-03 -2.483725696802139282e-01
6.136860847473144531e-01 9.455575048923492432e-02 4.312256723642349243e-02
7.755587249994277954e-02 -1.270436495542526245e-01 -1.847048848867416382e-01
8.427917957305908203e-01 -9.227174334228038788e-03 -6.805788725614547729e-02
9.430909901857376099e-02 -3.815010190010070801e-03 2.590106427669525146e-01
-2.299063466489315033e-02 -3.302435949444770813e-02 -5.872716903686523438e-01
1.623554527759552002e-01 -4.286960139870643616e-02 -1.692843139171600342e-01
3.406575918197631836e-01 -5.771903693675994873e-02 -2.517993748188018799e-01
6.218969449400901794e-02 -8.720035105943679810e-02 1.426677871495485306e-02
-9.301664829254150391e-01 1.000223010778427124e-01 -2.610190808773040771e-01
3.374185785651206970e-02 -1.094201281666755676e-01 1.506042480468750000e-01
-9.884245693683624268e-02 -4.202650114893913269e-02 -7.012484222650527954e-02
1.395373493432998657e-01 -2.829212509095668793e-02 -2.402679175138473511e-01
1.924597099423408508e-02 -8.548695594072341919e-02 -8.100355416536331177e-02
8.976723998785018921e-02 -1.287154853343963623e-02 1.918617635965347290e-01
-2.666220068931579590e-02 -2.448457106947898865e-02 -5.754683017730712891e-01
4.003545045852661133e-01 3.659940510988235474e-02 -8.978811651468276978e-02
6.053068861365318298e-02 -5.154537409543991089e-02 5.685694143176078796e-02
1.969497501850128174e-01 -2.916241809725761414e-02 2.194393128156661987e-01
1.902839727699756622e-02 -8.744512498378753662e-02 -1.127100083976984024e-02
-1.060767993330955505e-01 -3.555366024374961853e-02 -9.373165667057037354e-02
-1.206542775034904480e-01 7.009308785200119019e-03 5.952172875404357910e-01
9.547855705022811890e-02 1.228547655045986176e-02 -3.785907328128814697e-01
-2.356422990560531616e-01 -6.832578033208847046e-02 -3.087988309562206268e-02
1.878388375043869019e-01 -5.546170845627784729e-02 -2.549813687801361084e-01
-4.116066265851259232e-03 -9.269410371780395508e-02 -4.314563050866127014e-02
3.893644362688064575e-02 -3.201807662844657898e-02 2.099204361438751221e-01
3.308913484215736389e-02 -4.390307515859603882e-02 1.285476535558700562e-01
-1.668072193861007690e-01 1.666415855288505554e-02 -6.643473505973815918e-01
-6.158533096313476562e-01 5.560995638370513916e-02 6.621263921260833740e-02
-7.539585828781127930e-01 7.937994599342346191e-02 5.772724002599716187e-02
1.424474120140075684e-01 -8.616688847541809082e-02 1.154710166156291962e-02
9.645764529705047607e-02 -2.268958836793899536e-02 -9.859988093376159668e-02
4.100339859724044800e-02 -5.342194810509681702e-02 5.557003617286682129e-01
-7.160190939903259277e-01 1.806607693433761597e-01 -8.687306195497512817e-03
3.879788564518094063e-03 -2.633395232260227203e-02 5.831963419914245605e-01
-1.445330530405044556e-01 8.097178302705287933e-03 5.981817245483398438e-01
-1.449954062700271606e-01 3.483161702752113342e-02 -7.447954416275024414e-01
2.036129683256149292e-01 -7.311241328716278076e-02 3.059251010417938232e-01
1.063844636082649231e-01 -8.725475519895553589e-02 -7.898599840700626373e-03
1.692906320095062256e-01 1.057336330413818359e-01 5.618202500045299530e-03
-7.035085558891296387e-01 -1.584874698892235756e-03 -9.530406445264816284e-03
4.100339859724044800e-02 -5.342194810509681702e-02 5.557003617286682129e-01
-9.095539152622222900e-02 2.890271507203578949e-02 -9.065841138362884521e-02
-4.312959313392639160e-01 6.466648727655410767e-02 -7.657048106193542480e-02
8.378393948078155518e-02 -1.091337576508522034e-02 5.762339234352111816e-01
1.073091700673103333e-01 -6.561887450516223907e-03 4.001075625419616699e-01
1.633073389530181885e-01 -6.555171310901641846e-02 2.953727245330810547e-01
2.087777853012084961e-02 -7.507058233022689819e-02 6.149893403053283691e-01
-2.292782366275787354e-01 6.274991203099489212e-03 -9.095758199691772461e-02
-5.054887533187866211e-01 -2.010589092969894409e-02 -6.541980057954788208e-02
6.779222935438156128e-02 4.017662256956100464e-03 -3.315131366252899170e-01
1.622712984681129456e-02 -2.258079499006271362e-02 -2.669479548931121826e-01
1.039367690682411194e-01 -1.605356670916080475e-02 -3.277871906757354736e-01
-7.487639784812927246e-01 1.662464737892150879e-01 -9.476012550294399261e-03
2.947494089603424072e-01 -1.058845445513725281e-01 2.461737394332885742e-01
-2.614546194672584534e-02 1.946543157100677490e-02 -6.213220357894897461e-01
-7.160190939903259277e-01 1.806607693433761597e-01 -8.687306195497512817e-03
4.032347723841667175e-02 -8.628843352198600769e-03 -2.615901827812194824e-01
4.603234231472015381e-01 -3.465617448091506958e-02 7.181517034769058228e-02
8.405590802431106567e-02 -5.936362780630588531e-03 -2.408934682607650757e-01
1.171246170997619629e-02 -7.948922924697399139e-03 -3.001280426979064941e-01
1.017066165804862976e-01 -4.025870934128761292e-02 6.757247447967529297e-02
3.928999975323677063e-02 1.037754639983177185e-01 2.025007270276546478e-02
-7.947265505790710449e-01 8.364984393119812012e-02 6.572309881448745728e-02
4.003545045852661133e-01 3.659940510988235474e-02 -8.978811651468276978e-02
-8.599172830581665039e-01 7.462050765752792358e-02 1.300978809595108032e-01
2.409269511699676514e-01 1.011645719408988953e-01 -3.136942535638809204e-02
-3.574592620134353638e-02 4.021657630801200867e-02 8.516879379749298096e-02
-4.015180468559265137e-02 2.000936679542064667e-02 -5.485162734985351562e-01
7.328598201274871826e-02 3.232950717210769653e-02 -9.025046229362487793e-02
-1.808951646089553833e-01 -6.993040442466735840e-02 -2.772505395114421844e-02
4.810176044702529907e-02 -1.208283472806215286e-02 -3.676848709583282471e-01
1.324933916330337524e-01 -2.426699548959732056e-02 -6.151755452156066895e-01
1.363009363412857056e-01 -9.145584888756275177e-03 3.553688526153564453e-01
-3.503583073616027832e-01 6.754934787750244141e-02 7.216873764991760254e-02
5.802612304687500000e-01 -9.118392132222652435e-03 -8.861865848302841187e-02
1.758439699187874794e-03 2.793806605041027069e-03 8.669181168079376221e-02
-7.895863652229309082e-01 8.500968664884567261e-02 -8.086757361888885498e-02
3.102217800915241241e-02 -3.141974657773971558e-02 -1.342820525169372559e-01
-1.680854707956314087e-01 -4.874410107731819153e-02 6.061009690165519714e-02
-8.423752784729003906e-01 6.512882560491561890e-02 -2.693634852766990662e-02
5.076447036117315292e-03 -1.004308182746171951e-02 -8.802033215761184692e-02
-3.261803984642028809e-01 -2.410381659865379333e-02 -8.225461095571517944e-02
1.457110196352005005e-01 1.701772026717662811e-02 8.829642832279205322e-02
8.504884839057922363e-01 6.735897064208984375e-02 -5.040717124938964844e-02
-8.675867319107055664e-01 8.506407588720321655e-02 -2.084476947784423828e-01
7.072947919368743896e-02 -1.466653216630220413e-02 3.255883455276489258e-01
6.760483384132385254e-01 9.319590777158737183e-02 4.486316442489624023e-02
4.272521436214447021e-01 -3.791978210210800171e-02 6.928586959838867188e-02
1.322486102581024170e-01 -7.738231122493743896e-02 6.051169037818908691e-01
-9.207046031951904297e-02 1.981898956000804901e-02 -5.904809236526489258e-01
1.396979577839374542e-02 -6.606845557689666748e-02 5.634786486625671387e-01
6.746587157249450684e-02 -2.230883203446865082e-02 -1.500289887189865112e-01
-1.022692546248435974e-01 1.359092257916927338e-02 -5.637736916542053223e-01
2.806886434555053711e-01 9.526287019252777100e-02 -4.578372091054916382e-02
3.210486769676208496e-01 -8.271288126707077026e-02 3.115548193454742432e-01
2.806886434555053711e-01 -8.257690072059631348e-02 3.139481246471405029e-01
-1.760567165911197662e-02 7.636110484600067139e-02 6.498877704143524170e-02
-2.466841936111450195e-01 1.979179494082927704e-02 -9.180068224668502808e-02
7.374832779169082642e-02 -2.119375951588153839e-02 2.917827665805816650e-01
-2.813082747161388397e-02 -7.134462893009185791e-02 1.924379169940948486e-02
-2.315627783536911011e-01 4.307224228978157043e-02 8.410812169313430786e-02
1.928158402442932129e-01 -9.995564073324203491e-02 2.847659885883331299e-01
2.928728163242340088e-01 -4.093861952424049377e-02 -2.967012524604797363e-01
1.853095293045043945e-01 -1.967073790729045868e-02 8.013738691806793213e-02
4.037813246250152588e-01 -3.427541628479957581e-02 7.211434096097946167e-02
5.042190551757812500e-01 1.049177274107933044e-01 1.146551035344600677e-02
-5.366834998130798340e-01 -3.865410014986991882e-02 2.680449746549129486e-02
-8.821110241115093231e-03 1.044825762510299683e-01 1.510987989604473114e-02
-2.037974447011947632e-02 -1.028785109519958496e-02 -3.232997059822082520e-01
5.207002758979797363e-01 -6.378392130136489868e-02 -4.298245161771774292e-02
-5.312466993927955627e-02 -1.379623916000127792e-02 8.266668766736984253e-02
5.003026723861694336e-01 9.115615487098693848e-02 4.763723537325859070e-02
-7.827327847480773926e-01 1.047273576259613037e-01 -1.393628492951393127e-02
-3.429879844188690186e-01 7.769374549388885498e-02 -6.803069263696670532e-02
-3.123125992715358734e-02 4.004815418738871813e-04 -4.928716421127319336e-01
-1.508699059486389160e-01 2.531273849308490753e-02 -6.883348822593688965e-01
2.922472655773162842e-01 -4.950561001896858215e-02 -3.061929345130920410e-01
-8.629632592201232910e-01 7.423975318670272827e-02 -1.229953914880752563e-01
-3.109785029664635658e-03 -3.647834807634353638e-02 -2.158724069595336914e-01
1.073907539248466492e-01 -1.129413116723299026e-02 -1.768178343772888184e-01
3.156909048557281494e-01 -5.015833675861358643e-02 -2.624333202838897705e-01
8.693619631230831146e-03 -6.593246757984161377e-02 6.102027297019958496e-01
-3.912622928619384766e-01 -1.023345440626144409e-02 8.065412938594818115e-02
-1.240810751914978027e-01 -6.563330441713333130e-02 3.455558046698570251e-02
5.008466243743896484e-01 9.539885073900222778e-02 -4.553894698619842529e-02
-8.612498641014099121e-01 5.623548477888107300e-02 -5.804446991533041000e-03
8.530438877642154694e-03 -3.515854710713028908e-03 5.842297673225402832e-01
-9.044927954673767090e-01 8.394900709390640259e-02 2.013806402683258057e-01
-5.122089385986328125e-02 -4.549327772110700607e-03 4.692961573600769043e-01
-1.948224939405918121e-02 -4.766903817653656006e-03 4.669572710990905762e-01
3.899925649166107178e-01 -7.327561080455780029e-02 -8.306550793349742889e-03
-3.786727413535118103e-02 4.212035611271858215e-02 -8.829230070114135742e-02
4.503421783447265625e-01 -2.995112165808677673e-02 7.543234527111053467e-02
7.198053598403930664e-02 6.329387426376342773e-03 3.607538342475891113e-01
-6.313826441764831543e-01 3.636907087638974190e-03 5.171674862504005432e-02
2.922472655773162842e-01 -4.950561001896858215e-02 -3.061929345130920410e-01
8.571491390466690063e-02 -8.744512498378753662e-02 -4.466804966796189547e-04
5.796357393264770508e-01 -7.373795658349990845e-02 -5.015740171074867249e-03
-3.066802918910980225e-01 -6.979441642761230469e-02 -2.644680440425872803e-02
-7.549376487731933594e-01 7.350543886423110962e-02 -7.466670125722885132e-02
9.077921509742736816e-01 -1.496569812297821045e-02 4.048448055982589722e-02
3.056280910968780518e-01 -1.099496521055698395e-02 -8.774836361408233643e-02
8.364549875259399414e-01 3.910151124000549316e-02 -7.009764760732650757e-02
-8.719654679298400879e-01 9.616036713123321533e-02 2.021421492099761963e-01
-3.387452960014343262e-01 9.431098401546478271e-02 4.467278718948364258e-02
1.271356195211410522e-01 -4.121059179306030273e-02 -2.707283198833465576e-01
8.620445430278778076e-02 -1.437424719333648682e-01 1.563427746295928955e-01
-1.068927049636840820e-01 1.059783995151519775e-01 3.850411390885710716e-03
-3.414131700992584229e-02 -3.892606124281883240e-02 6.151797175407409668e-01
-4.801141619682312012e-01 9.670429676771163940e-02 -4.300964996218681335e-02
-3.923501372337341309e-01 -2.589879930019378662e-02 7.366456091403961182e-02
-3.822329342365264893e-01 1.048361361026763916e-01 1.562661863863468170e-02
1.093761101365089417e-01 -3.432980552315711975e-02 2.777492105960845947e-01
-3.226473554968833923e-02 -1.121254079043865204e-02 3.982581794261932373e-01
-9.465415030717849731e-02 8.205961436033248901e-03 6.051441431045532227e-01
-3.482123836874961853e-02 1.446122583001852036e-02 8.826921880245208740e-02
-1.982739120721817017e-01 4.013498872518539429e-02 8.527757227420806885e-02
1.742378622293472290e-02 7.553243543952703476e-03 -4.026598930358886719e-01
4.231182336807250977e-01 8.457453548908233643e-02 -6.033399701118469238e-02
5.830897092819213867e-01 -7.251410186290740967e-02 9.942491538822650909e-03
3.033435940742492676e-01 -8.434469997882843018e-02 -2.629500329494476318e-01
2.991280555725097656e-01 -2.538206800818443298e-02 -1.100497245788574219e-01
-7.930130958557128906e-01 1.178362071514129639e-01 3.061704570427536964e-03
7.989479601383209229e-02 -7.640323042869567871e-02 -6.179496645927429199e-01
-6.596129536628723145e-01 1.655537448823451996e-02 5.174394696950912476e-02
-2.114125341176986694e-02 1.043609622865915298e-02 -5.882507562637329102e-01
1.891442686319351196e-01 -6.693874299526214600e-02 3.129196912050247192e-02
3.557517826557159424e-01 5.555556342005729675e-02 -8.282574266195297241e-02
7.891571521759033203e-02 -2.146573178470134735e-02 -2.770379781723022461e-01
6.183613091707229614e-02 -8.710432797670364380e-03 4.248294234275817871e-01
-4.376897588372230530e-02 -8.328402042388916016e-02 6.120843067765235901e-02
7.924777865409851074e-01 -7.575051486492156982e-02 -1.904928125441074371e-02
-1.508699059486389160e-01 2.531273849308490753e-02 -6.883348822593688965e-01
5.579844862222671509e-02 -8.401834219694137573e-02 -5.943700075149536133e-01
5.762062966823577881e-02 7.743616122752428055e-03 -9.122955054044723511e-02
-7.895591259002685547e-01 2.761214971542358398e-01 -4.988543223589658737e-03
4.047060310840606689e-01 3.064330853521823883e-02 8.644703775644302368e-02
6.575816869735717773e-01 9.251599013805389404e-02 4.576065391302108765e-02
-9.465415030717849731e-02 8.205961436033248901e-03 6.051441431045532227e-01
-7.901601493358612061e-02 -9.444750845432281494e-03 -5.377191305160522461e-01
-5.644268169999122620e-02 9.700346738100051880e-02 -4.143223538994789124e-02
1.825898438692092896e-01 -8.439908921718597412e-02 4.214348271489143372e-02
8.394454605877399445e-03 -1.064140349626541138e-02 4.044590592384338379e-01
-1.034412905573844910e-02 -2.230883203446865082e-02 3.218623995780944824e-01
-6.267074495553970337e-02 1.448841951787471771e-02 6.695188879966735840e-01
8.941367268562316895e-02 -3.870848566293716431e-02 -7.273573428392410278e-02
4.312475025653839111e-02 -1.531925052404403687e-02 -3.350487053394317627e-01
3.139231204986572266e-01 -2.848249673843383789e-02 1.024387478828430176e-01
-7.901601493358612061e-02 -9.444750845432281494e-03 -5.377191305160522461e-01
2.126695066690444946e-01 -9.835103899240493774e-02 -2.813894450664520264e-01
-8.067501336336135864e-02 -1.077738963067531586e-02 -8.769396692514419556e-02
-1.890542060136795044e-01 4.157641902565956116e-02 8.470644801855087280e-02
2.776154279708862305e-01 -1.142611578106880188e-01 2.590106427669525146e-01
-1.122504770755767822e-01 -7.479861378669738770e-02 3.580663353204727173e-02
2.126695066690444946e-01 -8.113547414541244507e-02 -2.538391351699829102e-01
-4.749493673443794250e-02 1.350933220237493515e-02 -6.243408918380737305e-01
1.982824057340621948e-01 -8.366476744413375854e-02 5.538831651210784912e-02
-1.470079720020294189e-01 -6.549732387065887451e-02 -7.711441814899444580e-02
5.974224209785461426e-01 -6.084667146205902100e-02 -4.888415336608886719e-02
-2.356422990560531616e-01 -6.832578033208847046e-02 -3.087988309562206268e-02
-1.067023351788520813e-01 8.369140326976776123e-03 6.071566939353942871e-01
-7.210802286863327026e-02 -1.123973447829484940e-02 -4.369822442531585693e-01
-8.774863481521606445e-01 9.700346738100051880e-02 -2.009413689374923706e-01
4.554552137851715088e-01 8.288833498954772949e-02 5.829837173223495483e-02
-2.614546194672584534e-02 1.946543157100677490e-02 -6.213220357894897461e-01
4.106620848178863525e-01 9.749300032854080200e-02 3.618738800287246704e-02
-1.563636660575866699e-01 7.937994599342346191e-02 6.270425021648406982e-02
-3.479105830192565918e-01 -5.102863162755966187e-02 5.840716138482093811e-02
3.559123724699020386e-02 -1.326461881399154663e-01 1.719265282154083252e-01
3.121009469032287598e-01 -3.699509054422378540e-02 7.004737854003906250e-02
8.041451573371887207e-01 3.975423425436019897e-02 7.197836041450500488e-02
-1.201647371053695679e-01 -7.221493124961853027e-02 -6.906417012214660645e-02
3.123457133769989014e-01 -8.654762804508209229e-02 2.440524101257324219e-01
-7.487639784812927246e-01 1.662464737892150879e-01 -9.476012550294399261e-03
3.698669075965881348e-01 -2.453896775841712952e-02 -8.220021426677703857e-02
1.649935394525527954e-01 -3.568964451551437378e-02 -2.042593955993652344e-01
9.547855705022811890e-02 1.228547655045986176e-02 -3.785907328128814697e-01
1.160367485135793686e-02 -7.210614532232284546e-02 -1.695512793958187103e-02
-9.060183912515640259e-02 1.805119775235652924e-02 -5.784871578216552734e-01
-8.909215927124023438e-01 8.590717613697052002e-02 2.225941419601440430e-01
4.938000813126564026e-02 -2.239042147994041443e-02 1.791336685419082642e-01
5.855102539062500000e-01 1.538591552525758743e-02 -9.239900857210159302e-02
9.534256905317306519e-02 -1.387382596731185913e-01 -1.733094453811645508e-01
-2.898182868957519531e-01 8.046781271696090698e-02 -9.134699106216430664e-01
-8.133291602134704590e-01 6.404095888137817383e-02 -3.161419555544853210e-02
-4.145699441432952881e-01 3.727932274341583252e-02 -8.666048943996429443e-02
5.661435052752494812e-02 5.204718187451362610e-02 -8.418557792901992798e-02
3.084565699100494385e-01 9.373984485864639282e-02 -4.834022000432014465e-02
-4.673316478729248047e-01 -5.168135836720466614e-02 -2.780664525926113129e-02
3.664945065975189209e-01 2.933786250650882721e-02 8.663741499185562134e-02
-2.029815316200256348e-02 3.337741363793611526e-03 4.237143695354461670e-01
3.336110338568687439e-02 7.812369149178266525e-04 -4.919469356536865234e-01
4.451178386807441711e-02 -1.394181847572326660e-01 1.772842854261398315e-01
3.120737373828887939e-01 1.036938726902008057e-01 -2.525014802813529968e-02
-9.074028730392456055e-01 2.944248914718627930e-01 6.411908543668687344e-04
-1.118723023682832718e-02 -6.289924960583448410e-03 4.344571232795715332e-01
-4.749493673443794250e-02 1.350933220237493515e-02 -6.243408918380737305e-01
3.677727580070495605e-01 -7.099107652902603149e-02 -4.812264442443847656e-02
2.519949106499552727e-03 -1.192925497889518738e-01 -2.459742501378059387e-02
4.249922186136245728e-02 5.051135551184415817e-03 -3.626262247562408447e-01
-1.067023351788520813e-01 8.369140326976776123e-03 6.071566939353942871e-01
1.322486102581024170e-01 -7.738231122493743896e-02 6.051169037818908691e-01
3.035339415073394775e-01 -9.239494055509567261e-02 2.675504386425018311e-01
-4.398357272148132324e-01 5.824804306030273438e-02 -7.920856773853302002e-02
-2.576470561325550079e-02 -2.301594614982604980e-02 -2.642554938793182373e-01
-2.993643581867218018e-01 9.635073691606521606e-02 4.034849628806114197e-02
2.947494089603424072e-01 -1.058845445513725281e-01 2.461737394332885742e-01
3.702476620674133301e-01 -7.585928589105606079e-02 -3.055352158844470978e-02
-8.679675459861755371e-01 7.823768258094787598e-02 -8.581738919019699097e-02
9.071911871433258057e-02 1.161992200650274754e-03 -5.955122709274291992e-01
2.466654777526855469e-01 -5.446824710816144943e-03 -1.420603394508361816e-01
-3.760048747062683105e-01 -5.994917452335357666e-02 4.067485779523849487e-02
-1.583788171410560608e-02 -6.752270273864269257e-03 -3.389922380447387695e-01
1.032024472951889038e-01 -2.494691684842109680e-02 6.107466220855712891e-01
1.731253713369369507e-01 -4.825456067919731140e-02 -6.501184403896331787e-02
9.264751337468624115e-03 -1.748064300045371056e-03 4.991582632064819336e-01
3.212662339210510254e-01 -1.127381399273872375e-01 -2.806823551654815674e-01
1.804413199424743652e-01 -7.052873075008392334e-02 2.250740490853786469e-02
-3.761952221393585205e-01 8.846366405487060547e-02 5.149918049573898315e-02
6.594582796096801758e-01 -3.623358160257339478e-02 -7.482988387346267700e-02
1.600709259510040283e-01 -1.393221504986286163e-02 3.134314119815826416e-01
2.863183915615081787e-01 -4.055787622928619385e-02 8.734453469514846802e-02
2.934983372688293457e-01 5.775850266218185425e-02 7.785286009311676025e-02
3.085925579071044922e-01 -6.090106815099716187e-02 2.999145984649658203e-01
-2.025166153907775879e-01 3.129602968692779541e-02 -7.848563194274902344e-01
1.784559488296508789e-01 -6.359355151653289795e-02 -3.002368211746215820e-01
7.478180527687072754e-02 -7.719193398952484131e-02 1.961316615343093872e-01
-2.025166153907775879e-01 3.129602968692779541e-02 -7.848563194274902344e-01
-1.508699059486389160e-01 2.531273849308490753e-02 -6.883348822593688965e-01
3.227892518043518066e-01 -1.071355938911437988e-01 2.757638394832611084e-01
-5.254240036010742188e-01 -7.622563745826482773e-03 6.868754327297210693e-02
-7.055781036615371704e-02 -5.121900513768196106e-02 -6.109550967812538147e-02
-4.863720014691352844e-02 7.063694763928651810e-03 -4.620304703712463379e-01
3.529207408428192139e-02 -1.260373592376708984e-01 -1.689035743474960327e-01
4.740578234195709229e-01 1.058968156576156616e-01 -8.143370971083641052e-03
4.043252468109130859e-01 6.463929265737533569e-02 -7.801190763711929321e-02
1.097296774387359619e-01 -6.391990929841995239e-02 -5.689954757690429688e-01
-7.422639727592468262e-01 1.069574877619743347e-01 7.168418727815151215e-03
5.435701832175254822e-02 -1.575440168380737305e-02 3.498479127883911133e-01
-6.112842559814453125e-01 2.805961482226848602e-02 -7.083195447921752930e-02
8.299276828765869141e-01 8.413938432931900024e-02 -3.680878132581710815e-02
2.125335186719894409e-01 -5.097423493862152100e-02 -8.831949532032012939e-02
-6.514564901590347290e-02 2.669977769255638123e-02 6.667176485061645508e-01
4.554552137851715088e-01 8.288833498954772949e-02 5.829837173223495483e-02
-3.761952221393585205e-01 8.846366405487060547e-02 5.149918049573898315e-02
6.512694805860519409e-02 -9.988685138523578644e-03 -2.349101752042770386e-01
-2.552783787250518799e-01 3.434207290410995483e-02 -8.986970782279968262e-02
4.386747777462005615e-01 9.879844635725021362e-02 -3.724392876029014587e-02
-8.936684727668762207e-01 7.519163936376571655e-02 -9.740321338176727295e-02
-8.048463612794876099e-02 -7.118145376443862915e-02 -2.397189848124980927e-02
-6.809895634651184082e-01 1.564012318849563599e-01 -8.605715818703174591e-03
8.571491390466690063e-02 -8.744512498378753662e-02 -4.466804966796189547e-04
-4.252049606293439865e-03 4.860762972384691238e-03 -5.817235112190246582e-01
-3.223184347152709961e-01 2.814120426774024963e-02 -9.068561345338821411e-02
3.227892518043518066e-01 -1.071355938911437988e-01 2.757638394832611084e-01
-6.608368158340454102e-01 1.047001481056213379e-01 -1.630240492522716522e-02
6.885290145874023438e-02 -6.120023503899574280e-02 -5.570832490921020508e-01
-2.285439223051071167e-01 3.004498220980167389e-02 8.366975188255310059e-01
6.218969449400901794e-02 -8.720035105943679810e-02 1.426677871495485306e-02
-1.603615880012512207e-01 5.555556342005729675e-02 -8.263536542654037476e-02
2.334206402301788330e-01 -2.482371637597680092e-03 -1.518239825963973999e-01
1.097296774387359619e-01 -6.391990929841995239e-02 -5.689954757690429688e-01
8.270992636680603027e-01 -6.492618471384048462e-02 -1.915306900627911091e-03
2.980402112007141113e-01 -1.143155470490455627e-01 -2.867472171783447266e-01
-1.060767993330955505e-01 -3.555366024374961853e-02 -9.373165667057037354e-02
5.084345340728759766e-01 5.577313899993896484e-02 -8.277134597301483154e-02
8.258470334112644196e-03 -5.380270257592201233e-02 -6.016315817832946777e-01
8.024590015411376953e-01 -1.289746165275573730e-01 -6.098611629568040371e-04
5.454739555716514587e-02 -1.091337576508522034e-02 2.445963323116302490e-01
1.851191520690917969e-01 -7.024232298135757446e-03 -1.333845555782318115e-01
-3.373336046934127808e-02 -1.967073790729045868e-02 -5.872716903686523438e-01
9.162774682044982910e-01 5.408693850040435791e-02 1.731281913816928864e-02
-6.275232881307601929e-02 -3.016869910061359406e-02 -3.237892389297485352e-01
-6.700292825698852539e-01 4.105967655777931213e-02 5.468120425939559937e-02
-8.731102943420410156e-02 1.979179494082927704e-02 6.057424545288085938e-01
-3.225360214710235596e-01 8.098455518484115601e-02 6.167077645659446716e-02
-1.188320964574813843e-01 -4.739710595458745956e-03 -8.957054466009140015e-02
5.139011144638061523e-01 7.152008265256881714e-02 6.849716603755950928e-02
1.625186353921890259e-01 1.064951419830322266e-01 -3.383933100849390030e-03
8.541328907012939453e-01 -2.127534896135330200e-02 5.582346394658088684e-02
-8.021240830421447754e-01 6.964349746704101562e-02 -8.981531113386154175e-02
-5.160164833068847656e-02 1.462440565228462219e-02 5.930687785148620605e-01
2.055439352989196777e-01 -8.409991860389709473e-02 2.854509092867374420e-02
-6.487886309623718262e-01 2.476880326867103577e-02 -6.229216605424880981e-02
1.500896960496902466e-01 5.416852980852127075e-02 -8.334247767925262451e-02
-5.247985124588012695e-01 9.616036713123321533e-02 -4.309123754501342773e-02
7.099626660346984863e-01 9.379424154758453369e-02 -4.839460924267768860e-02
6.472741365432739258e-01 -7.142621278762817383e-02 -2.239448577165603638e-02
6.607093214988708496e-01 -2.781537361443042755e-03 -9.011448174715042114e-02
-2.142928242683410645e-01 6.871880590915679932e-02 7.102646678686141968e-02
1.959162652492523193e-01 -9.432591497898101807e-02 2.933601737022399902e-01
5.255141258239746094e-01 -4.836334288120269775e-02 6.082767620682716370e-02
8.362075686454772949e-02 -8.584050834178924561e-02 -6.049718335270881653e-02
3.836531192064285278e-02 -1.151170674711465836e-02 5.997863411903381348e-01
1.649935394525527954e-01 -3.568964451551437378e-02 -2.042593955993652344e-01
3.072301484644412994e-02 -2.252639830112457275e-02 2.792722284793853760e-01
2.297192998230457306e-02 6.383773870766162872e-03 -3.889527320861816406e-01
1.604244858026504517e-01 -2.236321941018104553e-02 -2.653161585330963135e-01
2.131318449974060059e-01 -1.090121641755104065e-01 -2.812262773513793945e-01
-3.071426451206207275e-01 8.109334111213684082e-02 -6.520222127437591553e-02
5.396564006805419922e-01 -6.897851824760437012e-02 -3.052632324397563934e-02
1.593366116285324097e-01 -2.105777338147163391e-02 2.846300005912780762e-01
4.763941094279289246e-02 1.720810309052467346e-02 -4.523484110832214355e-01
-1.804082095623016357e-02 6.438170559704303741e-03 -6.024202704429626465e-01
-1.975421793758869171e-02 -3.974196687340736389e-02 -9.922540187835693359e-02
3.831661343574523926e-01 8.394900709390640259e-02 -6.117709726095199585e-02
2.314352840185165405e-01 -6.848896294832229614e-02 -3.105444312095642090e-01
-3.609948232769966125e-02 -6.285922974348068237e-02 -5.766105055809020996e-01
