7.094759494066238403e-02 -9.498947113752365112e-02 -4.144830256700515747e-02
-7.480601966381072998e-02 1.151466835290193558e-02 -6.166234016418457031e-01
-7.370585203170776367e-01 5.628071352839469910e-02 -2.970845997333526611e-01
-3.422409594058990479e-01 -1.596260443329811096e-02 -8.286216855049133301e-02
-1.321889162063598633e-01 6.869128905236721039e-03 -6.328036189079284668e-01
3.274285495281219482e-01 -1.355323046445846558e-01 2.412165701389312744e-01
1.693748384714126587e-01 -2.240300923585891724e-02 -1.137972027063369751e-01
-6.821303367614746094e-01 3.261175751686096191e-01 -7.081911899149417877e-03
3.405468761920928955e-01 -4.927319660782814026e-02 -2.463532835245132446e-01
7.230115532875061035e-01 5.031542852520942688e-02 8.215983957052230835e-02
6.804413348436355591e-02 -7.767430692911148071e-02 1.194824874401092529e-01
-7.029560804367065430e-01 5.021471995860338211e-03 -2.402755059301853180e-02
-6.376810073852539062e-01 2.407871745526790619e-02 -6.604851037263870239e-02
-1.690364480018615723e-01 1.034223213791847229e-01 -1.380575355142354965e-03
8.479130864143371582e-01 -4.742554947733879089e-02 -3.904635086655616760e-02
6.450933218002319336e-01 7.478366047143936157e-02 -6.974381953477859497e-02
1.402874588966369629e-01 -3.636599704623222351e-02 1.602364778518676758e-01
-6.467030197381973267e-02 -4.322379827499389648e-03 5.118716359138488770e-01
-6.376810073852539062e-01 2.407871745526790619e-02 -6.604851037263870239e-02
-1.623534038662910461e-02 -2.443542703986167908e-02 2.312920242547988892e-01
-1.531151216477155685e-02 9.727226942777633667e-02 -3.345059230923652649e-02
3.430016636848449707e-01 -1.204607188701629639e-01 -2.253692001104354858e-01
3.404677212238311768e-01 -1.307547986507415771e-01 2.572911679744720459e-01
-3.078217506408691406e-01 7.832060009241104126e-02 -6.517747044563293457e-02
-3.409475684165954590e-01 -5.747712682932615280e-03 -8.547528088092803955e-02
-3.377273976802825928e-01 3.154852986335754395e-02 8.907534927129745483e-02
-1.905220299959182739e-01 1.096036657691001892e-02 9.350972622632980347e-02
-2.655632197856903076e-01 -9.253471344709396362e-02 7.540960330516099930e-03
7.569556236267089844e-01 6.266832351684570312e-02 -6.805454194545745850e-02
-7.029560804367065430e-01 5.021471995860338211e-03 -2.402755059301853180e-02
6.804413348436355591e-02 -7.767430692911148071e-02 1.194824874401092529e-01
-3.252425193786621094e-01 -7.382062077522277832e-02 4.272560030221939087e-02
-5.035676360130310059e-01 1.309787780046463013e-01 1.411333400756120682e-02
3.837292492389678955e-01 7.119393348693847656e-02 7.410934567451477051e-02
-5.933108925819396973e-01 2.413151040673255920e-02 -1.006524488329887390e-01
2.126099765300750732e-01 -7.160343229770660400e-02 2.321102768182754517e-01
-2.954160869121551514e-01 -5.713893473148345947e-02 -6.831849366426467896e-02
-3.017194010317325592e-02 3.656359016895294189e-02 -8.851071447134017944e-02
2.052457481622695923e-01 -1.886606402695178986e-02 -1.645285338163375854e-01
9.043456912040710449e-01 -2.541204355657100677e-02 2.514647506177425385e-02
-4.549742937088012695e-01 1.014162898063659668e-01 -1.381265651434659958e-02
-7.205616235733032227e-01 4.226493090391159058e-02 1.523179560899734497e-01
1.138131991028785706e-01 -2.934491075575351715e-02 -2.408103048801422119e-01
1.710164174437522888e-02 7.502122223377227783e-02 7.107391208410263062e-02
9.892638027667999268e-02 -3.934865072369575500e-02 1.118543073534965515e-01
7.458961009979248047e-01 4.308810457587242126e-03 -8.452506363391876221e-02
-6.604864001274108887e-01 2.873168289661407471e-01 9.151060134172439575e-03
2.478260919451713562e-02 4.366386681795120239e-02 -8.642550557851791382e-02
-1.531151216477155685e-02 9.727226942777633667e-02 -3.345059230923652649e-02
-6.827638149261474609e-01 4.804545268416404724e-02 -1.892871111631393433e-01
9.414886683225631714e-02 2.001388184726238251e-02 9.314019978046417236e-02
-6.439630389213562012e-01 2.917297184467315674e-02 -1.104450300335884094e-01
7.490685582160949707e-02 -2.192790061235427856e-02 1.823027580976486206e-01
-5.605018138885498047e-01 1.043246593326330185e-02 6.727302074432373047e-02
5.838354304432868958e-02 -2.541204355657100677e-02 -2.776050567626953125e-01
-6.739214658737182617e-01 4.574907943606376648e-02 -1.690420806407928467e-01
-1.144778206944465637e-01 1.689926162362098694e-02 -7.633272409439086914e-01
2.396436221897602081e-02 -8.862333372235298157e-03 -4.740372002124786377e-01
1.980926841497421265e-01 -9.725943952798843384e-02 -1.354180043563246727e-03
-6.158522963523864746e-01 3.463675081729888916e-02 7.403016090393066406e-02
-4.864372313022613525e-01 1.552094668149948120e-01 1.168498676270246506e-02
1.166902557015419006e-01 -2.290451712906360626e-02 -1.366025507450103760e-01
-8.441382646560668945e-02 -1.084196846932172775e-02 -4.105834364891052246e-01
6.332452408969402313e-03 -1.709268428385257721e-03 -4.423103332519531250e-01
-2.404828369617462158e-02 -2.356438525021076202e-02 -2.741208970546722412e-01
5.775482654571533203e-01 -2.850027196109294891e-02 -8.626713603734970093e-02
1.660226434469223022e-01 -1.810060814023017883e-02 1.917258203029632568e-01
2.304002791643142700e-01 -9.554377198219299316e-02 -2.368441410362720490e-02
9.043456912040710449e-01 -2.541204355657100677e-02 2.514647506177425385e-02
3.742006123065948486e-01 -2.047616615891456604e-02 9.021034836769104004e-02
-1.625696420669555664e-01 7.203857600688934326e-02 7.342307269573211670e-02
-3.184325993061065674e-01 8.816596120595932007e-02 -5.066018179059028625e-02
-4.685362800955772400e-02 1.658252254128456116e-02 -6.700206398963928223e-01
-1.864571720361709595e-01 2.011945843696594238e-02 7.880433797836303711e-01
-2.706310749053955078e-01 1.166198626160621643e-01 -9.271878600120544434e-01
2.491143494844436646e-01 -7.917881757020950317e-02 2.866424918174743652e-01
-4.720255434513092041e-01 7.172183692455291748e-02 -6.480794399976730347e-02
-6.778015494346618652e-01 5.709896236658096313e-02 3.028226792812347412e-01
3.470715880393981934e-02 -4.111217800527811050e-03 9.189962595701217651e-02
4.276770651340484619e-01 7.166904956102371216e-02 7.373981177806854248e-02
-6.814176440238952637e-01 5.181994661688804626e-02 -2.254483699798583984e-01
2.308489680290222168e-01 -3.380567952990531921e-02 -2.547469139099121094e-01
4.315571188926696777e-01 -1.738794706761837006e-02 9.021034836769104004e-02
-7.602861523628234863e-01 2.636404335498809814e-01 7.838209858164191246e-04
-6.606923788785934448e-02 5.206242669373750687e-03 -5.493952035903930664e-01
4.729760810732841492e-02 -6.750730797648429871e-03 5.030029416084289551e-01
-7.150360615924000740e-04 8.901556953787803650e-03 -5.678717494010925293e-01
2.370041050016880035e-02 -2.506891265511512756e-02 -1.808934807777404785e-01
-7.156785130500793457e-01 4.609221220016479492e-02 -1.800488382577896118e-01
6.061341762542724609e-01 7.441413402557373047e-02 -7.003416866064071655e-02
1.633567661046981812e-01 -7.078517228364944458e-02 -2.937060594558715820e-01
2.194199115037918091e-01 -1.936757192015647888e-02 -1.510934382677078247e-01
4.315571188926696777e-01 -1.738794706761837006e-02 9.021034836769104004e-02
1.617994606494903564e-01 -3.417520970106124878e-02 -1.894982755184173584e-01
-9.982854872941970825e-02 2.199350669980049133e-02 -7.999107837677001953e-01
1.621689796447753906e-01 -5.835310369729995728e-02 2.798325717449188232e-01
-6.795700192451477051e-01 5.672943219542503357e-02 3.130903840065002441e-01
2.260714620351791382e-01 -9.551738202571868896e-02 -2.414965778589248657e-01
-4.320897459983825684e-01 -6.004238128662109375e-02 1.580261997878551483e-02
8.789324015378952026e-02 -3.029513545334339142e-02 -2.293548583984375000e-01
8.834195137023925781e-02 -1.034045871347188950e-02 -3.164849877357482910e-01
2.251212447881698608e-01 -1.934118010103702545e-02 -1.894454807043075562e-01
3.563575744628906250e-01 -5.613591521978378296e-02 9.110777825117111206e-02
1.009588018059730530e-01 -1.073638163506984711e-02 3.098965585231781006e-01
-7.672280669212341309e-01 3.925540149211883545e-01 -3.808922367170453072e-03
6.793855875730514526e-02 -2.250858396291732788e-02 9.298183023929595947e-02
-2.536296611651778221e-03 -7.983869314193725586e-02 -8.381239324808120728e-02
-1.159031391143798828e-01 -1.305914670228958130e-02 -5.877208113670349121e-01
3.964303806424140930e-02 -4.559933673590421677e-03 -3.982305824756622314e-01
2.943291068077087402e-01 -4.890365526080131531e-02 2.436449229717254639e-01
-4.249366819858551025e-01 6.382970511913299561e-02 -7.280565053224563599e-02
8.425071835517883301e-02 -3.863598033785820007e-02 -1.153281107544898987e-01
-2.924598455429077148e-01 -8.965765684843063354e-02 -2.911489689722657204e-03
-4.131909012794494629e-01 1.592264324426651001e-02 -8.412913233041763306e-02
-6.968588232994079590e-01 3.321141749620437622e-02 7.215610891580581665e-02
1.503175944089889526e-01 -3.169407695531845093e-02 2.198893576860427856e-01
6.081929802894592285e-01 -9.694270044565200806e-02 5.666909739375114441e-03
5.508415400981903076e-02 -3.132454678416252136e-02 -2.021679133176803589e-01
-3.761850297451019287e-01 -5.064573511481285095e-02 6.048948317766189575e-02
1.164791062474250793e-01 -2.015942893922328949e-02 9.300822019577026367e-02
-2.857290804386138916e-01 -7.461246848106384277e-02 -5.121447890996932983e-02
-9.103898704051971436e-02 2.307570911943912506e-02 7.555246949195861816e-01
-6.463913917541503906e-01 3.136375918984413147e-02 -1.299509853124618530e-01
6.411637179553508759e-03 8.056907914578914642e-03 6.080552935600280762e-01
8.034424483776092529e-02 -1.406793445348739624e-01 1.703457981348037720e-01
2.610449194908142090e-01 -5.323246493935585022e-02 -2.849164903163909912e-01
7.280002236366271973e-01 1.497241947799921036e-02 -8.734934031963348389e-02
6.866127252578735352e-01 -7.902045547962188721e-02 5.360037088394165039e-02
-6.804146766662597656e-01 2.803798578679561615e-02 -5.034344270825386047e-02
-6.468137502670288086e-01 3.339618816971778870e-02 1.509718149900436401e-01
2.861466705799102783e-01 -4.600020870566368103e-02 2.836862504482269287e-01
6.241620182991027832e-01 -9.704829007387161255e-02 -2.832304453477263451e-03
-1.893078535795211792e-01 8.668784052133560181e-02 -5.483060330152511597e-02
-4.864372313022613525e-01 1.552094668149948120e-01 1.168498676270246506e-02
1.326064914464950562e-01 -5.391872674226760864e-02 9.337775409221649170e-02
-8.631426841020584106e-02 8.241678588092327118e-03 5.909513235092163086e-01
2.146951854228973389e-01 -5.610952153801918030e-02 2.592708170413970947e-01
-7.479860186576843262e-01 5.667664110660552979e-02 2.759261131286621094e-01
2.817386686801910400e-01 -9.554377198219299316e-02 2.966003492474555969e-02
2.261821180582046509e-02 -6.798587855882942677e-04 4.492625296115875244e-01
2.711278498172760010e-01 -7.973312586545944214e-02 8.691095560789108276e-02
2.531051076948642731e-02 -2.749725431203842163e-02 1.476196348667144775e-01
8.322130888700485229e-02 -1.461695283651351929e-01 1.469861567020416260e-01
-6.327187418937683105e-01 9.743063896894454956e-02 5.270984023809432983e-03
2.539710700511932373e-01 -1.102183246985077858e-03 9.224276989698410034e-02
-8.631426841020584106e-02 8.241678588092327118e-03 5.909513235092163086e-01
7.716841101646423340e-01 8.903700113296508789e-02 2.171511575579643250e-02
-1.994435638189315796e-01 2.188793011009693146e-02 -7.857894301414489746e-01
3.854713141918182373e-01 1.009675785899162292e-01 -2.067537792026996613e-02
-1.952731460332870483e-01 2.487057261168956757e-02 8.466404676437377930e-01
-4.698560386896133423e-02 1.386382430791854858e-02 -7.054692506790161133e-01
-4.231946468353271484e-01 7.787188887596130371e-02 -6.084868311882019043e-02
5.833075195550918579e-02 -1.454568505287170410e-01 1.608171761035919189e-01
1.693748384714126587e-01 -2.240300923585891724e-02 -1.137972027063369751e-01
1.069504842162132263e-01 -7.181458175182342529e-02 9.168846160173416138e-02
-7.190255820751190186e-02 -2.498972788453102112e-02 8.838908374309539795e-02
-1.092251837253570557e-01 2.038341201841831207e-02 -7.232331037521362305e-01
2.736932784318923950e-02 2.804293297231197357e-03 4.895942509174346924e-01
-4.821876287460327148e-01 -4.943156614899635315e-02 1.862689293920993805e-02
-6.311299651861190796e-02 -5.236142501235008240e-02 -8.650469034910202026e-02
-2.763801254332065582e-02 -1.385100279003381729e-02 -3.397918641567230225e-01
-5.859466791152954102e-01 2.006617933511734009e-01 -9.879790246486663818e-03
-4.419351518154144287e-01 5.950091779232025146e-02 7.595700025558471680e-02
1.567052006721496582e-01 -1.003212779760360718e-01 2.551531791687011719e-01
-1.441722661256790161e-01 1.774390041828155518e-02 7.139524221420288086e-01
4.315307438373565674e-01 -9.620364010334014893e-02 1.469402667135000229e-02
2.489032149314880371e-01 -1.304908394813537598e-01 -2.365607023239135742e-01
2.260714620351791382e-01 -9.551738202571868896e-02 -2.414965778589248657e-01
8.193007707595825195e-01 -3.668274730443954468e-02 -5.974008888006210327e-02
1.980926841497421265e-01 -9.725943952798843384e-02 -1.354180043563246727e-03
1.910766772925853729e-02 -9.087182581424713135e-02 6.822324544191360474e-02
-7.470622062683105469e-01 2.588365077972412109e-01 1.654858468100428581e-03
1.565732210874557495e-01 -1.290077716112136841e-02 2.732338011264801025e-01
2.408527135848999023e-01 -4.130187630653381348e-02 1.140978857874870300e-01
-1.104657649993896484e-01 2.597916685044765472e-02 -7.928633093833923340e-01
3.701357841491699219e-01 9.249475598335266113e-02 -4.466849938035011292e-02
-3.360908925533294678e-01 -3.160992637276649475e-03 8.828350901603698730e-02
-1.267251223325729370e-01 2.711415290832519531e-02 8.487520217895507812e-01
-5.395177006721496582e-01 1.693572252988815308e-01 -1.148988958448171616e-02
-6.468400955200195312e-01 3.521744161844253540e-02 7.500677555799484253e-02
3.366404175758361816e-01 -2.601912803947925568e-02 7.500677555799484253e-02
5.833075195550918579e-02 -1.454568505287170410e-01 1.608171761035919189e-01
-1.497152298688888550e-01 2.434267289936542511e-02 -8.477122783660888672e-01
-2.332820743322372437e-01 -9.976697713136672974e-02 -3.313385322690010071e-02
-3.321052491664886475e-01 1.716321520507335663e-02 -8.924978226423263550e-02
2.998193204402923584e-01 3.307943791151046753e-02 9.105499088764190674e-02
2.418293207883834839e-01 -1.035678759217262268e-01 -2.454030513763427734e-01
-2.000983431935310364e-02 3.051912039518356323e-02 9.174125641584396362e-02
6.516707688570022583e-02 -1.200911924242973328e-01 -1.610443890094757080e-01
2.437297552824020386e-01 -1.208302602171897888e-01 -3.083817064762115479e-01
1.593711078166961670e-01 -9.543818235397338867e-02 3.222035616636276245e-02
1.714600473642349243e-01 -1.047243643552064896e-02 -9.078069776296615601e-02
-1.427205353975296021e-01 6.816345732659101486e-03 -6.278149485588073730e-01
9.678838402032852173e-02 -1.611619144678115845e-01 1.298293620347976685e-01
2.696761190891265869e-01 -2.488414198160171509e-02 1.600781083106994629e-01
-5.671005845069885254e-01 3.556058183312416077e-02 1.473820805549621582e-01
-1.481843292713165283e-01 1.481404993683099747e-02 7.320330142974853516e-01
3.664140701293945312e-01 5.052658915519714355e-02 -8.439308404922485352e-02
-6.781446933746337891e-01 3.264079093933105469e-01 8.755134418606758118e-03
3.227880969643592834e-02 -3.739540651440620422e-02 1.156551912426948547e-01
-5.399136543273925781e-01 8.550006151199340820e-02 1.210730895400047302e-02
2.418293207883834839e-01 -1.035678759217262268e-01 -2.454030513763427734e-01
8.479130864143371582e-01 -4.742554947733879089e-02 -3.904635086655616760e-02
-6.748980879783630371e-01 8.790201693773269653e-02 1.760438899509608746e-03
2.488503903150558472e-01 -9.842082858085632324e-02 -2.646714746952056885e-01
4.247735738754272461e-01 -9.406564384698867798e-02 -2.173117920756340027e-02
1.335353963077068329e-02 -3.100779838860034943e-02 -1.916890740394592285e-01
-5.687634944915771484e-01 3.355455771088600159e-02 8.002183586359024048e-02
-3.748337179422378540e-02 -9.812558069825172424e-03 -4.485395848751068115e-01
2.068294584751129150e-01 -5.489535257220268250e-02 -2.556179463863372803e-01
2.374741286039352417e-01 -8.564560860395431519e-02 -2.861042618751525879e-01
2.675381302833557129e-01 -4.396777972579002380e-02 -2.681556046009063721e-01
-1.027005072683095932e-02 -8.492802269756793976e-03 -4.724799096584320068e-01
7.371908426284790039e-02 -2.440903522074222565e-02 -2.934948801994323730e-01
5.144163221120834351e-02 -1.246575266122817993e-01 1.734868139028549194e-01
-6.012822389602661133e-01 3.711789473891258240e-02 -1.854598373174667358e-01
4.188662022352218628e-02 -1.323648989200592041e-01 1.454552412033081055e-01
3.572021722793579102e-01 -3.090222179889678955e-02 -7.056207209825515747e-02
2.486656457185745239e-01 -4.578905552625656128e-02 2.776418030261993408e-01
5.666786059737205505e-02 -1.131707523018121719e-02 -4.488827288150787354e-01
3.334994316101074219e-01 -7.215773314237594604e-02 2.351720929145812988e-01
-9.346733242273330688e-02 3.807301400229334831e-03 6.072635054588317871e-01
7.791589945554733276e-02 -3.665634617209434509e-02 2.217634022235870361e-01
7.615219950675964355e-01 -1.451665014028549194e-01 3.878948336932808161e-04
-8.900655806064605713e-02 6.288445089012384415e-03 -5.725172162055969238e-01
-6.076170206069946289e-01 4.382223635911941528e-02 -1.957275271415710449e-01
-3.545938134193420410e-01 9.133337438106536865e-02 4.420372098684310913e-02
7.490685582160949707e-02 -2.192790061235427856e-02 1.823027580976486206e-01
-1.155600100755691528e-01 8.822372183203697205e-03 -6.121098399162292480e-01
1.741787493228912354e-01 -1.197744384407997131e-01 2.903906106948852539e-01
1.641750186681747437e-01 -8.738768845796585083e-02 2.548628449440002441e-01
1.803815811872482300e-01 -9.337936341762542725e-02 5.367955565452575684e-02
4.355427622795104980e-01 8.460262417793273926e-02 5.930170789361000061e-02
1.607223413884639740e-02 -1.680725440382957458e-02 3.763593435287475586e-01
3.412067890167236328e-01 -9.161089360713958740e-02 -3.440081700682640076e-02
-6.670587062835693359e-01 1.676151454448699951e-01 4.875057842582464218e-03
-6.421946287155151367e-01 3.269886076450347900e-01 5.376564338803291321e-03
1.607223413884639740e-02 -1.680725440382957458e-02 3.763593435287475586e-01
-2.380859702825546265e-01 1.024984940886497498e-01 -1.391823682934045792e-02
2.380020320415496826e-01 -3.491427376866340637e-02 -1.877298057079315186e-01
-9.605404734611511230e-02 3.780909813940525055e-03 -5.536183714866638184e-01
1.884848773479461670e-01 -3.417520970106124878e-02 1.944708973169326782e-01
1.568899750709533691e-01 -1.076327115297317505e-01 2.850852012634277344e-01
-6.621228456497192383e-01 2.708776108920574188e-02 -6.750024110078811646e-02
4.662930369377136230e-01 1.861494034528732300e-02 -9.167812764644622803e-02
-6.649156659841537476e-02 2.408360363915562630e-03 5.969430208206176758e-01
5.842526555061340332e-01 8.977606892585754395e-02 5.096086114645004272e-02
1.966409385204315186e-01 -2.031779848039150238e-02 -1.382654309272766113e-01
-6.338273286819458008e-01 2.659104168415069580e-01 -8.533640764653682709e-03
3.248997032642364502e-02 2.930494956672191620e-02 -9.054313600063323975e-02
-7.129598259925842285e-01 2.001074850559234619e-01 -8.262787014245986938e-04
-2.644282281398773193e-01 1.203415691852569580e-01 9.301281571388244629e-01
9.905835241079330444e-02 -1.338166296482086182e-01 1.411264538764953613e-01
-6.801770925521850586e-01 3.041354380548000336e-02 4.478441551327705383e-02
-4.722102880477905273e-01 -9.495819918811321259e-03 7.421492040157318115e-02
1.068185046315193176e-01 -1.389900445938110352e-01 -1.789138615131378174e-01
2.251212447881698608e-01 -1.934118010103702545e-02 -1.894454807043075562e-01
-7.450298070907592773e-01 5.292854085564613342e-02 2.454661875963211060e-01
-6.491892933845520020e-01 5.079054087400436401e-02 -2.328917831182479858e-01
2.565841376781463623e-01 -8.105286210775375366e-02 2.616463601589202881e-01
-2.001034319400787354e-01 -3.955980390310287476e-02 8.390191942453384399e-02
9.034798294305801392e-02 -3.069105930626392365e-02 2.211035341024398804e-01
-1.091460064053535461e-01 1.278163213282823563e-02 -7.145491242408752441e-01
-3.195147514343261719e-01 -1.181367784738540649e-03 -8.845791965723037720e-02
-2.841190099716186523e-01 5.588478595018386841e-02 -8.220229297876358032e-02
8.322130888700485229e-02 -1.461695283651351929e-01 1.469861567020416260e-01
9.245958179235458374e-02 -9.509505331516265869e-02 -3.875600174069404602e-02
3.666039556264877319e-02 -2.588716149330139160e-02 -2.654633224010467529e-01
-9.945901483297348022e-02 2.378837950527667999e-02 -9.146697074174880981e-02
1.213622018694877625e-01 -3.494066745042800903e-02 -1.727637946605682373e-01
-7.721111774444580078e-01 3.187533617019653320e-01 1.654858468100428581e-03
7.371908426284790039e-02 -2.440903522074222565e-02 -2.934948801994323730e-01
4.288963228464126587e-02 -1.331303566694259644e-01 1.725365966558456421e-01
-1.000397130846977234e-01 2.410511858761310577e-02 7.666105628013610840e-01
2.738201320171356201e-01 -4.850774258375167847e-02 2.547308504581451416e-01
-6.661877036094665527e-01 4.052285104990005493e-02 -1.218476966023445129e-01
3.455091714859008789e-01 -8.007625490427017212e-02 -8.051301538944244385e-02
-4.558666422963142395e-02 -9.205472655594348907e-03 4.553598165512084961e-01
-6.768513321876525879e-01 3.564719259738922119e-01 -4.416008945554494858e-03
6.426385641098022461e-01 7.404460012912750244e-02 7.183936983346939087e-02
2.227984666824340820e-01 -1.026440337300300598e-01 3.140933811664581299e-01
8.863230049610137939e-02 -1.407057344913482666e-01 1.581776738166809082e-01
-3.619001805782318115e-02 -7.859325036406517029e-03 -4.027177393436431885e-01
1.266676038503646851e-01 9.621646255254745483e-02 3.763134777545928955e-02
4.182539880275726318e-01 -5.088330060243606567e-02 -8.104091882705688477e-02
2.603322565555572510e-01 -6.489907950162887573e-02 2.270952016115188599e-01
-6.665835976600646973e-01 5.335085839033126831e-02 -2.901954948902130127e-01
7.569556236267089844e-01 6.266832351684570312e-02 -6.805454194545745850e-02
4.123151004314422607e-01 6.031916290521621704e-02 8.134159445762634277e-02
1.144730821251869202e-01 -8.809540420770645142e-03 -3.289434611797332764e-01
-6.461802721023559570e-01 3.841124847531318665e-02 1.995123624801635742e-01
-2.481688857078552246e-01 4.163144528865814209e-02 8.852106332778930664e-02
-7.316211462020874023e-01 3.515360653400421143e-01 6.669923197478055954e-03
-5.671005845069885254e-01 3.556058183312416077e-02 1.473820805549621582e-01
-1.685876995325088501e-01 1.642415300011634827e-02 7.461280226707458496e-01
-6.094910502433776855e-01 5.391003564000129700e-03 -5.340526998043060303e-02
-1.184106767177581787e-01 2.434761729091405869e-03 -5.795119404792785645e-01
-4.854342341423034668e-01 1.306356489658355713e-01 1.387577876448631287e-02
-5.820351466536521912e-02 1.114513725042343140e-02 -6.064349412918090820e-01
1.884848773479461670e-01 -3.417520970106124878e-02 1.944708973169326782e-01
4.009683150798082352e-03 -2.116243727505207062e-02 4.075319170951843262e-01
8.176378607749938965e-01 7.729119807481765747e-02 5.429354496300220490e-03
7.900814414024353027e-01 -8.891859650611877441e-02 1.522883074358105659e-03
-6.368364095687866211e-01 2.772123925387859344e-02 1.035398617386817932e-01
-1.674527525901794434e-01 -1.997465826570987701e-02 8.965604752302169800e-02
3.560936152935028076e-01 -4.615857452154159546e-02 -6.211564689874649048e-02
-5.701624155044555664e-01 -2.100406773388385773e-02 4.037643596529960632e-02
7.699947953224182129e-01 -1.419991105794906616e-01 -8.665616624057292938e-03
1.772141754627227783e-01 -9.562294185161590576e-02 2.781238034367561340e-02
-5.852603912353515625e-01 1.476340740919113159e-01 -8.665616624057292938e-03
3.540875911712646484e-01 -4.549870640039443970e-02 7.152262330055236816e-02
6.247162818908691406e-01 -8.773081749677658081e-02 4.029725119471549988e-02
-7.024017572402954102e-01 3.666340112686157227e-01 -5.630182567983865738e-03
1.710164174437522888e-02 7.502122223377227783e-02 7.107391208410263062e-02
-2.724259495735168457e-01 9.930469095706939697e-02 -2.785483561456203461e-02
-7.731354236602783203e-02 3.194445371627807617e-02 -8.985686302185058594e-02
-6.463913917541503906e-01 3.136375918984413147e-02 -1.299509853124618530e-01
1.144730821251869202e-01 -8.809540420770645142e-03 -3.289434611797332764e-01
1.437452137470245361e-01 -2.031779848039150238e-02 1.631135493516921997e-01
-5.006378293037414551e-01 3.693312406539916992e-02 -7.644817233085632324e-02
1.802496016025543213e-01 -1.651690714061260223e-02 2.182528674602508545e-01
2.891820967197418213e-01 -2.683737501502037048e-02 1.373519450426101685e-01
-4.515429437160491943e-01 1.509598493576049805e-01 -5.287046544253826141e-03
-5.671005845069885254e-01 3.556058183312416077e-02 1.473820805549621582e-01
8.176378607749938965e-01 7.729119807481765747e-02 5.429354496300220490e-03
1.039729360491037369e-02 -3.290824964642524719e-02 8.635666221380233765e-02
4.288963228464126587e-02 -1.331303566694259644e-01 1.725365966558456421e-01
-7.733994722366333008e-02 -4.903073422610759735e-03 -4.986902177333831787e-01
2.481641322374343872e-01 -9.807769954204559326e-02 -2.197998166084289551e-01
2.052457481622695923e-01 -1.886606402695178986e-02 -1.645285338163375854e-01
-3.058157265186309814e-01 -4.037805274128913879e-02 7.938835769891738892e-02
-3.360908925533294678e-01 -3.160992637276649475e-03 8.828350901603698730e-02
4.810478985309600830e-01 6.813210248947143555e-02 -7.499644160270690918e-02
6.478911638259887695e-01 9.122779965400695801e-02 4.840053990483283997e-02
-7.029032111167907715e-01 3.888635709881782532e-02 -1.184691339731216431e-01
2.916419133543968201e-02 -3.470311313867568970e-02 -1.485595256090164185e-01
7.345513254404067993e-02 -3.259151056408882141e-02 -2.702935934066772461e-01
7.403582334518432617e-02 -7.630174607038497925e-02 1.333398967981338501e-01
2.898155748844146729e-01 -4.380941018462181091e-02 -2.692377865314483643e-01
4.399507641792297363e-01 -6.743300706148147583e-02 6.656035035848617554e-02
-1.479995697736740112e-01 1.323034800589084625e-02 -7.101675868034362793e-01
5.883736535906791687e-03 -1.290077716112136841e-02 3.286634683609008789e-01
4.126318395137786865e-01 1.031055822968482971e-01 7.303404621779918671e-03
5.142000913619995117e-01 -2.242940105497837067e-02 8.910175412893295288e-02
-5.701624155044555664e-01 -2.100406773388385773e-02 4.037643596529960632e-02
4.079335033893585205e-01 -1.350786257535219193e-02 -8.956651389598846436e-02
1.013019382953643799e-01 -2.396031841635704041e-02 -1.310595870018005371e-01
-5.870816707611083984e-01 6.963662058115005493e-02 -4.023412987589836121e-02
2.160149216651916504e-01 -1.282472610473632812e-01 2.768235206604003906e-01
2.882105670869350433e-02 -1.200334541499614716e-02 -4.369521439075469971e-01
-6.338273286819458008e-01 2.659104168415069580e-01 -8.533640764653682709e-03
-2.395640909671783447e-01 -6.970298290252685547e-02 -6.161414086818695068e-02
4.354372024536132812e-01 1.002549156546592712e-01 2.527845278382301331e-02
-9.600125998258590698e-02 -6.460384000092744827e-03 4.607444107532501221e-01
-6.665835976600646973e-01 5.335085839033126831e-02 -2.901954948902130127e-01
-6.130544543266296387e-01 2.800581753253936768e-01 -7.557023316621780396e-03
-3.876932561397552490e-01 -6.764416396617889404e-02 -2.389557659626007080e-02
-4.521236419677734375e-01 -5.505372211337089539e-02 2.213743887841701508e-02
-5.386962089687585831e-03 -4.665520042181015015e-03 -4.163112044334411621e-01
9.501991420984268188e-02 -6.539568770676851273e-03 -3.602744340896606445e-01
8.042342960834503174e-02 -9.145252406597137451e-02 6.703546643257141113e-02
-7.461647987365722656e-01 5.570002272725105286e-02 -2.660176157951354980e-01
-5.801134109497070312e-01 9.658600389957427979e-02 -7.557023316621780396e-03
8.351165056228637695e-02 -7.357816211879253387e-03 -4.730078279972076416e-01
1.138131991028785706e-01 -2.934491075575351715e-02 -2.408103048801422119e-01
7.127702832221984863e-01 -1.998051811824552715e-05 -8.851071447134017944e-02
-6.577149033546447754e-01 2.518154680728912354e-01 8.596763946115970612e-03
-5.510523915290832520e-01 1.468422114849090576e-01 -1.083001215010881424e-02
-1.190705671906471252e-01 2.719333767890930176e-02 -8.079876899719238281e-01
2.113166153430938721e-01 -7.849254459142684937e-02 -3.103349208831787109e-01
6.397351026535034180e-01 -9.459353238344192505e-02 2.116082236170768738e-02
1.269366126507520676e-02 -3.475590422749519348e-02 1.432380527257919312e-01
1.593711078166961670e-01 -9.543818235397338867e-02 3.222035616636276245e-02
-7.504357397556304932e-02 1.146187540143728256e-02 -7.035160064697265625e-01
-4.955435693264007568e-01 1.239576861262321472e-01 1.437728572636842728e-02
-2.644282281398773193e-01 1.203415691852569580e-01 9.301281571388244629e-01
-6.912366747856140137e-01 3.621732592582702637e-01 -5.445417016744613647e-03
-2.847260832786560059e-01 -7.389979809522628784e-02 5.383792519569396973e-02
9.127180278301239014e-02 -1.643821299076080322e-01 1.795840710401535034e-01
1.240808889269828796e-01 -1.224089972674846649e-02 2.864313423633575439e-01
3.559880256652832031e-01 -5.882821232080459595e-02 2.499269545078277588e-01
2.271800637245178223e-01 -9.512144327163696289e-02 2.985466718673706055e-01
5.170508027076721191e-01 4.683127626776695251e-02 8.699014037847518921e-02
3.664140701293945312e-01 5.052658915519714355e-02 -8.439308404922485352e-02
-1.528034657239913940e-01 1.898447237908840179e-02 -7.820941209793090820e-01
-8.499450981616973877e-02 6.448958814144134521e-02 7.909801602363586426e-02
-5.820351466536521912e-02 1.114513725042343140e-02 -6.064349412918090820e-01
-1.892286837100982666e-01 2.811717055737972260e-02 8.380620479583740234e-01
7.729774117469787598e-01 4.083959758281707764e-02 -7.457412034273147583e-02
-1.427205353975296021e-01 6.816345732659101486e-03 -6.278149485588073730e-01
-7.362402677536010742e-01 4.033759832382202148e-01 6.168416701257228851e-03
7.611523866653442383e-01 -2.210777485743165016e-03 8.316285908222198486e-02
-7.712878286838531494e-02 -8.749327063560485840e-02 -6.071671098470687866e-02
2.792047262191772461e-01 -3.916388005018234253e-02 -1.404034346342086792e-01
9.784418344497680664e-02 -3.272348642349243164e-02 1.971895843744277954e-01
-6.807841658592224121e-01 2.402280122041702271e-01 -4.864725284278392792e-03
2.552116215229034424e-01 -1.229154691100120544e-01 -3.010702729225158691e-01
-6.026811599731445312e-01 3.450478240847587585e-02 7.490119338035583496e-02
5.504405498504638672e-01 -5.011784657835960388e-02 7.878126949071884155e-02
-6.461802721023559570e-01 3.841124847531318665e-02 1.995123624801635742e-01
2.387411147356033325e-01 -3.750099241733551025e-02 -1.575866341590881348e-01
-1.756879836320877075e-01 7.982669048942625523e-04 9.245392680168151855e-02
-1.343746390193700790e-02 -2.578157372772693634e-02 2.113901525735855103e-01
8.673185110092163086e-02 -3.372649475932121277e-02 -9.167812764644622803e-02
1.198099553585052490e-02 -1.831177063286304474e-02 -3.548106551170349121e-01
1.363281905651092529e-01 -1.224089972674846649e-02 2.840029895305633545e-01
-6.535708308219909668e-01 9.403056465089321136e-03 4.549708217382431030e-02
1.531946510076522827e-01 -2.000105939805507660e-02 -1.616778671741485596e-01
3.405468761920928955e-01 -1.403362154960632324e-01 2.540973722934722900e-01
6.899435818195343018e-02 8.800759166479110718e-02 5.404908582568168640e-02
7.770473510026931763e-02 -9.762898087501525879e-02 -1.328808367252349854e-01
2.654001116752624512e-01 -1.044388934969902039e-01 3.107939958572387695e-01
4.367041587829589844e-01 -1.788453082554042339e-03 9.216358512639999390e-02
-7.759912610054016113e-01 3.553633391857147217e-01 -1.143019646406173706e-03
-1.965137124061584473e-01 2.692939154803752899e-02 9.269148111343383789e-02
3.679977953433990479e-01 -3.256510943174362183e-02 -6.393690407276153564e-02
2.096801251173019409e-01 -9.398645162582397461e-02 4.942994937300682068e-02
7.444971799850463867e-01 -7.870371639728546143e-02 4.565544798970222473e-02
2.652153372764587402e-01 -4.497079551219940186e-02 -6.929510831832885742e-02
2.626550495624542236e-01 -5.951448902487754822e-02 -2.294868081808090210e-01
3.741214275360107422e-01 7.380704581737518311e-02 -7.050928473472595215e-02
7.903717756271362305e-01 -8.461619913578033447e-02 2.237499505281448364e-02
-7.233594059944152832e-01 5.034182593226432800e-02 2.380032651126384735e-02
2.208188325166702271e-01 -9.158450365066528320e-02 6.513501703739166260e-02
2.530472576618194580e-01 -5.613591521978378296e-02 -2.389626502990722656e-01
3.043115511536598206e-02 -1.788453082554042339e-03 5.589604973793029785e-01
-5.250217393040657043e-02 -1.466924976557493210e-02 -4.055155813694000244e-01
-3.063172399997711182e-01 9.848644584417343140e-02 -2.730054222047328949e-02
3.478847444057464600e-01 -4.489160329103469849e-02 7.814779132604598999e-02
2.711278498172760010e-01 -7.973312586545944214e-02 8.691095560789108276e-02
-4.978135228157043457e-01 -3.243314102292060852e-02 5.122481286525726318e-02
5.088734254240989685e-02 -3.016315773129463196e-02 -8.051301538944244385e-02
1.036247014999389648e-01 -3.090222179889678955e-02 -2.199581861495971680e-01
1.036247014999389648e-01 -3.090222179889678955e-02 -2.199581861495971680e-01
-8.768681436777114868e-02 2.091621980071067810e-03 -9.107104688882827759e-02
5.619274824857711792e-02 -3.034792840480804443e-02 -7.069404423236846924e-02
-1.701450496912002563e-01 2.494975738227367401e-02 -8.519091010093688965e-01
2.346762567758560181e-01 -4.958993569016456604e-02 2.546516656875610352e-01
6.215803697705268860e-02 -8.598377928137779236e-03 -3.449916839599609375e-01
4.186022281646728516e-02 -9.187484532594680786e-02 -6.277552247047424316e-02
1.966409385204315186e-01 -2.031779848039150238e-02 -1.382654309272766113e-01
3.134655356407165527e-01 -1.240768358111381531e-01 -2.257387191057205200e-01
1.559133529663085938e-01 -1.184497587382793427e-02 3.335993289947509766e-01
3.943928480148315430e-01 8.811318129301071167e-02 -5.234947055578231812e-02
1.971424669027328491e-01 -5.030260607600212097e-02 -2.812211811542510986e-01
-3.602423667907714844e-01 1.001493260264396667e-01 2.737056696787476540e-03
1.716711968183517456e-01 -9.514784067869186401e-02 -3.553580492734909058e-02
-4.302634671330451965e-02 -1.385100279003381729e-02 -8.930256962776184082e-02
-2.792835980653762817e-02 1.412777975201606750e-02 -6.592250466346740723e-01
6.390011310577392578e-02 -2.390752546489238739e-02 -1.612291485071182251e-01
-6.297889351844787598e-01 1.165670678019523621e-01 -4.547984339296817780e-03
8.351378440856933594e-01 -3.742180764675140381e-02 -5.261341854929924011e-02
3.147589266300201416e-01 -1.322329193353652954e-01 2.355680316686630249e-01
-5.515275001525878906e-01 8.064337074756622314e-02 3.042549081146717072e-02
-1.510613858699798584e-01 1.262326259166002274e-02 -7.011932134628295898e-01
5.452407598495483398e-01 -6.505744904279708862e-02 -6.691955029964447021e-02
3.405468761920928955e-01 -4.927319660782814026e-02 -2.463532835245132446e-01
8.159750103950500488e-01 -5.291570723056793213e-02 4.937715455889701843e-02
-2.984515130519866943e-01 5.543607100844383240e-02 8.350600302219390869e-02
2.531051076948642731e-02 -2.749725431203842163e-02 1.476196348667144775e-01
3.402301371097564697e-01 -6.466151773929595947e-02 -2.236007153987884521e-01
-1.512989401817321777e-01 -9.623003005981445312e-02 1.427170448005199432e-02
6.770100444555282593e-02 -2.406589500606060028e-02 2.980187833309173584e-01
3.287483155727386475e-01 -1.126428227871656418e-02 -9.030558168888092041e-02
2.995553612709045410e-01 -1.417879313230514526e-01 -2.603690624237060547e-01
-1.267251223325729370e-01 2.711415290832519531e-02 8.487520217895507812e-01
-1.522491574287414551e-01 6.473205983638763428e-03 6.204346418380737305e-01
-6.636274456977844238e-01 2.648067660629749298e-02 5.961844325065612793e-02
3.249738216400146484e-01 -6.352654099464416504e-02 2.439088672399520874e-01
8.078981041908264160e-01 4.603942483663558960e-02 -5.871068313717842102e-02
1.283568888902664185e-01 -3.037432022392749786e-02 2.322950363159179688e-01
8.415782451629638672e-01 -6.664116680622100830e-02 1.105150580406188965e-02
4.412705004215240479e-01 9.616367518901824951e-02 3.773692622780799866e-02
-6.445173025131225586e-01 4.382223635911941528e-02 1.571746468544006348e-01
3.170288801193237305e-01 -2.630947530269622803e-02 -9.262834489345550537e-02
5.393018126487731934e-01 1.018122285604476929e-01 1.860049739480018616e-02
-8.673658967018127441e-02 8.077534288167953491e-02 6.436955928802490234e-02
2.953585386276245117e-01 5.628071352839469910e-02 8.350600302219390869e-02
4.254649952054023743e-02 -1.593621261417865753e-02 2.771666646003723145e-01
8.411873877048492432e-02 -1.073638163506984711e-02 4.590815007686614990e-01
1.110995933413505554e-02 -2.161115221679210663e-02 -3.124729394912719727e-01
3.170288801193237305e-01 -2.630947530269622803e-02 -9.262834489345550537e-02
-1.709896624088287354e-01 2.875064872205257416e-02 -8.889150023460388184e-01
2.193194068968296051e-02 -1.434508115053176880e-01 1.307795792818069458e-01
-1.287047564983367920e-01 5.127057898789644241e-03 6.124897003173828125e-01
-4.413808584213256836e-01 3.556058183312416077e-02 8.305727690458297729e-02
1.749441921710968018e-01 -6.365852057933807373e-02 -2.524505555629730225e-01
1.288056075572967529e-01 -2.366997115314006805e-02 3.123513162136077881e-01
-3.613722696900367737e-02 -2.071372047066688538e-02 -2.827784717082977295e-01
-7.023456972092390060e-03 -3.662501694634556770e-03 -4.276083111763000488e-01
2.841406166553497314e-01 -4.402058199048042297e-02 8.506330102682113647e-02
-1.061319001019001007e-02 -9.469418786466121674e-03 -3.710436522960662842e-01
-7.479860186576843262e-01 5.667664110660552979e-02 2.759261131286621094e-01
3.590762615203857422e-01 -3.692030161619186401e-02 7.545549422502517700e-02
2.330133467912673950e-01 -5.991040542721748352e-02 2.832903265953063965e-01
2.955432832241058350e-01 -9.147891402244567871e-02 6.653395295143127441e-02
-2.287420928478240967e-01 1.031055822968482971e-01 -5.577392876148223877e-03
-5.835183262825012207e-01 8.233265578746795654e-02 8.491182699799537659e-03
1.872442960739135742e-01 4.799265787005424500e-02 -8.515854179859161377e-02
6.080610156059265137e-01 5.955370515584945679e-02 -8.022267371416091919e-02
3.449812531471252441e-01 -4.209373891353607178e-02 -8.354844152927398682e-02
2.765967138111591339e-02 1.027360484004020691e-01 1.208091340959072113e-02
4.747394621372222900e-01 -8.416748046875000000e-02 4.634172469377517700e-02
4.574029892683029175e-02 -8.440008386969566345e-03 3.543458282947540283e-01
2.794423103332519531e-01 -5.790438875555992126e-02 9.337775409221649170e-02
4.478693008422851562e-01 9.735145419836044312e-02 -3.326582908630371094e-02
3.964303806424140930e-02 -4.559933673590421677e-03 -3.982305824756622314e-01
1.954795569181442261e-01 -8.509130775928497314e-02 -3.066660165786743164e-01
8.158481121063232422e-02 -2.454101294279098511e-02 -9.146697074174880981e-02
8.522733300924301147e-02 -1.321752555668354034e-02 -4.291391968727111816e-01
-1.372780557721853256e-02 -3.185244649648666382e-02 -1.284992545843124390e-01
9.396410733461380005e-02 -1.539560705423355103e-01 -1.311915516853332520e-01
-6.931898593902587891e-01 5.237424373626708984e-02 -2.286421805620193481e-01
8.276152610778808594e-01 7.333193719387054443e-02 5.693305283784866333e-03
2.961503863334655762e-01 -2.372276596724987030e-02 9.757457673549652100e-02
-6.918386369943618774e-02 -9.126288816332817078e-03 4.155296385288238525e-01
1.258808560669422150e-02 -2.285172417759895325e-02 2.231095433235168457e-01
-5.432343110442161560e-02 1.037967298179864883e-02 6.943408846855163574e-01
-6.886395858600735664e-04 -2.044977433979511261e-02 -3.234269022941589355e-01
5.153086781501770020e-01 3.373931720852851868e-02 -8.932896703481674194e-02
-6.591087579727172852e-02 -2.897047204896807671e-03 5.298467278480529785e-01
9.874161332845687866e-02 8.993443846702575684e-02 -4.915566369891166687e-02
2.491671741008758545e-01 -6.616603583097457886e-02 -2.248940914869308472e-01
-3.063172399997711182e-01 6.726107001304626465e-02 -7.497004419565200806e-02
2.509620487689971924e-01 -1.397291123867034912e-01 2.755565643310546875e-01
1.141827329993247986e-01 -2.438263408839702606e-02 -3.009382784366607666e-01
-2.005521655082702637e-01 2.568881958723068237e-02 -8.539679050445556641e-01
-1.101754158735275269e-01 9.271088056266307831e-03 6.143637895584106445e-01
8.150562644004821777e-02 -1.538192108273506165e-02 4.051299691200256348e-01
3.837292492389678955e-01 7.119393348693847656e-02 7.410934567451477051e-02
2.380020320415496826e-01 -3.491427376866340637e-02 -1.877298057079315186e-01
6.390011310577392578e-02 -2.390752546489238739e-02 -1.612291485071182251e-01
-4.152182862162590027e-02 -1.889246515929698944e-02 3.300887942314147949e-01
1.287792026996612549e-01 -3.911108896136283875e-02 -1.210558414459228516e-01
-6.175415515899658203e-01 3.144294396042823792e-02 1.521067917346954346e-01
7.458961009979248047e-01 4.308810457587242126e-03 -8.452506363391876221e-02
-6.866966485977172852e-01 1.155112683773040771e-01 1.734043704345822334e-03
-6.032354235649108887e-01 9.843365103006362915e-02 -6.026108749210834503e-03
-4.975759387016296387e-01 1.409297287464141846e-01 -1.220255717635154724e-02
2.851436138153076172e-01 -1.374327540397644043e-01 2.479737102985382080e-01
4.428278207778930664e-01 -9.380169212818145752e-02 3.873994201421737671e-02
1.393636316061019897e-01 -2.501611970365047455e-02 -2.962399721145629883e-01
1.266676038503646851e-01 9.621646255254745483e-02 3.763134777545928955e-02
-4.955435693264007568e-01 1.239576861262321472e-01 1.437728572636842728e-02
-2.019460126757621765e-02 -9.599248319864273071e-02 1.989385485649108887e-02
2.934895828366279602e-02 -1.412072330713272095e-01 -1.277337968349456787e-01
2.549740672111511230e-01 9.431602060794830322e-02 4.243525117635726929e-02
2.544725537300109863e-01 -9.443516284227371216e-02 3.193723857402801514e-01
-3.612189888954162598e-01 -1.044603530317544937e-02 8.461458235979080200e-02
-2.890548408031463623e-01 1.194441244006156921e-01 -9.273989796638488770e-01
8.556995987892150879e-01 -5.061442963778972626e-03 -5.543769150972366333e-02
2.372893840074539185e-01 -9.461992979049682617e-02 2.525664567947387695e-01
1.694540232419967651e-01 -1.112224385142326355e-01 -2.598411440849304199e-01
-1.981502175331115723e-01 2.426348812878131866e-02 8.379037380218505859e-01
-6.931898593902587891e-01 5.237424373626708984e-02 -2.286421805620193481e-01
1.271691173315048218e-01 1.002021208405494690e-01 -2.397476136684417725e-02
-5.197427421808242798e-02 -3.160992637276649475e-03 -4.583849608898162842e-01
6.891517341136932373e-02 9.948945045471191406e-02 2.860422991216182709e-02
8.454106003046035767e-02 -4.932598024606704712e-02 -2.720884680747985840e-01
6.474475562572479248e-02 -3.198442235589027405e-02 -1.963082104921340942e-01
-5.828056931495666504e-01 -2.274614758789539337e-02 3.050467558205127716e-02
-5.515275001525878906e-01 8.064337074756622314e-02 3.042549081146717072e-02
-5.736729502677917480e-01 1.779669336974620819e-02 5.668859556317329407e-02
1.739706262014806271e-03 -2.522728219628334045e-02 -2.622959017753601074e-01
1.319466233253479004e-01 -1.617376692593097687e-02 -2.344754934310913086e-01
1.231042668223381042e-01 1.695698942057788372e-03 -9.101825207471847534e-02
3.430016636848449707e-01 -1.204607188701629639e-01 -2.253692001104354858e-01
6.053951382637023926e-01 -8.488015085458755493e-02 -4.366548359394073486e-02
3.314142227172851562e-01 -9.126776456832885742e-02 -4.575069621205329895e-02
4.334575533866882324e-01 6.855442374944686890e-02 -7.467970252037048340e-02
-8.676297962665557861e-02 -7.041077595204114914e-03 4.481275379657745361e-01
5.732773989439010620e-02 -1.620016805827617645e-02 -2.651201784610748291e-01
-1.216836646199226379e-01 3.754508448764681816e-03 5.971013903617858887e-01
6.471835821866989136e-02 -9.517423063516616821e-02 3.850238397717475891e-02
1.171704474836587906e-02 1.154106017202138901e-02 -9.196847677230834961e-02
-5.147855281829833984e-01 -4.198815301060676575e-02 -1.814144849777221680e-02
3.837292492389678955e-01 7.119393348693847656e-02 7.410934567451477051e-02
4.727121070027351379e-02 -1.118509843945503235e-02 3.242026865482330322e-01
1.884848773479461670e-01 -3.417520970106124878e-02 1.944708973169326782e-01
2.691746354103088379e-01 -1.342653483152389526e-01 -2.404671758413314819e-01
3.426321148872375488e-01 -8.044577389955520630e-02 3.021100163459777832e-01
3.796116411685943604e-01 1.030527874827384949e-01 -6.290059536695480347e-03
-2.954160869121551514e-01 -5.713893473148345947e-02 -6.831849366426467896e-02
-7.765455245971679688e-01 3.837380409240722656e-01 4.109600558876991272e-03
-3.039944469928741455e-01 1.552622616291046143e-01 -9.399366974830627441e-01
3.035937845706939697e-01 -4.167141765356063843e-02 1.139923110604286194e-01
-6.365196704864501953e-01 2.258162796497344971e-01 9.203850291669368744e-03
2.628397941589355469e-01 -9.039672464132308960e-02 2.254851013422012329e-01
-1.531151216477155685e-02 9.727226942777633667e-02 -3.345059230923652649e-02
4.563471674919128418e-02 -3.375288844108581543e-02 1.684453487396240234e-01
7.226735353469848633e-02 -7.168260961771011353e-02 1.446633934974670410e-01
-6.513273119926452637e-01 3.682754561305046082e-02 -1.789138615131378174e-01
2.135865837335586548e-01 4.405979439616203308e-02 -8.629352599382400513e-02
1.873234957456588745e-01 -1.744073070585727692e-02 1.991692334413528442e-01
-6.941136717796325684e-01 3.506122231483459473e-01 -6.369244772940874100e-03
-1.420342773199081421e-01 1.259686145931482315e-02 7.054531574249267578e-01
8.162389397621154785e-01 6.419923901557922363e-02 -3.870321437716484070e-02
2.083075642585754395e-01 -1.920920424163341522e-02 2.419820278882980347e-01
1.625699736177921295e-02 -1.825897768139839172e-02 3.583315312862396240e-01
1.013019382953643799e-01 -2.396031841635704041e-02 -1.310595870018005371e-01
5.756529420614242554e-02 -1.590239256620407104e-01 -1.421191096305847168e-01
2.346762567758560181e-01 -4.958993569016456604e-02 2.546516656875610352e-01
2.787032425403594971e-01 -7.020450383424758911e-02 2.228983938694000244e-01
2.765967138111591339e-02 1.027360484004020691e-01 1.208091340959072113e-02
5.276139080524444580e-02 -8.646294008940458298e-04 -4.380079209804534912e-01
7.903717756271362305e-01 -8.461619913578033447e-02 2.237499505281448364e-02
2.172555029392242432e-01 -9.963499754667282104e-02 -2.350825816392898560e-01
-6.785405874252319336e-01 1.893910914659500122e-01 -3.122650319710373878e-03
-1.563140153884887695e-01 4.400700330734252930e-02 -8.631993085145950317e-02
3.043115511536598206e-02 -1.788453082554042339e-03 5.589604973793029785e-01
8.522733300924301147e-02 -1.264523863792419434e-01 -1.786762923002243042e-01
-6.567910909652709961e-01 1.274154484272003174e-01 4.373551346361637115e-03
8.939775824546813965e-02 -3.657716140151023865e-02 -2.689474523067474365e-01
-5.353158339858055115e-02 5.179850850254297256e-03 5.444959998130798340e-01
1.593711078166961670e-01 -9.543818235397338867e-02 3.222035616636276245e-02
-4.375535547733306885e-01 8.117127418518066406e-02 -5.559606105089187622e-02
7.749357819557189941e-02 -3.425439447164535522e-02 1.719558984041213989e-01
-6.655806303024291992e-01 3.063476681709289551e-01 9.098269976675510406e-03
-7.448714375495910645e-01 3.931874930858612061e-01 -5.155071616172790527e-03
6.061341762542724609e-01 7.441413402557373047e-02 -7.003416866064071655e-02
-6.175152063369750977e-01 4.263445734977722168e-02 1.532417833805084229e-01
-1.042842399328947067e-02 -2.377554774284362793e-02 -2.321527153253555298e-01
2.308489680290222168e-01 -6.500466912984848022e-02 3.092367053031921387e-01
3.140777349472045898e-02 -2.253498695790767670e-02 -3.065868318080902100e-01
2.051401734352111816e-01 -8.749327063560485840e-02 -7.370308041572570801e-02
-6.256712675094604492e-01 1.818156987428665161e-01 8.570368401706218719e-03
-6.831597089767456055e-01 3.244596347212791443e-02 9.926385432481765747e-02
