1.569984853267669678e-01 -1.673589646816253662e-02 1.368590146303176880e-01
1.975672319531440735e-02 1.065517496317625046e-02 -6.198661401867866516e-02
1.556705832481384277e-01 -4.207003489136695862e-02 2.620976567268371582e-01
1.536396890878677368e-01 -6.217069923877716064e-02 -3.156925141811370850e-01
6.159840896725654602e-02 -6.503304000943899155e-03 2.491311728954315186e-01
2.876268029212951660e-01 -6.347256153821945190e-02 -2.874161601066589355e-01
-6.034161448478698730e-01 5.582961067557334900e-02 -1.694236509501934052e-02
-1.450062990188598633e-01 3.624968230724334717e-02 -6.397247314453125000e-01
6.520947217941284180e-01 6.746821105480194092e-02 -4.258894920349121094e-02
-1.422174833714962006e-02 -3.561282157897949219e-02 -2.559112310409545898e-01
-7.953619956970214844e-01 3.480444252490997314e-01 -1.059709698893129826e-03
-2.478009313344955444e-01 1.620287541300058365e-03 -7.456255704164505005e-02
1.664760112762451172e-01 -4.696501791477203369e-02 2.952169179916381836e-01
3.243131339550018311e-01 -7.633491605520248413e-02 6.460595875978469849e-02
1.949866712093353271e-01 -5.586972832679748535e-02 -2.400025278329849243e-01
8.998119831085205078e-01 -7.479871064424514771e-02 -1.746310852468013763e-02
-6.736354529857635498e-02 5.119499936699867249e-02 -6.209076568484306335e-02
2.743768319487571716e-02 8.108563721179962158e-02 -2.337354049086570740e-02
-6.947024464607238770e-01 1.244895458221435547e-01 -1.059709698893129826e-03
-5.366801470518112183e-02 -1.603289879858493805e-02 7.226087898015975952e-02
-2.564713060855865479e-01 -2.793187275528907776e-02 6.510066241025924683e-02
-1.671118438243865967e-01 4.286311566829681396e-02 6.989227533340454102e-01
9.045768380165100098e-01 -6.539930403232574463e-02 -3.152316436171531677e-02
-4.111839532852172852e-01 -6.417556852102279663e-02 -2.990886196494102478e-02
-2.416040897369384766e-01 2.028891444206237793e-02 -7.149016857147216797e-02
7.666060328483581543e-01 8.108563721179962158e-02 2.141034230589866638e-02
-1.672420203685760498e-01 -5.508860200643539429e-02 5.890382453799247742e-02
4.584594070911407471e-02 -8.162045478820800781e-02 -7.076112926006317139e-02
2.615636289119720459e-01 -5.678102374076843262e-02 8.166029304265975952e-02
1.584044992923736572e-01 -4.800650477409362793e-02 1.447743177413940430e-01
2.028759419918060303e-01 6.095892935991287231e-02 -5.040008574724197388e-02
1.056561339646577835e-02 7.530713453888893127e-03 4.704468250274658203e-01
7.210150361061096191e-01 -7.857410609722137451e-02 1.945755630731582642e-02
6.421746015548706055e-01 8.337864652276039124e-03 7.067261636257171631e-02
-3.287504017353057861e-01 3.088603168725967407e-02 -5.214457586407661438e-02
1.334088444709777832e-01 -7.443419843912124634e-02 2.631912231445312500e-01
8.786988258361816406e-02 -2.702056616544723511e-02 8.080106228590011597e-02
6.016347408294677734e-01 -7.857410609722137451e-02 2.044696733355522156e-02
-2.800869941711425781e-01 -2.480741031467914581e-02 -6.867815554141998291e-02
2.746863365173339844e-01 -7.789714634418487549e-02 7.020394504070281982e-02
5.240729451179504395e-02 -2.873902395367622375e-02 2.576192915439605713e-01
7.226813435554504395e-01 -7.857410609722137451e-02 -2.342561446130275726e-02
6.332959532737731934e-01 -7.024221122264862061e-02 -5.590172484517097473e-03
2.188366949558258057e-01 -2.691642194986343384e-02 -2.571870386600494385e-01
-4.073565006256103516e-01 -6.097299233078956604e-02 3.830844536423683167e-02
4.127873778343200684e-01 -1.913131773471832275e-02 -7.037056982517242432e-02
7.076636888086795807e-03 -9.151455760002136230e-02 -6.084098294377326965e-02
2.563041448593139648e-01 -1.382772773504257202e-01 -2.808547914028167725e-01
-2.510527148842811584e-02 1.325888466089963913e-02 5.200996994972229004e-01
-5.979483723640441895e-01 2.770949900150299072e-02 -1.634351164102554321e-02
-3.281255066394805908e-01 3.843680024147033691e-02 6.322599202394485474e-02
2.564082741737365723e-01 -1.258835792541503906e-01 -2.507298290729522705e-01
2.541430294513702393e-01 -1.146615818142890930e-01 3.297942280769348145e-01
1.502027958631515503e-01 2.127832174301147461e-02 -7.099546492099761963e-02
1.009405255317687988e-01 5.942454095929861069e-03 -7.128187268972396851e-02
8.779177069664001465e-02 6.697528529912233353e-03 -3.985504806041717529e-02
1.269776672124862671e-01 -1.543403696268796921e-02 2.792561352252960205e-01
-2.375943809747695923e-01 4.096240550279617310e-02 7.437066435813903809e-01
-7.080855369567871094e-01 1.612296886742115021e-02 4.824684001505374908e-03
4.552278816699981689e-01 5.455378815531730652e-02 5.510240420699119568e-02
-8.470427244901657104e-02 -1.290843822062015533e-02 3.340382575988769531e-01
1.316643506288528442e-01 -9.638350456953048706e-02 2.720178067684173584e-01
-4.101395606994628906e-02 -2.686434425413608551e-02 2.445486336946487427e-01
2.023031115531921387e-01 -4.748576134443283081e-02 -2.389089912176132202e-01
1.881938800215721130e-02 -1.858453266322612762e-02 -3.255605995655059814e-01
1.239573508501052856e-01 -8.924758061766624451e-03 -2.179230451583862305e-01
-6.641087532043457031e-01 1.656560041010379791e-02 -1.678614318370819092e-02
2.801049686968326569e-02 -2.597908303141593933e-02 2.718876302242279053e-01
2.233440242707729340e-02 -9.966242127120494843e-03 2.465795427560806274e-01
4.512962996959686279e-01 2.185114100575447083e-02 -7.083924114704132080e-02
6.774317473173141479e-02 -2.608322724699974060e-02 1.006153300404548645e-01
-1.040238365530967712e-01 1.784142665565013885e-02 -1.748914644122123718e-02
2.073543220758438110e-01 -9.174890071153640747e-02 -2.212375774979591370e-02
9.806052446365356445e-01 -4.576731473207473755e-02 -3.071601316332817078e-02
-6.094307303428649902e-01 -2.727912738919258118e-03 4.877537861466407776e-02
1.397098302841186523e-01 -9.911740571260452271e-02 -3.014762401580810547e-01
8.199561238288879395e-01 -6.597212702035903931e-02 -3.829281777143478394e-02
2.917927503585815430e-01 -1.010962203145027161e-01 3.020125925540924072e-01
-3.707743287086486816e-01 3.333352133631706238e-02 2.948185428977012634e-02
3.829516842961311340e-02 -3.076991438865661621e-02 -2.417730540037155151e-01
-7.064712047576904297e-01 9.840033948421478271e-02 -9.027074091136455536e-03
-5.669120550155639648e-01 -4.170551523566246033e-02 -2.407654188573360443e-02
-2.047875672578811646e-01 -7.833977788686752319e-02 -5.225651897490024567e-03
-2.045011669397354126e-01 4.903391748666763306e-02 -7.765238285064697266e-01
-7.233664393424987793e-02 1.599278114736080170e-02 -5.590876936912536621e-01
8.917173743247985840e-02 -4.141910374164581299e-02 -1.794661879539489746e-01
2.874445617198944092e-01 -7.675150781869888306e-02 2.836564183235168457e-01
1.308051198720932007e-01 -9.633143246173858643e-02 -3.016845285892486572e-01
-1.803126782178878784e-01 2.226773835718631744e-02 -5.808104574680328369e-02
-3.210925683379173279e-02 6.489053368568420410e-02 -4.568736627697944641e-02
2.833827733993530273e-01 3.481763973832130432e-02 6.382483989000320435e-02
1.985016912221908569e-01 -7.649113237857818604e-02 -2.304989993572235107e-01
4.207055270671844482e-02 -3.537848964333534241e-02 -7.651533931493759155e-02
2.356827259063720703e-01 -4.368259105831384659e-03 3.817826136946678162e-02
-1.114936359226703644e-02 -2.196935936808586121e-02 1.914068311452865601e-01
-5.296500772237777710e-02 -3.118651174008846283e-02 -2.101379483938217163e-01
7.826218008995056152e-02 -3.311325609683990479e-02 2.313998639583587646e-01
3.110891766846179962e-02 -8.651542663574218750e-02 -6.586614996194839478e-02
2.881996333599090576e-01 -1.026063933968544006e-01 -3.353505730628967285e-01
-2.456398457288742065e-01 -7.544965296983718872e-02 2.229560539126396179e-02
1.852748245000839233e-01 -9.864874184131622314e-02 -2.568225264549255371e-01
1.602270901203155518e-01 -3.730523586273193359e-02 3.031322062015533447e-01
1.827260665595531464e-02 -8.500528335571289062e-02 -6.735026836395263672e-02
-5.857108831405639648e-01 2.330922149121761322e-02 -6.432995945215225220e-02
-7.529995441436767578e-01 5.043992027640342712e-02 -2.543489933013916016e-01
-7.408401966094970703e-01 2.402246296405792236e-01 -8.141811005771160126e-03
-7.237598299980163574e-01 4.367026686668395996e-02 2.940374426543712616e-02
3.360298573970794678e-01 -2.496363222599029541e-02 -7.276599109172821045e-02
2.024072557687759399e-01 -7.560587674379348755e-02 3.402350842952728271e-01
2.280538380146026611e-01 -1.167705878615379333e-01 3.326062262058258057e-01
6.871146559715270996e-01 -6.308201700448989868e-02 4.140686616301536560e-02
2.389373630285263062e-01 -4.907403141260147095e-02 -3.370429873466491699e-01
-6.305729150772094727e-01 3.518215939402580261e-02 -8.513363450765609741e-02
3.535528779029846191e-01 4.525853320956230164e-02 6.111698225140571594e-02
-1.138919144868850708e-01 -6.933091580867767334e-02 6.278336048126220703e-02
1.889200359582901001e-01 -1.075794845819473267e-01 -2.644774615764617920e-01
-4.562802910804748535e-01 4.663850367069244385e-02 -5.469621345400810242e-02
5.889546871185302734e-01 -7.758468389511108398e-02 -2.550858445465564728e-02
-2.533960342407226562e-02 1.325888466089963913e-02 4.878917336463928223e-01
-7.439126372337341309e-01 8.473083376884460449e-02 -1.059709698893129826e-03
-2.165042906999588013e-01 -4.881365597248077393e-02 -6.021609157323837280e-02
1.730894446372985840e-01 -1.691816188395023346e-02 -7.651533931493759155e-02
1.539781838655471802e-01 -1.014607548713684082e-01 -3.281382620334625244e-01
-4.953359961509704590e-01 2.580878697335720062e-02 -6.229906156659126282e-02
5.930945873260498047e-01 7.738836109638214111e-02 2.664380706846714020e-02
2.615636289119720459e-01 -5.678102374076843262e-02 8.166029304265975952e-02
-2.382944524288177490e-02 -3.813843056559562683e-02 1.062653884291648865e-01
-4.179536104202270508e-01 -1.165687106549739838e-03 6.632441282272338867e-02
6.762050986289978027e-01 -7.857410609722137451e-02 3.002084093168377876e-03
4.420559853315353394e-02 -3.392040729522705078e-02 2.190061956644058228e-01
-1.334458142518997192e-01 -8.456265181303024292e-02 2.922148257493972778e-02
-4.242285788059234619e-01 3.643194213509559631e-02 2.656569518148899078e-02
5.264163389801979065e-02 -2.842657081782817841e-02 -2.922851145267486572e-01
-1.348778456449508667e-01 2.109606564044952393e-02 6.079750061035156250e-01
-7.322480082511901855e-01 3.791605681180953979e-02 -1.657966971397399902e-01
1.283316016197204590e-01 -5.761419981718063354e-02 2.897230684757232666e-01
2.242003530263900757e-01 -8.287023007869720459e-02 2.262705564498901367e-01
7.768935710191726685e-02 -9.174890071153640747e-02 -1.163078844547271729e-02
-9.821756929159164429e-02 -8.857236057519912720e-02 -3.261672332882881165e-02
-5.726402997970581055e-01 5.184592679142951965e-02 -1.665595732629299164e-02
-1.026699095964431763e-01 8.936718106269836426e-03 -5.181052684783935547e-01
-1.169642955064773560e-01 -5.303166806697845459e-02 6.718363612890243530e-02
-1.377910748124122620e-02 -9.174890071153640747e-02 -2.178527228534221649e-02
-2.752701342105865479e-01 2.778760902583599091e-02 -1.126626972109079361e-02
-5.561327338218688965e-01 6.741613894701004028e-02 -2.373806014657020569e-02
6.998236477375030518e-02 5.819898843765258789e-02 -5.368077009916305542e-02
-7.185264229774475098e-01 2.554842084646224976e-02 5.648237094283103943e-02
4.706419110298156738e-01 6.434375792741775513e-02 -4.633829370141029358e-02
-4.098560810089111328e-01 -9.940207935869693756e-03 -6.919889897108078003e-02
4.071662202477455139e-02 -4.256474226713180542e-02 1.607090383768081665e-01
1.334088444709777832e-01 -7.443419843912124634e-02 2.631912231445312500e-01
-6.319759786128997803e-02 -2.936390973627567291e-02 2.180167883634567261e-01
-7.268062233924865723e-01 1.776053160429000854e-01 -9.599891491234302521e-03
1.662156283855438232e-01 -1.272375136613845825e-01 -2.988985478878021240e-01
-8.074172139167785645e-01 5.520471930503845215e-02 -2.758817374706268311e-01
-4.403455853462219238e-01 -5.922850221395492554e-02 2.864866703748703003e-02
1.252071410417556763e-01 -9.174890071153640747e-02 4.697881639003753662e-02
-1.696374416351318359e-01 1.989836059510707855e-02 5.624620914459228516e-01
-6.625205278396606445e-01 5.184592679142951965e-02 -2.265212096972391009e-04
2.009752243757247925e-01 -7.805337011814117432e-02 -7.430218160152435303e-02
-3.844177722930908203e-01 3.411463648080825806e-02 -2.980471216142177582e-02
-6.095841154456138611e-02 -3.321741148829460144e-02 -1.925368309020996094e-01
-5.482174158096313477e-01 6.697350740432739258e-02 -1.644765958189964294e-02
-4.384188055992126465e-01 3.726512938737869263e-02 1.680176705121994019e-02
-6.209912300109863281e-01 1.626339703798294067e-01 4.746572580188512802e-03
9.961263090372085571e-02 -6.268971599638462067e-03 -2.453401684761047363e-01
1.236217655241489410e-02 -3.019710443913936615e-02 1.187892481684684753e-01
1.763701140880584717e-01 -6.750832498073577881e-02 -3.393863141536712646e-01
-4.828121364116668701e-01 3.731720522046089172e-02 -5.940894037485122681e-02
-4.270926415920257568e-01 -6.435781717300415039e-02 -2.238412760198116302e-02
2.115983664989471436e-01 -9.601721540093421936e-03 -7.651533931493759155e-02
4.854830503463745117e-01 -1.340314652770757675e-02 -7.201091200113296509e-02
7.211973071098327637e-01 -5.167774111032485962e-02 5.564918369054794312e-02
-2.387660443782806396e-01 4.085825383663177490e-02 -7.236423492431640625e-01
-2.394169718027114868e-01 -7.578812539577484131e-02 -2.449313737452030182e-02
1.946221441030502319e-01 -4.366464563645422459e-04 5.697707831859588623e-02
4.162792116403579712e-02 -2.373989298939704895e-02 2.908686995506286621e-01
6.094719171524047852e-01 -6.487857550382614136e-02 -2.056152746081352234e-02
-7.397987842559814453e-01 2.635278701782226562e-01 -1.059709698893129826e-03
-6.276828050613403320e-01 5.291524343192577362e-03 -5.099894478917121887e-02
9.021293520927429199e-01 4.973692074418067932e-02 -2.998697198927402496e-02
6.309005022048950195e-01 2.932380139827728271e-02 6.525688618421554565e-02
2.588036954402923584e-01 -2.868694625794887543e-02 -3.153019547462463379e-01
1.724905967712402344e-01 -3.649808466434478760e-02 -3.179837763309478760e-01
3.045249283313751221e-01 -1.215336378663778305e-02 -4.912427067756652832e-02
-1.955704391002655029e-01 8.118978142738342285e-02 -1.139645464718341827e-02
1.496299803256988525e-01 -1.100772619247436523e-02 2.102577090263366699e-01
-3.466089814901351929e-02 8.108563721179962158e-02 -1.655180752277374268e-02
6.343894600868225098e-01 2.768346481025218964e-02 -6.914682686328887939e-02
4.071662202477455139e-02 -4.256474226713180542e-02 1.607090383768081665e-01
2.541430294513702393e-01 -1.146615818142890930e-01 3.297942280769348145e-01
-5.382423475384712219e-02 1.036876533180475235e-02 -5.344044566154479980e-01
-4.701580703258514404e-01 6.220871210098266602e-02 -1.059709698893129826e-03
4.649686813354492188e-02 -9.174890071153640747e-02 4.450528696179389954e-02
3.075452148914337158e-01 -1.218999028205871582e-01 -3.114484548568725586e-01
1.949866712093353271e-01 -5.586972832679748535e-02 -2.400025278329849243e-01
-1.432878673076629639e-01 2.690234780311584473e-02 -5.792404413223266602e-01
-4.370648562908172607e-01 7.632084190845489502e-02 1.344297640025615692e-02
6.937801241874694824e-01 -6.909659504890441895e-02 3.388212993741035461e-02
1.334869414567947388e-01 -2.077165432274341583e-02 1.037658229470252991e-01
6.343894600868225098e-01 2.768346481025218964e-02 -6.914682686328887939e-02
2.926780283451080322e-01 -3.959651291370391846e-02 3.215664923191070557e-01
6.343894600868225098e-01 2.768346481025218964e-02 -6.914682686328887939e-02
-6.486687064170837402e-01 2.118701934814453125e-01 4.764815384987741709e-04
9.314731955528259277e-01 -1.121602486819028854e-02 5.106664821505546570e-02
3.878437876701354980e-01 -5.842136219143867493e-02 -6.292395293712615967e-02
5.264163389801979065e-02 -2.842657081782817841e-02 -2.922851145267486572e-01
4.600708186626434326e-01 4.640416428446769714e-02 6.083057448267936707e-02
-3.145832940936088562e-02 -5.097473412752151489e-02 7.697360217571258545e-02
1.474688947200775146e-01 3.234590403735637665e-03 2.083752304315567017e-02
3.213709592819213867e-01 -1.426237449049949646e-02 -6.638689339160919189e-02
1.965489089488983154e-01 -2.647379040718078613e-02 -3.106152713298797607e-01
-7.943205237388610840e-01 2.436354905366897583e-01 -1.059709698893129826e-03
5.381330475211143494e-02 -2.558852918446063995e-02 -2.815057337284088135e-01
-5.577701330184936523e-02 -3.688864782452583313e-02 1.690149009227752686e-01
1.970956772565841675e-01 -1.212750151753425598e-01 3.235974013805389404e-01
-5.981045961380004883e-01 2.349148690700531006e-02 -5.396717786788940430e-02
3.905024752020835876e-02 -3.040365641936659813e-03 2.905562520027160645e-01
-4.942395910620689392e-02 -2.879109047353267670e-02 -1.918859183788299561e-01
-4.104549288749694824e-01 4.835695028305053711e-02 5.380054563283920288e-02
1.483801901340484619e-01 -3.634186461567878723e-02 -2.135748416185379028e-01
9.315830655395984650e-03 -4.894384369254112244e-02 -9.380400180816650391e-02
2.073543220758438110e-01 -9.174890071153640747e-02 -2.212375774979591370e-02
6.378524303436279297e-01 8.108563721179962158e-02 1.169848814606666565e-02
2.129002362489700317e-01 -9.948191791772842407e-02 2.309832870960235596e-01
-8.032251596450805664e-01 2.786814868450164795e-01 2.455304376780986786e-03
-7.694521546363830566e-02 6.619417574256658554e-03 4.217053353786468506e-01
2.097757756710052490e-01 -3.720109164714813232e-02 -9.380400180816650391e-02
-6.225013732910156250e-01 1.129030212759971619e-01 1.146415434777736664e-02
1.045336499810218811e-01 -1.353333424776792526e-02 3.355484008789062500e-01
-2.165042906999588013e-01 2.437674812972545624e-02 -4.396891221404075623e-02
-5.942250490188598633e-01 2.461108192801475525e-02 5.062401667237281799e-02
8.255280256271362305e-01 -4.488204047083854675e-02 5.825289711356163025e-02
-6.754580885171890259e-02 8.108563721179962158e-02 -7.933514192700386047e-03
-1.918731480836868286e-01 4.757583513855934143e-02 7.435244321823120117e-01
-1.018367186188697815e-01 3.755332203581929207e-03 -4.741545617580413818e-01
3.095269575715065002e-02 -4.943855106830596924e-02 1.147274523973464966e-01
7.544206380844116211e-01 3.104225359857082367e-02 6.481425464153289795e-02
-2.062688209116458893e-02 1.737275160849094391e-02 5.030192732810974121e-01
7.234104275703430176e-01 3.604138270020484924e-02 6.353843957185745239e-02
1.635598540306091309e-01 -8.841614425182342529e-02 -3.360014855861663818e-01
1.924610733985900879e-01 -5.415127053856849670e-02 -1.113530322909355164e-01
1.752244830131530762e-01 -2.881713397800922394e-02 3.030280470848083496e-01
2.856740355491638184e-01 -8.802557736635208130e-02 3.142240047454833984e-01
2.230836451053619385e-02 -1.543403696268796921e-02 -2.068832963705062866e-01
-8.181129582226276398e-03 -2.249011024832725525e-02 -2.509902119636535645e-01
-8.387398719787597656e-01 3.371088504791259766e-01 3.462959139142185450e-04
-2.796935662627220154e-02 -2.855675853788852692e-02 7.226087898015975952e-02
-3.096362017095088959e-02 -9.174890071153640747e-02 -6.021609157323837280e-02
-3.323435187339782715e-01 6.460412591695785522e-02 -8.683307766914367676e-01
3.110862672328948975e-01 -1.296051498502492905e-02 -5.758633837103843689e-02
7.923306822776794434e-01 1.568210427649319172e-03 -7.630704343318939209e-02
-7.281601428985595703e-01 2.339757382869720459e-01 -8.402182720601558685e-03
4.923076555132865906e-02 8.108563721179962158e-02 -1.277642324566841125e-02
-2.184310406446456909e-01 7.861210405826568604e-02 2.557628601789474487e-02
-5.994845628738403320e-01 1.476904284209012985e-02 -1.100589707493782043e-02
8.255280256271362305e-01 -4.488204047083854675e-02 5.825289711356163025e-02
-1.822133809328079224e-01 2.237188257277011871e-02 -1.168286334723234177e-02
-5.416271090507507324e-02 -2.394818142056465149e-02 2.285878658294677734e-01
-2.416040897369384766e-01 2.028891444206237793e-02 -7.149016857147216797e-02
-7.076428532600402832e-01 1.449026614427566528e-01 -1.059709698893129826e-03
7.076636888086795807e-03 -9.151455760002136230e-02 -6.084098294377326965e-02
1.794424951076507568e-01 -1.569441333413124084e-02 1.821636408567428589e-01
8.547937870025634766e-01 1.156647037714719772e-02 6.390295922756195068e-02
3.139243423938751221e-01 -8.383361250162124634e-02 6.158564984798431396e-02
-6.807204484939575195e-01 5.132518336176872253e-02 -2.444106154143810272e-02
2.581267356872558594e-01 -1.144532784819602966e-01 -3.314189314842224121e-01
2.531276047229766846e-01 -5.784854292869567871e-02 7.226087898015975952e-02
-2.062688209116458893e-02 1.737275160849094391e-02 5.030192732810974121e-01
8.206070661544799805e-01 7.530713453888893127e-03 6.838134676218032837e-02
1.397358775138854980e-01 7.306619733572006226e-02 3.205953165888786316e-02
1.764222085475921631e-01 -8.201101422309875488e-02 3.218008279800415039e-01
1.724905967712402344e-01 -3.649808466434478760e-02 -3.179837763309478760e-01
-4.206354320049285889e-01 7.270167768001556396e-02 -2.803418785333633423e-02
2.625270187854766846e-01 -2.780168317258358002e-02 -8.351933211088180542e-02
1.373404562473297119e-01 -5.360448732972145081e-02 1.102750971913337708e-01
2.897878885269165039e-01 -9.588880091905593872e-02 -2.625767290592193604e-01
3.251723647117614746e-01 -1.931357197463512421e-02 -7.419803738594055176e-02
-5.992501974105834961e-01 4.658642411231994629e-02 2.403229940682649612e-03
3.614421188831329346e-01 -5.540104582905769348e-02 -6.940720230340957642e-02
-7.747405767440795898e-01 3.264596462249755859e-01 -3.116643521934747696e-03
-6.635099649429321289e-01 3.041736222803592682e-02 -1.174977943301200867e-01
5.744519829750061035e-01 -2.413044683635234833e-02 6.569952517747879028e-02
-6.512984633445739746e-01 8.391697774641215801e-04 4.479169473052024841e-02
-8.074172139167785645e-01 5.520471930503845215e-02 -2.758817374706268311e-01
-6.197153925895690918e-01 5.955291911959648132e-02 -2.904963493347167969e-02
5.357896536588668823e-02 8.676351979374885559e-03 4.494791850447654724e-02
-4.903340339660644531e-02 -9.573883726261556149e-04 4.492005407810211182e-01
-6.607759594917297363e-01 3.963451087474822998e-02 1.225646361708641052e-01
-4.353956505656242371e-02 -2.097995206713676453e-02 2.870933413505554199e-01
5.152203142642974854e-02 -2.608322724699974060e-02 -1.138786375522613525e-01
-8.287416100502014160e-01 3.318232893943786621e-01 9.972243569791316986e-04
2.245128005743026733e-01 -4.816272482275962830e-02 2.383257448673248291e-01
-7.683094739913940430e-01 1.386797875165939331e-01 -2.934383694082498550e-03
-2.441036552190780640e-01 5.262704566121101379e-02 -7.910265326499938965e-01
-2.783916890621185303e-02 -2.842657081782817841e-02 -1.704833805561065674e-01
5.980936884880065918e-01 7.650309801101684570e-02 -3.178353607654571533e-02
-7.447717785835266113e-01 1.413616240024566650e-01 -1.059709698893129826e-03
2.199042290449142456e-01 -4.391866922378540039e-02 3.347673118114471436e-01
7.923306822776794434e-01 1.568210427649319172e-03 -7.630704343318939209e-02
-4.989262297749519348e-02 -9.705865755677223206e-03 -3.771141469478607178e-01
4.787915349006652832e-01 -3.855501860380172729e-02 -3.845683531835675240e-03
3.154865503311157227e-01 -1.350729074329137802e-02 -4.053981043398380280e-03
-2.403774298727512360e-02 -2.005875285249203444e-05 3.486451208591461182e-01
5.183159112930297852e-01 8.108563721179962158e-02 -7.803329266607761383e-03
-5.762594342231750488e-01 2.927172929048538208e-02 -5.040008574724197388e-02
-7.030082345008850098e-01 2.398618496954441071e-02 -6.456428766250610352e-02
3.265523612499237061e-01 3.164110705256462097e-02 6.465803086757659912e-02
1.810828447341918945e-01 -3.506604582071304321e-02 -2.094349414110183716e-01
-1.143085137009620667e-01 2.836042828857898712e-02 5.710023045539855957e-01
-7.142533361911773682e-02 2.213755063712596893e-02 -5.143298506736755371e-01
-1.252961903810501099e-01 1.890894398093223572e-02 -5.940295457839965820e-01
8.883036375045776367e-01 2.578275278210639954e-02 5.710726603865623474e-02
-2.422550171613693237e-01 8.165846019983291626e-02 1.413818681612610817e-03
2.512008547782897949e-01 1.211325637996196747e-02 -7.365125417709350586e-02
1.566600054502487183e-01 -1.174735948443412781e-01 -3.075168430805206299e-01
1.442663222551345825e-01 -1.639742031693458557e-02 -1.405667066574096680e-01
-2.102293372154235840e-01 8.134600520133972168e-02 1.211508270353078842e-02
-7.115224003791809082e-01 2.036702632904052734e-02 -1.837440766394138336e-02
7.588729858398437500e-01 -7.550171762704849243e-02 2.588873170316219330e-02
7.693399190902709961e-01 4.416497051715850830e-02 6.140339374542236328e-02
-2.047875672578811646e-01 -7.833977788686752319e-02 -5.225651897490024567e-03
-2.450670450925827026e-01 4.538872092962265015e-02 7.787005901336669922e-01
1.911331862211227417e-01 -4.613182321190834045e-02 -1.543403565883636475e-01
6.339497119188308716e-02 5.679298564791679382e-02 5.231642723083496094e-02
-1.295142024755477905e-01 3.682249784469604492e-02 6.526027321815490723e-01
1.904822438955307007e-01 -5.162566155195236206e-02 -3.063451647758483887e-01
-5.367090106010437012e-01 8.795943856239318848e-02 8.756292052567005157e-03
-1.135766319930553436e-02 1.245173253118991852e-02 -4.275220632553100586e-01
-1.890842616558074951e-02 -1.939168386161327362e-02 2.860778868198394775e-01
-1.586208492517471313e-02 -1.548611372709274292e-02 -2.435435801744461060e-01
-7.139640394598245621e-03 -3.826861083507537842e-02 -1.769926548004150391e-01
2.419837117195129395e-01 -2.819223888218402863e-02 -2.601292431354522705e-01
-5.872210860252380371e-01 5.598583444952964783e-02 3.609528765082359314e-02
-5.791495442390441895e-01 -2.954617515206336975e-02 -3.943845629692077637e-02
1.956636458635330200e-01 -4.082025215029716492e-02 -1.782424449920654297e-01
-5.008558630943298340e-01 7.473257184028625488e-02 -1.111004687845706940e-02
-6.153123080730438232e-02 -1.478311698883771896e-02 -3.300910592079162598e-01
2.575018405914306641e-01 1.307844300754368305e-03 7.226087898015975952e-02
1.835042983293533325e-01 -3.050954826176166534e-02 -3.044444620609283447e-01
-3.479108586907386780e-02 1.438022474758327007e-03 4.699781835079193115e-01
4.891022443771362305e-01 7.254545390605926514e-02 -3.652229532599449158e-02
-2.359511144459247589e-02 1.664371229708194733e-02 6.853757053613662720e-02
-2.206441909074783325e-01 -6.323823332786560059e-02 4.070386663079261780e-02
2.564082741737365723e-01 -1.258835792541503906e-01 -2.507298290729522705e-01
-1.966350898146629333e-02 1.414414681494235992e-02 -4.416341781616210938e-01
7.735058665275573730e-01 -7.188256829977035522e-02 3.039315529167652130e-02
1.367936730384826660e-01 -4.045573249459266663e-02 -2.793706953525543213e-01
-1.239422559738159180e-01 2.250207029283046722e-02 6.200041770935058594e-01
-7.430794239044189453e-01 5.291345342993736267e-02 -1.658563851378858089e-03
1.881938800215721130e-02 -1.858453266322612762e-02 -3.255605995655059814e-01
-6.349471807479858398e-01 9.785354882478713989e-02 -1.449487358331680298e-02
3.186630904674530029e-01 7.444616407155990601e-02 3.031504526734352112e-02
-2.919078469276428223e-01 5.213233456015586853e-02 -8.235989809036254883e-01
-1.822133809328079224e-01 2.237188257277011871e-02 -1.168286334723234177e-02
-2.409792095422744751e-01 -4.337189346551895142e-02 -6.263754516839981079e-02
2.889547049999237061e-01 -9.924759715795516968e-02 2.579317092895507812e-01
-9.116148203611373901e-02 1.708634197711944580e-02 1.300034578889608383e-02
7.211973071098327637e-01 -5.167774111032485962e-02 5.564918369054794312e-02
2.948651313781738281e-01 -8.188083022832870483e-02 -2.322174310684204102e-01
-1.175631508231163025e-01 1.862253434956073761e-02 2.495139092206954956e-02
-4.394082129001617432e-01 3.731720522046089172e-02 -4.662470519542694092e-02
5.117285251617431641e-01 5.895406752824783325e-02 4.963460564613342285e-02
-7.085802555084228516e-01 -7.230559713207185268e-04 3.203349560499191284e-02
4.191433265805244446e-02 -3.714901581406593323e-02 -1.969631463289260864e-01
8.596916496753692627e-02 6.801672745496034622e-03 -2.446709759533405304e-02
-5.674849152565002441e-01 1.220941320061683655e-01 -1.059709698893129826e-03
-7.756258249282836914e-01 4.856524989008903503e-02 -2.396900951862335205e-01
1.634875661693513393e-03 7.374492008239030838e-03 3.824413120746612549e-01
-6.263028383255004883e-01 1.603687256574630737e-01 -7.725217845290899277e-03
1.236217655241489410e-02 -3.019710443913936615e-02 1.187892481684684753e-01
5.532577633857727051e-01 -1.993846893310546875e-02 -7.013624161481857300e-02
-1.087105274200439453e-01 1.117591653019189835e-02 -4.709780216217041016e-01
2.644537687301635742e-01 -2.228181250393390656e-02 3.065170347690582275e-01
1.784791350364685059e-01 -5.350033193826675415e-02 9.210117906332015991e-02
1.323673576116561890e-01 -4.256474226713180542e-02 1.755502074956893921e-01
-4.422983527183532715e-01 5.184592679142951965e-02 -1.971009420230984688e-03
1.566600054502487183e-01 -1.174735948443412781e-01 -3.075168430805206299e-01
-6.547353863716125488e-01 2.627746202051639557e-02 8.707600831985473633e-02
-5.967969074845314026e-03 1.034273114055395126e-02 4.069162011146545410e-01
4.726988375186920166e-01 7.837777584791183472e-02 -2.951830253005027771e-02
4.488256573677062988e-02 9.197093546390533447e-03 2.815396152436733246e-02
8.565903902053833008e-01 -6.784680485725402832e-02 -3.337179869413375854e-02
2.415410876274108887e-01 -4.368433728814125061e-02 1.373537331819534302e-01
8.209195137023925781e-01 -1.321908668614923954e-03 6.978735327720642090e-02
4.090900719165802002e-01 6.848366558551788330e-02 -4.136520251631736755e-02
2.752071022987365723e-01 -8.638348430395126343e-03 -7.651533931493759155e-02
3.748801723122596741e-02 -4.443941265344619751e-02 -1.498619616031646729e-01
-1.245150789618492126e-01 4.796816036105155945e-03 4.518823623657226562e-01
1.473387032747268677e-01 -2.683831192553043365e-02 9.210117906332015991e-02
-3.624625504016876221e-03 -2.376592718064785004e-02 2.794123589992523193e-01
1.105221956968307495e-01 -6.821133196353912354e-02 2.858956158161163330e-01
8.883036375045776367e-01 2.578275278210639954e-02 5.710726603865623474e-02
9.375426918268203735e-02 -7.649113237857818604e-02 2.906343638896942139e-01
1.727509647607803345e-01 -4.545485973358154297e-02 -2.749443650245666504e-01
6.465227603912353516e-01 -7.857410609722137451e-02 7.628901512362062931e-04
-6.019320487976074219e-01 1.019153520464897156e-01 -1.402620598673820496e-02
1.595530286431312561e-02 5.278326570987701416e-02 5.734159797430038452e-02
2.890328168869018555e-01 -1.346580982208251953e-01 -2.944462001323699951e-01
-1.257908791303634644e-01 -5.178188532590866089e-02 6.622026115655899048e-02
-5.124656111001968384e-02 8.108563721179962158e-02 1.555198524147272110e-02
2.512008547782897949e-01 1.211325637996196747e-02 -7.365125417709350586e-02
-1.830986440181732178e-01 -3.162914142012596130e-02 6.385087966918945312e-02
5.152203142642974854e-02 -2.608322724699974060e-02 -1.138786375522613525e-01
-9.509022347629070282e-03 -8.065529167652130127e-03 -2.895512282848358154e-01
-7.120952010154724121e-01 2.817816846072673798e-02 9.379359334707260132e-02
-6.259903311729431152e-01 2.390807494521141052e-02 7.158391177654266357e-02
1.431206911802291870e-01 -2.111013978719711304e-02 -9.984461963176727295e-02
8.701035976409912109e-01 -6.469631940126419067e-02 -3.636607155203819275e-02
-4.760135710239410400e-02 -3.899765014648437500e-02 -1.293186545372009277e-01
1.417407244443893433e-01 -5.683309212327003479e-02 8.822164684534072876e-02
4.115925356745719910e-02 -2.053732052445411682e-02 -3.153540194034576416e-01
-3.102119863033294678e-01 -9.834318188950419426e-04 -7.263580709695816040e-02
-2.915172874927520752e-01 7.332656532526016235e-02 -3.636607155203819275e-02
6.332959532737731934e-01 -7.024221122264862061e-02 -5.590172484517097473e-03
1.009405255317687988e-01 -3.592527657747268677e-02 -2.168034464120864868e-01
1.810828447341918945e-01 -3.506604582071304321e-02 -2.094349414110183716e-01
1.351533234119415283e-01 -9.190512448549270630e-02 3.037831187248229980e-01
2.892179787158966064e-02 -2.915561199188232422e-02 -1.122382953763008118e-01
-8.181129582226276398e-03 -2.249011024832725525e-02 -2.509902119636535645e-01
-6.051578000187873840e-02 -7.024045567959547043e-03 -3.410526812076568604e-01
2.419316321611404419e-01 -6.282164156436920166e-02 -2.287545055150985718e-01
-1.345133334398269653e-01 -8.201101422309875488e-02 3.974048793315887451e-02
-1.834371238946914673e-01 2.323111146688461304e-02 -6.120212078094482422e-01
-8.300174474716186523e-01 2.900336980819702148e-01 -1.059709698893129826e-03
-2.184310406446456909e-01 7.861210405826568604e-02 2.557628601789474487e-02
-5.927149057388305664e-01 6.916062533855438232e-02 2.585490001365542412e-03
2.123794853687286377e-01 -4.003914445638656616e-02 3.309919238090515137e-01
-7.109495401382446289e-01 6.007366627454757690e-02 4.876758437603712082e-03
4.500465393066406250e-01 8.108563721179962158e-02 1.703610271215438843e-02
1.690536737442016602e-01 -1.178120672702789307e-01 -2.618737220764160156e-01
-5.479049682617187500e-01 1.804971508681774139e-02 2.404009364545345306e-02
5.000898838043212891e-01 -4.240852221846580505e-02 2.677399292588233948e-02
-5.890957713127136230e-01 -3.800824284553527832e-02 2.195711992681026459e-02
-2.409792095422744751e-01 -4.337189346551895142e-02 -6.263754516839981079e-02
-7.067055702209472656e-01 1.161854807287454605e-02 -4.058408737182617188e-02
-7.569832801818847656e-01 5.254893377423286438e-02 2.361386418342590332e-01
2.200343906879425049e-01 -3.274873644113540649e-02 -3.203010857105255127e-01
5.849998444318771362e-02 -8.086537569761276245e-02 6.726174801588058472e-02
-6.405711770057678223e-01 -3.264459222555160522e-02 6.152578163892030716e-03
-8.032251596450805664e-01 2.786814868450164795e-01 2.455304376780986786e-03
6.213969588279724121e-01 4.924221709370613098e-02 6.010153517127037048e-02
-5.762594342231750488e-01 2.927172929048538208e-02 -5.040008574724197388e-02
2.308658510446548462e-01 -5.576557293534278870e-02 9.650146216154098511e-02
2.283142209053039551e-01 -2.472930029034614563e-02 -9.643375873565673828e-02
5.462045595049858093e-02 -2.212559059262275696e-02 -1.377026289701461792e-01
-1.807553023099899292e-01 2.336129918694496155e-02 5.885773301124572754e-01
5.264163389801979065e-02 -2.842657081782817841e-02 -2.922851145267486572e-01
-7.476359009742736816e-01 9.118982590734958649e-03 -1.202134601771831512e-02
-6.643951535224914551e-01 1.329516172409057617e-01 -1.267227530479431152e-02
5.643495917320251465e-01 9.327281266450881958e-03 7.043828070163726807e-02
-7.679709196090698242e-01 3.666627407073974609e-02 -1.478050202131271362e-01
4.376296699047088623e-02 3.244825825095176697e-02 -6.776686012744903564e-02
2.984061837196350098e-01 -4.902195185422897339e-02 2.439758181571960449e-01
1.612165123224258423e-01 -1.221602782607078552e-01 2.754286825656890869e-01
8.489354848861694336e-01 2.442881651222705841e-02 6.127320602536201477e-02
-9.509022347629070282e-03 -8.065529167652130127e-03 -2.895512282848358154e-01
-2.723279297351837158e-01 7.530538737773895264e-02 3.044522926211357117e-02
-5.124656111001968384e-02 8.108563721179962158e-02 1.555198524147272110e-02
-2.972454428672790527e-01 -5.019362643361091614e-02 5.320169031620025635e-02
-1.758863478899002075e-01 -1.621515490114688873e-02 6.767833977937698364e-02
-1.586208492517471313e-02 -1.548611372709274292e-02 -2.435435801744461060e-01
-6.801158655434846878e-03 -1.582284457981586456e-03 4.486277103424072266e-01
2.077448815107345581e-01 -2.519796416163444519e-02 -3.117869198322296143e-01
3.539434075355529785e-01 -8.622901886701583862e-02 3.047126531600952148e-02
1.417146772146224976e-01 7.744043320417404175e-02 -3.063789941370487213e-02
-3.998317718505859375e-01 3.398444876074790955e-02 6.379880756139755249e-02
2.173525691032409668e-01 -4.087232798337936401e-02 -2.971280217170715332e-01
7.518979161977767944e-02 -1.543403696268796921e-02 -2.812713980674743652e-01
3.360298573970794678e-01 -2.496363222599029541e-02 -7.276599109172821045e-02
2.340684235095977783e-01 -5.782250687479972839e-02 -8.195710927248001099e-02
-4.283655807375907898e-02 -2.493759803473949432e-02 2.579577565193176270e-01
2.150873541831970215e-01 -1.101311221718788147e-01 -3.381365239620208740e-01
-6.917341947555541992e-01 2.573570609092712402e-01 -1.059709698893129826e-03
-2.883928120136260986e-01 2.854268997907638550e-02 -5.024386569857597351e-02
2.337559759616851807e-01 -2.574474923312664032e-02 1.108479201793670654e-01
5.227422118186950684e-01 -7.711602002382278442e-02 -2.610743977129459381e-02
-5.482174158096313477e-01 6.697350740432739258e-02 -1.644765958189964294e-02
-7.044143080711364746e-01 3.789002075791358948e-02 1.222521811723709106e-01
-7.683094739913940430e-01 1.386797875165939331e-01 -2.934383694082498550e-03
-6.637413799762725830e-02 -1.613704301416873932e-02 -3.169162571430206299e-01
-7.149853706359863281e-01 4.346196725964546204e-02 -1.629846841096878052e-01
2.443270534276962280e-01 -5.386486276984214783e-02 1.013704016804695129e-01
-1.953332126140594482e-02 -3.425889462232589722e-02 1.976817846298217773e-01
-8.066620826721191406e-01 5.088255181908607483e-02 2.508235871791839600e-01
2.640371620655059814e-01 -8.924933522939682007e-02 5.887778848409652710e-02
-1.331333518028259277e-01 2.411637268960475922e-02 5.553799867630004883e-01
-1.175631508231163025e-01 1.862253434956073761e-02 2.495139092206954956e-02
-7.803906202316284180e-01 4.913806542754173279e-02 2.420230358839035034e-01
2.575539350509643555e-01 -4.199192300438880920e-02 3.294817805290222168e-01
5.845543742179870605e-01 -6.909659504890441895e-02 3.388212993741035461e-02
2.600564062595367432e-02 -4.584542661905288696e-02 9.210117906332015991e-02
4.500465393066406250e-01 8.108563721179962158e-02 1.703610271215438843e-02
-2.375943809747695923e-01 4.096240550279617310e-02 7.437066435813903809e-01
-1.807553023099899292e-01 2.336129918694496155e-02 5.885773301124572754e-01
2.397184669971466064e-01 -3.384229913353919983e-02 -2.464337199926376343e-01
2.714056670665740967e-01 -8.221751078963279724e-03 -3.639210760593414307e-02
1.417407244443893433e-01 -5.683309212327003479e-02 8.822164684534072876e-02
-5.806829035282135010e-02 1.515959668904542923e-02 -5.036807060241699219e-01
2.196178138256072998e-01 -1.356475204229354858e-01 -3.053557574748992920e-01
7.560639083385467529e-02 -7.648932281881570816e-03 3.772859275341033936e-01
-1.087105274200439453e-01 1.117591653019189835e-02 -4.709780216217041016e-01
1.641326695680618286e-01 -1.227331012487411499e-01 2.983673810958862305e-01
6.858648657798767090e-01 -6.191034242510795593e-02 -4.511455073952674866e-02
-7.255564332008361816e-01 1.131113171577453613e-01 -1.059709698893129826e-03
2.384455688297748566e-02 -2.660397812724113464e-02 -2.681486904621124268e-01
1.359344422817230225e-01 -2.418252453207969666e-02 -7.802549749612808228e-02
5.643495917320251465e-01 9.327281266450881958e-03 7.043828070163726807e-02
2.563301622867584229e-01 -6.875810027122497559e-02 7.226087898015975952e-02
2.575278878211975098e-01 -2.423459105193614960e-02 -2.708305120468139648e-01
-1.065234020352363586e-01 -3.951661754399538040e-03 -4.042969048023223877e-01
-6.925413608551025391e-01 3.885339573025703430e-02 -1.250225305557250977e-01
7.906933128833770752e-02 -3.100424632430076599e-02 2.460327446460723877e-01
-7.954892516136169434e-02 -4.318962991237640381e-02 -7.536970824003219604e-02
-4.631801247596740723e-01 4.432119056582450867e-02 5.359224975109100342e-02
-1.755999475717544556e-01 1.799764856696128845e-02 -5.689297318458557129e-01
2.897878885269165039e-01 -9.588880091905593872e-02 -2.625767290592193604e-01
-5.965654924511909485e-02 1.151439361274242401e-02 -4.390304684638977051e-01
-6.546312570571899414e-01 7.603442668914794922e-02 -1.059709698893129826e-03
-6.244252622127532959e-02 -3.123858757317066193e-02 2.494436055421829224e-01
9.683157801628112793e-01 -6.427972018718719482e-02 1.349505130201578140e-02
6.433230638504028320e-02 -1.915735006332397461e-02 -3.268624544143676758e-01
-1.029042527079582214e-01 4.927003756165504456e-03 4.822156429290771484e-01
1.939712315797805786e-01 -2.186521515250205994e-02 2.847499847412109375e-01
2.074064016342163086e-01 -6.198844313621520996e-02 3.424222469329833984e-01
-6.612707376480102539e-01 1.792196035385131836e-01 -9.157259948551654816e-03
1.566600054502487183e-01 -1.174735948443412781e-01 -3.075168430805206299e-01
-4.822625219821929932e-02 -3.938821330666542053e-02 -1.572825461626052856e-01
-4.737772345542907715e-01 1.271210890263319016e-02 6.215846911072731018e-02
-3.444247245788574219e-01 -2.316707372665405273e-02 -6.914682686328887939e-02
-1.118349805474281311e-01 1.828405819833278656e-02 5.594678521156311035e-01
2.203728854656219482e-01 -8.578638732433319092e-02 6.234072893857955933e-02
-1.356068849563598633e-01 1.815387047827243805e-02 5.256455540657043457e-01
5.014958977699279785e-01 4.877354577183723450e-02 6.020568311214447021e-02
9.716514497995376587e-02 -7.539758086204528809e-02 2.808964848518371582e-01
8.341723680496215820e-01 6.220871210098266602e-02 3.432476148009300232e-02
3.555837571620941162e-01 1.325888466089963913e-02 6.942283362150192261e-02
1.985016912221908569e-01 -7.649113237857818604e-02 -2.304989993572235107e-01
-5.494672060012817383e-01 1.239688098430633545e-01 -9.815982775762677193e-04
5.727856159210205078e-01 -5.691121146082878113e-02 -3.363217413425445557e-02
4.473125934600830078e-01 -3.826861083507537842e-02 6.218450516462326050e-02
-3.210925683379173279e-02 6.489053368568420410e-02 -4.568736627697944641e-02
-1.607066988945007324e-01 2.481937967240810394e-02 5.790216922760009766e-01
-5.353290438652038574e-01 6.033403798937797546e-02 3.612132743000984192e-02
7.226813435554504395e-01 -7.857410609722137451e-02 -2.342561446130275726e-02
-1.569833904504776001e-01 -5.269319191575050354e-02 -6.555370241403579712e-02
-5.857369899749755859e-01 1.851839013397693634e-02 -3.613173961639404297e-02
1.927995532751083374e-01 -7.755865156650543213e-02 -3.405840396881103516e-01
4.605134427547454834e-01 -4.386660084128379822e-02 -6.323640048503875732e-02
-6.607759594917297363e-01 3.963451087474822998e-02 1.225646361708641052e-01
4.680381715297698975e-01 -2.420855872333049774e-02 -6.888645887374877930e-02
4.675695002079010010e-01 5.244478210806846619e-02 5.775818973779678345e-02
7.815802842378616333e-02 -1.191903185099363327e-02 -1.950884908437728882e-01
-1.906178076751530170e-03 6.124533340334892273e-02 4.677051678299903870e-02
6.170255690813064575e-02 -7.508511841297149658e-02 -7.651533931493759155e-02
-7.810155153274536133e-01 2.220246791839599609e-01 -1.059709698893129826e-03
2.609647810459136963e-01 -5.563538521528244019e-02 -2.363312989473342896e-01
-5.992501974105834961e-01 4.658642411231994629e-02 2.403229940682649612e-03
8.107910156250000000e-01 7.210282236337661743e-02 -3.235635161399841309e-02
-1.265459805727005005e-01 1.914327591657638550e-02 -1.587484404444694519e-02
-2.111927121877670288e-01 -5.204226076602935791e-02 5.484203249216079712e-02
2.208936214447021484e-01 -2.850468084216117859e-02 2.600928246974945068e-01
1.616070717573165894e-01 -3.975273296236991882e-02 -1.919379830360412598e-01
-2.036940157413482666e-01 -4.810890182852745056e-03 7.059450447559356689e-02
1.479896456003189087e-01 -8.531772345304489136e-02 3.052151799201965332e-01
-7.447717785835266113e-01 1.413616240024566650e-01 -1.059709698893129826e-03
3.547505736351013184e-01 7.941925525665283203e-02 -2.826851978898048401e-02
-7.389655709266662598e-01 1.502142399549484253e-01 -7.647106423974037170e-03
6.332959532737731934e-01 -7.024221122264862061e-02 -5.590172484517097473e-03
-2.111927121877670288e-01 -5.204226076602935791e-02 5.484203249216079712e-02
-7.033467292785644531e-01 2.100736200809478760e-01 -1.059709698893129826e-03
1.814473718404769897e-01 -4.459564387798309326e-02 3.233630359172821045e-01
-3.209913074970245361e-01 3.044340200722217560e-02 -3.855319321155548096e-02
1.441100984811782837e-01 -7.727224379777908325e-02 2.603011131286621094e-01
9.055459871888160706e-03 -5.011551454663276672e-02 -1.060674935579299927e-01
7.415118627250194550e-03 1.047290954738855362e-02 -7.411991804838180542e-02
2.625270187854766846e-01 -2.780168317258358002e-02 -8.351933211088180542e-02
6.150959730148315430e-01 5.887595564126968384e-02 -5.287361890077590942e-02
3.595182672142982483e-02 9.717835113406181335e-03 6.463199108839035034e-02
5.357896536588668823e-02 8.676351979374885559e-03 4.494791850447654724e-02
-6.429115682840347290e-02 -1.512159407138824463e-02 3.243524730205535889e-01
1.814473718404769897e-01 -4.459564387798309326e-02 3.233630359172821045e-01
1.676737219095230103e-01 -5.503653362393379211e-02 1.045208945870399475e-01
-7.171724438667297363e-01 2.705856971442699432e-02 -6.576199829578399658e-02
-6.087538003921508789e-01 3.140677511692047119e-02 9.821990877389907837e-02
-3.404931426048278809e-01 -6.815924495458602905e-02 2.922148257493972778e-02
-6.259903311729431152e-01 2.390807494521141052e-02 7.158391177654266357e-02
1.993348896503448486e-01 -1.996450312435626984e-02 1.254287213087081909e-01
-6.431227922439575195e-01 1.438091099262237549e-01 -1.059709698893129826e-03
6.729764938354492188e-01 -2.842657081782817841e-02 6.463199108839035034e-02
-2.669642567634582520e-01 2.729290165007114410e-02 -5.586788430809974670e-02
-8.936492353677749634e-02 2.961021102964878082e-02 5.851664543151855469e-01
-9.673345088958740234e-02 1.190495770424604416e-02 5.423093438148498535e-01
-8.090575337409973145e-01 5.434549599885940552e-02 2.769648730754852295e-01
-1.114936359226703644e-02 -4.412696883082389832e-02 1.366767585277557373e-01
2.030350267887115479e-02 -3.261854872107505798e-02 2.220785915851593018e-01
1.858476400375366211e-01 -1.128650233149528503e-01 2.435331791639328003e-01
-4.737772345542907715e-01 1.271210890263319016e-02 6.215846911072731018e-02
1.792602390050888062e-01 -8.901499211788177490e-02 3.384124934673309326e-01
2.258406877517700195e-01 -2.428666874766349792e-02 9.915724396705627441e-02
6.367588043212890625e-01 1.763312891125679016e-02 6.827719509601593018e-02
-3.153643757104873657e-02 1.362340431660413742e-02 -5.311498641967773438e-01
-9.259353578090667725e-02 -2.962254919111728668e-03 3.871540427207946777e-01
1.803537905216217041e-01 -1.559026818722486496e-02 2.873016297817230225e-01
-2.017412334680557251e-01 1.213928963989019394e-02 6.983942538499832153e-02
1.727509647607803345e-01 -4.545485973358154297e-02 -2.749443650245666504e-01
-5.890957713127136230e-01 -3.800824284553527832e-02 2.195711992681026459e-02
-2.559996955096721649e-02 -8.117606863379478455e-03 -3.038456141948699951e-01
4.420530796051025391e-01 -3.217591717839241028e-02 -6.344469636678695679e-02
5.738010406494140625e-01 7.387334853410720825e-02 -3.493402898311614990e-02
-1.822133809328079224e-01 2.237188257277011871e-02 -1.168286334723234177e-02
-1.230309605598449707e-01 2.247603610157966614e-02 -6.215507984161376953e-01
-4.081376194953918457e-01 5.283533781766891479e-02 -1.059709698893129826e-03
1.904822438955307007e-01 -8.247968554496765137e-02 -2.523441314697265625e-01
-7.476359009742736816e-01 4.265481606125831604e-02 -9.053112007677555084e-03
-2.631107568740844727e-01 -6.211863085627555847e-02 4.151101782917976379e-02
-3.029736280441284180e-01 5.538697913289070129e-02 -8.384922146797180176e-01
-2.915172874927520752e-01 7.332656532526016235e-02 -3.636607155203819275e-02
-1.913524121046066284e-01 5.006928695365786552e-04 -7.599459588527679443e-02
2.833046615123748779e-01 -9.549644775688648224e-03 -2.688855305314064026e-02
1.314328983426094055e-02 5.499823018908500671e-03 -4.689992070198059082e-01
1.379653513431549072e-01 -2.551041729748249054e-02 -2.984298765659332275e-01
3.832120448350906372e-02 6.403131037950515747e-02 -4.670281708240509033e-02
4.256757497787475586e-01 -6.750832498073577881e-02 -3.813659772276878357e-02
3.190015554428100586e-01 -6.987769901752471924e-02 7.095902413129806519e-02
1.314328983426094055e-02 5.499823018908500671e-03 -4.689992070198059082e-01
