-1.306182295083999634e-01 1.567343861097469926e-04 7.438182085752487183e-02
2.594457268714904785e-01 -3.319686278700828552e-02 -3.045728802680969238e-01
4.622800350189208984e-01 7.649023085832595825e-03 -8.008847385644912720e-02
-1.282155215740203857e-01 3.289027884602546692e-02 7.845730781555175781e-01
1.268322616815567017e-01 -7.864145934581756592e-02 8.540652343071997166e-04
2.056046277284622192e-01 -1.880650036036968231e-02 -1.890366524457931519e-01
-1.854927688837051392e-01 -7.878094911575317383e-03 1.911974512040615082e-02
-2.218674123287200928e-02 -7.593903690576553345e-03 -3.629869222640991211e-01
-7.281410098075866699e-01 7.244438678026199341e-02 -8.705059066414833069e-03
-7.279674522578716278e-03 -2.566363255027681589e-04 7.430431246757507324e-02
4.731068015098571777e-02 -3.332603350281715393e-02 -1.836370378732681274e-01
-1.695522814989089966e-01 6.298860162496566772e-02 8.001260757446289062e-01
9.498471021652221680e-01 5.339652489055879414e-05 4.190663248300552368e-02
-2.673378586769104004e-02 -2.288850396871566772e-02 -2.305284142494201660e-01
-7.472333908081054688e-01 2.919167280197143555e-01 4.961905535310506821e-03
6.269553303718566895e-01 9.481790661811828613e-02 -2.213950455188751221e-02
-1.219633370637893677e-01 3.084927797317504883e-02 7.386376857757568359e-01
-7.437198162078857422e-01 4.363783821463584900e-02 1.915198564529418945e-01
3.299782797694206238e-02 -1.677582506090402603e-03 -4.594306945800781250e-01
-7.432547807693481445e-01 4.343115165829658508e-02 -1.957538872957229614e-01
3.259462416172027588e-01 -7.641959935426712036e-02 -3.534143045544624329e-02
-7.003937363624572754e-01 1.744169890880584717e-01 6.822058930993080139e-03
-6.352349370718002319e-02 1.919747516512870789e-02 -6.743301749229431152e-01
-6.297078728675842285e-01 1.358704715967178345e-01 9.198922663927078247e-03
-6.061200499534606934e-01 2.482961490750312805e-02 6.205829977989196777e-02
-4.701463133096694946e-02 -2.449030429124832153e-02 2.092171460390090942e-01
-1.812557429075241089e-01 -2.064081653952598572e-02 -6.741563789546489716e-03
1.216134950518608093e-01 -2.410928027529735118e-05 -3.272822797298431396e-01
2.661371231079101562e-01 -1.107291132211685181e-01 -2.599033713340759277e-01
8.566327095031738281e-01 3.428539633750915527e-02 -6.895337998867034912e-02
1.281498819589614868e-01 -1.128837931901216507e-02 3.424765169620513916e-01
-3.195788860321044922e-01 -7.853811234235763550e-02 -2.655737102031707764e-02
2.761612832546234131e-01 -1.549956295639276505e-02 7.166909426450729370e-02
-8.094969391822814941e-01 5.637472122907638550e-02 2.690262794494628906e-01
-5.713972449302673340e-01 2.940249070525169373e-02 -3.350711241364479065e-02
2.093507647514343262e-01 3.433706238865852356e-02 -7.789245247840881348e-02
2.398624569177627563e-01 -3.253549803048372269e-03 -7.879669219255447388e-02
4.023176059126853943e-02 -1.593256294727325439e-01 -1.558897495269775391e-01
-8.762816190719604492e-01 4.666058719158172607e-02 2.817561151459813118e-03
-7.229481339454650879e-01 4.836572334170341492e-02 -8.789078146219253540e-02
4.255695268511772156e-02 -8.848476409912109375e-02 1.418124139308929443e-01
8.552134782075881958e-02 -8.274929970502853394e-02 3.020698428153991699e-01
-1.732967421412467957e-02 -3.858062555082142353e-04 -3.582589924335479736e-01
-1.652877405285835266e-02 -2.381858415901660919e-02 -4.079664647579193115e-01
-6.076961159706115723e-01 3.914246335625648499e-02 4.821048676967620850e-02
2.793648838996887207e-01 -2.826228551566600800e-02 2.761827111244201660e-01
2.412575632333755493e-01 -1.927153393626213074e-02 2.736249864101409912e-01
-7.707954049110412598e-01 9.974216111004352570e-03 3.327758237719535828e-02
-7.941506505012512207e-01 4.611804336309432983e-02 -1.209343448281288147e-01
-6.254191994667053223e-01 4.319863393902778625e-02 -6.120273843407630920e-02
8.177519589662551880e-02 -9.535700082778930664e-02 2.567543983459472656e-01
3.219692781567573547e-02 -6.147115956991910934e-03 -2.669047713279724121e-01
-6.876826882362365723e-01 2.428034991025924683e-01 5.607792176306247711e-03
-3.991779685020446777e-01 6.262690573930740356e-02 5.864801630377769470e-02
3.930168598890304565e-02 -1.805727370083332062e-02 -2.909317612648010254e-01
-2.539034001529216766e-02 -3.394608944654464722e-02 6.187745183706283569e-02
-1.125833671540021896e-02 -3.925269935280084610e-03 4.235998988151550293e-01
-6.119830161333084106e-02 -2.702218294143676758e-02 -4.070105552673339844e-01
1.489732563495635986e-01 -4.777843598276376724e-03 -1.940229088068008423e-01
2.637861073017120361e-01 -7.197590172290802002e-02 -1.371714007109403610e-02
1.327744275331497192e-01 -5.358105152845382690e-02 5.185328796505928040e-02
-1.182688698172569275e-01 -5.688798055052757263e-02 4.087321087718009949e-02
-1.218083277344703674e-01 -7.727216929197311401e-02 -2.916675433516502380e-02
-7.977676391601562500e-01 6.471958011388778687e-02 2.388762831687927246e-01
-6.100471019744873047e-01 2.829156816005706787e-02 -6.655067950487136841e-02
-3.327549695968627930e-01 -5.656248889863491058e-03 7.373593002557754517e-02
-5.038891434669494629e-01 -5.745636299252510071e-02 -3.766662254929542542e-02
6.302364468574523926e-01 4.306945577263832092e-02 6.916305422782897949e-02
4.497239887714385986e-01 9.616135060787200928e-02 -1.289040595293045044e-02
-1.358352974057197571e-02 -7.128868717700242996e-03 2.964377105236053467e-01
-2.644959464669227600e-02 -3.162089735269546509e-02 1.051777079701423645e-01
-1.170029267668724060e-01 9.510209411382675171e-02 1.379763707518577576e-02
2.041061669588088989e-01 2.237524092197418213e-02 -1.893590576946735382e-02
-7.600219845771789551e-01 3.521547466516494751e-02 1.227974966168403625e-01
1.962263584136962891e-01 -1.601627096533775330e-02 2.640917003154754639e-01
5.302014946937561035e-01 -4.823310300707817078e-02 -5.799913778901100159e-02
1.530222361907362938e-03 -1.291601080447435379e-02 2.333733141422271729e-01
-2.557118795812129974e-02 5.969717632979154587e-03 5.358549952507019043e-01
4.707815870642662048e-02 -3.009660169482231140e-02 2.096305191516876221e-01
1.572147756814956665e-01 -1.019192114472389221e-01 -3.182915151119232178e-01
-7.844365239143371582e-01 5.603886023163795471e-02 1.702314317226409912e-01
1.848328858613967896e-01 -3.952654451131820679e-02 -1.673090159893035889e-01
1.368047595024108887e-01 -7.324185222387313843e-02 6.438349187374114990e-02
1.543212085962295532e-01 -4.583040624856948853e-02 -3.162763714790344238e-01
-3.667027652263641357e-01 -7.471446692943572998e-02 2.501023188233375549e-02
-6.809912919998168945e-01 1.905124932527542114e-01 -1.289040595293045044e-02
2.768071591854095459e-01 -1.207791119813919067e-01 3.039041459560394287e-01
1.437803357839584351e-01 -3.947488218545913696e-02 1.662786006927490234e-01
1.739561706781387329e-01 -1.258428692817687988e-01 2.834424674510955811e-01
2.718984484672546387e-01 -4.730302467942237854e-02 2.554109692573547363e-01
-1.266137212514877319e-01 -8.267178386449813843e-02 2.042497042566537857e-03
-7.110120654106140137e-01 4.976084455847740173e-02 8.802294731140136719e-02
3.039602637290954590e-01 -6.120251119136810303e-02 3.730791807174682617e-02
-1.169512644410133362e-01 1.390120945870876312e-02 -7.985595613718032837e-02
4.356453567743301392e-02 -2.849480323493480682e-02 7.373593002557754517e-02
-6.060943007469177246e-01 1.584248393774032593e-01 6.382856518030166626e-03
6.214024126529693604e-02 -1.901318505406379700e-02 1.103189587593078613e-01
7.394704967737197876e-02 -7.737551629543304443e-02 -2.686357498168945312e-01
-8.633621037006378174e-02 9.121643379330635071e-03 5.469126105308532715e-01
8.255026489496231079e-02 -7.827975600957870483e-02 -1.593899168074131012e-02
-6.444857716560363770e-01 1.452125608921051025e-02 2.617282792925834656e-02
2.738619446754455566e-01 -4.234261438250541687e-02 2.887904047966003418e-01
2.837569117546081543e-01 7.148847728967666626e-02 5.309339240193367004e-02
-1.335100736469030380e-02 -2.831395901739597321e-02 7.272835075855255127e-02
7.521298527717590332e-02 -8.887230604887008667e-02 3.410431742668151855e-02
7.355952262878417969e-02 -9.636458754539489746e-02 2.648925781250000000e-01
7.545309066772460938e-01 -4.608876258134841919e-02 -5.949759483337402344e-02
6.692996621131896973e-01 2.503629960119724274e-02 7.363259047269821167e-02
-5.620447397232055664e-01 8.466456830501556396e-02 2.787796966731548309e-02
3.146819770336151123e-01 -6.853977590799331665e-02 -6.148692965507507324e-02
-3.239450752735137939e-01 -1.445065019652247429e-03 -7.964926958084106445e-02
-3.042653901502490044e-03 -5.785419140011072159e-03 4.038357436656951904e-01
-1.280346810817718506e-01 1.733732596039772034e-02 6.234630942344665527e-01
-2.965336143970489502e-01 -3.035496175289154053e-02 -7.295788079500198364e-02
1.804666966199874878e-01 -9.454062208533287048e-03 1.123858019709587097e-01
5.544885247945785522e-02 -4.183619748800992966e-03 7.376176863908767700e-02
2.852812111377716064e-01 -6.616292148828506470e-02 2.736125886440277100e-02
3.759654238820075989e-02 1.328115351498126984e-02 4.827114641666412354e-01
1.732586026191711426e-01 -2.839146368205547333e-02 2.624123692512512207e-01
6.477270722389221191e-01 8.657638728618621826e-02 3.531858697533607483e-02
-1.360936183482408524e-02 -1.053915359079837799e-02 2.711447775363922119e-01
1.962263584136962891e-01 -1.601627096533775330e-02 2.640917003154754639e-01
3.643119335174560547e-01 -4.650212451815605164e-02 5.094904452562332153e-02
3.636143803596496582e-01 3.847074136137962341e-02 7.089402526617050171e-02
9.345266222953796387e-01 -4.854312911629676819e-02 -4.143860563635826111e-02
-1.218083277344703674e-01 -7.727216929197311401e-02 -2.916675433516502380e-02
9.178627729415893555e-01 -4.094750061631202698e-02 4.498105123639106750e-02
1.168597713112831116e-01 -8.393772691488265991e-02 -3.124785423278808594e-01
-2.242976427078247070e-01 3.599053621292114258e-02 -7.603229582309722900e-02
-5.355099961161613464e-02 -5.320384167134761810e-03 -3.715384304523468018e-01
-5.431073307991027832e-01 -5.120418593287467957e-02 -3.828667476773262024e-02
7.327533513307571411e-02 -1.652936190366744995e-01 -1.844637691974639893e-01
-7.143448591232299805e-01 5.557382106781005859e-02 -1.484491229057312012e-01
3.562771081924438477e-01 -6.655046343803405762e-02 -4.635438672266900539e-04
-2.080471366643905640e-01 -2.658298052847385406e-02 6.887886673212051392e-02
2.651036977767944336e-01 -4.066330939531326294e-02 -2.800550162792205811e-01
-3.337349742650985718e-02 -3.939737379550933838e-02 -8.646982908248901367e-02
-8.224663138389587402e-01 2.072280496358871460e-01 -1.806988148018717766e-03
-9.512028843164443970e-02 3.375876694917678833e-04 -6.680903583765029907e-02
1.541403681039810181e-01 -4.958687350153923035e-03 -2.564672231674194336e-01
-2.836675345897674561e-01 8.887574821710586548e-02 -3.461803868412971497e-02
7.245100736618041992e-01 -1.513786613941192627e-02 7.063567638397216797e-02
2.201947383582592010e-03 -2.653130516409873962e-02 -1.095667406916618347e-01
-4.164085164666175842e-02 1.573552563786506653e-02 -5.334493517875671387e-01
-8.056216239929199219e-01 2.145394980907440186e-01 -5.708144977688789368e-03
-7.024605870246887207e-01 6.771649420261383057e-02 -2.903757616877555847e-02
-5.785536170005798340e-01 -2.172590792179107666e-02 5.433349311351776123e-02
2.282106578350067139e-01 -3.665881231427192688e-02 2.814272940158843994e-01
6.289446949958801270e-01 -1.552539505064487457e-02 -7.592895627021789551e-02
3.230027109384536743e-02 -4.528786614537239075e-02 -1.853680163621902466e-01
-8.180484175682067871e-01 5.410120263695716858e-02 -2.496208399534225464e-01
-1.131000556051731110e-02 1.852575503289699554e-02 -5.444035530090332031e-01
-1.201806962490081787e-01 2.369285002350807190e-02 -6.638667583465576172e-01
5.823116302490234375e-01 8.184849470853805542e-02 -4.676071181893348694e-02
-4.574026388581842184e-05 -1.146922260522842407e-02 2.483837306499481201e-01
-1.466878950595855713e-01 3.592850640416145325e-03 5.459050536155700684e-01
2.630643919110298157e-02 -1.663787215948104858e-01 -1.853421777486801147e-01
4.468820989131927490e-01 8.838487416505813599e-02 -3.673654422163963318e-02
-1.127400770783424377e-01 1.911996863782405853e-02 -6.560645103454589844e-01
-7.422988414764404297e-01 7.623190991580486298e-03 3.487938269972801208e-02
1.255146563053131104e-01 9.207934886217117310e-02 -2.844335883855819702e-02
-6.677876412868499756e-02 1.240274775773286819e-02 5.182868838310241699e-01
-5.703896284103393555e-01 7.582883536815643311e-02 3.991730138659477234e-02
-1.195089668035507202e-01 1.725981943309307098e-02 6.220937967300415039e-01
1.529260873794555664e-01 -7.649711519479751587e-02 1.067154482007026672e-02
-1.409524083137512207e-01 2.578552626073360443e-02 -7.158219218254089355e-01
1.242745593190193176e-01 -3.389441594481468201e-02 2.008981257677078247e-01
5.092764645814895630e-02 2.237524092197418213e-02 -4.012099653482437134e-02
-5.431073307991027832e-01 -5.120418593287467957e-02 -3.828667476773262024e-02
5.769653990864753723e-02 -9.969735890626907349e-02 -1.886232942342758179e-01
-2.379646152257919312e-01 -5.471779778599739075e-02 5.379094928503036499e-02
2.872705459594726562e-01 -9.631291776895523071e-02 2.317198514938354492e-01
1.871580928564071655e-01 1.707896590232849121e-02 6.076652929186820984e-02
-1.335100736469030380e-02 -2.831395901739597321e-02 7.272835075855255127e-02
-4.011655971407890320e-02 -1.278683077543973923e-02 -2.767222523689270020e-01
3.562254011631011963e-01 -5.451112240552902222e-02 5.063902214169502258e-02
8.194295763969421387e-01 -8.549815043807029724e-03 -7.714322954416275024e-02
-3.892829716205596924e-01 -5.408178549259901047e-04 7.396845519542694092e-02
-4.704046621918678284e-02 1.829323731362819672e-02 -6.659336686134338379e-01
7.539384067058563232e-02 -9.531567804515361786e-03 1.938967108726501465e-01
-1.271304488182067871e-01 2.237524092197418213e-02 2.369262278079986572e-02
1.709592491388320923e-01 -1.193323284387588501e-01 -2.553304731845855713e-01
1.437286585569381714e-01 -4.378940165042877197e-02 -1.347563266754150391e-01
-1.944818161427974701e-02 -4.880148544907569885e-02 -6.288204342126846313e-02
7.023690938949584961e-01 3.578384965658187866e-02 -7.734990864992141724e-02
2.535552680492401123e-01 4.989001899957656860e-02 -7.202780246734619141e-02
-6.601421236991882324e-01 4.782318323850631714e-02 -5.185030028223991394e-02
-9.057322889566421509e-02 -7.303515076637268066e-02 -9.247604757547378540e-03
-1.854927688837051392e-01 1.103346608579158783e-02 -1.513809151947498322e-02
-2.615523934364318848e-01 -8.140585571527481079e-02 1.025817822664976120e-02
3.899665474891662598e-01 3.730814531445503235e-02 -7.678152620792388916e-02
3.504382669925689697e-01 -1.681717112660408020e-02 -6.590479612350463867e-02
1.882948577404022217e-01 -6.014326214790344238e-02 -4.402215033769607544e-02
-9.318260848522186279e-02 2.382203005254268646e-02 7.230330705642700195e-01
1.731036007404327393e-01 -7.826421409845352173e-03 1.440859287977218628e-01
1.795108020305633545e-01 -7.826421409845352173e-03 1.610598266124725342e-01
-3.401938453316688538e-02 2.467460185289382935e-02 6.515721082687377930e-01
-7.000819593667984009e-02 -7.877064496278762817e-02 2.470020577311515808e-02
-1.687513738870620728e-01 -2.968323044478893280e-02 1.849969290196895599e-02
1.183065623044967651e-01 -5.603542551398277283e-02 -7.771160453557968140e-02
-8.336014151573181152e-01 5.578050762414932251e-02 -2.484324127435684204e-01
7.189553976058959961e-01 1.824156381189823151e-02 -7.988178730010986328e-02
3.944877386093139648e-01 8.443205058574676514e-02 -4.371212422847747803e-02
1.879590004682540894e-01 -8.887230604887008667e-02 -1.637819409370422363e-02
3.379872813820838928e-02 2.237524092197418213e-02 1.534776575863361359e-02
-8.251256495714187622e-02 3.208938241004943848e-02 -7.513715624809265137e-01
3.757070377469062805e-02 4.908911883831024170e-02 -7.153692841529846191e-02
-5.985486134886741638e-02 9.381031990051269531e-02 -2.441302686929702759e-02
5.211608111858367920e-02 9.380002506077289581e-03 4.907721281051635742e-01
1.026261318475008011e-02 8.475754410028457642e-03 -4.277564287185668945e-01
1.893799453973770142e-01 -5.536369606852531433e-02 6.066318601369857788e-02
-5.760992765426635742e-01 1.340103149414062500e-01 -1.110775768756866455e-02
-1.352944523096084595e-01 2.544966153800487518e-02 7.254356741905212402e-01
2.264280170202255249e-01 -1.480200141668319702e-02 2.649184167385101318e-01
-6.943981349468231201e-02 -1.109200180508196354e-03 4.017689228057861328e-01
3.881252603605389595e-03 -6.337269395589828491e-02 -7.530890405178070068e-02
-2.179679572582244873e-01 9.404284507036209106e-02 -2.389631792902946472e-02
-1.441043317317962646e-01 4.154516011476516724e-02 -7.404296845197677612e-02
-7.995244264602661133e-01 4.872742295265197754e-02 1.354827135801315308e-01
-8.262900114059448242e-01 7.166932523250579834e-02 -3.094557821750640869e-01
-1.918741315603256226e-01 -6.053078174591064453e-02 -5.368461832404136658e-02
3.662237823009490967e-01 5.020004510879516602e-02 -7.192446291446685791e-02
-1.214983016252517700e-01 1.010339614003896713e-02 -5.531617999076843262e-01
3.672829866409301758e-01 9.753063321113586426e-02 -2.142849378287792206e-03
-2.218674123287200928e-02 -7.593903690576553345e-03 -3.629869222640991211e-01
-5.644457787275314331e-02 -2.014994993805885315e-02 -2.296758443117141724e-01
4.397790133953094482e-02 -1.057687029242515564e-01 -1.707451492547988892e-01
1.215101629495620728e-01 -4.231678321957588196e-02 1.429233253002166748e-01
-9.449851699173450470e-03 -2.102835476398468018e-02 -2.614018023014068604e-01
-5.856842398643493652e-01 1.503796409815549850e-02 -7.047767192125320435e-02
-2.735383622348308563e-02 -2.456780895590782166e-02 1.654518544673919678e-01
9.649866819381713867e-01 8.604934439063072205e-03 -2.464554645121097565e-02
-4.755476117134094238e-01 4.637639597058296204e-02 6.712204962968826294e-02
8.151684701442718506e-02 -7.008991390466690063e-02 -2.560021877288818359e-01
-1.437167972326278687e-01 -5.557037144899368286e-02 5.322256684303283691e-02
4.128050804138183594e-01 -3.198259323835372925e-02 -6.934091448783874512e-02
-1.650293730199337006e-02 1.033591385930776596e-02 -4.636677205562591553e-01
-7.806903719902038574e-01 4.057894926518201828e-03 2.689622156322002411e-02
1.752220988273620605e-01 1.586470566689968109e-02 -6.773911416530609131e-02
3.671813756227493286e-02 -8.887230604887008667e-02 7.622958626598119736e-03
-7.844365239143371582e-01 5.603886023163795471e-02 1.702314317226409912e-01
-3.334766253829002380e-02 -2.642796747386455536e-02 -1.508259922266006470e-01
-6.182369589805603027e-01 8.500043302774429321e-02 -1.857420988380908966e-02
-5.081244558095932007e-02 -2.108001895248889923e-02 2.238141894340515137e-01
-1.201806962490081787e-01 2.369285002350807190e-02 -6.638667583465576172e-01
-4.860884845256805420e-01 -6.086665764451026917e-02 3.064236417412757874e-02
9.743149578571319580e-02 -9.025147883221507072e-04 -2.731827795505523682e-01
2.167138755321502686e-01 -4.467810504138469696e-03 -7.864168286323547363e-02
4.417925179004669189e-01 2.725814469158649445e-02 -7.879669219255447388e-02
8.787237107753753662e-02 7.071340829133987427e-02 -5.838667228817939758e-02
7.940075397491455078e-01 -1.507999300956726074e-01 2.079905010759830475e-02
-5.659201145172119141e-01 9.200184047222137451e-02 -3.408787539228796959e-03
1.533652842044830322e-01 -6.355353444814682007e-02 -4.521058127284049988e-02
3.519555553793907166e-03 -3.965572640299797058e-02 -1.828103065490722656e-01
1.387682408094406128e-01 2.237524092197418213e-02 -3.950094431638717651e-02
-7.591435909271240234e-01 3.989169374108314514e-02 -1.681099236011505127e-01
-7.542865276336669922e-01 3.996919840574264526e-02 4.281087592244148254e-02
1.705717146396636963e-01 -9.299051016569137573e-03 2.534733116626739502e-01
-5.308596417307853699e-02 -3.810559958219528198e-02 -7.347458600997924805e-02
-9.142579883337020874e-02 -7.619745563715696335e-03 3.920031189918518066e-01
-1.087613999843597412e-01 4.797819629311561584e-02 -7.174361497163772583e-02
-2.925291359424591064e-01 9.603217244148254395e-02 -1.309708878397941589e-02
-7.915929555892944336e-01 1.123860254883766174e-01 -3.305445890873670578e-03
3.562771081924438477e-01 -6.655046343803405762e-02 -4.635438672266900539e-04
8.847675323486328125e-01 7.161765545606613159e-02 -1.911675371229648590e-02
-6.367850303649902344e-02 9.559296816587448120e-02 1.056820340454578400e-02
1.630019396543502808e-01 -1.265766099095344543e-02 -2.917068302631378174e-01
4.900531470775604248e-01 1.780235953629016876e-02 -7.993345707654953003e-02
7.812189459800720215e-01 4.859824851155281067e-02 -7.251867651939392090e-02
3.281698003411293030e-02 1.418540067970752716e-02 7.445932179689407349e-02
-3.469111397862434387e-02 8.346584625542163849e-03 5.608896017074584961e-01
-3.412273153662681580e-02 1.570969447493553162e-02 -5.282564163208007812e-01
-6.443824172019958496e-01 4.833989217877388000e-02 3.963311016559600830e-02
7.296530157327651978e-02 -6.254595518112182617e-02 2.645825743675231934e-01
-1.044468879699707031e-01 -3.807976841926574707e-02 5.944891646504402161e-02
1.637769937515258789e-01 -2.288850396871566772e-02 -2.588441073894500732e-01
5.227867364883422852e-01 -2.596292458474636078e-02 -7.200197130441665649e-02
-7.765049934387207031e-01 3.717896714806556702e-02 -1.309068351984024048e-01
2.602225169539451599e-02 -6.345018744468688965e-02 -1.835853755474090576e-01
3.447045013308525085e-02 -1.341102123260498047e-01 1.588896512985229492e-01
-6.318005323410034180e-01 1.738227754831314087e-01 7.622958626598119736e-03
-6.846341490745544434e-01 1.352762579917907715e-01 -1.270955707877874374e-02
-1.441043317317962646e-01 4.154516011476516724e-02 -7.404296845197677612e-02
7.017507404088973999e-02 -6.197756901383399963e-02 -2.969256043434143066e-01
-5.771843194961547852e-01 -4.397024586796760559e-02 -3.815749660134315491e-02
-3.544034063816070557e-02 1.012922823429107666e-02 -5.786355733871459961e-01
-7.411604374647140503e-02 -2.051164768636226654e-02 2.615339756011962891e-01
2.824410237371921539e-02 7.700696587562561035e-03 4.113538861274719238e-01
-4.276486337184906006e-01 -6.422526389360427856e-02 3.697205707430839539e-02
8.805321156978607178e-02 -7.192423939704895020e-02 2.826550230383872986e-02
-6.543532013893127441e-02 9.431665763258934021e-03 5.463442206382751465e-01
6.324066519737243652e-01 -7.205340266227722168e-02 7.752135861665010452e-03
-6.261167526245117188e-01 1.164319459348917007e-03 5.671035498380661011e-02
2.434277385473251343e-01 -6.254595518112182617e-02 -4.071521013975143433e-02
-6.876826882362365723e-01 2.428034991025924683e-01 5.607792176306247711e-03
1.732586026191711426e-01 -2.839146368205547333e-02 2.624123692512512207e-01
2.511783838272094727e-01 -1.578375510871410370e-02 8.112487196922302246e-02
-3.334766253829002380e-02 -2.642796747386455536e-02 -1.508259922266006470e-01
4.064512997865676880e-02 -1.128992959856987000e-01 -1.779532283544540405e-01
-4.884894937276840210e-02 2.600818697828799486e-04 4.566176235675811768e-01
1.437286585569381714e-01 -4.378940165042877197e-02 -1.347563266754150391e-01
-5.473443865776062012e-01 1.104741990566253662e-01 8.604706265032291412e-03
2.333536185324192047e-02 -2.144171670079231262e-02 -2.619443535804748535e-01
7.792295813560485840e-01 -1.403882205486297607e-01 9.870644658803939819e-03
-5.135329905897378922e-03 3.593886271119117737e-02 -7.610980421304702759e-02
-1.624458283185958862e-02 -2.097668126225471497e-02 2.685095667839050293e-01
-7.478776574134826660e-02 3.038423880934715271e-02 7.358732223510742188e-01
-7.437198162078857422e-01 4.363783821463584900e-02 1.915198564529418945e-01
2.036927938461303711e-01 -7.373271882534027100e-02 -2.275056689977645874e-01
-5.213005468249320984e-02 2.498462609946727753e-02 6.366391777992248535e-01
-5.599520802497863770e-01 1.351987421512603760e-01 -3.486294066533446312e-03
2.635535597801208496e-01 -9.468528628349304199e-02 -2.305284142494201660e-01
-1.345193684101104736e-01 4.728063941001892090e-02 6.655366718769073486e-02
-2.542151212692260742e-01 -5.087866913527250290e-03 -7.923589646816253662e-02
6.157185882329940796e-02 -2.116785151883959770e-03 -4.525326490402221680e-01
-5.393683910369873047e-03 -4.183619748800992966e-03 3.211880922317504883e-01
1.866413801908493042e-01 -3.265431150794029236e-02 -2.840336859226226807e-01
-8.481468558311462402e-01 1.694979704916477203e-02 -1.126277074217796326e-02
3.604107797145843506e-01 9.171765297651290894e-02 -2.942510880529880524e-02
-1.862144470214843750e-02 6.098897196352481842e-03 4.269326925277709961e-01
-2.810136415064334869e-03 4.548761993646621704e-03 -3.981489539146423340e-01
-7.883635163307189941e-01 5.211186781525611877e-02 -1.529703438282012939e-01
-2.973069995641708374e-02 6.097343936562538147e-02 5.908721685409545898e-02
8.774319291114807129e-02 -1.345856115221977234e-02 3.403580188751220703e-01
2.708150446414947510e-02 -8.887230604887008667e-02 3.539609163999557495e-02
7.336558103561401367e-01 9.102009236812591553e-02 2.555277757346630096e-02
1.827143877744674683e-01 -2.201009914278984070e-02 2.640658617019653320e-01
-5.210422351956367493e-02 1.315197348594665527e-02 6.218747794628143311e-02
-6.754624843597412109e-01 -3.164672851562500000e-02 -7.361615076661109924e-03
1.573956310749053955e-01 -1.981408521533012390e-02 7.373593002557754517e-02
-7.536148428916931152e-01 -1.363940443843603134e-02 -3.279610304161906242e-03
-3.613789379596710205e-02 -3.526369854807853699e-02 7.153991609811782837e-02
-1.061003580689430237e-01 2.046341821551322937e-02 -6.278779506683349609e-01
6.221240758895874023e-01 1.723398827016353607e-02 7.456266880035400391e-02
5.103098973631858826e-02 -3.957821801304817200e-02 -7.915839552879333496e-02
-7.676693201065063477e-01 4.237189888954162598e-02 -7.649733871221542358e-02
1.033478155732154846e-01 -9.944928810000419617e-03 -1.608243286609649658e-01
-1.409524083137512207e-01 2.578552626073360443e-02 -7.158219218254089355e-01
8.450067043304443359e-01 4.965750128030776978e-02 -6.479386985301971436e-02
-1.652877405285835266e-02 -2.381858415901660919e-02 -4.079664647579193115e-01
2.333260774612426758e-01 -4.611459746956825256e-02 7.360675930976867676e-02
7.880412042140960693e-02 3.437838982790708542e-03 4.434415400028228760e-01
8.066668510437011719e-01 -6.841059774160385132e-02 2.260753326117992401e-02
1.609609276056289673e-01 -6.818845868110656738e-03 2.653059661388397217e-01
7.244583964347839355e-01 -7.176920771598815918e-02 -1.526726968586444855e-02
-6.877860426902770996e-01 5.043256282806396484e-02 8.771292120218276978e-02
3.280906081199645996e-01 -4.487449303269386292e-02 6.386678665876388550e-02
-7.464583516120910645e-01 -9.350715205073356628e-03 1.868054084479808807e-02
6.750351786613464355e-01 -5.650046095252037048e-02 -4.831083491444587708e-02
2.102033197879791260e-01 2.237524092197418213e-02 6.382856518030166626e-03
7.455660104751586914e-01 -2.219095267355442047e-02 -7.342291623353958130e-02
-1.644368618726730347e-01 -5.972989276051521301e-02 -5.458885803818702698e-02
-5.211213827133178711e-01 8.709309995174407959e-02 -1.932344026863574982e-02
-1.437167972326278687e-01 -5.557037144899368286e-02 5.322256684303283691e-02
-6.743773818016052246e-01 2.362412661314010620e-01 -1.017768122255802155e-02
9.926753118634223938e-03 -4.907013382762670517e-03 -2.985532283782958984e-01
-1.687513738870620728e-01 -2.968323044478893280e-02 1.849969290196895599e-02
-4.076244682073593140e-02 -9.402388706803321838e-03 3.374902904033660889e-01
-1.854927688837051392e-01 -4.803675692528486252e-03 -3.796319710090756416e-03
6.159769743680953979e-02 -8.887230604887008667e-02 7.209591101855039597e-03
-2.903314121067523956e-02 -3.361022472381591797e-02 1.476770490407943726e-01
-6.222155690193176270e-01 -7.206374779343605042e-03 5.404930189251899719e-02
-7.168508768081665039e-01 4.149349033832550049e-02 1.658135503530502319e-01
7.498217280954122543e-03 -2.203593030571937561e-02 2.544033825397491455e-01
-5.114330649375915527e-01 -6.432859599590301514e-02 7.881313562393188477e-03
7.786611914634704590e-01 -1.033143326640129089e-01 -6.922412198036909103e-03
-8.129847645759582520e-01 6.877575069665908813e-02 2.762343585491180420e-01
-1.194831356406211853e-01 2.237524092197418213e-02 3.345843032002449036e-02
7.159602642059326172e-02 -4.438361898064613342e-02 1.141684427857398987e-01
-4.784136638045310974e-02 -2.632462047040462494e-02 1.722982674837112427e-01
1.951929181814193726e-01 -8.667629212141036987e-02 4.707372561097145081e-02
6.809514760971069336e-01 -1.684300415217876434e-02 6.998979300260543823e-02
5.924133062362670898e-01 2.636939287185668945e-03 7.404595613479614258e-02
-1.145743876695632935e-01 2.157434076070785522e-02 -6.861111521720886230e-01
-1.327109038829803467e-01 5.642639473080635071e-02 -7.971778512001037598e-01
1.157230064272880554e-01 -8.734799921512603760e-02 -2.468306124210357666e-01
6.397455930709838867e-02 2.456095768138766289e-03 -3.347229063510894775e-01
-6.352349370718002319e-02 1.919747516512870789e-02 -6.743301749229431152e-01
-4.566102325916290283e-01 8.236520737409591675e-02 -4.595981165766716003e-02
1.544503867626190186e-01 -8.213959634304046631e-03 1.401072591543197632e-01
6.697147339582443237e-02 -9.557399898767471313e-03 2.004589140415191650e-01
1.917309761047363281e-01 -7.331934571266174316e-02 -8.769113919697701931e-04
-6.267884969711303711e-01 2.929914742708206177e-02 -6.417381763458251953e-02
3.142186254262924194e-02 -8.194839209318161011e-02 5.578028038144111633e-02
-1.172337587922811508e-02 2.237524092197418213e-02 2.945393323898315430e-02
-7.472333908081054688e-01 2.919167280197143555e-01 4.961905535310506821e-03
1.034011971205472946e-02 3.799536032602190971e-03 5.185452699661254883e-01
2.565004825592041016e-01 -1.885817386209964752e-02 -7.846083492040634155e-02
2.237927764654159546e-01 -5.089415237307548523e-02 -9.546057879924774170e-02
5.169737339019775391e-01 7.427870482206344604e-02 5.032899603247642517e-02
1.039420291781425476e-01 -6.642127782106399536e-02 3.787629678845405579e-02
2.172305732965469360e-01 -6.722217053174972534e-02 2.498439699411392212e-02
5.337151288986206055e-01 7.825736701488494873e-02 4.560110345482826233e-02
3.059512935578823090e-02 2.237524092197418213e-02 -2.994181588292121887e-02
-6.029406189918518066e-02 5.184313631616532803e-04 4.120772778987884521e-01
-2.615523934364318848e-01 -8.140585571527481079e-02 1.025817822664976120e-02
7.216423749923706055e-01 5.375503562390804291e-03 -7.983011007308959961e-02
8.177519589662551880e-02 -9.535700082778930664e-02 2.567543983459472656e-01
2.501707971096038818e-01 -4.404776170849800110e-02 -1.001884713768959045e-01
-1.022767126560211182e-01 1.322948932647705078e-02 -5.793589949607849121e-01
-8.170408606529235840e-01 4.994169250130653381e-02 1.579337418079376221e-01
-7.756524682044982910e-01 1.389190554618835449e-01 -5.914828740060329437e-03
-7.487835884094238281e-01 5.862240865826606750e-02 -1.778757274150848389e-01
2.225010246038436890e-01 -4.319518804550170898e-02 1.331316828727722168e-01
1.282032392919063568e-02 -8.063077926635742188e-02 -1.188282202929258347e-02
-9.625703096389770508e-02 6.124729290604591370e-03 -4.934043586254119873e-01
6.679062545299530029e-02 -1.437209993600845337e-01 -1.989833116531372070e-01
-9.512028843164443970e-02 3.375876694917678833e-04 -6.680903583765029907e-02
2.705808281898498535e-01 -8.646959811449050903e-02 -2.423094063997268677e-01
3.447045013308525085e-02 -1.341102123260498047e-01 1.588896512985229492e-01
2.729576826095581055e-01 8.693808317184448242e-02 3.451768681406974792e-02
4.010758101940155029e-01 5.637472122907638550e-02 6.366010010242462158e-02
5.361453816294670105e-02 -1.479580253362655640e-01 1.353018581867218018e-01
2.017551213502883911e-01 -2.880482561886310577e-02 -2.016701996326446533e-01
6.457893848419189453e-01 -7.246676832437515259e-02 4.910234361886978149e-03
1.301650404930114746e-01 -2.929570153355598450e-02 2.321848869323730469e-01
-7.633289694786071777e-01 5.131096765398979187e-02 -2.393383234739303589e-01
1.489732563495635986e-01 -4.777843598276376724e-03 -1.940229088068008423e-01
-4.268994331359863281e-01 8.967664837837219238e-02 -3.371379524469375610e-02
-6.451316475868225098e-01 1.628685444593429565e-01 -1.394965965300798416e-02
1.744487322866916656e-02 -1.765320599079132080e-01 1.754760295152664185e-01
-4.755476117134094238e-01 4.637639597058296204e-02 6.712204962968826294e-02
-8.047174215316772461e-01 4.020171612501144409e-02 1.177854165434837341e-01
4.041502475738525391e-01 7.319361716508865356e-02 5.159493535757064819e-02
1.463380455970764160e-01 -1.171621456742286682e-01 -2.942903637886047363e-01
9.620155692100524902e-01 -5.706884339451789856e-02 -1.542228274047374725e-02
-7.106745988130569458e-02 2.387370355427265167e-02 7.241181135177612305e-01
1.291574537754058838e-01 -5.630407482385635376e-03 1.923207491636276245e-01
7.652009725570678711e-01 8.378615975379943848e-02 -4.409965872764587402e-02
2.870913967490196228e-02 1.369452383369207382e-02 4.793787002563476562e-01
4.194448292255401611e-01 -7.050328701734542847e-02 1.780213601887226105e-02
1.168597713112831116e-01 -8.393772691488265991e-02 -3.124785423278808594e-01
3.794515132904052734e-01 1.751817017793655396e-02 -4.810415580868721008e-02
-6.422122716903686523e-01 8.112510293722152710e-02 -1.547395251691341400e-02
2.838344275951385498e-01 -4.717384651303291321e-02 5.330007523298263550e-02
-3.396530151367187500e-01 9.758230298757553101e-02 -2.375368727371096611e-03
7.591054588556289673e-02 -5.386524274945259094e-02 2.867752313613891602e-01
-8.336014151573181152e-01 5.578050762414932251e-02 -2.484324127435684204e-01
1.760746687650680542e-01 -5.554454028606414795e-02 4.399930313229560852e-02
4.269112944602966309e-01 9.045170992612838745e-02 2.681871503591537476e-02
-7.603836655616760254e-01 1.547820419073104858e-01 -7.878324948251247406e-03
3.447045013308525085e-02 -2.717719413340091705e-02 -1.781857609748840332e-01
-8.252307772636413574e-01 5.012254044413566589e-02 -1.719077378511428833e-01
-1.113966405391693115e-01 -7.781472057104110718e-02 2.263337001204490662e-02
-1.277763247489929199e-01 2.033424004912376404e-02 6.563516855239868164e-01
2.803207933902740479e-01 -6.773889064788818359e-02 2.283095568418502808e-01
-1.918741315603256226e-01 -6.053078174591064453e-02 -5.368461832404136658e-02
-6.874226033687591553e-02 -2.461948245763778687e-02 3.937340974807739258e-01
-5.213005468249320984e-02 7.390663959085941315e-03 4.604412913322448730e-01
-2.416849285364151001e-01 -5.996239930391311646e-02 -5.433050543069839478e-02
1.878831908106803894e-02 -4.099917411804199219e-02 1.168553382158279419e-01
-5.703896284103393555e-01 7.582883536815643311e-02 3.991730138659477234e-02
-4.972735419869422913e-02 -8.373104780912399292e-02 1.508941035717725754e-02
2.527302317321300507e-02 -1.603073775768280029e-01 1.652710139751434326e-01
2.310525476932525635e-01 -6.431307177990674973e-03 -5.988512933254241943e-02
2.730868756771087646e-01 -8.618540316820144653e-02 -3.376546502113342285e-02
-1.647210568189620972e-01 3.857408463954925537e-02 -7.923982739448547363e-01
-6.466025859117507935e-02 1.508963759988546371e-02 -6.278779506683349609e-01
-5.277594178915023804e-02 2.684477530419826508e-02 -6.980471611022949219e-01
-1.022767126560211182e-01 1.322948932647705078e-02 -5.793589949607849121e-01
4.291864857077598572e-02 -4.619210213422775269e-02 8.342423290014266968e-02
2.056046277284622192e-01 -1.880650036036968231e-02 -1.890366524457931519e-01
3.170588314533233643e-01 -7.889980077743530273e-02 -2.185531333088874817e-02
2.073872685432434082e-01 2.237524092197418213e-02 -2.738410606980323792e-02
-9.527529776096343994e-02 -4.358271881937980652e-02 6.115405634045600891e-02
-7.603836655616760254e-01 1.547820419073104858e-01 -7.878324948251247406e-03
1.268839389085769653e-01 -8.383437991142272949e-02 -3.183173537254333496e-01
-4.360266961157321930e-03 -4.301433637738227844e-02 8.068567514419555664e-02
-4.463776573538780212e-02 1.131765637546777725e-02 -5.897706747055053711e-01
-4.838390648365020752e-02 -4.235293250530958176e-03 3.995729088783264160e-01
1.245845779776573181e-01 -1.438863016664981842e-02 2.654868066310882568e-01
3.187123239040374756e-01 1.167935412377119064e-02 7.513105124235153198e-02
4.250528290867805481e-02 -8.223257958889007568e-02 -1.593258678913116455e-01
-7.478776574134826660e-02 3.038423880934715271e-02 7.358732223510742188e-01
-5.082553029060363770e-01 8.905659615993499756e-02 -3.092356398701667786e-02
1.521768569946289062e-01 -1.139843761920928955e-01 2.513806521892547607e-01
-3.502972424030303955e-01 7.396867871284484863e-02 4.929557815194129944e-02
-2.373445630073547363e-01 6.040505692362785339e-02 -6.487137824296951294e-02
7.539384067058563232e-02 -9.531567804515361786e-03 1.938967108726501465e-01
4.867995902895927429e-02 -1.322500556707382202e-01 -1.711326837539672852e-01
2.482073158025741577e-01 -3.717552125453948975e-02 -7.905504852533340454e-02
2.986898124217987061e-01 -3.430778533220291138e-02 2.910380959510803223e-01
1.935136169195175171e-01 -4.260097444057464600e-02 1.502089351415634155e-01
-6.060943007469177246e-01 1.584248393774032593e-01 6.382856518030166626e-03
8.205922245979309082e-01 -1.239930186420679092e-02 7.102321088314056396e-02
1.893799453973770142e-01 -5.536369606852531433e-02 6.066318601369857788e-02
-6.724379956722259521e-02 1.837074197828769684e-02 -5.975595489144325256e-02
4.392623528838157654e-02 1.826740428805351257e-02 -7.944258302450180054e-02
-4.569702595472335815e-02 -9.169870987534523010e-03 3.293262720108032227e-01
-8.525113016366958618e-02 -7.409439980983734131e-02 3.035817481577396393e-02
5.066395401954650879e-01 -2.937320806086063385e-02 -7.071018964052200317e-02
-7.229997515678405762e-01 4.604053497314453125e-02 3.704956173896789551e-02
-5.848557874560356140e-02 2.056675590574741364e-02 6.905061006546020508e-01
-1.583913564682006836e-01 3.103012591600418091e-02 -7.797905802726745605e-01
-6.849699616432189941e-01 1.016384735703468323e-01 7.493781857192516327e-03
5.405098199844360352e-01 -7.929768413305282593e-03 7.278002053499221802e-02
5.950501933693885803e-02 -4.598541557788848877e-02 9.605778753757476807e-02
1.291574537754058838e-01 -5.630407482385635376e-03 1.923207491636276245e-01
9.391770362854003906e-01 1.250609476119279861e-02 4.358593747019767761e-02
5.823116302490234375e-01 8.184849470853805542e-02 -4.676071181893348694e-02
8.846658468246459961e-02 -3.201876068487763405e-03 2.537058293819427490e-01
-6.825931072235107422e-01 2.617305517196655273e-02 8.357924222946166992e-02
4.064512997865676880e-02 -1.128992959856987000e-01 -1.779532283544540405e-01
1.021093968302011490e-02 -7.671409752219915390e-03 -3.847920298576354980e-01
-8.044572919607162476e-02 1.170519553124904633e-02 5.832372903823852539e-01
2.093507647514343262e-01 3.433706238865852356e-02 -7.789245247840881348e-02
-5.238672252744436264e-03 -1.283850520849227905e-02 -2.402683943510055542e-01
2.416709363460540771e-01 -1.157411858439445496e-01 2.734441459178924561e-01
1.390007734298706055e-01 -5.210842192173004150e-02 -7.169193774461746216e-02
7.917339801788330078e-01 -1.641310155391693115e-01 2.162578515708446503e-02
1.922993659973144531e-01 -4.407359287142753601e-02 1.407273113727569580e-01
6.807189583778381348e-01 -6.818845868110656738e-03 7.290919870138168335e-02
2.597815990447998047e-01 -8.605624735355377197e-02 2.695688009262084961e-01
1.623043715953826904e-01 -3.203426674008369446e-02 -2.801842093467712402e-01
3.045803010463714600e-01 -7.195007055997848511e-02 -1.402716711163520813e-02
2.741736546158790588e-02 1.315197348594665527e-02 -4.688864946365356445e-01
2.610217034816741943e-01 -2.970907278358936310e-02 9.435264021158218384e-02
5.176712870597839355e-01 -9.583242237567901611e-03 7.259917259216308594e-02
-6.443824172019958496e-01 4.833989217877388000e-02 3.963311016559600830e-02
-7.589885592460632324e-01 -7.464724127203226089e-03 -2.247536741197109222e-02
9.775685071945190430e-01 6.408920511603355408e-03 -6.224854383617639542e-03
5.852051973342895508e-01 9.068423509597778320e-02 2.627617120742797852e-02
2.509458661079406738e-01 7.303860038518905640e-02 -5.719823762774467468e-02
1.301650404930114746e-01 -2.929570153355598450e-02 2.321848869323730469e-01
7.612997293472290039e-01 7.489875704050064087e-02 -5.479554086923599243e-02
4.069921076297760010e-01 -3.092333301901817322e-02 -3.663320466876029968e-02
1.878831908106803894e-02 -4.099917411804199219e-02 1.168553382158279419e-01
-7.487835884094238281e-01 5.862240865826606750e-02 -1.778757274150848389e-01
-7.793469429016113281e-01 3.537048399448394775e-02 1.040926128625869751e-01
-1.433275546878576279e-02 -8.732216805219650269e-02 1.547694299370050430e-02
2.385189980268478394e-01 -1.299507021903991699e-01 2.784820497035980225e-01
6.121016293764114380e-02 1.149850990623235703e-02 7.482102513313293457e-02
-3.443033993244171143e-01 -7.892565429210662842e-02 1.963645406067371368e-02
-3.716373443603515625e-01 1.811239309608936310e-02 -7.946842163801193237e-02
-6.367850303649902344e-02 9.559296816587448120e-02 1.056820340454578400e-02
-6.254191994667053223e-01 4.319863393902778625e-02 -6.120273843407630920e-02
-4.473094642162322998e-01 -4.539120197296142578e-02 -6.066019088029861450e-02
4.813741147518157959e-02 9.059603908099234104e-04 4.845974445343017578e-01
1.057763546705245972e-01 -1.071999687701463699e-02 1.521724313497543335e-01
-7.979742884635925293e-01 5.939747393131256104e-02 2.013631612062454224e-01
2.709683477878570557e-01 -1.102899089455604553e-01 2.970061004161834717e-01
1.319218426942825317e-01 -4.846562072634696960e-02 -3.129952549934387207e-01
-8.406286835670471191e-01 3.697228431701660156e-02 2.128992415964603424e-02
6.920865178108215332e-01 4.242356494069099426e-02 -7.484386861324310303e-02
1.017460152506828308e-01 6.120595708489418030e-02 5.924223363399505615e-02
7.095014303922653198e-02 1.682061702013015747e-02 -6.652484834194183350e-02
-5.913680195808410645e-01 9.011585265398025513e-02 -1.808333583176136017e-02
7.816839814186096191e-01 6.384117156267166138e-02 -6.350209563970565796e-02
1.572147756814956665e-01 -1.019192114472389221e-01 -3.182915151119232178e-01
5.105682462453842163e-02 -1.386572420597076416e-01 -1.480874270200729370e-01
-7.292760908603668213e-02 -1.624878868460655212e-02 7.252166420221328735e-02
1.957612931728363037e-01 -1.777308247983455658e-02 2.128857821226119995e-01
-2.714473903179168701e-01 -8.117333054542541504e-02 1.180830597877502441e-02
-7.147065997123718262e-01 7.642304897308349609e-02 -1.007434073835611343e-02
1.039420291781425476e-01 -6.642127782106399536e-02 3.787629678845405579e-02
3.160254061222076416e-01 -7.355187088251113892e-02 -2.892078133299946785e-03
-2.544993162155151367e-01 -7.729800045490264893e-02 2.366678602993488312e-02
7.216440141201019287e-02 -2.735803835093975067e-02 -2.334995120763778687e-01
-7.790627479553222656e-01 4.779734835028648376e-02 1.134450510144233704e-01
2.850486934185028076e-01 -8.608207851648330688e-02 -2.303734123706817627e-01
-2.130850404500961304e-01 -8.394803851842880249e-03 7.342590391635894775e-02
7.296530157327651978e-02 -6.254595518112182617e-02 2.645825743675231934e-01
5.534721072763204575e-03 -4.833644255995750427e-02 2.592087686061859131e-01
4.055970013141632080e-01 -2.131254598498344421e-02 6.831048429012298584e-02
7.333199977874755859e-01 2.485544607043266296e-02 7.363259047269821167e-02
1.867771497927606106e-04 -2.053747884929180145e-02 -7.621314376592636108e-02
-5.912905335426330566e-01 -4.921484738588333130e-02 -1.947845146059989929e-02
-7.448565363883972168e-01 1.933285593986511230e-01 4.626044537872076035e-03
5.048844218254089355e-02 9.541212022304534912e-02 -1.746328547596931458e-02
1.786582171916961670e-01 -1.103002019226551056e-02 2.886353731155395508e-01
2.535552680492401123e-01 4.989001899957656860e-02 -7.202780246734619141e-02
1.242745593190193176e-01 -3.389441594481468201e-02 2.008981257677078247e-01
-7.982567697763442993e-02 1.917164213955402374e-02 -6.707648634910583496e-01
7.591037750244140625e-01 1.457292959094047546e-02 -8.037266135215759277e-02
4.940335080027580261e-02 -3.769223019480705261e-02 -2.835944890975952148e-01
2.282106578350067139e-01 -3.665881231427192688e-02 2.814272940158843994e-01
2.419551163911819458e-01 -6.737717986106872559e-02 3.278278112411499023e-01
8.376453816890716553e-02 6.305582821369171143e-03 -4.075789451599121094e-01
-1.817982941865921021e-01 -3.131087124347686768e-02 -7.262201607227325439e-02
5.540993213653564453e-01 -7.218258082866668701e-02 7.002907805144786835e-03
1.003767475485801697e-01 -8.250090177170932293e-04 2.748909294605255127e-01
1.215101629495620728e-01 -4.231678321957588196e-02 1.429233253002166748e-01
5.564503073692321777e-01 -7.076164335012435913e-02 -2.224284783005714417e-02
1.643729209899902344e-02 -1.776946634054183960e-01 1.476770490407943726e-01
-1.817982941865921021e-01 -3.131087124347686768e-02 -7.262201607227325439e-02
1.878814846277236938e-01 -9.944928810000419617e-03 -1.912585049867630005e-01
6.367986798286437988e-01 6.384117156267166138e-02 -6.388963013887405396e-02
-1.663486808538436890e-01 -8.238758891820907593e-02 -9.273440577089786530e-03
-1.317808032035827637e-01 9.481790661811828613e-02 -2.102857828140258789e-02
-7.995244264602661133e-01 4.872742295265197754e-02 1.354827135801315308e-01
2.988965213298797607e-01 -3.402359411120414734e-02 -2.719426751136779785e-01
7.598805427551269531e-02 -1.821228489279747009e-02 -8.985427767038345337e-02
3.080181218683719635e-02 -5.285765975713729858e-02 5.410097539424896240e-02
-9.163249284029006958e-02 2.072176896035671234e-02 6.877417564392089844e-01
-9.512028843164443970e-02 3.375876694917678833e-04 -6.680903583765029907e-02
-1.701964624226093292e-02 7.453706115484237671e-02 -5.407214909791946411e-02
-5.713972449302673340e-01 2.940249070525169373e-02 -3.350711241364479065e-02
-2.542151212692260742e-01 -5.087866913527250290e-03 -7.923589646816253662e-02
-1.131000556051731110e-02 1.852575503289699554e-02 -5.444035530090332031e-01
4.772129356861114502e-01 8.398248814046382904e-03 -8.019180595874786377e-02
8.012173324823379517e-02 3.747862298041582108e-03 7.461433857679367065e-02
-2.343993186950683594e-01 -8.187089115381240845e-02 -1.260621566325426102e-02
7.591037750244140625e-01 1.457292959094047546e-02 -8.037266135215759277e-02
1.018493622541427612e-01 -2.074416354298591614e-02 2.856901586055755615e-01
-7.432547807693481445e-01 4.343115165829658508e-02 -1.957538872957229614e-01
4.749911129474639893e-01 -6.820392608642578125e-02 -2.826251089572906494e-02
8.194295763969421387e-01 -7.231175899505615234e-02 4.148622101638466120e-04
-1.583913564682006836e-01 3.103012591600418091e-02 -7.797905802726745605e-01
-5.297762751579284668e-01 -5.420110002160072327e-02 -3.616816550493240356e-02
4.630309715867042542e-02 -8.887230604887008667e-02 -3.327459096908569336e-02
1.516859978437423706e-01 -3.831228613853454590e-02 -3.083190321922302246e-01
5.237443372607231140e-02 -1.518591791391372681e-01 1.488654762506484985e-01
4.060878753662109375e-01 -1.268349308520555496e-02 -4.399631544947624207e-02
6.741309165954589844e-01 6.079259142279624939e-02 6.058568134903907776e-02
4.888647198677062988e-01 3.746315836906433105e-02 7.128155976533889771e-02
4.759658128023147583e-03 -1.522208899259567261e-01 1.791963279247283936e-01
-1.862144470214843750e-02 6.098897196352481842e-03 4.269326925277709961e-01
-2.931733243167400360e-02 -1.320020202547311783e-02 3.059709966182708740e-01
4.175605252385139465e-02 -1.508774310350418091e-01 1.868952959775924683e-01
-3.848892822861671448e-02 -2.105418778955936432e-02 -4.106533229351043701e-01
-3.151351511478424072e-01 9.244104474782943726e-02 2.183246985077857971e-02
-7.024605870246887207e-01 6.771649420261383057e-02 -2.903757616877555847e-02
2.901916578412055969e-02 -1.108169369399547577e-02 7.301253825426101685e-02
5.066395401954650879e-01 -2.937320806086063385e-02 -7.071018964052200317e-02
-5.161166656762361526e-03 4.083727020770311356e-03 3.978419303894042969e-01
4.005091264843940735e-02 -1.620900183916091919e-01 1.808239519596099854e-01
4.736234992742538452e-02 -8.820057660341262817e-02 -4.722575098276138306e-02
