-2.493209987878799438e-01 1.400132384151220322e-02 7.825232744216918945e-01
-8.461024761199951172e-01 2.172192484140396118e-01 8.859963156282901764e-03
2.721875011920928955e-01 -6.793619692325592041e-02 3.046036064624786377e-01
1.517670303583145142e-01 -3.496232256293296814e-02 -7.802228629589080811e-02
5.894572287797927856e-02 -3.181811049580574036e-02 -3.411683142185211182e-01
-9.423363208770751953e-02 -1.639091293327510357e-03 -5.563181042671203613e-01
8.993629217147827148e-01 -4.608798399567604065e-02 2.955261431634426117e-02
-1.433316469192504883e-01 2.875662874430418015e-03 -6.898797750473022461e-01
-1.198978871107101440e-01 7.874147966504096985e-03 -6.561265587806701660e-01
2.756810784339904785e-01 -6.745076272636651993e-03 9.668280184268951416e-02
3.857014477252960205e-01 -5.976662784814834595e-02 -1.090344041585922241e-01
-1.654178136959671974e-03 -7.280030846595764160e-02 -1.567618399858474731e-01
1.053295060992240906e-01 -1.690328493714332581e-02 -2.741724848747253418e-01
2.771860063076019287e-01 -1.429654285311698914e-02 1.483337879180908203e-01
2.788790166378021240e-01 -1.456528343260288239e-02 -9.608133137226104736e-02
-1.551560163497924805e-01 -7.336286827921867371e-03 5.703832507133483887e-01
-6.864999234676361084e-02 -9.566798806190490723e-03 -4.791372120380401611e-01
-8.035883903503417969e-01 7.804104685783386230e-02 1.384443193674087524e-01
1.087424531579017639e-01 -3.654786571860313416e-02 -5.579305291175842285e-01
1.542394012212753296e-01 -9.494412690401077271e-02 -4.744016751646995544e-02
2.992223203182220459e-01 -9.134306758642196655e-02 6.897614151239395142e-02
8.205699920654296875e-02 -5.705239251255989075e-02 -5.935111045837402344e-01
-1.803903132677078247e-01 8.183021843433380127e-02 -5.714152753353118896e-02
-7.393873929977416992e-01 1.065538972616195679e-01 -7.962891831994056702e-03
-4.242138564586639404e-02 -1.873068697750568390e-02 -4.672859609127044678e-01
7.631139159202575684e-01 6.430865079164505005e-02 -5.429293215274810791e-02
-4.768326878547668457e-01 1.040277853608131409e-01 2.960636094212532043e-02
-5.475635826587677002e-02 -1.824695616960525513e-02 -4.105827212333679199e-01
4.282157868146896362e-02 1.060164272785186768e-01 2.111431024968624115e-02
9.267205744981765747e-02 6.283060461282730103e-02 -7.044394314289093018e-02
5.845927596092224121e-01 -5.737487226724624634e-02 -6.501547992229461670e-02
6.016037464141845703e-01 -9.209552407264709473e-02 1.340159680694341660e-02
2.062666416168212891e-01 -1.346346270292997360e-02 9.595721215009689331e-02
8.221823722124099731e-02 -6.527569890022277832e-02 -7.358815521001815796e-02
3.462511003017425537e-01 -2.896951697766780853e-02 -1.734772175550460815e-01
7.302206754684448242e-01 1.002923622727394104e-01 -4.338226094841957092e-02
3.900281190872192383e-01 2.569132484495639801e-02 9.512411803007125854e-02
-9.326618164777755737e-02 -2.585218474268913269e-02 4.141134023666381836e-01
1.649082154035568237e-01 9.999675303697586060e-02 -3.139664605259895325e-02
2.821038365364074707e-01 -1.512962393462657928e-02 9.821459650993347168e-02
-5.141869187355041504e-01 1.197488233447074890e-01 1.385844778269529343e-02
-6.268405914306640625e-02 -6.632377207279205322e-02 -5.786500573158264160e-01
-2.999239265918731689e-01 1.722615584731101990e-02 -8.544265627861022949e-01
4.752445966005325317e-02 -3.291993215680122375e-02 3.469563722610473633e-01
-1.318028867244720459e-01 -6.860802322626113892e-02 -5.456166714429855347e-02
-7.315134406089782715e-01 6.839343160390853882e-02 -1.297539174556732178e-01
1.517939120531082153e-01 9.123596549034118652e-02 5.889854952692985535e-02
8.056010603904724121e-01 -8.569961786270141602e-02 2.044247277081012726e-02
-2.092256397008895874e-01 -7.648198306560516357e-02 -3.878687694668769836e-02
2.070191055536270142e-01 -9.687902778387069702e-02 4.884783551096916199e-02
1.898472197353839874e-02 -3.845588490366935730e-02 -6.071360111236572266e-01
-1.433316469192504883e-01 9.739001095294952393e-02 4.812224954366683960e-02
-6.430187821388244629e-01 2.256575673818588257e-01 1.980329165235161781e-03
3.011038154363632202e-02 -9.475602209568023682e-02 6.088392734527587891e-01
7.850427031517028809e-01 -1.271924227476119995e-01 -2.749419305473566055e-03
3.033608496189117432e-01 -6.694186478853225708e-02 1.239325851202011108e-01
-4.450949728488922119e-01 -1.779010705649852753e-02 6.784745305776596069e-02
3.335398733615875244e-01 -5.810046568512916565e-02 3.098170757293701172e-01
-6.042134165763854980e-01 -1.099110022187232971e-02 -4.388707224279642105e-03
-7.040756344795227051e-01 7.865913212299346924e-02 -1.315813064575195312e-01
-1.803903132677078247e-01 8.183021843433380127e-02 -5.714152753353118896e-02
-5.146975517272949219e-01 6.081508845090866089e-02 7.408212125301361084e-02
2.601750195026397705e-01 -8.688206225633621216e-02 7.762943208217620850e-02
-2.299179323017597198e-02 -1.072998857125639915e-04 6.058294773101806641e-01
7.638666778802871704e-02 -7.258532941341400146e-02 -1.534295231103897095e-01
5.117960739880800247e-03 -1.773636601865291595e-02 4.888488352298736572e-01
-6.995608210563659668e-01 7.199449092149734497e-02 1.644310504198074341e-01
3.690936267375946045e-01 -8.707017451524734497e-02 -6.595605611801147461e-02
-8.493537455797195435e-02 5.111372843384742737e-02 8.749203383922576904e-02
-6.209284439682960510e-02 -7.583702355623245239e-02 -5.448104441165924072e-02
-8.025672435760498047e-01 7.513870298862457275e-02 1.149299517273902893e-01
-2.079894691705703735e-01 4.479843750596046448e-02 -7.923159748315811157e-02
-7.134544253349304199e-01 7.172575592994689941e-02 -5.313736572861671448e-02
-8.630596399307250977e-01 8.234081417322158813e-02 -1.874514818191528320e-01
8.388439565896987915e-02 3.649450466036796570e-02 -8.175772428512573242e-02
-4.645783007144927979e-01 7.820407859981060028e-03 -6.826718151569366455e-02
1.008957158774137497e-02 -2.389041148126125336e-02 -5.736246705055236816e-01
1.505308598279953003e-01 -4.267504066228866577e-02 2.626270949840545654e-01
1.438393294811248779e-01 -1.307665854692459106e-01 1.520154774188995361e-01
-5.865302309393882751e-02 -5.804495420306921005e-03 -4.990505278110504150e-01
2.594763040542602539e-01 -5.342445895075798035e-02 -3.111236393451690674e-01
-5.927652716636657715e-01 1.012060642242431641e-01 3.288493677973747253e-02
1.384914964437484741e-01 -3.687034547328948975e-02 1.053360924124717712e-01
7.141505926847457886e-02 -6.567881256341934204e-02 -1.690699607133865356e-01
2.455289214849472046e-01 -7.226284593343734741e-02 -7.705484330654144287e-02
4.307953119277954102e-01 -7.258532941341400146e-02 6.067220866680145264e-02
7.302206754684448242e-01 1.002923622727394104e-01 -4.338226094841957092e-02
4.325421154499053955e-01 5.552099272608757019e-02 -7.458247244358062744e-02
-1.739675104618072510e-01 -5.354982931748963892e-05 -6.565296649932861328e-01
-8.315368890762329102e-01 8.040591329336166382e-02 2.225317358970642090e-01
-1.537048518657684326e-01 5.563025362789630890e-03 6.615114808082580566e-01
4.963668286800384521e-01 -5.912166461348533630e-02 -6.364493072032928467e-02
3.371946513652801514e-01 -1.324847247451543808e-02 -1.088731437921524048e-01
3.369259536266326904e-01 -1.596270501613616943e-02 1.579545438289642334e-01
1.196262463927268982e-01 -8.053989708423614502e-02 8.563776314258575439e-02
9.522504359483718872e-02 -5.533249303698539734e-02 1.647535562515258789e-01
-5.592001676559448242e-01 5.584347248077392578e-02 2.616654336452484131e-02
-3.862150013446807861e-01 -5.826170369982719421e-02 3.734594956040382385e-02
9.388136863708496094e-02 -8.545777201652526855e-02 5.676152110099792480e-01
6.508092284202575684e-01 -8.655957877635955811e-02 -1.734176836907863617e-02
1.025081332772970200e-02 -5.412318184971809387e-02 1.490593850612640381e-01
6.378024220466613770e-01 1.193188503384590149e-01 4.406434297561645508e-02
-1.570905558764934540e-02 9.908305108547210693e-02 -3.338529169559478760e-02
5.559992790222167969e-01 -9.317046403884887695e-02 6.065112072974443436e-03
6.963599324226379395e-01 -5.877231433987617493e-02 -5.558286234736442566e-02
6.508092284202575684e-01 -8.655957877635955811e-02 -1.734176836907863617e-02
-2.898459881544113159e-02 -9.341233968734741211e-02 -3.652950003743171692e-02
3.033608496189117432e-01 -6.694186478853225708e-02 1.239325851202011108e-01
4.790602326393127441e-01 -5.097896605730056763e-02 8.031678944826126099e-02
-6.918212771415710449e-01 6.860841810703277588e-02 -1.321187913417816162e-01
1.661712676286697388e-01 -1.389344315975904465e-02 2.592678964138031006e-01
4.392375238239765167e-03 -2.969509735703468323e-02 6.001859903335571289e-01
2.167207933962345123e-02 -8.314663171768188477e-02 6.152083277702331543e-01
1.032602414488792419e-01 -1.237257272005081177e-01 1.400298774242401123e-01
-9.259399957954883575e-03 -1.631206460297107697e-02 -3.845691084861755371e-01
-8.461024761199951172e-01 2.172192484140396118e-01 8.859963156282901764e-03
3.889803960919380188e-02 -8.467841893434524536e-02 -6.093934178352355957e-01
7.159507870674133301e-01 -1.623144559562206268e-02 -7.380314171314239502e-02
-8.424207568168640137e-01 8.441007882356643677e-02 2.571448683738708496e-01
-7.919253110885620117e-01 8.371137082576751709e-02 2.580854594707489014e-01
1.452371105551719666e-02 -4.759290441870689392e-02 -5.568555593490600586e-01
2.062400989234447479e-02 -1.216833442449569702e-01 -2.142655104398727417e-02
-6.557031273841857910e-01 7.005959004163742065e-02 1.268349289894104004e-01
-6.891607046127319336e-01 1.811297796666622162e-02 -2.747310511767864227e-02
-6.963359117507934570e-01 7.551493495702743530e-02 -9.476451575756072998e-02
4.389652609825134277e-02 -6.033097580075263977e-02 -1.111842840909957886e-01
-6.918212771415710449e-01 6.860841810703277588e-02 -1.321187913417816162e-01
-7.903396487236022949e-01 7.014021277427673340e-02 -6.009761989116668701e-02
-2.231999039649963379e-01 6.342356093227863312e-03 -7.226654887199401855e-01
-8.135316371917724609e-01 6.299184262752532959e-02 1.982438005506992340e-02
1.258881296962499619e-02 -8.400658518075942993e-02 -5.532007813453674316e-01
-8.025672435760498047e-01 7.513870298862457275e-02 1.149299517273902893e-01
1.778612881898880005e-01 -1.381282322108745575e-02 2.485184669494628906e-01
-2.891207635402679443e-01 1.835484802722930908e-02 -8.282517194747924805e-01
3.693661885336041451e-03 -3.678972274065017700e-02 8.778764307498931885e-02
4.518645629286766052e-02 -1.623144559562206268e-02 4.957821965217590332e-01
8.591870069503784180e-01 -5.756300315260887146e-02 -2.285085059702396393e-02
-6.209284439682960510e-02 -7.583702355623245239e-02 -5.448104441165924072e-02
6.725230813026428223e-01 -4.485179111361503601e-02 -6.858967244625091553e-02
2.510648965835571289e-01 1.126273274421691895e-01 -2.180277928709983826e-02
-6.340964883565902710e-02 -2.149865962564945221e-02 -4.369188547134399414e-01
8.612023591995239258e-01 -4.323938116431236267e-02 4.736978933215141296e-02
3.287026286125183105e-01 1.703803613781929016e-02 -8.535876870155334473e-02
6.741623282432556152e-01 -9.010688215494155884e-02 3.753984812647104263e-03
-2.480310797691345215e-01 1.744114607572555542e-02 8.189100623130798340e-01
7.719283699989318848e-01 -3.635974228382110596e-02 -5.886143445968627930e-02
-1.229611318558454514e-02 -4.358874261379241943e-02 2.436274737119674683e-01
-6.209284439682960510e-02 -2.200926095247268677e-02 4.465229213237762451e-01
-3.530261218547821045e-01 4.358912631869316101e-02 8.916030526161193848e-01
-8.209756612777709961e-01 1.774463802576065063e-01 1.012302190065383911e-02
-6.870374083518981934e-02 -1.109859067946672440e-02 5.596069097518920898e-01
1.454517543315887451e-01 -6.465761363506317139e-02 -1.651195436716079712e-01
3.481325507164001465e-02 -1.266280710697174072e-01 6.822367757558822632e-02
-6.389877796173095703e-01 8.591499924659729004e-02 4.833723977208137512e-02
-3.027725517749786377e-01 1.039471700787544250e-01 3.035881929099559784e-02
2.224982678890228271e-01 -3.294679895043373108e-02 3.441077470779418945e-01
1.142246574163436890e-01 -7.787942141294479370e-02 -7.767293602228164673e-02
-7.609668374061584473e-01 2.853437662124633789e-01 -2.104453742504119873e-03
-5.386956334114074707e-01 7.258570939302444458e-02 -5.453478917479515076e-02
2.247019112110137939e-01 -5.173142999410629272e-02 -3.295589387416839600e-01
1.623552292585372925e-01 1.252328231930732727e-02 9.660217165946960449e-02
-8.415876626968383789e-01 8.602248877286911011e-02 2.724090814590454102e-01
2.476254105567932129e-02 -3.429048135876655579e-02 -2.674540877342224121e-01
-6.481248140335083008e-01 1.047533825039863586e-01 1.840008050203323364e-02
3.357703685760498047e-01 -1.340972259640693665e-02 9.361919760704040527e-02
9.310203045606613159e-02 -4.162696748971939087e-02 -1.159677654504776001e-01
9.522504359483718872e-02 -5.533249303698539734e-02 1.647535562515258789e-01
2.204830944538116455e-02 -3.270494192838668823e-02 5.993797779083251953e-01
3.299387991428375244e-01 -1.124388352036476135e-01 -2.949995100498199463e-01
3.287026286125183105e-01 1.703803613781929016e-02 -8.535876870155334473e-02
-2.114024013280868530e-01 6.589419394731521606e-02 -6.858967244625091553e-02
1.449411511421203613e-01 -4.168071970343589783e-02 -2.340233623981475830e-01
-2.011631987988948822e-02 -1.074750791303813457e-03 -5.139922499656677246e-01
2.672696411609649658e-01 -6.812430173158645630e-02 -3.456293344497680664e-01
7.831615805625915527e-01 -3.090440854430198669e-02 7.066917419433593750e-02
5.068475604057312012e-01 -6.452324241399765015e-02 -6.716536730527877808e-02
-8.085061907768249512e-01 1.210656315088272095e-01 1.004240009933710098e-02
-1.737256646156311035e-01 2.689304819796234369e-04 -6.183960437774658203e-01
9.322830438613891602e-01 -1.781698688864707947e-02 -2.693563140928745270e-02
6.154436469078063965e-01 6.831280887126922607e-02 -6.638603657484054565e-02
-9.952771663665771484e-02 -3.923343494534492493e-03 -6.201965808868408203e-01
-2.014319598674774170e-02 -2.953385747969150543e-02 -3.610278964042663574e-01
8.598049879074096680e-01 -3.891273587942123413e-02 -3.967370837926864624e-02
-4.989227056503295898e-01 2.977610751986503601e-02 7.765630632638931274e-02
2.884191572666168213e-01 -7.352589815855026245e-02 3.513367474079132080e-01
6.016037464141845703e-01 -9.209552407264709473e-02 1.340159680694341660e-02
-2.955704033374786377e-01 1.558686513453722000e-02 -8.046029806137084961e-01
-1.295454949140548706e-01 -1.047870726324617863e-03 -5.819017291069030762e-01
9.884219169616699219e-01 2.689304819796234369e-04 -4.523074720054864883e-03
3.766185417771339417e-02 -1.422684788703918457e-01 -6.009761989116668701e-02
-2.028566002845764160e-01 -9.403806761838495731e-04 6.429687142372131348e-01
-5.371100902557373047e-01 1.628557592630386353e-02 6.811618804931640625e-02
9.748242795467376709e-02 -1.230790093541145325e-02 -4.567246437072753906e-01
-7.163295149803161621e-02 -3.050130791962146759e-02 9.042124450206756592e-02
-7.305192351341247559e-01 6.675413995981216431e-02 -1.304199639707803726e-02
8.205699920654296875e-02 -5.705239251255989075e-02 -5.935111045837402344e-01
-8.682193160057067871e-01 7.548805326223373413e-02 2.127555385231971741e-02
-2.028834819793701172e-01 7.261258363723754883e-02 7.491520047187805176e-02
-1.376613229513168335e-01 1.298013236373662949e-02 -8.560063689947128296e-02
1.211580410599708557e-01 -1.043498814105987549e-01 -1.248629242181777954e-01
5.590900778770446777e-02 -4.141197726130485535e-02 -1.541282385587692261e-01
1.123703867197036743e-01 5.388170480728149414e-02 8.625584840774536133e-02
5.075999498367309570e-01 -5.390818044543266296e-02 -6.759534776210784912e-02
6.300091147422790527e-01 9.999675303697586060e-02 -4.832699522376060486e-02
-2.950329482555389404e-01 1.373259350657463074e-02 8.149864673614501953e-01
-5.680415630340576172e-01 3.988057374954223633e-02 -5.743713676929473877e-02
2.167207933962345123e-02 -1.114176362752914429e-01 -3.553517535328865051e-02
-6.858821511268615723e-01 1.012329384684562683e-01 -1.575622707605361938e-02
-1.331730931997299194e-02 -4.329312965273857117e-02 5.823419690132141113e-01
-4.169579967856407166e-02 -4.721667245030403137e-02 -7.162638008594512939e-02
7.246313244104385376e-02 1.046727523207664490e-01 -1.623995229601860046e-02
2.749285995960235596e-01 -7.443960011005401611e-02 -3.456293344497680664e-01
-2.476817369461059570e-01 1.628557592630386353e-02 8.035652637481689453e-01
-6.709672808647155762e-01 1.496877428144216537e-02 -2.959611639380455017e-02
-6.946966648101806641e-01 7.806792110204696655e-02 -1.280340105295181274e-01
3.407151103019714355e-01 -1.208502501249313354e-01 -3.074419796466827393e-01
3.505511954426765442e-02 -3.996080905199050903e-02 1.004719734191894531e-01
6.604568958282470703e-01 5.621970444917678833e-02 8.198294788599014282e-02
-5.002661049365997314e-02 -5.909479409456253052e-02 -7.334628701210021973e-02
2.518442273139953613e-01 -1.908003725111484528e-02 9.028687328100204468e-02
-2.336537092924118042e-01 6.530476268380880356e-03 9.662903845310211182e-02
2.401542216539382935e-01 -1.069549005478620529e-02 9.649467468261718750e-02
3.093267977237701416e-01 -5.893355607986450195e-02 3.085540235042572021e-01
-1.737256646156311035e-01 2.689304819796234369e-04 -6.183960437774658203e-01
-8.135316371917724609e-01 6.299184262752532959e-02 1.982438005506992340e-02
-1.243320330977439880e-01 -1.859631761908531189e-02 5.105626583099365234e-01
5.007744580507278442e-02 -5.078914575278759003e-03 5.190278291702270508e-01
-6.079756617546081543e-01 8.430258929729461670e-02 5.416880175471305847e-02
-7.910381257534027100e-02 -3.170882817357778549e-03 6.381583809852600098e-01
7.567448616027832031e-01 -8.212544769048690796e-02 6.145732942968606949e-03
2.154574096202850342e-01 -7.129538804292678833e-02 8.907757699489593506e-02
5.964443832635879517e-02 -5.205390974879264832e-02 8.620209991931915283e-02
1.397276818752288818e-01 1.077900901436805725e-01 3.055271925404667854e-03
-9.017571806907653809e-02 8.817238360643386841e-02 6.215025484561920166e-02
-1.313460320234298706e-01 -9.018751233816146851e-02 -1.314949151128530502e-02
2.650932408869266510e-02 -4.353323951363563538e-03 4.640713632106781006e-01
4.214974120259284973e-02 -9.779272973537445068e-02 -1.650868728756904602e-02
-1.294107921421527863e-02 -4.111463669687509537e-03 -4.774710834026336670e-01
1.729971617460250854e-01 -4.971414338797330856e-03 -8.573500812053680420e-02
-1.976431161165237427e-01 7.656300067901611328e-02 -6.103819608688354492e-02
1.862189620733261108e-01 -7.473520934581756592e-02 -3.261190950870513916e-01
-1.960575878620147705e-01 -6.841991096735000610e-02 6.215025484561920166e-02
-2.066995203495025635e-01 5.509275477379560471e-03 6.908844113349914551e-01
1.096292734146118164e-01 -5.557434260845184326e-02 -1.501240879297256470e-01
4.034380316734313965e-01 -6.003536656498908997e-02 1.111945137381553650e-01
-7.643530368804931641e-01 3.176189064979553223e-01 7.172714103944599628e-04
8.551290035247802734e-01 -6.121780723333358765e-02 2.748334966599941254e-02
9.847674518823623657e-02 -2.743772603571414948e-02 3.384643197059631348e-01
-5.080594122409820557e-02 -3.463984280824661255e-02 5.915864706039428711e-01
1.130422204732894897e-01 -5.952475592494010925e-02 -5.480141639709472656e-01
1.350248008966445923e-01 -5.968601629137992859e-02 -1.280877441167831421e-01
-7.372909784317016602e-02 -1.166293118149042130e-02 -4.677428305149078369e-01
-2.126385718584060669e-01 2.768172882497310638e-03 -6.802321076393127441e-01
4.153164848685264587e-02 -4.044452682137489319e-02 -1.754121184349060059e-01
-2.570068538188934326e-01 -4.197631776332855225e-02 7.932246476411819458e-02
-4.489375278353691101e-02 -5.589684098958969116e-02 7.714571058750152588e-02
2.041167616844177246e-01 -1.091048028320074081e-02 3.076134622097015381e-01
4.536916315555572510e-01 -9.201491624116897583e-02 6.147841364145278931e-02
-1.792616099119186401e-01 8.435633033514022827e-02 6.599317491054534912e-02
8.055207133293151855e-02 -4.541614279150962830e-02 6.123328804969787598e-01
3.071231544017791748e-01 -1.349034253507852554e-02 1.161929965019226074e-01
2.493449747562408447e-01 5.589722469449043274e-02 8.536902070045471191e-02
3.410107195377349854e-01 -8.733890950679779053e-02 7.644699513912200928e-02
1.401039063930511475e-01 -1.440404355525970459e-02 -8.457943797111511230e-02
-8.620921373367309570e-01 2.112533450126647949e-01 5.903870798647403717e-03
6.688682436943054199e-01 2.152592130005359650e-02 9.154994785785675049e-02
-1.854694038629531860e-01 -3.654613159596920013e-03 6.135421991348266602e-01
1.025081332772970200e-02 -5.412318184971809387e-02 1.490593850612640381e-01
-9.326618164777755737e-02 -5.707926303148269653e-02 7.620513439178466797e-02
-3.213153183460235596e-01 2.526312600821256638e-03 -8.224143832921981812e-02
3.392101824283599854e-01 -1.222745478153228760e-01 3.221520483493804932e-01
4.919595718383789062e-01 1.322719007730484009e-01 5.742629058659076691e-03
-1.836953870952129364e-02 -7.309416774660348892e-03 4.703866839408874512e-01
8.258367776870727539e-01 8.199145644903182983e-02 -2.596818283200263977e-02
9.713306277990341187e-02 -1.711826585233211517e-02 -2.811058759689331055e-01
1.697454601526260376e-01 -9.475602209568023682e-02 6.193526461720466614e-02
4.801620841026306152e-01 -3.681483212858438492e-03 -8.535876870155334473e-02
2.207518368959426880e-02 -3.877836465835571289e-02 2.216986417770385742e-01
1.337348669767379761e-01 1.009104549884796143e-01 4.032891616225242615e-02
1.523313820362091064e-01 -8.524277061223983765e-02 -6.875091046094894409e-02
5.964443832635879517e-02 -5.205390974879264832e-02 8.620209991931915283e-02
7.657206654548645020e-01 8.570001274347305298e-02 -4.332850873470306396e-02
3.369259536266326904e-01 -1.596270501613616943e-02 1.579545438289642334e-01
-1.210799813270568848e-02 -4.799600318074226379e-02 -8.312827348709106445e-02
6.886472702026367188e-01 9.647630900144577026e-02 -4.924069717526435852e-02
-5.250976085662841797e-01 5.487602576613426208e-02 7.397462427616119385e-02
2.766488678753376007e-02 -2.630903385579586029e-02 -2.868836820125579834e-01
-7.505130767822265625e-01 7.186011970043182373e-02 1.673871576786041260e-01
-2.299179323017597198e-02 -1.072998857125639915e-04 6.058294773101806641e-01
2.371981143951416016e-01 -8.088747039437294006e-03 -8.549313992261886597e-02
-8.837254643440246582e-01 3.101480901241302490e-01 8.188123814761638641e-03
-3.253194689750671387e-01 -4.928593710064888000e-02 6.583192944526672363e-02
9.576251357793807983e-02 9.096723794937133789e-02 5.930165573954582214e-02
2.363919168710708618e-01 -3.399487212300300598e-02 -3.313594758510589600e-01
8.444873988628387451e-02 -4.622234404087066650e-02 2.419344484806060791e-01
-7.482020258903503418e-01 8.293203264474868774e-02 1.791577637195587158e-01
1.732659041881561279e-01 -8.677455782890319824e-02 3.503155708312988281e-01
4.870148599147796631e-01 -6.927987188100814819e-02 6.475698947906494141e-02
8.469060063362121582e-02 -3.813340514898300171e-02 6.010190844535827637e-01
-6.263031810522079468e-02 9.601946175098419189e-02 5.115896463394165039e-02
2.465504594147205353e-02 -9.005314111709594727e-02 5.899740457534790039e-01
9.850361943244934082e-02 -6.785556674003601074e-02 -6.147412657737731934e-01
4.263346269726753235e-02 -5.146269872784614563e-02 5.714850425720214844e-01
2.669743821024894714e-02 -8.268977701663970947e-02 8.442845195531845093e-02
-4.180295392870903015e-03 -9.969899430871009827e-03 -5.490353703498840332e-01
2.676190137863159180e-01 -5.858418345451354980e-02 -3.383197188377380371e-01
-8.263233900070190430e-01 9.193467348814010620e-02 2.658787667751312256e-01
6.963599324226379395e-01 -5.877231433987617493e-02 -5.558286234736442566e-02
-6.992383599281311035e-01 1.467316411435604095e-02 3.172937408089637756e-02
9.267205744981765747e-02 6.283060461282730103e-02 -7.044394314289093018e-02
-7.505936622619628906e-01 6.476549804210662842e-02 -9.132471680641174316e-02
-1.092556212097406387e-02 -3.265118971467018127e-02 3.470638394355773926e-01
-3.851400315761566162e-01 9.956677258014678955e-02 4.328501224517822266e-02
7.567448616027832031e-01 -8.212544769048690796e-02 6.145732942968606949e-03
-1.964069455862045288e-01 1.496877428144216537e-02 8.142340183258056641e-01
4.399054646492004395e-01 3.799942135810852051e-02 -8.130086958408355713e-02
-1.519810524769127369e-03 -1.331583410501480103e-01 -3.983494639396667480e-02
-1.583539694547653198e-01 -2.410540170967578888e-02 -5.008779168128967285e-01
9.231997728347778320e-01 -3.775717690587043762e-02 -1.607870869338512421e-02
2.460129931569099426e-02 -4.608798399567604065e-02 2.357803881168365479e-01
-2.336537092924118042e-01 6.530476268380880356e-03 9.662903845310211182e-02
7.329885363578796387e-01 1.245054453611373901e-01 -1.954540051519870758e-02
-7.770372629165649414e-01 6.761410087347030640e-02 -3.467522189021110535e-02
1.347560733556747437e-01 -3.009820729494094849e-02 1.564227491617202759e-01
7.429088000208139420e-03 -4.426058009266853333e-02 2.478197365999221802e-01
2.538063190877437592e-02 -8.309289067983627319e-02 5.751935839653015137e-01
3.212049007415771484e-01 7.202136516571044922e-02 7.553329318761825562e-02
-5.961244106292724609e-01 5.331736057996749878e-02 2.479599229991436005e-02
2.811632752418518066e-01 -4.168071970343589783e-02 2.244397401809692383e-01
1.297575831413269043e-01 -4.393809288740158081e-02 -2.428916543722152710e-01
3.889803960919380188e-02 -8.467841893434524536e-02 -6.093934178352355957e-01
2.409066855907440186e-01 -1.765574701130390167e-02 -1.154303103685379028e-01
2.712741307914257050e-02 -1.838132739067077637e-02 -3.373253643512725830e-01
6.673905253410339355e-02 -1.644643582403659821e-02 -3.156652748584747314e-01
-1.960575878620147705e-01 -6.841991096735000610e-02 6.215025484561920166e-02
-5.419473052024841309e-01 1.069838777184486389e-01 1.444966718554496765e-02
-5.362731870263814926e-03 8.475943654775619507e-02 -5.469603091478347778e-02
-4.305026233196258545e-01 6.610918045043945312e-02 7.894623279571533203e-02
2.015100270509719849e-01 -7.798690348863601685e-02 -3.207981288433074951e-01
4.348801374435424805e-01 -5.017276853322982788e-02 -6.985272467136383057e-02
1.562552712857723236e-02 -7.575640827417373657e-02 -5.490891337394714355e-01
-4.912906289100646973e-01 1.072794944047927856e-01 1.259538996964693069e-02
1.269627362489700317e-01 1.070645004510879517e-01 -4.093097522854804993e-03
4.561102390289306641e-01 -9.298235923051834106e-02 2.598421182483434677e-03
8.493247628211975098e-02 -1.267087012529373169e-01 -1.264484524726867676e-01
-7.991273999214172363e-01 7.255883514881134033e-02 1.547296941280364990e-01
3.030383586883544922e-01 -5.664930492639541626e-02 -1.359348446130752563e-01
-7.487932443618774414e-01 2.551378905773162842e-01 -3.475005738437175751e-03
-6.389877796173095703e-01 8.591499924659729004e-02 4.833723977208137512e-02
-2.960269525647163391e-02 -9.135106229223310947e-04 5.358775854110717773e-01
-6.869032979011535645e-01 6.699600815773010254e-02 1.934065669775009155e-02
-2.916199862957000732e-01 8.266329765319824219e-02 -5.612033233046531677e-02
-3.814848884940147400e-02 -6.016973778605461121e-02 -2.393174618482589722e-01
-7.516686320304870605e-01 6.124506145715713501e-02 -5.340610072016716003e-02
1.503158658742904663e-01 -1.596270501613616943e-02 -2.372482120990753174e-01
3.607896566390991211e-01 -8.258229494094848633e-02 8.480466902256011963e-02
-8.424207568168640137e-01 8.441007882356643677e-02 2.571448683738708496e-01
9.296767413616180420e-02 -5.592371150851249695e-02 -1.469798833131790161e-01
7.704772949218750000e-01 7.183324545621871948e-02 5.946289747953414917e-02
2.479475438594818115e-01 -2.875452674925327301e-02 -2.821001708507537842e-01
-8.668215572834014893e-02 -1.526399422436952591e-02 -4.985936582088470459e-01
-7.133738398551940918e-01 2.050455361604690552e-01 1.665329933166503906e-02
8.624926209449768066e-02 -2.590592391788959503e-02 -2.271706163883209229e-01
8.258367776870727539e-01 8.199145644903182983e-02 -2.596818283200263977e-02
9.245706349611282349e-02 -7.038168609142303467e-02 -1.522471010684967041e-01
3.860239386558532715e-01 7.876662909984588623e-02 -6.052759662270545959e-02
4.635542035102844238e-01 1.080856919288635254e-01 -4.354349896311759949e-02
-6.883811205625534058e-02 -8.408721536397933960e-02 -2.989172562956809998e-02
5.785193443298339844e-01 2.915801852941513062e-02 9.447915852069854736e-02
4.349341988563537598e-02 -2.604029513895511627e-02 -2.728556692600250244e-01
2.676727473735809326e-01 -1.623144559562206268e-02 -8.933607488870620728e-02
2.992223203182220459e-01 -9.134306758642196655e-02 6.897614151239395142e-02
-2.383297234773635864e-01 7.067946717143058777e-03 7.204721570014953613e-01
-1.939073577523231506e-02 -2.147178910672664642e-02 4.540744125843048096e-01
8.861414343118667603e-02 -1.447408646345138550e-01 1.636786162853240967e-01
-5.695734024047851562e-01 6.608230620622634888e-02 -4.397347569465637207e-02
2.776697278022766113e-01 8.661371469497680664e-02 -5.453478917479515076e-02
5.348766446113586426e-01 2.316521294414997101e-02 -8.460631221532821655e-02
-2.336537092924118042e-01 6.530476268380880356e-03 9.662903845310211182e-02
2.015100270509719849e-01 -7.798690348863601685e-02 -3.207981288433074951e-01
-6.025741100311279297e-01 -4.407073836773633957e-03 3.893148899078369141e-02
2.328449487686157227e-02 2.633802592754364014e-03 -8.586937934160232544e-02
5.894572287797927856e-02 -3.181811049580574036e-02 -3.411683142185211182e-01
2.716769278049468994e-01 1.762925647199153900e-02 9.627968817949295044e-02
-5.080594122409820557e-02 -3.463984280824661255e-02 5.915864706039428711e-01
1.518745273351669312e-01 -9.539918974041938782e-03 3.285748362541198730e-01
-7.243916392326354980e-02 3.547503612935543060e-03 6.058025956153869629e-01
-4.342649281024932861e-01 -4.417994990944862366e-02 4.680544510483741760e-02
1.706591546535491943e-01 -4.745853319764137268e-02 -2.120139151811599731e-01
-6.372141242027282715e-01 1.297995448112487793e-01 1.998562179505825043e-02
3.018290400505065918e-01 -9.752399474382400513e-02 -2.449013665318489075e-02
2.086587250232696533e-02 -1.269505470991134644e-01 -5.031564086675643921e-02
-4.298573359847068787e-02 -7.151038944721221924e-02 6.095649003982543945e-01
4.668865203857421875e-01 4.735142365097999573e-02 8.915819227695465088e-02
-1.659588702023029327e-02 -9.392292797565460205e-02 5.234140157699584961e-02
-1.907903701066970825e-01 8.949088864028453827e-03 9.679028391838073730e-02
2.729937136173248291e-01 -9.499786794185638428e-02 -3.586092591285705566e-01
3.704910278320312500e-01 -9.575033187866210938e-02 5.965101346373558044e-02
-1.215640529990196228e-01 4.488084465265274048e-03 -6.191484928131103516e-01
-6.803461909294128418e-01 6.210501864552497864e-02 -8.307452499866485596e-02
1.505308598279953003e-01 -4.267504066228866577e-02 2.626270949840545654e-01
2.531878948211669922e-01 -1.199096813797950745e-01 3.388136625289916992e-01
-2.597210705280303955e-01 9.110338985919952393e-03 7.474263906478881836e-01
2.307484745979309082e-01 -7.051605731248855591e-02 -9.626944363117218018e-02
7.372618466615676880e-02 -4.122385755181312561e-02 -5.615853071212768555e-01
7.257596850395202637e-01 4.794264584779739380e-02 7.765630632638931274e-02
9.089840203523635864e-02 -1.348513811826705933e-01 -1.360423415899276733e-01
2.225520163774490356e-01 -3.896648809313774109e-02 2.619552612304687500e-01
4.663762822747230530e-02 -5.807359516620635986e-02 1.416691392660140991e-01
-4.305026233196258545e-01 6.610918045043945312e-02 7.894623279571533203e-02
-7.582795023918151855e-01 1.180020421743392944e-01 1.676079258322715759e-02
4.793558418750762939e-01 -8.551151305437088013e-02 6.889551877975463867e-02
-5.927652716636657715e-01 1.012060642242431641e-01 3.288493677973747253e-02
5.552468299865722656e-01 1.189426258206367493e-01 -3.341216221451759338e-02
-8.046902418136596680e-01 1.655413955450057983e-01 1.138607878237962723e-02
5.848346352577209473e-01 -4.614172503352165222e-02 8.327288180589675903e-02
2.636148333549499512e-01 -1.084077954292297363e-01 3.532447516918182373e-01
1.505308598279953003e-01 -4.267504066228866577e-02 2.626270949840545654e-01
-1.092556212097406387e-02 -5.428441986441612244e-02 2.375809252262115479e-01
2.479475438594818115e-01 -2.875452674925327301e-02 -2.821001708507537842e-01
8.334692567586898804e-02 -4.297064989805221558e-02 -1.187626346945762634e-01
2.341614067554473877e-01 -5.339758843183517456e-02 -1.604972779750823975e-01
-7.063330411911010742e-01 6.280373036861419678e-02 -8.632623404264450073e-02
-6.626634001731872559e-01 2.027881741523742676e-01 -5.248661618679761887e-03
4.956684634089469910e-02 -1.252575218677520752e-01 6.620816141366958618e-02
-1.433316469192504883e-01 2.875662874430418015e-03 -6.898797750473022461e-01
-7.178617119789123535e-01 7.607927173376083374e-02 1.076740846037864685e-01
-7.957681417465209961e-01 1.920118480920791626e-01 -1.835717936046421528e-03
-7.993962168693542480e-01 8.927419781684875488e-02 2.406176328659057617e-01
-1.198978871107101440e-01 7.874147966504096985e-03 -6.561265587806701660e-01
-1.659588702023029327e-02 -9.392292797565460205e-02 5.234140157699584961e-02
-1.258369535207748413e-01 9.567189030349254608e-03 6.986508369445800781e-01
3.709750995039939880e-02 -2.319170162081718445e-02 4.324412047863006592e-01
-1.839376091957092285e-01 6.207986269146203995e-03 -7.279058098793029785e-01
3.234085440635681152e-01 -5.750745069235563278e-03 9.670966863632202148e-02
6.891617551445960999e-03 -3.291993215680122375e-02 -5.636814832687377930e-01
-3.136563301086425781e-01 1.059626787900924683e-01 -1.038151234388351440e-02
9.008408784866333008e-01 -3.087753802537918091e-02 4.199507459998130798e-02
-1.586495786905288696e-01 5.299487337470054626e-02 -7.571116834878921509e-02
-8.135316371917724609e-01 6.299184262752532959e-02 1.982438005506992340e-02
2.310171872377395630e-01 -4.291690140962600708e-02 -2.237845510244369507e-01
6.378024220466613770e-01 1.193188503384590149e-01 4.406434297561645508e-02
-1.319641172885894775e-01 -1.281850226223468781e-02 5.293741226196289062e-01
2.581594884395599365e-01 -6.551757454872131348e-02 -2.963431775569915771e-01
-9.040417671203613281e-01 3.385803401470184326e-01 7.301296573132276535e-03
5.005859732627868652e-01 3.781130909919738770e-02 -8.135461062192916870e-02
7.763087749481201172e-01 -6.922611594200134277e-02 -3.437961265444755554e-02
-3.244057595729827881e-01 3.716634586453437805e-02 -8.778066039085388184e-01
4.482631683349609375e-01 -3.138813748955726624e-02 9.015250205993652344e-02
-3.604969680309295654e-01 9.943240135908126831e-02 -3.260595723986625671e-02
-7.385006546974182129e-01 7.739607989788055420e-02 2.067838162183761597e-01
-7.287455797195434570e-01 1.417851597070693970e-01 -6.457971408963203430e-03
4.599531292915344238e-01 3.197973966598510742e-02 9.396857023239135742e-02
1.069150567054748535e-01 -6.231961771845817566e-02 1.239594742655754089e-01
-5.881967544555664062e-01 7.927897386252880096e-03 -4.236106574535369873e-02
-8.408620357513427734e-01 9.362772107124328613e-02 -2.724525928497314453e-01
1.130422204732894897e-01 -5.952475592494010925e-02 -5.480141639709472656e-01
-8.408620357513427734e-01 9.362772107124328613e-02 -2.724525928497314453e-01
4.547934234142303467e-01 4.084802418947219849e-02 9.138870984315872192e-02
5.136465430259704590e-01 -3.240932896733283997e-02 -7.880163192749023438e-02
-1.837226301431655884e-01 7.202306762337684631e-03 -8.586937934160232544e-02
-6.883811205625534058e-02 3.413133323192596436e-03 -5.878945589065551758e-01
2.717306613922119141e-01 -1.193184629082679749e-01 3.478431999683380127e-01
1.273658275604248047e-01 -7.632074505090713501e-02 1.264587044715881348e-01
2.441583722829818726e-01 -5.519812181591987610e-02 -3.413295745849609375e-01
2.207518368959426880e-02 -3.877836465835571289e-02 2.216986417770385742e-01
-6.740040779113769531e-01 2.486882209777832031e-01 1.020364183932542801e-02
-5.560828447341918945e-01 1.098862215876579285e-01 -1.137583516538143158e-02
4.482631683349609375e-01 -3.138813748955726624e-02 9.015250205993652344e-02
-7.112239003181457520e-01 7.766481488943099976e-02 1.270499229431152344e-01
-6.464582681655883789e-02 -5.054899677634239197e-02 5.949725508689880371e-01
-6.458405852317810059e-01 7.688548415899276733e-02 -4.093676432967185974e-02
4.951310157775878906e-02 -7.065042853355407715e-02 9.590344876050949097e-02
1.794468164443969727e-01 -2.988321706652641296e-02 -7.944659143686294556e-02
-6.601637601852416992e-02 -1.072998857125639915e-04 5.639066696166992188e-01
5.036495327949523926e-01 -4.501303285360336304e-02 8.757265657186508179e-02
-1.919459402561187744e-01 5.589895416051149368e-03 -7.192794084548950195e-01
2.596644163131713867e-01 -8.346910774707794189e-02 3.715188205242156982e-01
-1.312922835350036621e-01 8.508192002773284912e-02 -5.437355116009712219e-02
-7.306534647941589355e-01 2.041049599647521973e-01 1.633081585168838501e-02
5.203921347856521606e-02 -1.607020571827888489e-02 -3.320581614971160889e-01
9.310203045606613159e-02 -4.162696748971939087e-02 -1.159677654504776001e-01
-1.611216180026531219e-02 1.014210581779479980e-01 3.898523747920989990e-02
-1.269921846687793732e-02 4.570406454149633646e-04 -5.676856040954589844e-01
-7.277242541313171387e-01 6.989835202693939209e-02 4.930468648672103882e-02
2.518442273139953613e-01 -1.015281677246093750e-01 -2.963969409465789795e-01
-1.084494218230247498e-02 -7.118788361549377441e-02 1.740249395370483398e-01
-3.144356608390808105e-01 4.369661957025527954e-02 8.918449282646179199e-01
6.620423793792724609e-01 -8.056676387786865234e-02 -3.048294596374034882e-02
2.440777420997619629e-01 -1.044842451810836792e-01 3.536210060119628906e-01
-6.042134165763854980e-01 1.758608520030975342e-01 1.461090706288814545e-02
-1.737256646156311035e-01 2.689304819796234369e-04 -6.183960437774658203e-01
2.116148360073566437e-02 -4.216444119811058044e-02 -2.560597062110900879e-01
-2.286283671855926514e-01 3.789363894611597061e-03 -6.862517595291137695e-01
9.304828196763992310e-02 -5.151643976569175720e-02 2.361566126346588135e-01
8.149264752864837646e-02 -5.482014734297990799e-03 4.731277823448181152e-01
-2.101662158966064453e-01 1.317001413553953171e-03 -6.610981225967407227e-01
-7.877330780029296875e-01 2.294736206531524658e-01 1.372408028692007065e-02
1.256996691226959229e-01 7.323067635297775269e-02 7.445835322141647339e-02
2.747942507266998291e-01 8.290515840053558350e-02 6.803556531667709351e-02
2.811632752418518066e-01 -4.168071970343589783e-02 2.244397401809692383e-01
1.836663112044334412e-02 -8.424846082925796509e-02 -5.930005311965942383e-01
3.591234683990478516e-01 1.274346709251403809e-01 5.339525640010833740e-03
-5.344764590263366699e-01 8.508192002773284912e-02 -4.864947870373725891e-02
4.540678262710571289e-01 9.180030971765518188e-02 -5.319111049175262451e-02
-7.580915093421936035e-01 1.072257384657859802e-01 2.195317763835191727e-03
1.935016959905624390e-01 -7.586389034986495972e-02 3.395930230617523193e-01
-6.992383599281311035e-01 1.467316411435604095e-02 3.172937408089637756e-02
9.444604627788066864e-03 -4.802287369966506958e-02 -6.038843393325805664e-01
-3.113721013069152832e-01 5.353234708309173584e-02 -7.536181062459945679e-02
-5.955063700675964355e-01 9.317086637020111084e-02 4.521990194916725159e-02
9.039313793182373047e-01 -5.017276853322982788e-02 -1.540108234621584415e-03
-6.619915962219238281e-01 5.896081030368804932e-02 -5.891518294811248779e-02
-7.482020258903503418e-01 8.293203264474868774e-02 1.791577637195587158e-01
2.015100270509719849e-01 -7.798690348863601685e-02 -3.207981288433074951e-01
-7.089664936065673828e-01 7.739607989788055420e-02 1.837262958288192749e-01
9.296767413616180420e-02 -4.557738453149795532e-02 -6.867028772830963135e-02
-3.781260251998901367e-01 2.518073469400405884e-02 9.060937911272048950e-02
8.777028918266296387e-01 -6.179003394208848476e-04 5.871043726801872253e-02
-7.044249773025512695e-01 7.734233140945434570e-02 -1.683712452650070190e-01
-2.480310797691345215e-01 1.744114607572555542e-02 8.189100623130798340e-01
1.165895313024520874e-01 -9.072497487068176270e-02 -6.012449041008949280e-02
-3.026919066905975342e-01 -4.063264653086662292e-02 -6.533796340227127075e-02
-3.240026831626892090e-01 9.636881947517395020e-02 -3.943184018135070801e-02
3.354478776454925537e-01 -6.197026744484901428e-02 3.194646835327148438e-01
-7.716357111930847168e-01 8.481317758560180664e-02 -1.847103685140609741e-01
1.862189620733261108e-01 -7.473520934581756592e-02 -3.261190950870513916e-01
-6.353867650032043457e-01 7.003272324800491333e-02 -4.327476397156715393e-02
-1.889092177152633667e-01 1.056939512491226196e-01 2.256548404693603516e-02
2.700645029544830322e-01 -1.303349249064922333e-02 -2.203178554773330688e-01
1.196262463927268982e-01 -8.053989708423614502e-02 8.563776314258575439e-02
4.886813461780548096e-02 -4.533552378416061401e-02 -2.314166426658630371e-01
1.025081332772970200e-02 -5.412318184971809387e-02 1.490593850612640381e-01
6.749151647090911865e-02 6.871591508388519287e-02 -6.684288382530212402e-02
-7.991273999214172363e-01 7.255883514881134033e-02 1.547296941280364990e-01
-6.439056396484375000e-01 5.949828028678894043e-02 7.365214824676513672e-02
-3.145696967840194702e-02 -3.367239236831665039e-02 -3.216043412685394287e-01
1.269627362489700317e-01 1.070645004510879517e-01 -4.093097522854804993e-03
-5.873364210128784180e-02 -1.193167082965373993e-02 4.686936140060424805e-01
-3.480007648468017578e-01 -6.516822427511215210e-02 -2.706999890506267548e-02
-8.168371319770812988e-01 4.452970251441001892e-02 -1.258514635264873505e-02
3.690936267375946045e-01 -8.707017451524734497e-02 -6.595605611801147461e-02
4.906427860260009766e-01 -9.446040540933609009e-02 2.493035979568958282e-02
-7.882974147796630859e-01 8.672121167182922363e-02 -2.271648310124874115e-02
-2.898459881544113159e-02 -9.341233968734741211e-02 -3.652950003743171692e-02
-8.474998474121093750e-01 7.427874207496643066e-02 1.254912614822387695e-01
3.146746158599853516e-01 -5.651493370532989502e-02 -1.335699558258056641e-01
6.741623282432556152e-01 -9.010688215494155884e-02 3.753984812647104263e-03
-2.164811640977859497e-02 6.613605469465255737e-02 -6.845530122518539429e-02
5.558652430772781372e-02 -3.654613159596920013e-03 4.660331308841705322e-01
-2.546416595578193665e-02 3.759631887078285217e-02 9.238301962614059448e-02
6.142612099647521973e-01 -9.222989529371261597e-02 5.420146510004997253e-03
-1.739675104618072510e-01 -5.354982931748963892e-05 -6.565296649932861328e-01
6.122725605964660645e-01 3.171100839972496033e-02 -8.167710155248641968e-02
-8.346543312072753906e-01 6.949525326490402222e-02 8.907757699489593506e-02
-3.600132465362548828e-01 -6.524883210659027100e-02 2.122180536389350891e-02
1.562552712857723236e-02 -7.575640827417373657e-02 -5.490891337394714355e-01
-5.475635826587677002e-02 -1.824695616960525513e-02 -4.105827212333679199e-01
7.590291500091552734e-01 -5.718676373362541199e-02 -4.703706502914428711e-02
-9.982333332300186157e-02 2.848792821168899536e-03 -5.936992764472961426e-01
2.316352874040603638e-01 7.739607989788055420e-02 7.112602889537811279e-02
3.011038154363632202e-02 -9.475602209568023682e-02 6.088392734527587891e-01
-4.799768626689910889e-01 -2.633412368595600128e-03 7.182473689317703247e-02
-6.017947793006896973e-01 -5.078914575278759003e-03 -2.741935849189758301e-02
-6.924661397933959961e-01 1.783332079648971558e-01 -6.861075758934020996e-03
4.626673758029937744e-01 -1.803197711706161499e-02 -8.307452499866485596e-02
-7.134544253349304199e-01 7.172575592994689941e-02 -5.313736572861671448e-02
4.214974120259284973e-02 -7.091916352510452271e-02 -5.667988061904907227e-01
2.405841797590255737e-01 1.526438444852828979e-02 -8.546627312898635864e-02
-8.016535639762878418e-01 7.030145823955535889e-02 -6.514985114336013794e-02
4.053729176521301270e-01 9.475640952587127686e-02 6.239211559295654297e-02
-8.245497345924377441e-01 7.693922519683837891e-02 -1.841671206057071686e-02
-2.135522812604904175e-01 -7.828251272439956665e-02 4.594549536705017090e-02
-2.799027785658836365e-02 -7.976056635379791260e-02 5.823150873184204102e-01
1.351322978734970093e-01 -6.985204527154564857e-04 -8.584251254796981812e-02
-1.831851452589035034e-01 8.841598406434059143e-03 -6.913039684295654297e-01
8.262134343385696411e-02 -5.597745254635810852e-02 -6.089903116226196289e-01
-1.771385967731475830e-01 -9.271361678838729858e-02 3.834605682641267776e-03
-1.105996444821357727e-01 -9.010688215494155884e-02 2.428539283573627472e-02
7.429088000208139420e-03 -4.426058009266853333e-02 2.478197365999221802e-01
2.055679112672805786e-01 -1.236165128648281097e-02 3.258068561553955078e-01
7.372618466615676880e-02 -4.122385755181312561e-02 -5.615853071212768555e-01
-2.052214741706848145e-01 -9.018751233816146851e-02 1.611582748591899872e-02
4.577763974666595459e-01 -4.307813942432403564e-02 -7.401812821626663208e-02
-9.251372516155242920e-02 6.995210051536560059e-02 -6.590230762958526611e-02
-3.136563301086425781e-01 1.059626787900924683e-01 -1.038151234388351440e-02
1.440274417400360107e-01 -2.633590437471866608e-02 1.736487001180648804e-01
1.702022999525070190e-01 -1.031925994902849197e-02 3.646122813224792480e-01
-1.771385967731475830e-01 -9.271361678838729858e-02 3.834605682641267776e-03
2.503127604722976685e-02 -1.988624781370162964e-02 5.987885594367980957e-01
2.113726288080215454e-01 -7.000546902418136597e-02 -9.344772994518280029e-02
1.199756041169166565e-01 -6.903800368309020996e-02 1.435771733522415161e-01
-9.286307543516159058e-02 -2.954100491479039192e-04 -6.556428074836730957e-01
-1.507218778133392334e-01 7.874147966504096985e-03 -6.658548116683959961e-01
-3.253732025623321533e-01 -7.470656652003526688e-03 9.050187468528747559e-02
-6.995338797569274902e-01 2.504636347293853760e-02 -2.844055369496345520e-02
-1.836953870952129364e-02 -7.309416774660348892e-03 4.703866839408874512e-01
3.096492588520050049e-01 -1.295286230742931366e-02 -9.059912711381912231e-02
1.868370473384857178e-01 -1.961750909686088562e-02 1.778409779071807861e-01
3.685564920306205750e-02 -4.528177157044410706e-02 -5.487934947013854980e-01
4.153164848685264587e-02 -4.044452682137489319e-02 -1.754121184349060059e-01
6.932694315910339355e-01 -1.128490897826850414e-03 8.996439725160598755e-02
3.857014477252960205e-01 -5.976662784814834595e-02 -1.090344041585922241e-01
-8.346543312072753906e-01 6.949525326490402222e-02 8.907757699489593506e-02
1.200562268495559692e-01 -6.315268576145172119e-02 1.198746934533119202e-01
-7.877330780029296875e-01 2.294736206531524658e-01 1.372408028692007065e-02
7.302206754684448242e-01 1.002923622727394104e-01 -4.338226094841957092e-02
9.231997728347778320e-01 -3.775717690587043762e-02 -1.607870869338512421e-02
1.269358545541763306e-01 -9.381544589996337891e-02 6.564381718635559082e-02
-2.662513554096221924e-01 1.367884315550327301e-02 7.873604893684387207e-01
5.843240618705749512e-01 1.246129497885704041e-01 3.524981066584587097e-02
-7.612084597349166870e-02 -6.583826150745153427e-03 6.059638261795043945e-01
2.817548438906669617e-02 -5.562635138630867004e-03 5.489649772644042969e-01
-2.699061632156372070e-01 1.230829209089279175e-02 8.020065426826477051e-01
-1.095246896147727966e-01 -7.973369210958480835e-02 -3.784630447626113892e-02
-1.771385967731475830e-01 -9.271361678838729858e-02 3.834605682641267776e-03
-5.476444959640502930e-01 1.042965278029441833e-01 -1.554123871028423309e-02
2.982011437416076660e-01 -1.184585019946098328e-01 -3.052383363246917725e-01
4.668865203857421875e-01 4.735142365097999573e-02 8.915819227695465088e-02
-6.025741100311279297e-01 -4.407073836773633957e-03 3.893148899078369141e-02
1.123703867197036743e-01 5.388170480728149414e-02 8.625584840774536133e-02
1.664672233164310455e-02 -5.030712857842445374e-02 1.915733665227890015e-01
2.625667750835418701e-01 -6.726436316967010498e-02 1.274799108505249023e-01
-2.602854371070861816e-01 1.628557592630386353e-02 8.093430399894714355e-01
1.367984563112258911e-01 -1.639268547296524048e-02 2.601816058158874512e-01
-4.784984514117240906e-02 -1.617769524455070496e-02 9.490913897752761841e-02
3.571886122226715088e-01 -1.206083819270133972e-01 3.346751332283020020e-01
