4.110936075448989868e-02 -7.171574514359235764e-03 8.526860922574996948e-02
2.717804014682769775e-01 9.620668739080429077e-02 -2.133290283381938934e-02
1.451114714145660400e-01 -9.635709226131439209e-02 -2.043048739433288574e-01
2.333092093467712402e-01 1.588418614119291306e-03 4.515982419252395630e-02
-5.987744405865669250e-02 7.541049271821975708e-03 -5.792427062988281250e-01
3.382211327552795410e-01 -9.560324996709823608e-02 -1.961729861795902252e-02
8.339792490005493164e-01 -7.122085988521575928e-02 -4.210213199257850647e-02
3.939523398876190186e-01 1.068632770329713821e-02 -1.943534053862094879e-02
-4.160736203193664551e-01 -6.152508780360221863e-02 -6.778423488140106201e-02
2.543644011020660400e-01 -4.117175936698913574e-02 2.590387165546417236e-01
4.511911571025848389e-01 7.088849693536758423e-02 3.517811745405197144e-02
-1.256163418292999268e-01 4.679204151034355164e-02 7.913401722908020020e-02
-7.330967783927917480e-01 7.013467699289321899e-02 -8.881763555109500885e-03
7.459894418716430664e-01 8.367756009101867676e-02 -1.343071833252906799e-02
2.921597063541412354e-01 -4.756629467010498047e-02 1.952753514051437378e-01
-7.387894988059997559e-01 2.941772043704986572e-01 -7.556067779660224915e-03
-6.993713229894638062e-02 -8.720718324184417725e-02 6.793059408664703369e-02
2.088600583374500275e-02 -3.093010745942592621e-02 6.070425361394882202e-02
-2.812426090240478516e-01 9.612870216369628906e-02 -2.216471359133720398e-02
-7.452100515365600586e-01 9.846816211938858032e-02 4.271215293556451797e-03
-7.055691480636596680e-01 1.322344094514846802e-01 6.454714108258485794e-03
-5.405478551983833313e-02 -3.093010745942592621e-02 4.877299070358276367e-02
6.065687164664268494e-02 -2.336584590375423431e-02 3.530851006507873535e-01
-1.945525109767913818e-01 2.043408900499343872e-02 -7.661138176918029785e-01
7.282207906246185303e-02 -3.022828325629234314e-02 2.890358269214630127e-01
1.502842754125595093e-01 7.413775473833084106e-02 5.852075293660163879e-02
-9.016048908233642578e-02 -3.093010745942592621e-02 -7.608056068420410156e-03
-5.944446325302124023e-01 7.624327391386032104e-02 -5.439731106162071228e-02
2.849853634834289551e-01 -7.899307459592819214e-02 -2.474029809236526489e-01
5.536076426506042480e-01 9.443909674882888794e-02 -3.100268170237541199e-02
-5.944446325302124023e-01 7.624327391386032104e-02 -5.439731106162071228e-02
2.517130076885223389e-01 6.758725643157958984e-02 -7.241117209196090698e-02
7.640925049781799316e-02 9.703849256038665771e-02 5.726881325244903564e-03
-1.039633229374885559e-01 -1.398200169205665588e-02 4.311711788177490234e-01
1.021433398127555847e-01 -2.040253020823001862e-02 2.534759938716888428e-01
6.338623911142349243e-02 -3.898825868964195251e-02 -1.254130005836486816e-01
-8.537610769271850586e-01 4.329333305358886719e-01 -2.591208321973681450e-03
1.021693348884582520e-01 -7.353433221578598022e-02 7.429912686347961426e-02
-3.435243070125579834e-01 9.709048271179199219e-02 -1.252092700451612473e-02
-1.194297745823860168e-01 -7.506796717643737793e-02 -7.082553952932357788e-02
2.640601694583892822e-01 -7.031106948852539062e-02 2.853966653347015381e-01
1.415355224162340164e-02 -1.525821685791015625e-01 1.375685930252075195e-01
-5.381675958633422852e-01 -5.570241808891296387e-02 -4.410367459058761597e-02
1.581084877252578735e-01 -3.563502430915832520e-02 2.362159341573715210e-01
-1.332585960626602173e-01 2.677663788199424744e-02 7.795950770378112793e-01
1.703256964683532715e-01 -3.170993924140930176e-02 -2.445176243782043457e-01
-8.395683765411376953e-01 3.280993998050689697e-01 -6.542300805449485779e-03
1.994389891624450684e-01 -7.176673412322998047e-02 3.463224321603775024e-02
3.467991352081298828e-01 -9.817666560411453247e-02 6.844623945653438568e-03
9.337443709373474121e-01 7.723012473434209824e-03 -8.075947873294353485e-03
8.035142421722412109e-01 5.115903168916702271e-02 4.495186731219291687e-02
1.972555071115493774e-01 -5.039963871240615845e-02 1.601314246654510498e-01
-6.232088804244995117e-02 -2.071445621550083160e-02 3.459367454051971436e-01
4.392598867416381836e-01 7.268209010362625122e-02 6.774863600730895996e-02
-1.376403495669364929e-02 9.189166873693466187e-02 -3.682534396648406982e-02
3.650841489434242249e-02 -1.468384452164173126e-02 4.351222813129425049e-01
-8.079336285591125488e-01 8.578308671712875366e-02 -2.023553252220153809e-01
-1.410568058490753174e-01 -7.717349380254745483e-02 -6.123374402523040771e-02
3.244442939758300781e-01 -4.343324899673461914e-02 2.281838059425354004e-01
3.128249645233154297e-01 3.090968355536460876e-02 -9.289446473121643066e-02
-9.010850638151168823e-02 -5.585934966802597046e-03 5.341334939002990723e-01
7.774162292480468750e-01 7.878975942730903625e-03 -7.851976901292800903e-02
3.302409350872039795e-01 -9.765677899122238159e-02 7.360273157246410847e-04
-7.953525185585021973e-01 6.620957702398300171e-02 -4.488349705934524536e-02
-8.634828329086303711e-01 3.954499661922454834e-01 -5.372569430619478226e-03
-5.499429106712341309e-01 9.347730875015258789e-02 2.090739458799362183e-02
2.181287109851837158e-01 -7.873312383890151978e-02 5.220420286059379578e-02
-1.608122736215591431e-01 2.477508969604969025e-02 -7.782790660858154297e-01
-2.452556230127811432e-02 -4.650147631764411926e-03 -4.591503441333770752e-01
-3.087702691555023193e-01 -3.787052631378173828e-02 -8.592806756496429443e-02
-4.940184950828552246e-02 5.746497772634029388e-04 5.848478674888610840e-01
5.346580147743225098e-01 4.437459632754325867e-02 7.780409883707761765e-03
1.376511901617050171e-01 -3.189189359545707703e-02 9.504236280918121338e-02
-5.355421900749206543e-01 9.651861339807510376e-02 3.075490007176995277e-03
5.688774213194847107e-02 -1.268230658024549484e-02 -3.489876389503479004e-01
-8.101171255111694336e-01 6.451996415853500366e-02 -1.395537555217742920e-01
-8.405041098594665527e-01 6.509183347225189209e-02 -1.497694104909896851e-01
-7.455219030380249023e-01 7.975246012210845947e-02 -1.128058955073356628e-01
7.891135215759277344e-01 6.223248690366744995e-02 -4.589726403355598450e-02
5.643432140350341797e-01 2.893413789570331573e-02 1.333890017122030258e-03
1.417062431573867798e-01 -5.684616044163703918e-02 7.858814299106597900e-02
-7.088963389396667480e-01 1.449194997549057007e-01 -1.363867055624723434e-02
3.239763975143432617e-01 -8.408790826797485352e-02 -5.169393122196197510e-02
2.270186841487884521e-01 -3.402339294552803040e-02 -8.748770505189895630e-02
1.552231460809707642e-01 -4.850207269191741943e-02 2.375156432390213013e-01
-9.424155205488204956e-02 1.058235578238964081e-02 8.649033308029174805e-02
2.408215105533599854e-01 -3.716868162155151367e-02 -2.557210624217987061e-01
3.942122757434844971e-01 1.617106981575489044e-02 -4.800700582563877106e-03
-7.526590675115585327e-02 -1.686832285486161709e-03 -5.752916336059570312e-01
2.431609630584716797e-01 -2.593925409018993378e-02 7.619669288396835327e-02
9.526615031063556671e-03 9.620668739080429077e-02 -2.143687941133975983e-02
1.124369725584983826e-01 -7.488601654767990112e-02 7.778233289718627930e-02
-1.676486730575561523e-01 -6.542419642210006714e-02 6.436941027641296387e-02
-2.691701240837574005e-02 -5.063359439373016357e-02 -8.608403056859970093e-02
-1.572835375554859638e-03 -1.717927120625972748e-02 -4.248642027378082275e-01
3.908182680606842041e-02 -5.684616044163703918e-02 -2.210190296173095703e-01
1.030011400580406189e-01 -4.200357198715209961e-02 2.119375318288803101e-01
6.226849928498268127e-02 -3.610293194651603699e-02 1.461206376552581787e-01
1.286507933400571346e-03 -6.784163415431976318e-02 6.275778263807296753e-02
-8.537610769271850586e-01 4.329333305358886719e-01 -2.591208321973681450e-03
1.979425735771656036e-02 -1.342563778162002563e-01 1.572460830211639404e-01
-6.697381287813186646e-02 -2.570628654211759567e-03 8.578848838806152344e-02
7.196834683418273926e-01 -4.689044505357742310e-02 -7.693413645029067993e-02
-4.013870060443878174e-01 6.127071008086204529e-02 7.060797512531280518e-02
2.362985461950302124e-01 -7.457499857991933823e-03 8.084962517023086548e-02
-6.604434847831726074e-01 2.620476670563220978e-02 5.657120048999786377e-02
7.282207906246185303e-02 -3.022828325629234314e-02 2.890358269214630127e-01
2.566890604794025421e-02 5.981504172086715698e-02 -7.859775424003601074e-02
2.754975259304046631e-01 -1.024656817317008972e-01 -2.947900891304016113e-01
-8.536311388015747070e-01 4.179087877273559570e-01 -1.863375422544777393e-03
4.496055543422698975e-01 9.490698575973510742e-02 2.173920348286628723e-02
-5.125374794006347656e-01 6.444198638200759888e-02 1.485078595578670502e-02
1.024032756686210632e-01 -8.985857665538787842e-02 -2.634153068065643311e-01
-3.247973695397377014e-02 -2.840868942439556122e-02 2.656151950359344482e-01
-3.231969475746154785e-01 9.326936304569244385e-02 2.636614069342613220e-02
1.492965072393417358e-01 -3.093010745942592621e-02 4.055887833237648010e-02
1.840245425701141357e-01 -2.970839478075504303e-02 -4.831470921635627747e-02
4.008667469024658203e-01 3.350908309221267700e-02 -2.505004964768886566e-02
2.049609459936618805e-02 -3.194480435922741890e-03 4.431544244289398193e-01
-4.347520694136619568e-02 -2.432763390243053436e-02 -3.126999735832214355e-01
6.338623911142349243e-02 -3.898825868964195251e-02 -1.254130005836486816e-01
9.265552461147308350e-02 -2.042852155864238739e-02 3.730225265026092529e-01
-3.262446727603673935e-03 -2.679705992341041565e-02 -2.679382562637329102e-01
-1.662710011005401611e-01 7.333095651119947433e-03 -6.693640351295471191e-01
3.874278366565704346e-01 5.443428084254264832e-02 2.745789103209972382e-02
2.830358147621154785e-01 -3.093010745942592621e-02 1.674835197627544403e-02
4.547635838389396667e-02 -5.648225173354148865e-02 7.032204419374465942e-02
-4.980847835540771484e-01 5.630585178732872009e-02 7.292144745588302612e-02
2.831917703151702881e-01 -1.016078740358352661e-01 2.511105239391326904e-01
5.514761209487915039e-01 2.870019339025020599e-02 -3.230238333344459534e-02
-8.694354891777038574e-01 8.713477104902267456e-02 -2.585804164409637451e-01
9.265552461147308350e-02 -2.042852155864238739e-02 3.730225265026092529e-01
3.045180812478065491e-02 9.581677615642547607e-02 1.776211708784103394e-02
-4.814226031303405762e-01 -2.227410487830638885e-02 7.596274465322494507e-02
1.568607687950134277e-01 -7.301443815231323242e-02 6.060027703642845154e-02
-3.152948021888732910e-01 -4.689044505357742310e-02 7.453307509422302246e-02
-8.171094655990600586e-01 1.403956022113561630e-02 4.973053932189941406e-03
4.233775436878204346e-01 9.722045809030532837e-02 -3.449011128395795822e-03
-1.455537527799606323e-01 -5.073755607008934021e-02 2.010158076882362366e-02
4.133958518505096436e-01 5.692970752716064453e-02 3.226678445935249329e-02
7.699039578437805176e-01 7.733502238988876343e-02 -2.900114282965660095e-02
-1.436821967363357544e-01 -9.336777031421661377e-02 2.537836693227291107e-02
-8.395164012908935547e-01 2.742647938430309296e-02 -1.621207967400550842e-02
2.530387043952941895e-01 -1.341264098882675171e-01 -2.443616688251495361e-01
3.197393715381622314e-01 8.157204836606979370e-02 -5.621689558029174805e-02
1.051326468586921692e-01 -1.036354079842567444e-01 -2.329242974519729614e-01
-1.269160509109497070e-01 -4.832110833376646042e-03 -5.535866618156433105e-01
1.572766751050949097e-01 -9.835862368345260620e-02 -1.202704198658466339e-02
-8.643926382064819336e-01 3.081100285053253174e-01 -1.915363594889640808e-03
-3.653852641582489014e-01 -8.206036686897277832e-02 -4.467554390430450439e-02
8.256983757019042969e-02 -9.495341032743453979e-02 5.763695389032363892e-02
-2.559131756424903870e-02 -2.614720724523067474e-02 3.388663530349731445e-01
7.348900437355041504e-01 8.489929139614105225e-02 8.768182247877120972e-03
-7.890099883079528809e-01 1.234224364161491394e-01 -8.491853252053260803e-03
-1.054077502340078354e-02 -4.452499002218246460e-02 -2.061244398355484009e-01
-8.795211315155029297e-01 4.335572421550750732e-01 -4.826694726943969727e-03
-3.231969475746154785e-01 9.326936304569244385e-02 2.636614069342613220e-02
1.847783625125885010e-01 -9.653905034065246582e-02 1.490277424454689026e-02
8.266749382019042969e-01 -6.960922479629516602e-02 3.777751699090003967e-02
2.136057466268539429e-01 -6.999914348125457764e-02 7.544286549091339111e-02
-3.403010368347167969e-01 -9.419958293437957764e-02 2.815549960359930992e-03
4.334892630577087402e-01 4.962538182735443115e-02 -8.494029194116592407e-02
7.785015273839235306e-03 -1.580158434808254242e-02 -4.360936284065246582e-01
-7.979779243469238281e-01 1.171838715672492981e-01 -7.504079956561326981e-03
-2.270598337054252625e-02 -2.744692191481590271e-02 -3.342490196228027344e-01
-8.737504482269287109e-01 3.022873401641845703e-01 -4.592748358845710754e-03
5.405846238136291504e-01 -9.011851996183395386e-02 3.333254158496856689e-02
5.534777045249938965e-01 1.864050514996051788e-02 -3.404398262500762939e-02
7.161158602684736252e-03 -1.691932603716850281e-02 -4.260079562664031982e-01
3.908182680606842041e-02 -5.684616044163703918e-02 -2.210190296173095703e-01
-8.101059496402740479e-02 6.789918988943099976e-02 -7.209924608469009399e-02
-7.953525185585021973e-01 6.620957702398300171e-02 -4.488349705934524536e-02
3.197393715381622314e-01 8.157204836606979370e-02 -5.621689558029174805e-02
8.966508507728576660e-01 -1.993464119732379913e-02 3.801146894693374634e-02
6.811715662479400635e-02 9.339933842420578003e-02 -3.339413180947303772e-02
2.027922272682189941e-01 -3.093010745942592621e-02 4.058487340807914734e-02
-6.201527714729309082e-01 8.567910641431808472e-02 -3.718926012516021729e-02
3.157362937927246094e-01 -1.272639781236648560e-01 -2.187315523624420166e-01
2.035980522632598877e-01 -9.388765692710876465e-02 2.410466037690639496e-02
3.461085259914398193e-02 9.342532604932785034e-02 -3.336814045906066895e-02
4.730781614780426025e-01 -6.945326179265975952e-02 6.148407235741615295e-02
9.202794432640075684e-01 3.615956287831068039e-03 2.194715477526187897e-02
2.511151432991027832e-01 -6.313768681138753891e-03 6.977616250514984131e-02
6.823236122727394104e-03 -2.989034727215766907e-02 -3.081510066986083984e-01
-1.420705616474151611e-01 6.371317896991968155e-03 -6.206512451171875000e-01
-8.763499259948730469e-01 7.374784350395202637e-02 1.690993756055831909e-01
1.826060935854911804e-02 -4.990575835108757019e-02 -1.900601536035537720e-01
2.085888981819152832e-01 -7.150679081678390503e-02 -4.368777200579643250e-02
2.943171858787536621e-01 -9.994426369667053223e-02 -2.106474041938781738e-01
6.323027610778808594e-02 -1.522971503436565399e-02 4.246726632118225098e-01
-6.232088804244995117e-02 -2.071445621550083160e-02 3.459367454051971436e-01
5.482268929481506348e-01 1.572917215526103973e-02 8.649033308029174805e-02
-4.419376552104949951e-01 -1.678936369717121124e-02 -8.813755959272384644e-02
2.248286968097090721e-03 -1.749119721353054047e-02 3.319259881973266602e-01
-2.179991304874420166e-01 -2.385973557829856873e-02 8.279917389154434204e-02
4.302400052547454834e-01 8.037631958723068237e-02 5.056658014655113220e-02
1.441236883401870728e-01 -1.183740347623825073e-01 2.317969501018524170e-01
5.161095038056373596e-02 -1.941476203501224518e-02 2.859685122966766357e-01
-5.757289528846740723e-01 -5.650824308395385742e-02 -1.467843167483806610e-02
-1.263961642980575562e-01 2.550196601077914238e-03 -6.205212473869323730e-01
2.062606625258922577e-02 -7.925301790237426758e-02 -1.352647393941879272e-01
1.459172815084457397e-01 6.636554002761840820e-02 6.613700091838836670e-02
1.970215588808059692e-01 -1.114596277475357056e-01 -2.027712166309356689e-01
6.050758361816406250e-01 9.311340004205703735e-02 2.319486811757087708e-02
-3.622287511825561523e-02 -4.806017503142356873e-02 2.059848904609680176e-01
-7.108978629112243652e-01 6.852304190397262573e-02 6.806056201457977295e-02
6.572570651769638062e-02 -7.566583156585693359e-02 -3.227638825774192810e-02
-6.956394314765930176e-01 9.553083777427673340e-02 -1.499035954475402832e-02
2.479438632726669312e-01 9.324336796998977661e-02 -3.375804796814918518e-02
-3.546905145049095154e-02 -9.877452999353408813e-02 -5.070615559816360474e-02
-8.495500683784484863e-01 7.426773011684417725e-02 1.456007510423660278e-01
-9.034097194671630859e-01 7.910261303186416626e-02 -2.435818463563919067e-01
2.066393643617630005e-01 -4.205555468797683716e-02 1.583855971693992615e-02
4.272099211812019348e-02 -3.373745828866958618e-02 1.745061278343200684e-01
6.037501096725463867e-01 7.036861777305603027e-02 -6.796619296073913574e-02
8.529920876026153564e-02 -9.835862368345260620e-02 -6.126396358013153076e-03
-5.362960100173950195e-01 7.788089662790298462e-02 5.217820778489112854e-02
5.995503440499305725e-02 -1.021797433495521545e-01 -3.620148822665214539e-02
-8.762719035148620605e-01 8.921428769826889038e-02 -3.228116333484649658e-01
1.614617109298706055e-01 -4.413507133722305298e-02 7.858814299106597900e-02
8.636496961116790771e-02 -2.139030024409294128e-02 2.498368173837661743e-01
-5.757873412221670151e-03 -6.298075616359710693e-02 -8.608403056859970093e-02
-6.529572010040283203e-01 -2.656311541795730591e-02 3.382642567157745361e-02
2.423923462629318237e-02 -2.571558288764208555e-04 4.715918898582458496e-01
-6.206986308097839355e-01 1.562788933515548706e-01 -1.158514246344566345e-02
-2.114634029567241669e-02 -3.160595893859863281e-02 -2.962457537651062012e-01
2.002448141574859619e-01 -8.705122023820877075e-02 7.429912686347961426e-02
2.272786051034927368e-01 -4.665650799870491028e-02 -2.079700231552124023e-01
7.024867087602615356e-02 6.493587046861648560e-02 -7.501057535409927368e-02
-8.160437345504760742e-01 7.941453903913497925e-02 -2.617202233523130417e-03
2.218570746481418610e-02 -1.041032969951629639e-01 -2.271058782935142517e-02
4.256910383701324463e-01 2.880416624248027802e-02 2.860162779688835144e-02
-2.996463477611541748e-01 1.118021737784147263e-02 8.638635277748107910e-02
-4.324126243591308594e-02 2.082307590171694756e-03 5.979488492012023926e-01
1.685840934514999390e-01 4.312688112258911133e-02 8.077164739370346069e-02
5.334362983703613281e-01 8.762864768505096436e-02 3.892125934362411499e-02
1.650488972663879395e-01 -9.872254729270935059e-02 2.810816466808319092e-01
3.796815872192382812e-01 2.367332781432196498e-04 8.610041439533233643e-02
1.861820518970489502e-01 -5.021768435835838318e-02 1.631467342376708984e-01
5.133429169654846191e-01 -9.531731903553009033e-02 2.056947164237499237e-02
-2.179991304874420166e-01 -2.385973557829856873e-02 8.279917389154434204e-02
1.755244880914688110e-01 -3.948215395212173462e-02 -8.608403056859970093e-02
5.984993577003479004e-01 4.757185652852058411e-02 7.762636989355087280e-02
2.810082733631134033e-01 -6.370858848094940186e-02 -1.889424026012420654e-01
6.520582735538482666e-02 5.550003796815872192e-02 7.380524277687072754e-02
-3.152948021888732910e-01 -4.689044505357742310e-02 7.453307509422302246e-02
7.089851796627044678e-02 -4.548677802085876465e-02 -5.304561927914619446e-02
-3.654892444610595703e-01 8.271578699350357056e-02 4.757726937532424927e-02
2.062606625258922577e-02 -7.925301790237426758e-02 -1.352647393941879272e-01
1.798914968967437744e-01 -1.251584738492965698e-01 -2.331062555313110352e-01
1.572766751050949097e-01 -9.835862368345260620e-02 -1.202704198658466339e-02
-1.847007572650909424e-01 6.940684467554092407e-02 -7.061758637428283691e-02
-1.677934266626834869e-02 9.412623941898345947e-03 8.649033308029174805e-02
3.874278366565704346e-01 5.443428084254264832e-02 2.745789103209972382e-02
7.648723572492599487e-02 -5.650824308395385742e-02 1.447949409484863281e-01
-5.142530798912048340e-01 9.722045809030532837e-02 -3.786933841183781624e-03
1.195333451032638550e-01 -5.975749343633651733e-02 -7.560843974351882935e-02
-9.232431650161743164e-01 8.705679327249526978e-02 3.193448483943939209e-01
-1.307631582021713257e-01 9.854522533714771271e-03 -6.873519420623779297e-01
2.384820431470870972e-01 -6.035535410046577454e-02 1.101968809962272644e-01
-7.445082068443298340e-01 5.287464335560798645e-02 3.372245281934738159e-02
7.785015273839235306e-03 -1.580158434808254242e-02 -4.360936284065246582e-01
-8.298613131046295166e-02 1.001048553735017776e-02 6.749951243400573730e-01
7.456515431404113770e-01 -6.243487447500228882e-02 5.857274308800697327e-02
-1.080443784594535828e-01 7.125151343643665314e-03 -6.056526899337768555e-01
4.999932274222373962e-02 -3.709069266915321350e-02 2.380875200033187866e-01
1.006616875529289246e-01 -2.968240343034267426e-02 1.565182507038116455e-01
1.461772173643112183e-01 -3.015029244124889374e-02 2.757528722286224365e-01
-5.655393004417419434e-01 7.286404818296432495e-02 -6.149368360638618469e-02
6.226218342781066895e-01 -2.973438426852226257e-02 8.022576570510864258e-02
1.994389891624450684e-01 -7.176673412322998047e-02 3.463224321603775024e-02
-5.411568880081176758e-01 7.179828733205795288e-02 5.813084542751312256e-02
-7.484592795372009277e-01 2.783988416194915771e-01 2.633591648191213608e-03
4.729481637477874756e-01 4.967737197875976562e-02 -8.735774457454681396e-02
1.935235783457756042e-02 -5.474064871668815613e-02 1.595075577497482300e-01
4.008667469024658203e-01 3.350908309221267700e-02 -2.505004964768886566e-02
-2.080841921269893646e-02 8.008947595953941345e-03 -5.847014784812927246e-01
5.036211609840393066e-01 5.882726982235908508e-02 4.749928787350654602e-02
-6.367109417915344238e-01 8.048029989004135132e-02 -4.363578185439109802e-02
1.124369725584983826e-01 -7.488601654767990112e-02 7.778233289718627930e-02
-1.102278828620910645e-01 4.447761923074722290e-03 6.279719471931457520e-01
1.884695291519165039e-01 -3.093010745942592621e-02 2.556032501161098480e-02
-5.237149000167846680e-01 6.444198638200759888e-02 -2.042311243712902069e-02
8.714478462934494019e-02 -8.601240813732147217e-03 8.511264622211456299e-02
-6.368929147720336914e-01 -4.140571132302284241e-02 8.586224168539047241e-03
-6.366329789161682129e-01 1.716673523187637329e-01 -1.122122723609209061e-02
3.953300118446350098e-01 -1.011928980005905032e-04 -9.351833164691925049e-02
-7.578430771827697754e-01 2.441117353737354279e-02 2.945942990481853485e-02
2.027922272682189941e-01 -2.593925409018993378e-02 -1.250490844249725342e-01
-5.389474034309387207e-01 1.614409149624407291e-03 7.570280879735946655e-02
-6.993713229894638062e-02 -8.720718324184417725e-02 6.793059408664703369e-02
-1.307631582021713257e-01 9.854522533714771271e-03 -6.873519420623779297e-01
-9.795869886875152588e-02 -9.393963962793350220e-02 -3.144457936286926270e-02
2.330752760171890259e-01 -7.077895849943161011e-02 2.257101237773895264e-02
-4.403260648250579834e-01 9.300941973924636841e-02 3.335430286824703217e-03
7.657968997955322266e-01 -1.635516583919525146e-01 7.468481548130512238e-03
6.769493818283081055e-01 7.590534538030624390e-02 4.994272068142890930e-02
4.508012831211090088e-01 5.401837453246116638e-02 3.634784743189811707e-02
1.605111733078956604e-02 -1.645134240388870239e-01 1.422995179891586304e-01
1.214309111237525940e-01 -6.337066739797592163e-02 -2.379931360483169556e-01
-2.298783957958221436e-01 3.886385262012481689e-02 8.264321088790893555e-02
-4.876871705055236816e-01 1.136486828327178955e-01 -6.542300805449485779e-03
5.375693440437316895e-01 1.422151364386081696e-02 8.649033308029174805e-02
-9.423031471669673920e-03 -2.528941258788108826e-02 2.765066921710968018e-01
-2.761885523796081543e-02 -2.180620655417442322e-02 -3.860291540622711182e-01
1.572766751050949097e-01 -9.835862368345260620e-02 -1.202704198658466339e-02
-7.584669589996337891e-01 4.949541017413139343e-02 -1.925338059663772583e-02
-7.199066132307052612e-02 -3.428333997726440430e-02 3.116506338119506836e-01
-7.216334342956542969e-01 2.190284878015518188e-01 -1.231297478079795837e-02
2.485937178134918213e-01 -3.093010745942592621e-02 -1.727783493697643280e-02
-5.126674771308898926e-01 -7.174074649810791016e-02 -7.790014147758483887e-03
8.944673538208007812e-01 2.290261443704366684e-03 -4.301192238926887512e-02
3.132148683071136475e-01 -4.000202566385269165e-02 2.228550165891647339e-01
8.866171836853027344e-01 3.408095240592956543e-02 -1.920139230787754059e-02
7.456515431404113770e-01 -6.243487447500228882e-02 5.857274308800697327e-02
-6.485706660896539688e-03 -1.208444591611623764e-02 -4.718613922595977783e-01
-3.582109212875366211e-01 6.514382362365722656e-02 6.787860393524169922e-02
-2.638265788555145264e-01 -5.863974243402481079e-02 -7.636226713657379150e-02
5.571800842881202698e-02 -7.595176249742507935e-02 -6.268940865993499756e-02
-8.199836313724517822e-02 -9.266592562198638916e-02 4.734331741929054260e-02
1.347398459911346436e-01 -7.363831251859664917e-02 -7.108547538518905640e-02
-7.762728929519653320e-01 -1.270924694836139679e-03 5.540692363865673542e-04
-3.390940651297569275e-02 -1.016858667135238647e-01 3.218880295753479004e-02
-8.759599924087524414e-01 2.792826294898986816e-01 -3.630969673395156860e-03
6.775324046611785889e-02 -2.139030024409294128e-02 2.600524723529815674e-01
-2.456631744280457497e-03 -5.713209509849548340e-02 3.546405211091041565e-02
-1.165444254875183105e-01 -5.258313938975334167e-02 -7.420475780963897705e-02
5.044122040271759033e-02 9.722045809030532837e-02 -9.947518818080425262e-03
2.124992199242115021e-02 -6.495722103863954544e-03 4.120395779609680176e-01
1.508041620254516602e-01 -1.149428114295005798e-01 2.104298770427703857e-01
4.902861714363098145e-01 2.914209105074405670e-02 1.329114474356174469e-02
2.264468073844909668e-01 -7.098690420389175415e-02 -5.847837030887603760e-02
2.341670244932174683e-01 -5.377886071801185608e-02 -2.813511788845062256e-01
-2.277208864688873291e-01 -8.476374298334121704e-02 -5.049820616841316223e-02
9.253222346305847168e-01 -5.801589041948318481e-02 -1.512032933533191681e-02
1.102274805307388306e-01 9.722045809030532837e-02 8.194687325158156455e-06
3.856194764375686646e-02 -5.931559577584266663e-02 -1.439467370510101318e-01
5.730772018432617188e-01 -8.806499093770980835e-02 3.704968839883804321e-02
1.168039739131927490e-01 -3.093010745942592621e-02 -3.401798754930496216e-02
-6.063126772642135620e-02 8.294973522424697876e-02 4.664148017764091492e-02
4.392079114913940430e-01 9.722045809030532837e-02 -6.542300805449485779e-03
-8.511357307434082031e-01 6.163462623953819275e-02 1.191648170351982117e-01
-7.923111915588378906e-01 3.694819211959838867e-01 -5.632509477436542511e-03
-4.419376552104949951e-01 -1.678936369717121124e-02 -8.813755959272384644e-02
3.806433975696563721e-01 5.729362741112709045e-02 5.828680843114852905e-02
-8.079336285591125488e-01 8.578308671712875366e-02 -2.023553252220153809e-01
4.508012831211090088e-01 5.401837453246116638e-02 3.634784743189811707e-02
-1.031315103173255920e-01 1.713284850120544434e-02 -7.420433759689331055e-01
7.458966970443725586e-02 -6.129113212227821350e-02 -1.333671659231185913e-01
-5.272908881306648254e-02 8.874639868736267090e-02 3.639983758330345154e-02
3.157362937927246094e-01 -1.272639781236648560e-01 -2.187315523624420166e-01
-8.205927014350891113e-01 1.660526394844055176e-01 -6.360342726111412048e-03
-1.988675147294998169e-01 2.162981219589710236e-02 -7.784090638160705566e-01
-5.861849989742040634e-03 -1.996063254773616791e-02 3.926480412483215332e-01
-1.267228741198778152e-02 -1.881689205765724182e-02 -3.379141986370086670e-01
2.156332880258560181e-01 -9.635709226131439209e-02 -2.330844849348068237e-02
4.181267619132995605e-01 9.581677615642547607e-02 1.778811030089855194e-02
2.462914772331714630e-02 -4.546076804399490356e-02 -2.448295503854751587e-01
-3.796447813510894775e-02 -6.043334677815437317e-02 -7.516654580831527710e-02
2.118901312351226807e-01 -7.756339758634567261e-02 -8.486230671405792236e-02
5.055447220802307129e-01 5.017126351594924927e-02 2.548234350979328156e-02
2.397297471761703491e-01 -2.593925409018993378e-02 -7.059159129858016968e-02
-7.735175490379333496e-01 8.349560201168060303e-02 -1.766774430871009827e-02
-1.263961642980575562e-01 2.550196601077914238e-03 -6.205212473869323730e-01
2.702727317810058594e-01 -5.806787312030792236e-02 8.500866591930389404e-02
-3.645794689655303955e-01 -9.235399961471557617e-02 -1.200104597955942154e-02
-1.859892532229423523e-02 -3.735063597559928894e-02 -2.055525779724121094e-01
-7.648763060569763184e-02 -1.559363119304180145e-02 -4.370034039020538330e-01
-5.394412875175476074e-01 7.348790019750595093e-02 1.573458313941955566e-02
-3.842309415340423584e-01 1.848453283309936523e-02 8.584047853946685791e-02
3.538175523281097412e-01 -9.549929201602935791e-02 1.991962268948554993e-02
1.334773749113082886e-02 -1.052210479974746704e-01 1.146158650517463684e-01
3.346711769700050354e-02 -1.308511644601821899e-01 -1.567877978086471558e-01
-5.030042026191949844e-03 -1.022837236523628235e-01 2.795177698135375977e-02
1.021433398127555847e-01 -1.663340069353580475e-02 2.889318466186523438e-01
7.581027150154113770e-01 6.433800607919692993e-02 -5.473523214459419250e-02
2.109543532133102417e-01 -5.778193846344947815e-02 -8.608403056859970093e-02
-5.592747330665588379e-01 -4.922990873456001282e-02 3.845336660742759705e-02
-7.858126759529113770e-01 6.925088167190551758e-02 -1.691089570522308350e-01
3.137347400188446045e-01 -7.647165656089782715e-02 -2.888374328613281250e-01
5.721154212951660156e-01 9.716846793889999390e-02 -4.410790279507637024e-03
-8.425984531641006470e-02 -4.652653634548187256e-02 -8.062528818845748901e-02
7.282207906246185303e-02 -3.022828325629234314e-02 2.890358269214630127e-01
-8.160437345504760742e-01 7.941453903913497925e-02 -2.617202233523130417e-03
1.086938381195068359e-01 -9.685097634792327881e-02 -2.086501196026802063e-02
2.341930121183395386e-01 6.163363810628652573e-03 2.142727561295032501e-02
6.972879171371459961e-02 -4.590266570448875427e-02 1.967050284147262573e-01
6.065687164664268494e-02 -2.336584590375423431e-02 3.530851006507873535e-01
1.316205710172653198e-01 -3.974208235740661621e-02 2.196317464113235474e-01
7.714375853538513184e-01 -7.722547650337219238e-02 1.349909603595733643e-02
-3.582109212875366211e-01 6.514382362365722656e-02 6.787860393524169922e-02
1.802294105291366577e-01 6.823711097240447998e-02 6.429143249988555908e-02
-7.669558376073837280e-02 -3.093010745942592621e-02 7.107587158679962158e-02
2.191684693098068237e-01 -1.179581284523010254e-01 2.774684727191925049e-01
4.999932274222373962e-02 -3.709069266915321350e-02 2.380875200033187866e-01
4.110936075448989868e-02 -7.171574514359235764e-03 8.526860922574996948e-02
-3.939414769411087036e-02 -4.855405539274215698e-02 -1.604789495468139648e-01
-2.611119672656059265e-02 -4.496688768267631531e-02 -2.150144129991531372e-01
-6.088973283767700195e-01 6.194655597209930420e-02 5.737701430916786194e-02
-4.439651966094970703e-01 -7.457409054040908813e-02 -4.358379542827606201e-02
2.566890604794025421e-02 5.981504172086715698e-02 -7.859775424003601074e-02
-5.149809122085571289e-01 -5.762597545981407166e-02 -5.166793987154960632e-02
-9.423031471669673920e-03 -6.519024819135665894e-02 1.184629872441291809e-01
1.068742498755455017e-01 -3.002032078802585602e-02 -8.860545605421066284e-02
-4.290990182198584080e-04 -2.315790206193923950e-02 -2.955179214477539062e-01
1.078880205750465393e-01 -8.130654692649841309e-02 2.094420939683914185e-01
-3.887426853179931641e-02 8.414545655250549316e-02 -5.229179561138153076e-02
1.316577941179275513e-02 -1.486579794436693192e-02 -4.440217912197113037e-01
-7.110798358917236328e-01 7.325395941734313965e-02 -7.095550745725631714e-02
2.468521147966384888e-01 -7.038903981447219849e-02 6.400549411773681641e-02
1.703256964683532715e-01 -3.170993924140930176e-02 -2.445176243782043457e-01
-4.317480325698852539e-01 -8.575250394642353058e-03 -9.052900969982147217e-02
-8.743483424186706543e-01 6.592363864183425903e-02 -1.627144217491149902e-01
3.132148683071136475e-01 -4.000202566385269165e-02 2.228550165891647339e-01
1.235104277729988098e-01 -2.071445621550083160e-02 -2.491705715656280518e-01
-4.142168164253234863e-02 -1.050390973687171936e-01 8.560230955481529236e-03
3.165681064128875732e-01 -5.427274107933044434e-02 -2.753725647926330566e-01
-7.726337313652038574e-01 6.938084214925765991e-02 3.554203361272811890e-02
2.416273057460784912e-01 2.420224249362945557e-03 3.733561933040618896e-02
6.305239796638488770e-01 8.331365138292312622e-02 4.196255654096603394e-02
4.508012831211090088e-01 4.559630900621414185e-02 2.958939969539642334e-02
2.832957208156585693e-01 -4.488889873027801514e-02 5.415375530719757080e-02
7.097650319337844849e-02 -1.894686371088027954e-02 -3.989741802215576172e-01
1.076800674200057983e-01 9.287945181131362915e-02 -3.461585193872451782e-02
8.095448613166809082e-01 7.023864984512329102e-02 -1.423653308302164078e-02
1.277586910873651505e-02 -8.172245323657989502e-02 7.676856219768524170e-02
1.798914968967437744e-01 -1.251584738492965698e-01 -2.331062555313110352e-01
-9.322778135538101196e-02 4.005863796919584274e-03 -9.393422305583953857e-02
-8.425984531641006470e-02 -4.652653634548187256e-02 -8.062528818845748901e-02
5.336962342262268066e-01 9.628467261791229248e-02 -2.063106372952461243e-02
4.372063577175140381e-01 5.087309703230857849e-02 3.224079310894012451e-02
-3.799678981304168701e-01 -7.278050482273101807e-02 5.132040753960609436e-02
4.694910049438476562e-01 6.423308514058589935e-03 -9.393422305583953857e-02
-7.455219030380249023e-01 7.975246012210845947e-02 -1.128058955073356628e-01
-3.671676293015480042e-02 -2.934545511379837990e-03 -4.804654419422149658e-01
3.614450246095657349e-02 -4.933388903737068176e-02 -1.913078427314758301e-01
6.226849928498268127e-02 -3.610293194651603699e-02 1.461206376552581787e-01
7.058547139167785645e-01 -4.696843400597572327e-02 7.078993320465087891e-02
8.966508507728576660e-01 -1.993464119732379913e-02 3.801146894693374634e-02
-4.876871705055236816e-01 1.136486828327178955e-01 -6.542300805449485779e-03
4.298500716686248779e-01 3.922776877880096436e-02 -7.192151620984077454e-03
-2.897053956985473633e-02 -6.373457610607147217e-02 6.548715382814407349e-02
-6.485706660896539688e-03 -1.208444591611623764e-02 -4.718613922595977783e-01
-5.255604982376098633e-01 -1.218841783702373505e-02 -8.215893059968948364e-02
-1.480379700660705566e-02 -4.249745234847068787e-02 -1.722282320261001587e-01
3.656708300113677979e-01 3.441888093948364258e-02 8.459276705980300903e-02
3.014135956764221191e-01 -8.473774790763854980e-02 -2.740988433361053467e-01
-1.792160272598266602e-01 2.560690604150295258e-02 7.892388701438903809e-01
1.508561521768569946e-01 -2.071445621550083160e-02 -2.418402433395385742e-01
-1.262661963701248169e-01 -9.147020429372787476e-02 -3.752718493342399597e-02
-8.069866150617599487e-02 -9.752680361270904541e-02 -3.685133904218673706e-02
-4.552873596549034119e-02 -3.093010745942592621e-02 3.195485845208168030e-02
4.692050516605377197e-01 1.648299582302570343e-02 -4.540760535746812820e-03
1.731590330600738525e-01 -1.046231910586357117e-01 -2.032391279935836792e-01
1.078880205750465393e-01 -8.130654692649841309e-02 2.094420939683914185e-01
-1.927476935088634491e-02 -9.303083643317222595e-03 4.111037850379943848e-01
2.270186841487884521e-01 -3.402339294552803040e-02 -8.748770505189895630e-02
6.050758361816406250e-01 9.311340004205703735e-02 2.319486811757087708e-02
3.199213147163391113e-01 -1.064427644014358521e-01 -2.128569036722183228e-01
2.000220865011215210e-02 -5.450669676065444946e-02 7.164773344993591309e-02
6.592473983764648438e-01 -8.343804627656936646e-02 -5.213582888245582581e-02
-1.455537527799606323e-01 -7.582179456949234009e-02 1.838597469031810760e-02
-3.676874935626983643e-02 -6.407249718904495239e-02 -1.324313879013061523e-01
-5.851647853851318359e-01 6.423403322696685791e-02 -6.635456532239913940e-02
-8.525654077529907227e-01 7.522950321435928345e-02 -1.625844687223434448e-01
3.080940246582031250e-01 -3.093010745942592621e-02 2.017956227064132690e-02
5.118352770805358887e-01 -8.359400928020477295e-02 -5.257772654294967651e-02
2.485937178134918213e-01 -3.093010745942592621e-02 -1.727783493697643280e-02
1.522338390350341797e-01 -6.368259340524673462e-02 -2.757104635238647461e-01
9.577367901802062988e-01 -7.249556016176939011e-03 -8.985739201307296753e-03
3.536615967750549316e-01 -6.890738755464553833e-02 6.202994659543037415e-02
2.169849723577499390e-01 -1.738722436130046844e-02 -9.159476310014724731e-02
-7.648763060569763184e-02 -1.559363119304180145e-02 -4.370034039020538330e-01
5.894126743078231812e-02 3.259929642081260681e-02 8.524262160062789917e-02
4.277445673942565918e-01 -5.871773511171340942e-02 6.884038448333740234e-02
-9.257793426513671875e-02 4.525743424892425537e-03 -5.752136707305908203e-01
1.491925269365310669e-01 -3.586897999048233032e-02 -2.439717501401901245e-01
-1.583168208599090576e-01 -2.261202223598957062e-02 8.313710242509841919e-02
-6.366329789161682129e-01 1.716673523187637329e-01 -1.122122723609209061e-02
1.482047587633132935e-01 -1.108617484569549561e-01 -2.171459048986434937e-01
1.963457018136978149e-01 -2.775884792208671570e-02 8.454077690839767456e-02
4.354907870292663574e-01 -1.439790893346071243e-02 8.446279168128967285e-02
3.128249645233154297e-01 3.090968355536460876e-02 -9.289446473121643066e-02
-5.757289528846740723e-01 -5.650824308395385742e-02 -1.467843167483806610e-02
5.637972950935363770e-01 3.618647158145904541e-02 -9.128283709287643433e-02
3.487079590559005737e-02 -4.104277119040489197e-03 -4.372373521327972412e-01
5.133429169654846191e-01 -9.531731903553009033e-02 2.056947164237499237e-02
7.581027150154113770e-01 6.433800607919692993e-02 -5.473523214459419250e-02
2.012845724821090698e-01 -2.544537372887134552e-02 1.512154638767242432e-01
2.719623446464538574e-01 -6.953125447034835815e-02 -6.887598335742950439e-02
1.417062431573867798e-01 -6.789361685514450073e-02 -1.001727953553199768e-01
3.429520428180694580e-01 9.586876630783081055e-02 1.737220771610736847e-02
1.467231065034866333e-01 -9.269193559885025024e-02 -2.858221530914306641e-01
2.757574617862701416e-01 -3.093010745942592621e-02 1.136758644133806229e-02
5.348399281501770020e-01 -5.684616044163703918e-02 -7.755798846483230591e-02
8.483131974935531616e-02 -2.037654072046279907e-02 2.598705291748046875e-01
-5.408709645271301270e-01 3.311917558312416077e-02 -8.499228209257125854e-02
-8.937659263610839844e-01 3.982052803039550781e-01 -4.618742503225803375e-03
4.823172464966773987e-02 -7.241658121347427368e-02 -2.404885590076446533e-01
5.537896156311035156e-01 3.722623363137245178e-02 -1.184508390724658966e-02
-2.873659692704677582e-02 -6.908936053514480591e-02 1.053619906306266785e-01
-3.653852641582489014e-01 -8.206036686897277832e-02 -4.467554390430450439e-02
9.340935200452804565e-02 -3.132002428174018860e-02 -1.589972823858261108e-01
-2.498418092727661133e-01 6.280435621738433838e-02 -7.675217837095260620e-02
-2.310221195220947266e-01 9.259351342916488647e-02 2.779581211507320404e-02
-9.166146516799926758e-01 8.905832469463348389e-02 3.327057659626007080e-01
2.215079367160797119e-01 -4.912592470645904541e-02 2.305232584476470947e-01
1.746146976947784424e-01 -1.243526488542556763e-01 2.415187358856201172e-01
3.231965601444244385e-01 -6.810157746076583862e-02 7.107587158679962158e-02
6.356820464134216309e-02 -8.289218693971633911e-02 4.635554552078247070e-02
2.923676669597625732e-01 9.142377972602844238e-02 -3.786510601639747620e-02
8.405297398567199707e-01 -3.909223899245262146e-02 5.012467876076698303e-02
6.356820464134216309e-02 -8.289218693971633911e-02 4.635554552078247070e-02
2.027922272682189941e-01 -3.093010745942592621e-02 4.058487340807914734e-02
1.617996394634246826e-01 -5.676818639039993286e-02 1.355410665273666382e-01
-3.057029843330383301e-01 -5.754800140857696533e-02 6.873640418052673340e-02
-4.230400323867797852e-01 -5.193329602479934692e-02 -7.446470111608505249e-02
-4.675045982003211975e-02 -9.653905034065246582e-02 1.485078595578670502e-02
4.526988267898559570e-01 4.445257782936096191e-02 -1.379463449120521545e-02
2.194803953170776367e-01 -2.700501307845115662e-02 1.664437353610992432e-02
2.631243765354156494e-01 -5.331097170710563660e-02 -2.330844849348068237e-02
8.096748590469360352e-01 -4.663049802184104919e-02 -6.255944073200225830e-02
1.009216234087944031e-01 -7.179272919893264771e-02 -8.902135491371154785e-02
6.783122569322586060e-02 -4.598065838217735291e-02 5.087850987911224365e-02
-4.614137113094329834e-03 -9.277083911001682281e-03 4.896057248115539551e-01
-8.511357307434082031e-01 6.163462623953819275e-02 1.191648170351982117e-01
3.258331865072250366e-02 -1.985665969550609589e-02 2.941826283931732178e-01
2.698568403720855713e-01 -1.171783134341239929e-01 -1.985861808061599731e-01
-7.838891744613647461e-01 2.393558025360107422e-01 -9.479626081883907318e-03
-4.071984812617301941e-02 -8.965157903730869293e-03 -4.346119463443756104e-01
-4.552873596549034119e-02 -3.093010745942592621e-02 3.195485845208168030e-02
3.869599103927612305e-01 6.324625760316848755e-02 6.270579248666763306e-02
1.469570547342300415e-01 -6.958323717117309570e-02 6.135410442948341370e-02
8.339792490005493164e-01 -7.122085988521575928e-02 -4.210213199257850647e-02
8.823653310537338257e-02 -8.970261365175247192e-02 2.222571521997451782e-01
5.229867100715637207e-01 -9.812469035387039185e-02 -1.457445695996284485e-02
2.530387043952941895e-01 -1.341264098882675171e-01 -2.443616688251495361e-01
1.410044133663177490e-01 -3.093010745942592621e-02 -5.117405205965042114e-02
-1.570171415805816650e-01 -9.695495665073394775e-02 -2.029314264655113220e-02
-7.373598217964172363e-01 7.967448234558105469e-02 4.895071964710950851e-03
-7.578430771827697754e-01 2.441117353737354279e-02 2.945942990481853485e-02
-8.669920563697814941e-01 6.865300983190536499e-02 -1.811701804399490356e-01
-7.450280785560607910e-01 1.915007978677749634e-01 -1.155914831906557083e-02
-5.125374794006347656e-01 6.444198638200759888e-02 1.485078595578670502e-02
5.258720517158508301e-01 3.405496478080749512e-02 3.468422964215278625e-02
3.281614184379577637e-01 -4.912592470645904541e-02 2.473933845758438110e-01
-8.208006620407104492e-01 6.173860281705856323e-02 -4.088041558861732483e-02
3.549093008041381836e-01 -5.619631707668304443e-02 -2.775342762470245361e-02
-6.355736870318651199e-03 -1.782912202179431915e-02 3.344733715057373047e-01
7.108047604560852051e-02 -2.419766224920749664e-02 -2.402805984020233154e-01
-6.600536108016967773e-01 1.425800323486328125e-01 8.352277800440788269e-03
-7.390754222869873047e-01 5.001530051231384277e-02 1.175749581307172775e-02
-7.216334342956542969e-01 2.190284878015518188e-01 -1.231297478079795837e-02
-7.575979828834533691e-02 -3.818341996520757675e-03 4.902295768260955811e-01
2.341670244932174683e-01 -5.377886071801185608e-02 -2.813511788845062256e-01
-7.546458244323730469e-01 5.214681103825569153e-02 -3.781311586499214172e-02
-6.485706660896539688e-03 -1.208444591611623764e-02 -4.718613922595977783e-01
3.762616217136383057e-02 -6.071926280856132507e-02 1.312780529260635376e-01
2.310997247695922852e-01 -6.209695711731910706e-02 1.053100004792213440e-01
3.146445453166961670e-01 -6.324069947004318237e-02 2.579989433288574219e-01
5.644731521606445312e-01 6.537776440382003784e-02 6.709878146648406982e-02
-5.592747330665588379e-01 -4.922990873456001282e-02 3.845336660742759705e-02
-1.676486730575561523e-01 -6.542419642210006714e-02 6.436941027641296387e-02
1.361175328493118286e-01 -5.952353775501251221e-02 -1.347968429327011108e-01
5.473022907972335815e-02 -1.517773326486349106e-02 -3.265548050403594971e-01
-8.894509077072143555e-01 8.261180669069290161e-02 -2.487286627292633057e-01
-3.065347969532012939e-01 8.193596452474594116e-02 -5.582698062062263489e-02
-6.553747057914733887e-01 6.444198638200759888e-02 9.262069128453731537e-03
-7.055691480636596680e-01 1.322344094514846802e-01 6.454714108258485794e-03
4.601851105690002441e-01 -9.835862368345260620e-02 -4.436784423887729645e-03
4.290182888507843018e-01 5.326455086469650269e-02 6.585106998682022095e-02
-3.451099097728729248e-01 -3.246471518650650978e-03 8.508665859699249268e-02
-8.350453972816467285e-01 3.626194894313812256e-01 -6.880223751068115234e-03
2.468521147966384888e-01 -7.038903981447219849e-02 6.400549411773681641e-02
5.831740796566009521e-02 -4.546076804399490356e-02 -2.025372833013534546e-01
1.899511814117431641e-01 -3.287967294454574585e-02 -2.448295503854751587e-01
-1.002721637487411499e-01 5.108105018734931946e-02 -8.403050154447555542e-02
4.302400052547454834e-01 8.037631958723068237e-02 5.056658014655113220e-02
3.890394568443298340e-01 -8.154048025608062744e-02 -5.626888200640678406e-02
1.537527237087488174e-02 -1.871291920542716980e-02 3.139120936393737793e-01
3.530377149581909180e-01 4.060545563697814941e-02 8.186339586973190308e-02
1.213269308209419250e-01 -1.598354801535606384e-02 2.926489710807800293e-01
6.863331794738769531e-01 9.173570573329925537e-02 5.388958845287561417e-03
-2.761885523796081543e-02 -2.846067026257514954e-02 -3.256190121173858643e-01
-1.371204666793346405e-02 -2.378175407648086548e-02 -4.280354976654052734e-01
8.675115704536437988e-01 1.099825371056795120e-02 4.599163308739662170e-02
-5.186200737953186035e-01 6.316827237606048584e-02 -7.547846436500549316e-02
7.932205796241760254e-01 -7.550986856222152710e-02 4.035092890262603760e-02
-2.400568313896656036e-02 3.413294255733489990e-02 8.472274243831634521e-02
-3.591094911098480225e-02 -3.932619467377662659e-02 1.992004513740539551e-01
-7.394133210182189941e-01 9.844217449426651001e-02 -1.210502348840236664e-02
2.830358147621154785e-01 -3.093010745942592621e-02 1.674835197627544403e-02
1.109553202986717224e-01 -3.098210692405700684e-02 2.772605121135711670e-01
4.586626589298248291e-02 -4.946386069059371948e-02 -5.330555886030197144e-02
4.785368740558624268e-01 4.083940014243125916e-02 3.910321742296218872e-02
1.147504448890686035e-01 -9.911244362592697144e-02 2.183060497045516968e-01
-4.796095192432403564e-03 -2.469154074788093567e-02 3.495499193668365479e-01
7.421098183840513229e-03 -3.558304160833358765e-02 2.489010393619537354e-01
-5.019319057464599609e-01 -6.355262547731399536e-02 -4.457156732678413391e-02
8.561002016067504883e-01 1.164810545742511749e-02 -5.702270939946174622e-02
-2.514941990375518799e-02 -2.934545511379837990e-03 5.499898791313171387e-01
2.855052351951599121e-01 -4.062587767839431763e-02 -2.651049196720123291e-01
-2.363768965005874634e-01 -8.944266289472579956e-02 -4.210213199257850647e-02
2.886617369949817657e-02 -4.377116635441780090e-02 2.093901187181472778e-01
-8.655104041099548340e-01 6.075083091855049133e-02 1.157596036791801453e-01
2.109283655881881714e-01 -1.205575317144393921e-01 2.719057500362396240e-01
1.340380162000656128e-01 -7.652363926172256470e-02 -8.501827716827392578e-02
-5.149809122085571289e-01 -5.762597545981407166e-02 -5.166793987154960632e-02
4.028162658214569092e-01 3.696629777550697327e-02 -4.436784423887729645e-03
-1.759927719831466675e-01 -9.835862368345260620e-02 2.399645512923598289e-03
3.323984742164611816e-01 8.960420638322830200e-02 3.450227156281471252e-02
1.001158058643341064e-01 -7.330037653446197510e-02 2.341884225606918335e-01
-1.859892532229423523e-02 -3.735063597559928894e-02 -2.055525779724121094e-01
-5.179182291030883789e-01 9.501095861196517944e-02 -2.855924144387245178e-02
4.713997989892959595e-02 6.394809484481811523e-02 -7.597235590219497681e-02
8.636496961116790771e-02 -2.139030024409294128e-02 2.498368173837661743e-01
-7.405831217765808105e-01 6.225848197937011719e-02 1.002671718597412109e-01
-6.928060054779052734e-01 2.201722115278244019e-01 -1.072734035551548004e-02
3.473190367221832275e-01 -3.093010745942592621e-02 -4.033453762531280518e-02
5.984993577003479004e-01 4.757185652852058411e-02 7.762636989355087280e-02
7.108047604560852051e-02 -2.419766224920749664e-02 -2.402805984020233154e-01
8.882288336753845215e-01 3.452285006642341614e-02 -1.062336284667253494e-02
5.537896156311035156e-01 3.722623363137245178e-02 -1.184508390724658966e-02
5.938316509127616882e-02 -5.585934966802597046e-03 -4.398107826709747314e-01
3.144105970859527588e-01 -7.904504984617233276e-02 1.986025869846343994e-01
-3.084211051464080811e-02 -9.835862368345260620e-02 -1.077932771295309067e-02
2.812941968441009521e-01 -6.526821851730346680e-02 -3.144457936286926270e-02
