-5.201985836029052734e-01 4.473579674959182739e-02 7.707823067903518677e-02
6.766655445098876953e-01 1.062202304601669312e-01 1.891434192657470703e-02
2.725666761398315430e-01 -4.361233487725257874e-02 1.946580111980438232e-01
-7.339379787445068359e-01 7.358638942241668701e-02 1.392975151538848877e-01
4.712275266647338867e-01 7.437569648027420044e-02 7.201576232910156250e-02
1.067846566438674927e-01 -2.866991236805915833e-02 1.987678557634353638e-01
1.397178769111633301e-01 1.067917943000793457e-01 -2.574964240193367004e-02
-5.036943033337593079e-02 3.167727554682642221e-04 5.809293389320373535e-01
-3.040913343429565430e-01 -8.686101436614990234e-02 -2.104100957512855530e-02
-8.967155218124389648e-02 6.821767427027225494e-03 -1.071028783917427063e-01
-1.974969543516635895e-02 -1.620427146553993225e-02 4.183317124843597412e-01
-7.179068326950073242e-01 7.048359513282775879e-02 1.164347827434539795e-01
-8.394603729248046875e-01 3.790419921278953552e-02 -3.380603343248367310e-02
-6.775704026222229004e-01 -1.849054731428623199e-02 8.136196061968803406e-03
-7.129972428083419800e-02 4.154446069151163101e-03 5.577672123908996582e-01
-2.211595028638839722e-01 -8.471082895994186401e-02 3.230537101626396179e-02
-7.013585567474365234e-01 1.897236406803131104e-01 3.971912432461977005e-03
-4.618986248970031738e-01 -2.954087033867835999e-02 -7.849723100662231445e-02
-8.886969089508056641e-01 7.029306888580322266e-02 1.063098609447479248e-01
7.943102717399597168e-02 -1.022661328315734863e-01 -5.076256021857261658e-02
2.247182428836822510e-01 -6.590349972248077393e-02 -1.407709717750549316e-01
1.630705296993255615e-01 -2.801668643951416016e-02 -1.568837463855743408e-01
-2.160153836011886597e-01 -8.890232443809509277e-02 -2.496033348143100739e-02
-8.596557974815368652e-01 6.958541274070739746e-02 1.251988261938095093e-01
7.764722704887390137e-01 -6.780873984098434448e-02 5.756325274705886841e-02
1.160930469632148743e-01 8.202382922172546387e-02 -7.286320626735687256e-02
7.621013522148132324e-01 -9.524400532245635986e-02 -2.936957590281963348e-02
9.067081809043884277e-01 -4.472824931144714355e-02 -6.567776948213577271e-02
-2.390142083168029785e-01 -1.876272819936275482e-02 9.174848347902297974e-02
-1.153921410441398621e-01 1.066012606024742126e-01 1.779842190444469452e-02
3.385148048400878906e-01 1.432686462067067623e-03 9.904278069734573364e-02
1.774686127901077271e-01 -4.753167182207107544e-02 -2.600382268428802490e-01
3.370994627475738525e-01 -1.394997388124465942e-01 2.435407042503356934e-01
2.516364157199859619e-01 -1.730861663818359375e-01 3.137619793415069580e-01
8.846724778413772583e-02 -1.399079859256744385e-01 3.219816684722900391e-01
7.978924512863159180e-01 -6.051442772150039673e-02 6.327893584966659546e-02
1.991882026195526123e-01 -7.001335173845291138e-02 -2.984421849250793457e-01
1.533810794353485107e-01 -2.311752736568450928e-02 -1.960770040750503540e-01
7.888667285442352295e-02 -1.911654882133007050e-02 -4.717090427875518799e-01
1.459884177893400192e-02 3.967333957552909851e-02 9.101360291242599487e-02
9.952741265296936035e-01 -4.464660584926605225e-02 -1.056225411593914032e-02
-2.701677568256855011e-02 -8.503743261098861694e-02 8.690375089645385742e-02
-5.005475282669067383e-01 -5.477153509855270386e-02 -2.702886797487735748e-02
-1.180217321962118149e-02 -1.585045084357261658e-02 4.374929070472717285e-01
6.154909729957580566e-02 1.059752628207206726e-01 -2.882522344589233398e-02
-9.978597983717918396e-03 9.135257452726364136e-03 5.531129837036132812e-01
-8.662424683570861816e-01 3.696860074996948242e-01 -1.036114990711212158e-03
-1.585591584444046021e-01 4.446362331509590149e-02 -8.880012631416320801e-01
1.597227603197097778e-01 6.286267936229705811e-02 -9.205158054828643799e-02
-1.974969543516635895e-02 -1.620427146553993225e-02 4.183317124843597412e-01
3.331801593303680420e-01 -1.022661328315734863e-01 1.308978907763957977e-02
2.646191716194152832e-01 6.389694660902023315e-02 8.235842734575271606e-02
-1.803498715162277222e-02 1.746382005512714386e-02 -7.290780544281005859e-01
-1.091593131422996521e-01 1.086425855755805969e-01 1.001420710235834122e-02
3.743330836296081543e-01 1.346284244209527969e-02 9.787242114543914795e-02
7.385309934616088867e-01 3.986385837197303772e-02 -9.605255722999572754e-02
7.130008935928344727e-01 2.881353534758090973e-02 -9.999909251928329468e-02
-7.085167169570922852e-01 9.949748963117599487e-02 2.133670262992382050e-02
7.899554818868637085e-02 -4.883810132741928101e-02 2.245700955390930176e-01
3.256681263446807861e-01 5.703812837600708008e-02 -9.512715786695480347e-02
-1.141945645213127136e-01 2.511195279657840729e-02 -7.318814992904663086e-01
5.430923029780387878e-02 9.108033031225204468e-03 6.060239076614379883e-01
8.030365705490112305e-01 -1.574361026287078857e-01 -5.935272667557001114e-03
-2.976574935019016266e-02 -8.990938216447830200e-02 -9.112618118524551392e-02
4.931104481220245361e-01 1.743660494685173035e-02 -1.054970398545265198e-01
-2.003857400268316269e-03 2.092044614255428314e-02 -6.934230923652648926e-01
7.537728548049926758e-01 1.061113551259040833e-01 -2.886907663196325302e-03
3.308122158050537109e-01 -1.055322363972663879e-01 2.920423746109008789e-01
-1.878724545240402222e-01 6.893219798803329468e-02 -8.598205447196960449e-02
-6.858445405960083008e-01 6.650982797145843506e-02 -8.576432615518569946e-02
5.695372819900512695e-01 6.558443605899810791e-02 8.067094534635543823e-02
3.912184759974479675e-02 -5.161428824067115784e-02 2.037214487791061401e-01
-2.102452665567398071e-01 -8.669771254062652588e-02 -3.342498838901519775e-02
2.282293140888214111e-01 -5.629571899771690369e-02 -1.808896213769912720e-01
1.783940047025680542e-01 -2.281813323497772217e-02 1.649092286825180054e-01
2.081699967384338379e-01 -2.423345111310482025e-02 -1.361439824104309082e-01
2.963275909423828125e-01 -1.022661328315734863e-01 -7.814340293407440186e-02
6.963270902633666992e-02 -3.599142655730247498e-02 3.114484846591949463e-01
3.354224935173988342e-02 -1.741748899221420288e-01 1.834443807601928711e-01
1.757811158895492554e-01 -2.197438850998878479e-02 -3.963981270790100098e-01
-7.290554791688919067e-02 9.815697558224201202e-03 -6.739625930786132812e-01
-9.424410760402679443e-02 1.207474898546934128e-02 6.246407032012939453e-01
1.411876380443572998e-01 -9.029041975736618042e-02 -3.056003749370574951e-01
2.786428201943635941e-03 -1.043415535241365433e-02 5.115517973899841309e-01
7.923673391342163086e-01 4.715815931558609009e-02 -9.052739292383193970e-02
8.036353588104248047e-01 -1.564290523529052734e-01 -2.313675917685031891e-02
1.324508041143417358e-01 -6.086826696991920471e-02 -1.691044420003890991e-01
2.214249372482299805e-01 -4.842985421419143677e-02 -2.213076651096343994e-01
-5.250433087348937988e-01 -3.220819309353828430e-02 5.100382491946220398e-02
3.613502979278564453e-01 -8.049210160970687866e-02 3.377950489521026611e-01
-8.461014628410339355e-01 7.761459052562713623e-02 -2.131151854991912842e-01
1.350364536046981812e-01 1.008311435580253601e-01 3.981741145253181458e-02
7.782518863677978516e-02 -3.136444836854934692e-02 3.527102470397949219e-01
-6.537550687789916992e-01 -1.697322819381952286e-03 4.727501794695854187e-02
9.356365189887583256e-04 1.961400546133518219e-02 6.388754844665527344e-01
1.541159600019454956e-01 -1.506044864654541016e-01 -3.355124592781066895e-01
1.732771098613739014e-01 1.031718626618385315e-01 -3.954893350601196289e-02
-8.169681578874588013e-02 2.941232360899448395e-02 8.241997957229614258e-01
7.327985763549804688e-02 -2.741789817810058594e-02 3.892906308174133301e-01
1.542792618274688721e-01 -8.093452081084251404e-03 -4.334956407546997070e-01
-2.843858599662780762e-01 -7.257180660963058472e-02 5.383444577455520630e-02
-2.255310118198394775e-02 -7.086404133588075638e-03 4.510744214057922363e-01
-3.686241209506988525e-01 8.599758893251419067e-02 -6.970597058534622192e-02
8.174890875816345215e-01 -1.878108680248260498e-01 -2.313675917685031891e-02
2.939324676990509033e-01 -9.948994964361190796e-02 2.597623765468597412e-01
1.776319146156311035e-01 -1.378394663333892822e-01 3.448987901210784912e-01
-1.141945645213127136e-01 2.511195279657840729e-02 -7.318814992904663086e-01
-8.711416125297546387e-01 6.689087301492691040e-02 -6.556890159845352173e-02
-8.912280797958374023e-01 7.252490520477294922e-02 -1.376681774854660034e-01
-8.147196173667907715e-01 3.673383966088294983e-02 3.216928616166114807e-02
7.796128094196319580e-02 4.092534258961677551e-02 9.068699926137924194e-02
1.249659731984138489e-01 -1.015040427446365356e-01 -3.428884148597717285e-01
-5.562618374824523926e-01 -2.763563953340053558e-02 -5.666876956820487976e-02
4.925388693809509277e-01 1.114459931850433350e-01 -6.550694233737885952e-04
-8.121611475944519043e-01 7.179003208875656128e-02 1.482520997524261475e-01
4.761371761560440063e-02 2.004260430112481117e-03 -6.049933433532714844e-01
-2.606249451637268066e-01 -6.854361295700073242e-02 5.952291563153266907e-02
-1.125615015625953674e-01 -1.957924850285053253e-02 -6.402673125267028809e-01
-8.355954885482788086e-01 6.591104716062545776e-02 -1.115665510296821594e-01
-9.011625051498413086e-01 8.833829313516616821e-02 2.470245510339736938e-01
-8.158795535564422607e-02 -4.228554200381040573e-03 9.555893391370773315e-02
2.552835345268249512e-01 -6.130373105406761169e-02 3.160754740238189697e-01
-1.152288317680358887e-01 3.278730064630508423e-02 8.625764846801757812e-01
-6.499718427658081055e-01 -2.036856301128864288e-02 2.550098486244678497e-02
-7.463219165802001953e-01 -5.814091418869793415e-04 3.209820948541164398e-03
7.973753213882446289e-01 -9.165129810571670532e-02 -5.826402455568313599e-03
-7.421576380729675293e-01 1.938062608242034912e-01 2.529382938519120216e-03
3.308122158050537109e-01 -1.055322363972663879e-01 2.920423746109008789e-01
-1.277216821908950806e-01 -2.156613022089004517e-02 -9.967248886823654175e-02
1.690583825111389160e-01 -1.022661328315734863e-01 -4.224347323179244995e-02
-4.643959924578666687e-03 -3.931196406483650208e-02 -2.482258230447769165e-01
1.170728728175163269e-01 -6.214748695492744446e-02 -1.595510691404342651e-01
-3.653579950332641602e-01 -7.986609637737274170e-02 2.237096801400184631e-02
5.833093523979187012e-01 7.971033453941345215e-02 -7.637426257133483887e-02
-1.255987137556076050e-01 6.493121385574340820e-02 -9.001025557518005371e-02
3.599622249603271484e-01 -1.236591339111328125e-01 -2.524989545345306396e-01
-1.140856891870498657e-01 3.727818652987480164e-02 -1.002984866499900818e-01
-2.554703131318092346e-02 1.063835322856903076e-01 -2.727382630109786987e-02
1.581169366836547852e-01 9.138666093349456787e-02 -6.347315013408660889e-02
-5.513249710202217102e-02 -5.621405690908432007e-02 2.420165389776229858e-01
-9.021695852279663086e-01 9.144109487533569336e-02 -3.394862413406372070e-01
-2.271640487015247345e-02 -3.446724265813827515e-02 -4.259835779666900635e-01
-9.359088540077209473e-02 1.387111283838748932e-02 6.359632015228271484e-01
6.253604292869567871e-01 1.016748920083045959e-01 3.649687021970748901e-02
1.574197784066200256e-02 -5.183204263448715210e-02 -1.552506983280181885e-01
-4.591496884822845459e-01 3.991141915321350098e-03 -9.256870299577713013e-02
-1.716507822275161743e-01 2.832362428307533264e-02 -8.087165951728820801e-01
4.306839033961296082e-02 -4.252363741397857666e-02 -1.077016666531562805e-01
2.939324676990509033e-01 -9.948994964361190796e-02 2.597623765468597412e-01
3.105351626873016357e-01 -1.711537390947341919e-01 -2.828193008899688721e-01
6.508738547563552856e-02 -9.203235059976577759e-02 1.968081891536712646e-01
-3.518204018473625183e-02 6.706047570332884789e-04 -6.079328656196594238e-01
-1.052294764667749405e-02 -5.953460186719894409e-02 -2.569082081317901611e-01
9.796512126922607422e-01 -5.594187602400779724e-02 5.387224256992340088e-03
-4.872925877571105957e-01 2.058698562905192375e-03 7.933728396892547607e-02
-3.307100832462310791e-01 -8.852128684520721436e-02 -1.199420192278921604e-03
3.117432445287704468e-02 -3.650856390595436096e-02 -2.999663650989532471e-01
6.130414456129074097e-02 -3.071122244000434875e-02 3.468312621116638184e-01
4.972202777862548828e-01 7.012285757809877396e-03 9.849843382835388184e-02
5.835270881652832031e-01 -2.178387157618999481e-02 -9.961804747581481934e-02
-1.266601979732513428e-01 1.335397642105817795e-02 -6.716219186782836914e-01
-3.031115233898162842e-01 1.121264249086380005e-01 -3.267953637987375259e-03
-1.060459949076175690e-02 -3.460333123803138733e-02 2.730989754199981689e-01
-1.558541320264339447e-02 2.739128191024065018e-03 6.389299035072326660e-01
5.003502964973449707e-01 -9.004547446966171265e-02 -2.060552686452865601e-02
2.051760554313659668e-01 -2.926868945360183716e-02 -3.355124592781066895e-01
9.995472431182861328e-01 -2.015082165598869324e-02 -2.234745025634765625e-02
3.253414928913116455e-01 -6.701943278312683105e-02 3.276429176330566406e-01
2.319853454828262329e-01 -8.090037107467651367e-02 -1.075927913188934326e-01
6.459745764732360840e-02 -5.836424231529235840e-02 -2.556289732456207275e-01
-3.894183039665222168e-01 4.862790927290916443e-02 8.791080862283706665e-02
-1.037702411413192749e-01 2.535690739750862122e-02 7.176702618598937988e-01
-6.514854729175567627e-02 3.174612298607826233e-03 -5.556479096412658691e-01
6.863277554512023926e-01 -4.268693923950195312e-02 -9.262314438819885254e-02
-3.232524991035461426e-01 -8.364934474229812622e-02 -2.809035032987594604e-02
9.761673212051391602e-01 -2.592093870043754578e-02 -7.894935086369514465e-03
-1.824833750724792480e-01 2.943953685462474823e-02 7.986969351768493652e-01
1.541159600019454956e-01 -1.506044864654541016e-01 -3.355124592781066895e-01
7.491291314363479614e-02 -1.748008877038955688e-01 2.265297621488571167e-01
1.525373309850692749e-01 -1.672140881419181824e-02 -2.561188936233520508e-01
6.361658573150634766e-01 -4.647018387913703918e-02 8.118807524442672729e-02
2.282293140888214111e-01 -5.629571899771690369e-02 -1.808896213769912720e-01
-1.291642040014266968e-01 4.468136653304100037e-02 8.793696761131286621e-01
-7.409328818321228027e-01 2.783370204269886017e-02 -5.353874713182449341e-02
3.206328749656677246e-01 1.623903028666973114e-02 -1.058236509561538696e-01
3.912184759974479675e-02 -5.161428824067115784e-02 2.037214487791061401e-01
-2.554703131318092346e-02 1.063835322856903076e-01 -2.727382630109786987e-02
-8.811576366424560547e-01 4.046605825424194336e-01 -1.526030711829662323e-03
3.835598528385162354e-01 8.120729774236679077e-02 6.499364227056503296e-02
2.282293140888214111e-01 -5.629571899771690369e-02 -1.808896213769912720e-01
-8.967155218124389648e-02 6.821767427027225494e-03 -1.071028783917427063e-01
4.513692483305931091e-02 -5.308404564857482910e-02 -1.191602498292922974e-01
-3.870503902435302734e-01 -4.431999847292900085e-02 -8.247099816799163818e-02
-3.199863731861114502e-01 -3.645412623882293701e-02 -9.501828253269195557e-02
-8.182239718735218048e-03 -1.029806490987539291e-02 4.208085536956787109e-01
-8.527425527572631836e-01 4.240938425064086914e-01 -9.544623899273574352e-04
-1.548847854137420654e-01 3.003832511603832245e-02 -8.364512324333190918e-01
7.796128094196319580e-02 4.092534258961677551e-02 9.068699926137924194e-02
8.049145936965942383e-01 -1.663975603878498077e-02 8.644105494022369385e-02
3.884317874908447266e-01 9.516990929841995239e-02 5.103104189038276672e-02
3.039212822914123535e-01 -9.440027177333831787e-02 2.429963648319244385e-01
5.939786434173583984e-01 -6.946901232004165649e-02 5.859751626849174500e-02
4.793111681938171387e-01 9.563260525465011597e-02 -5.920000001788139343e-02
-6.678161025047302246e-02 -9.665933251380920410e-02 4.815656226128339767e-03
-1.935064792633056641e-01 -8.201628178358078003e-02 4.259360581636428833e-02
-8.623775243759155273e-01 4.081172049045562744e-01 -7.840500213205814362e-03
8.130798339843750000e-01 -1.500601470470428467e-01 -4.057262092828750610e-03
-8.560086488723754883e-01 3.395017683506011963e-01 -8.455923525616526604e-04
-6.202230453491210938e-01 9.037961065769195557e-02 4.300186783075332642e-02
-6.362813711166381836e-01 2.004949003458023071e-02 -7.084910571575164795e-02
-3.790756762027740479e-01 7.968312501907348633e-02 -7.612930983304977417e-02
5.614808797836303711e-01 -7.061213999986648560e-02 5.745438486337661743e-02
3.549814224243164062e-01 -1.667717099189758301e-01 2.707038223743438721e-01
2.305427938699722290e-01 -7.363329082727432251e-02 2.613682150840759277e-01
-6.389759182929992676e-01 2.903127670288085938e-02 6.423154473304748535e-02
-6.894100308418273926e-01 2.698792815208435059e-01 -6.550694233737885952e-04
8.718802779912948608e-02 1.020559370517730713e-01 -4.376765340566635132e-02
-8.545116782188415527e-01 6.893219798803329468e-02 5.089495703577995300e-02
6.263780593872070312e-02 6.168541498482227325e-03 5.119056105613708496e-01
5.375294685363769531e-01 7.625371217727661133e-02 -7.863332331180572510e-02
-9.134648442268371582e-01 8.890986442565917969e-02 -3.045661449432373047e-01
-1.896688044071197510e-01 5.943327024579048157e-02 8.584227412939071655e-02
7.213672250509262085e-02 -4.181051626801490784e-04 -4.584813416004180908e-01
-3.774049133062362671e-02 8.971952833235263824e-03 -6.948656439781188965e-01
1.590423285961151123e-01 -2.537658810615539551e-02 -3.883417546749114990e-01
3.174589201807975769e-02 -2.976550720632076263e-03 4.470190405845642090e-01
4.180716574192047119e-01 -2.823442779481410980e-02 -1.008156239986419678e-01
-6.711198091506958008e-01 3.446792252361774445e-03 4.781937226653099060e-02
3.130391836166381836e-01 -5.425438657402992249e-02 1.144479066133499146e-01
6.864093542098999023e-01 -7.480363547801971436e-02 5.247357115149497986e-02
8.805898576974868774e-02 -1.353696081787347794e-02 -3.434327840805053711e-01
5.143401026725769043e-01 6.631239783018827438e-03 -1.070756539702415466e-01
9.872826188802719116e-02 -1.022661328315734863e-01 -5.272222310304641724e-02
-1.252720952033996582e-01 -1.737463474273681641e-02 -6.466090083122253418e-01
8.868498355150222778e-02 -4.260528832674026489e-02 1.319215744733810425e-01
6.025793552398681641e-01 5.183957517147064209e-02 8.782915771007537842e-02
2.501666545867919922e-01 -1.268163621425628662e-01 -3.638459444046020508e-01
-8.398141860961914062e-01 7.987364381551742554e-02 1.272673606872558594e-01
-1.459302157163619995e-01 1.120379101485013962e-02 9.847120940685272217e-02
8.413316607475280762e-01 -7.420484721660614014e-02 4.452605172991752625e-02
2.360951751470565796e-01 -2.072238549590110779e-02 -3.002113103866577148e-01
2.728116512298583984e-01 -5.351952835917472839e-02 -1.581357717514038086e-01
-5.384071469306945801e-01 1.294570602476596832e-02 7.509134709835052490e-02
2.360951751470565796e-01 -6.481479853391647339e-02 -1.366611272096633911e-01
1.542792618274688721e-01 -8.093452081084251404e-03 -4.334956407546997070e-01
3.232185244560241699e-01 -4.309520870447158813e-02 -1.648040562868118286e-01
1.088804006576538086e-01 6.327094137668609619e-02 -9.167052805423736572e-02
8.303902149200439453e-01 8.978082239627838135e-02 -9.816798847168684006e-04
-4.321498870849609375e-01 7.157228887081146240e-02 7.364881783723831177e-02
4.440372288227081299e-01 -1.247547473758459091e-02 -1.020404100418090820e-01
8.366774916648864746e-01 -1.667989343404769897e-01 -1.720333471894264221e-02
-7.114290595054626465e-01 1.911117434501647949e-01 -1.227695960551500320e-02
6.326380372047424316e-02 -2.358022518455982208e-02 4.225232303142547607e-01
-4.618441760540008545e-01 1.463319454342126846e-02 -9.515437483787536621e-02
-4.966282248497009277e-01 1.088058874011039734e-01 8.843852207064628601e-03
3.433323204517364502e-01 1.117181628942489624e-01 -1.689336029812693596e-03
2.727572023868560791e-01 -4.799436777830123901e-02 9.904278069734573364e-02
-8.625952601432800293e-01 7.856720685958862305e-02 2.264314331114292145e-02
5.977996066212654114e-02 -1.121188774704933167e-01 2.058172076940536499e-01
4.813085496425628662e-02 -2.592093870043754578e-02 4.283750057220458984e-01
-7.335841655731201172e-01 7.285151630640029907e-02 1.264780610799789429e-01
-7.339379787445068359e-01 7.358638942241668701e-02 1.392975151538848877e-01
1.442904323339462280e-01 -5.112437903881072998e-02 2.416626960039138794e-01
-7.121367454528808594e-01 1.698548346757888794e-01 -1.227695960551500320e-02
2.978790104389190674e-01 -4.350347071886062622e-02 1.778647899627685547e-01
4.723162353038787842e-01 2.758874557912349701e-02 9.417083859443664551e-02
-1.199374571442604065e-01 1.476928405463695526e-02 6.913509368896484375e-01
2.342171669006347656e-01 -1.737394034862518311e-01 -3.008373081684112549e-01
1.333489567041397095e-01 -8.667049556970596313e-02 3.057600259780883789e-01
2.807591557502746582e-01 -1.636689007282257080e-01 2.630012631416320801e-01
1.820955872535705566e-01 -7.151032239198684692e-02 2.897833287715911865e-01
-3.327514231204986572e-01 -2.595504745841026306e-03 -1.038367673754692078e-01
7.782518863677978516e-02 -3.136444836854934692e-02 3.527102470397949219e-01
8.098242431879043579e-02 -3.076566010713577271e-02 -2.198651432991027832e-01
1.608659178018569946e-01 -1.639410853385925293e-01 -2.918010950088500977e-01
4.974924623966217041e-01 5.096861720085144043e-02 -9.673299640417098999e-02
1.070840507745742798e-01 -7.828748226165771484e-02 -3.039673566818237305e-01
3.656339645385742188e-02 -3.620916977524757385e-02 2.937842905521392822e-01
3.697166219353675842e-02 -1.812786608934402466e-01 2.249783575534820557e-01
8.303630352020263672e-01 -1.903965324163436890e-01 6.013228092342615128e-03
-9.895274788141250610e-02 -9.747584909200668335e-02 -4.764918237924575806e-03
3.560701012611389160e-01 -4.023735970258712769e-02 9.904278069734573364e-02
2.816573381423950195e-01 -3.721621632575988770e-02 9.904278069734573364e-02
6.677926182746887207e-01 -3.678073361515998840e-02 8.595114201307296753e-02
-5.104002952575683594e-01 8.518107235431671143e-02 -6.420802325010299683e-02
-1.461751610040664673e-01 2.004949003458023071e-02 -1.048166006803512573e-01
3.286181390285491943e-02 -1.666628420352935791e-01 2.189905047416687012e-01
-3.235246837139129639e-01 1.430658623576164246e-02 -1.070212274789810181e-01
3.912184759974479675e-02 -5.161428824067115784e-02 2.037214487791061401e-01
-8.005393147468566895e-01 1.014299318194389343e-01 -7.622760254889726639e-03
5.480966065078973770e-03 7.845833152532577515e-02 -7.642869651317596436e-02
-8.729107379913330078e-01 4.285778850317001343e-02 1.853329502046108246e-02
-3.458430171012878418e-01 -4.206093773245811462e-02 8.156912028789520264e-02
-6.508156061172485352e-01 6.849671155214309692e-02 -6.663038581609725952e-02
6.753318905830383301e-01 -1.941594295203685760e-02 9.033316373825073242e-02
-6.174635887145996094e-02 1.086153686046600342e-01 1.020472962409257889e-02
8.060137927532196045e-02 -6.802646815776824951e-02 -3.082677125930786133e-01
-8.249261379241943359e-01 7.222551107406616211e-02 -1.630077064037322998e-01
-1.076790597289800644e-02 -3.384810639545321465e-03 5.771188735961914062e-01
-4.228581860661506653e-02 -5.970479920506477356e-03 5.208329558372497559e-01
8.366774916648864746e-01 -1.667989343404769897e-01 -1.720333471894264221e-02
-4.269408434629440308e-02 1.160516636446118355e-03 5.976408720016479492e-01
1.409426629543304443e-01 -3.762447461485862732e-02 1.114811971783638000e-01
2.334550768136978149e-01 -2.338970638811588287e-02 1.166525259613990784e-01
2.466933242976665497e-02 -3.294305875897407532e-02 9.904278069734573364e-02
-7.225233316421508789e-02 -1.244825124740600586e-02 -6.346604824066162109e-01
9.890207089483737946e-03 -1.035250350832939148e-02 -4.185532033443450928e-01
3.221026062965393066e-01 -1.200391948223114014e-01 -3.224752545356750488e-01
4.720984995365142822e-01 -2.504998072981834412e-02 -9.874708950519561768e-02
-7.335841655731201172e-01 7.285151630640029907e-02 1.264780610799789429e-01
-9.296488761901855469e-02 8.699772879481315613e-03 -6.113350391387939453e-01
2.363673597574234009e-01 -1.985142752528190613e-02 -1.896808743476867676e-01
2.069557085633277893e-02 -5.803763121366500854e-02 1.041324585676193237e-01
6.467368075391277671e-05 -3.548114560544490814e-03 -5.942423939704895020e-01
8.004781603813171387e-01 6.550277769565582275e-02 -7.416965067386627197e-02
-1.107651591300964355e-01 1.191144436597824097e-02 6.344118118286132812e-01
9.766677767038345337e-02 -9.355651587247848511e-02 3.237507939338684082e-01
2.331828922033309937e-01 -5.139655619859695435e-02 -1.077016666531562805e-01
1.369961202144622803e-01 -4.165267944335937500e-02 3.063588142395019531e-01
2.448047995567321777e-01 1.097857207059860229e-01 -1.437271013855934143e-02
2.156548053026199341e-01 -2.769007906317710876e-02 3.291398882865905762e-01
7.457980513572692871e-01 6.925880163908004761e-02 -7.964037358760833740e-02
9.872826188802719116e-02 -1.022661328315734863e-01 -5.272222310304641724e-02
2.141306251287460327e-01 -8.479247242212295532e-02 -2.623517215251922607e-01
-2.130758911371231079e-01 6.207337230443954468e-02 -8.915668129920959473e-01
-5.918079614639282227e-01 1.575797200202941895e-01 -8.303198963403701782e-03
-3.111134767532348633e-01 -2.126673609018325806e-02 9.049646556377410889e-02
-1.902403682470321655e-01 2.614621445536613464e-02 9.455188363790512085e-02
-7.032365798950195312e-01 5.924274772405624390e-02 5.361671000719070435e-02
5.509854108095169067e-02 -1.407789587974548340e-01 -2.213893234729766846e-01
-4.020472764968872070e-01 -5.349231511354446411e-02 6.006726622581481934e-02
-2.565967440605163574e-01 8.678689599037170410e-02 -6.807291507720947266e-02
6.568616628646850586e-02 -1.620427146553993225e-02 -3.360296189785003662e-01
-4.591496884822845459e-01 3.991141915321350098e-03 -9.256870299577713013e-02
-6.985718756914138794e-02 1.004773229360580444e-01 -4.983716458082199097e-02
1.993515044450759888e-01 -7.366050779819488525e-02 -2.759332656860351562e-01
7.780236601829528809e-01 -8.202318102121353149e-03 -9.918257594108581543e-02
-1.695006042718887329e-01 2.709883451461791992e-02 7.875105142593383789e-01
-6.979563236236572266e-01 -1.315591484308242798e-02 -1.537976041436195374e-02
-8.394603729248046875e-01 3.790419921278953552e-02 -3.380603343248367310e-02
4.256176296621561050e-03 -1.802784949541091919e-02 4.308517873287200928e-01
9.875547140836715698e-02 -2.213770337402820587e-02 4.344989657402038574e-01
-1.569533348083496094e-01 -8.242455124855041504e-02 -5.849234014749526978e-02
4.030203521251678467e-01 -9.540732949972152710e-02 1.080351602286100388e-02
8.002980798482894897e-02 -4.600748792290687561e-02 2.412544488906860352e-01
2.331828922033309937e-01 -5.139655619859695435e-02 -1.077016666531562805e-01
-1.060459949076175690e-02 1.058663949370384216e-01 -2.923348918557167053e-02
-8.048124313354492188e-01 7.222551107406616211e-02 -5.288552865386009216e-02
-7.494686543941497803e-02 1.204753480851650238e-02 -6.969614028930664062e-01
-9.895274788141250610e-02 -9.747584909200668335e-02 -4.764918237924575806e-03
-8.807494044303894043e-01 6.710861623287200928e-02 7.781310379505157471e-02
-4.224059879779815674e-01 -6.769986450672149658e-02 -3.718100860714912415e-02
4.309560358524322510e-02 -1.022661328315734863e-01 6.203750614076852798e-03
-8.446044921875000000e-01 6.612879037857055664e-02 1.009752228856086731e-01
-2.788773924112319946e-02 -9.842845797538757324e-02 6.687165051698684692e-02
3.434956073760986328e-01 -3.460333123803138733e-02 -1.170644983649253845e-01
1.980722844600677490e-01 -2.464171126484870911e-02 3.594874143600463867e-01
-5.621408224105834961e-01 1.111465990543365479e-01 2.975444949697703123e-04
5.430818200111389160e-01 -8.843962848186492920e-02 1.804338023066520691e-02
-7.480638623237609863e-01 7.350473850965499878e-02 -1.307004839181900024e-01
6.805408746004104614e-02 3.112702444195747375e-02 9.327265620231628418e-02
-3.793101385235786438e-02 2.388716302812099457e-02 6.784769892692565918e-01
6.025793552398681641e-01 5.183957517147064209e-02 8.782915771007537842e-02
8.072552680969238281e-01 -1.942342072725296021e-01 1.276317797601222992e-02
2.982056140899658203e-01 -1.489986628293991089e-01 2.750858366489410400e-01
6.351926364004611969e-03 -9.209365583956241608e-03 -5.372761487960815430e-01
-4.446971118450164795e-01 -6.769986450672149658e-02 1.148395333439111710e-02
2.778196632862091064e-01 -1.513121575117111206e-01 -3.535304963588714600e-01
-8.691274523735046387e-01 8.724959194660186768e-02 -2.209810465574264526e-01
-8.400046825408935547e-01 9.127779304981231689e-02 1.006864104419946671e-02
-1.896960288286209106e-01 -5.338343977928161621e-02 -8.334195613861083984e-02
8.386371135711669922e-01 -3.239870816469192505e-02 7.865684479475021362e-02
-2.565967440605163574e-01 -7.679051905870437622e-02 5.127600207924842834e-02
-8.027983307838439941e-01 7.336865365505218506e-02 -1.684239953756332397e-01
-3.686241209506988525e-01 8.599758893251419067e-02 -6.970597058534622192e-02
1.362612396478652954e-01 -1.524280607700347900e-01 -3.289802670478820801e-01
8.303630352020263672e-01 -1.903965324163436890e-01 6.013228092342615128e-03
-6.271907687187194824e-01 -2.581206336617469788e-02 -3.358829393982887268e-02
1.267895549535751343e-01 -3.357596695423126221e-03 -4.635165631771087646e-01
-4.351060837507247925e-02 2.875909768044948578e-02 7.386006116867065430e-01
6.361658573150634766e-01 -4.647018387913703918e-02 8.118807524442672729e-02
1.138884350657463074e-01 -6.569268181920051575e-03 -4.007801413536071777e-01
1.333489567041397095e-01 -8.667049556970596313e-02 3.057600259780883789e-01
7.483125478029251099e-02 -2.924147620797157288e-02 -2.350525259971618652e-01
1.108944937586784363e-01 -7.080265879631042480e-02 9.953269362449645996e-02
-3.908064067363739014e-01 1.016204655170440674e-01 -4.534627124667167664e-02
1.229790896177291870e-01 -5.490762367844581604e-02 -2.089236974716186523e-01
-3.307100832462310791e-01 -8.852128684520721436e-02 -1.199420192278921604e-03
1.113027632236480713e-01 -6.399827450513839722e-02 1.394608318805694580e-01
-8.998288512229919434e-01 9.487051516771316528e-02 -3.081316351890563965e-01
-8.537767529487609863e-01 8.738568425178527832e-02 2.301768958568572998e-01
-9.141349047422409058e-02 5.592221021652221680e-02 -9.542655199766159058e-02
3.865810036659240723e-01 -9.048093855381011963e-02 -9.003747999668121338e-02
3.057993054389953613e-01 -9.195069223642349243e-02 -9.945474565029144287e-02
-9.407029487192630768e-03 -3.003078140318393707e-02 2.994183003902435303e-01
6.766655445098876953e-01 1.062202304601669312e-01 1.891434192657470703e-02
-8.005393147468566895e-01 1.014299318194389343e-01 -7.622760254889726639e-03
8.366774916648864746e-01 -1.667989343404769897e-01 -1.720333471894264221e-02
-8.219050168991088867e-01 7.015697658061981201e-02 1.363852471113204956e-01
8.128621578216552734e-01 -9.361096471548080444e-02 -2.936957590281963348e-02
2.550657987594604492e-01 -3.190879896283149719e-02 -1.077016666531562805e-01
2.086871266365051270e-01 -8.416646718978881836e-02 2.548087835311889648e-01
9.075351804494857788e-02 -1.571911424398422241e-01 -1.936818510293960571e-01
-8.400046825408935547e-01 9.127779304981231689e-02 1.006864104419946671e-02
-4.446971118450164795e-01 -6.769986450672149658e-02 1.148395333439111710e-02
7.272085547447204590e-01 -8.971884101629257202e-02 -1.997952349483966827e-02
1.856066584587097168e-01 -4.557200148701667786e-02 -1.077016666531562805e-01
1.259457916021347046e-01 -1.145956963300704956e-01 -2.851600050926208496e-01
2.142394930124282837e-01 -5.019898340106010437e-02 2.104713916778564453e-01
-6.711198091506958008e-01 3.446792252361774445e-03 4.781937226653099060e-02
4.388491436839103699e-02 -3.389567881822586060e-02 3.107952773571014404e-01
3.212316632270812988e-01 -1.654652655124664307e-01 2.656141221523284912e-01
-8.947663903236389160e-01 8.975361287593841553e-02 -2.600109875202178955e-01
-3.031115233898162842e-01 1.121264249086380005e-01 -3.267953637987375259e-03
-7.575355768203735352e-01 2.884688675403594971e-01 -1.058947201818227768e-02
-3.921023756265640259e-02 -1.821837760508060455e-02 -4.402183890342712402e-01
2.539226710796356201e-01 5.937883630394935608e-02 8.586949110031127930e-02
-6.499718427658081055e-01 -2.036856301128864288e-02 2.550098486244678497e-02
6.619408726692199707e-01 -5.000846460461616516e-02 7.715988159179687500e-02
1.372788008302450180e-02 -6.079345941543579102e-03 -5.790822505950927734e-01
3.528040349483489990e-01 -3.182714432477951050e-02 -1.077016666531562805e-01
-7.575355768203735352e-01 2.884688675403594971e-01 -1.058947201818227768e-02
-8.604995012283325195e-01 3.804913461208343506e-01 -8.085458539426326752e-03
-8.338807225227355957e-01 3.067046403884887695e-01 -8.738678880035877228e-03
7.061254233121871948e-02 -4.960019513964653015e-02 1.068814322352409363e-01
-8.985496759414672852e-01 9.495216608047485352e-02 3.021400868892669678e-01
7.118033170700073242e-01 -6.625734269618988037e-02 6.044831126928329468e-02
-6.235436201095581055e-01 1.025730744004249573e-01 2.566429227590560913e-02
6.070535629987716675e-02 -1.563270762562751770e-02 3.373323678970336914e-01
7.728251218795776367e-01 -5.586023256182670593e-02 -7.776235789060592651e-02
-1.585047245025634766e-01 -3.879483789205551147e-02 -9.515437483787536621e-02
3.697605431079864502e-01 -2.619310840964317322e-02 9.849843382835388184e-02
2.380548417568206787e-01 -9.701315313577651978e-02 -9.569872170686721802e-02
3.039484918117523193e-01 -1.172085776925086975e-01 3.305007517337799072e-01
-8.560086488723754883e-01 3.395017683506011963e-01 -8.455923525616526604e-04
4.355830326676368713e-02 1.541562494821846485e-03 5.963344573974609375e-01
-7.235408425331115723e-01 3.103789985179901123e-01 -7.786065340042114258e-03
-2.720290720462799072e-01 -5.368283390998840332e-02 7.359438389539718628e-02
1.780946105718612671e-01 -1.304703857749700546e-02 3.457425534725189209e-01
-3.041897155344486237e-02 1.773599907755851746e-02 -7.381414771080017090e-01
3.702609241008758545e-02 -1.022661328315734863e-01 -4.847628623247146606e-02
2.207717150449752808e-01 -6.892465054988861084e-02 3.253838717937469482e-01
6.710147857666015625e-02 6.848981603980064392e-03 -5.278860330581665039e-01
-3.562401235103607178e-01 3.001111187040805817e-02 -1.031563282012939453e-01
1.688678711652755737e-01 -1.201277691870927811e-02 -3.660777807235717773e-01
1.411876380443572998e-01 -9.029041975736618042e-02 -3.056003749370574951e-01
1.658194959163665771e-01 -1.060493811964988708e-01 3.460963666439056396e-01
3.383242487907409668e-01 8.978082239627838135e-02 5.642011761665344238e-02
5.014494806528091431e-02 -1.454603821039199829e-01 1.760956496000289917e-01
3.373988568782806396e-01 -5.300238355994224548e-02 -1.094708070158958435e-01
5.247644186019897461e-01 7.284465711563825607e-03 9.858008474111557007e-02
8.094871044158935547e-01 6.381529569625854492e-02 6.414989382028579712e-02
6.618863940238952637e-01 6.800679117441177368e-02 7.838466763496398926e-02
-7.378572821617126465e-01 1.656361222267150879e-01 -1.135156396776437759e-02
-9.296488761901855469e-02 8.699772879481315613e-03 -6.113350391387939453e-01
2.942046225070953369e-01 -4.312242195010185242e-02 -1.914228200912475586e-01
1.358257830142974854e-01 -9.314826875925064087e-02 -9.855656325817108154e-02
8.163563907146453857e-02 1.459910534322261810e-03 -4.761999547481536865e-01
2.786428201943635941e-03 -1.043415535241365433e-02 5.115517973899841309e-01
-8.298253417015075684e-01 1.314508765935897827e-01 -2.723602345213294029e-03
2.417019903659820557e-01 -2.189273759722709656e-02 1.438428461551666260e-01
6.459745764732360840e-02 -5.836424231529235840e-02 -2.556289732456207275e-01
-1.735015809535980225e-01 2.769762277603149414e-02 7.777938842773437500e-01
8.661645650863647461e-02 -1.687585860490798950e-01 -1.847545057535171509e-01
2.793543785810470581e-02 1.093161106109619141e-02 -6.592106819152832031e-01
-3.128281831741333008e-01 -7.885906100273132324e-02 4.044342041015625000e-02
2.704776125028729439e-03 5.477907136082649231e-02 -9.572594612836837769e-02
-8.654154092073440552e-02 -9.116138517856597900e-02 3.342128917574882507e-02
8.386371135711669922e-01 -3.239870816469192505e-02 7.865684479475021362e-02
-5.562618374824523926e-01 -2.763563953340053558e-02 -5.666876956820487976e-02
-8.912280797958374023e-01 7.252490520477294922e-02 -1.376681774854660034e-01
-8.299342393875122070e-01 9.086953103542327881e-02 -2.343614958226680756e-02
-2.450837194919586182e-01 7.551883906126022339e-02 -7.936819642782211304e-02
2.081699967384338379e-01 -2.423345111310482025e-02 -1.361439824104309082e-01
7.771798968315124512e-01 9.712956100702285767e-02 -3.489473834633827209e-02
-6.132553815841674805e-01 1.206999495625495911e-01 4.761221352964639664e-03
1.562389284372329712e-01 -1.614984497427940369e-02 2.500185072422027588e-01
3.606154322624206543e-01 -1.448071449995040894e-01 3.407073318958282471e-01
-3.041897155344486237e-02 1.773599907755851746e-02 -7.381414771080017090e-01
-4.195209145545959473e-01 3.292338922619819641e-02 -9.817552566528320312e-02
-8.199620991945266724e-02 2.674500271677970886e-02 -8.185421228408813477e-01
6.397585272789001465e-01 -8.158079534769058228e-02 -5.274944379925727844e-02
2.115993946790695190e-01 -1.504411846399307251e-01 -3.495022952556610107e-01
1.340021938085556030e-01 -1.197125837206840515e-01 -3.477603495121002197e-01
1.010145395994186401e-01 -8.816744387149810791e-02 9.357205033302307129e-02
3.415631651878356934e-01 -8.552734553813934326e-02 -2.592217028141021729e-01
5.260164737701416016e-01 5.510567873716354370e-02 8.698541671037673950e-02
-8.756324052810668945e-01 7.018420100212097168e-02 -1.259101927280426025e-01
-8.807494044303894043e-01 6.710861623287200928e-02 7.781310379505157471e-02
2.416203320026397705e-01 7.415796071290969849e-02 -8.072906732559204102e-02
2.597199976444244385e-01 -2.121230773627758026e-02 -1.648584902286529541e-01
-6.389654427766799927e-02 1.405472517944872379e-03 6.267092227935791016e-01
5.686663389205932617e-01 2.793566323816776276e-03 9.740972518920898438e-02
2.832631766796112061e-01 -1.452426314353942871e-01 3.489269912242889404e-01
5.775665044784545898e-01 1.039067357778549194e-01 -3.674552962183952332e-02
1.876312494277954102e-02 -8.263650233857333660e-04 4.691468775272369385e-01
-5.673666000366210938e-01 8.090791106224060059e-02 -6.548725068569183350e-02
2.310871630907058716e-01 -8.193463832139968872e-02 3.422043025493621826e-01
-7.357343435287475586e-01 2.319380491971969604e-01 -1.140599790960550308e-02
-6.994261741638183594e-01 1.382552683353424072e-01 -1.273965742439031601e-02
-7.339379787445068359e-01 7.358638942241668701e-02 1.392975151538848877e-01
3.199796378612518311e-01 -5.439047887921333313e-02 -3.053282201290130615e-01
-5.742798447608947754e-01 7.937680929899215698e-03 -7.710913568735122681e-02
8.522836118936538696e-02 -8.498300611972808838e-02 -2.986327111721038818e-01
9.939675927162170410e-01 -1.724546891637146473e-03 -4.519960377365350723e-03
3.151077032089233398e-01 -3.770612925291061401e-02 1.695906519889831543e-01
1.654656827449798584e-01 -3.765169903635978699e-02 -1.077016666531562805e-01
2.970457635819911957e-02 -5.999730154871940613e-02 -1.622183918952941895e-01
1.066485643386840820e-01 -3.566481918096542358e-02 -1.652667671442031860e-01
-4.816480726003646851e-02 4.943751730024814606e-03 5.470979213714599609e-01
7.540282607078552246e-02 -1.295109093189239502e-01 -3.140378296375274658e-01
-4.099610261619091034e-03 -4.421112313866615295e-02 -2.185314744710922241e-01
1.072473526000976562e-01 -1.187112065963447094e-04 4.722224771976470947e-01
2.471455037593841553e-01 -1.985142752528190613e-02 -2.175516486167907715e-01
-8.246540427207946777e-01 7.521944493055343628e-02 1.797700077295303345e-01
1.250476092100143433e-01 -1.022661328315734863e-01 3.004631586372852325e-02
5.715241432189941406e-01 -8.471082895994186401e-02 -4.096424952149391174e-02
2.839164137840270996e-01 -9.214121103286743164e-02 3.511860668659210205e-01
-1.824561655521392822e-01 1.093502342700958252e-01 7.319669704884290695e-03
1.047433316707611084e-01 -1.151672452688217163e-01 -2.910662293434143066e-01
2.879717946052551270e-01 -7.208189368247985840e-02 2.603883743286132812e-01
6.252893060445785522e-02 -2.774451673030853271e-02 -3.839869201183319092e-01
-8.791979551315307617e-01 2.673752605915069580e-01 -4.465525504201650620e-03
-3.337856829166412354e-01 3.534574434161186218e-02 -1.015504896640777588e-01
2.454852461814880371e-01 -1.022661328315734863e-01 -7.112128287553787231e-02
1.647308021783828735e-01 -6.359000504016876221e-02 -1.652667671442031860e-01
3.263757526874542236e-01 8.833829313516616821e-02 -6.652151793241500854e-02
8.311794996261596680e-01 -1.740660071372985840e-01 -2.313675917685031891e-02
-8.337174654006958008e-01 2.625508978962898254e-02 -2.283736504614353180e-02
2.747274003922939301e-02 1.014230493456125259e-02 5.491665005683898926e-01
1.303278356790542603e-01 -3.114670515060424805e-02 1.609626859426498413e-01
7.483125478029251099e-02 -1.448343694210052490e-01 1.760956496000289917e-01
2.635576725006103516e-01 2.734378911554813385e-02 -1.029113680124282837e-01
-7.598762512207031250e-01 6.593826413154602051e-02 -9.673299640417098999e-02
2.900947928428649902e-01 -1.630156934261322021e-01 2.918518483638763428e-01
2.691100537776947021e-01 -1.735488623380661011e-01 3.115301132202148438e-01
-6.680170297622680664e-01 1.082615405321121216e-01 -1.848525471359607764e-06
-8.927794694900512695e-01 9.329189360141754150e-02 -3.461545407772064209e-01
4.419480450451374054e-03 -5.896302685141563416e-02 1.554919630289077759e-01
2.879717946052551270e-01 -7.208189368247985840e-02 2.603883743286132812e-01
5.831021443009376526e-02 4.468136653304100037e-02 -9.836604446172714233e-02
2.474448829889297485e-01 -1.691940724849700928e-01 -3.330084681510925293e-01
5.817412212491035461e-02 -1.330219656229019165e-01 1.975158601999282837e-01
6.152899861335754395e-01 -9.018847718834877014e-03 9.430693089962005615e-02
1.794282793998718262e-01 -9.178739041090011597e-02 -9.953639656305313110e-02
3.165502250194549561e-01 -1.254010498523712158e-01 -2.852961122989654541e-01
2.649290859699249268e-02 9.516303427517414093e-03 -5.520824790000915527e-01
2.126608788967132568e-01 -1.022661328315734863e-01 -2.874357253313064575e-02
5.686663389205932617e-01 2.793566323816776276e-03 9.740972518920898438e-02
-8.801127970218658447e-02 6.305319815874099731e-02 8.322940021753311157e-02
2.909657359123229980e-01 -1.745014935731887817e-01 -2.974895536899566650e-01
7.637616991996765137e-01 7.089185714721679688e-02 -7.637426257133483887e-02
-8.249261379241943359e-01 7.222551107406616211e-02 -1.630077064037322998e-01
7.419331669807434082e-01 2.933067083358764648e-02 8.995211869478225708e-02
2.909657359123229980e-01 -1.745014935731887817e-01 -2.974895536899566650e-01
1.146777421236038208e-01 -2.268896903842687607e-03 4.353699088096618652e-01
7.130008935928344727e-01 2.881353534758090973e-02 -9.999909251928329468e-02
-2.911252900958061218e-02 2.326116152107715607e-02 7.468202710151672363e-01
8.539878129959106445e-01 -3.955692052841186523e-02 -8.263429999351501465e-02
8.985533565282821655e-02 -7.888627052307128906e-02 -3.078594505786895752e-01
7.061254233121871948e-02 -4.960019513964653015e-02 1.068814322352409363e-01
2.748801708221435547e-01 -1.022661328315734863e-01 -2.520529180765151978e-02
-3.686241209506988525e-01 8.599758893251419067e-02 -6.970597058534622192e-02
-2.380510978400707245e-02 1.093161106109619141e-02 6.886563897132873535e-01
8.352077007293701172e-01 -8.931059390306472778e-02 -7.568324916064739227e-03
-3.745780559256672859e-03 -4.589861258864402771e-02 -2.082976847887039185e-01
-1.896960288286209106e-01 -5.338343977928161621e-02 -8.334195613861083984e-02
5.385909676551818848e-01 9.849044680595397949e-02 -5.634215474128723145e-02
1.232512742280960083e-01 -4.170711711049079895e-02 1.037786304950714111e-01
1.993515044450759888e-01 -7.366050779819488525e-02 -2.759332656860351562e-01
-9.202964901924133301e-01 9.095117449760437012e-02 -3.211688399314880371e-01
3.146994411945343018e-01 -5.150543525815010071e-02 9.904278069734573364e-02
1.186787188053131104e-01 -4.388451576232910156e-02 2.826523184776306152e-01
7.496734708547592163e-02 -1.799449920654296875e-01 -2.213893234729766846e-01
-8.327543735504150391e-02 -4.638852179050445557e-02 -9.716846793889999390e-02
4.793111681938171387e-01 9.563260525465011597e-02 -5.920000001788139343e-02
-1.414288207888603210e-02 -1.010754704475402832e-02 -5.079084038734436035e-01
5.469027534127235413e-02 -5.986120924353599548e-02 1.572338789701461792e-01
-6.520298868417739868e-02 -8.522795140743255615e-02 -8.402239531278610229e-02
-9.227732419967651367e-01 8.907317370176315308e-02 -2.872829735279083252e-01
-1.537960916757583618e-01 2.965728007256984711e-02 7.795085310935974121e-01
3.106545470654964447e-02 -4.554478824138641357e-02 -2.471371144056320190e-01
2.084966003894805908e-01 -5.841868743300437927e-02 1.782458275556564331e-01
-5.708776712417602539e-01 -2.189273759722709656e-02 -5.857399106025695801e-02
1.534083038568496704e-01 -2.447840757668018341e-02 -3.966431021690368652e-01
1.146777421236038208e-01 -2.268896903842687607e-03 4.353699088096618652e-01
-6.661830097436904907e-02 1.664729975163936615e-02 7.453233003616333008e-01
2.196830213069915771e-01 -4.706897214055061340e-02 2.201608419418334961e-01
7.828411459922790527e-01 6.533947587013244629e-02 -8.010306954383850098e-02
-1.304978728294372559e-01 -8.420059457421302795e-03 -6.346604824066162109e-01
7.605604827404022217e-02 -8.816744387149810791e-02 2.879053056240081787e-01
2.462473362684249878e-01 -1.655810512602329254e-02 9.904278069734573364e-02
3.803209364414215088e-01 -6.413436681032180786e-02 9.169404208660125732e-02
-7.976814508438110352e-01 8.841995149850845337e-02 2.245262265205383301e-02
-1.086149737238883972e-01 -6.418879330158233643e-02 6.872244179248809814e-02
-8.219050168991088867e-01 7.015697658061981201e-02 1.363852471113204956e-01
6.459369063377380371e-01 -8.909284323453903198e-02 1.553936861455440521e-02
-2.772443555295467377e-02 -1.125068496912717819e-02 9.662041813135147095e-02
1.386836022138595581e-01 -1.021641306579113007e-02 9.904278069734573364e-02
-4.352526664733886719e-01 1.116093024611473083e-01 -1.417160616256296635e-03
8.865775913000106812e-02 9.247536212205886841e-02 5.372558161616325378e-02
-2.789423465728759766e-01 8.597037196159362793e-02 6.061161682009696960e-02
1.372683048248291016e-01 -1.382205039262771606e-01 -3.005379140377044678e-01
2.877540886402130127e-01 -8.882068097591400146e-02 -3.576403558254241943e-01
-7.888357639312744141e-01 2.634287178516387939e-01 -9.500769898295402527e-03
-1.470461338758468628e-01 2.916736714541912079e-02 7.719148397445678711e-01
1.170728728175163269e-01 -6.214748695492744446e-02 -1.595510691404342651e-01
-6.678161025047302246e-02 -9.665933251380920410e-02 4.815656226128339767e-03
1.313076466321945190e-01 1.067101433873176575e-01 1.747181266546249390e-02
2.778196632862091064e-01 -1.513121575117111206e-01 -3.535304963588714600e-01
9.428259134292602539e-01 -6.764543056488037109e-02 -2.027891762554645538e-02
8.366774916648864746e-01 -1.667989343404769897e-01 -1.720333471894264221e-02
-8.572062253952026367e-01 2.687633931636810303e-01 -2.505862386897206306e-03
2.837530970573425293e-01 -6.364445388317108154e-02 3.226621150970458984e-01
7.240889966487884521e-02 -4.388451576232910156e-02 2.943286299705505371e-01
-1.632028631865978241e-02 1.041447464376688004e-02 6.813076734542846680e-01
-6.537550687789916992e-01 -1.697322819381952286e-03 4.727501794695854187e-02
-7.895433902740478516e-01 3.666104674339294434e-01 -9.310247376561164856e-03
-4.477182924747467041e-01 9.352998808026313782e-03 8.703984320163726807e-02
5.550031065940856934e-01 -9.260390698909759521e-02 2.175554865971207619e-03
-9.359088540077209473e-02 1.387111283838748932e-02 6.359632015228271484e-01
6.933498382568359375e-01 1.115548610687255859e-01 -1.716553699225187302e-03
-1.148205623030662537e-01 3.706045448780059814e-02 8.029972910881042480e-01
2.558551132678985596e-01 -1.722968667745590210e-01 -2.865481078624725342e-01
-1.537960916757583618e-01 2.965728007256984711e-02 7.795085310935974121e-01
8.313260972499847412e-02 4.344963934272527695e-03 5.101092457771301270e-01
-1.735015809535980225e-01 2.769762277603149414e-02 7.777938842773437500e-01
