9.620049595832824707e-02 -5.611651018261909485e-02 1.144629791378974915e-01
-7.242461442947387695e-01 7.846695929765701294e-02 6.428112089633941650e-02
9.528421163558959961e-01 8.933061733841896057e-03 1.900809584185481071e-03
-6.726421415805816650e-02 7.011198904365301132e-03 6.842406392097473145e-01
-2.488531321287155151e-01 -1.743929926306009293e-03 -9.726174175739288330e-02
-7.450929284095764160e-01 8.775594085454940796e-02 3.764203190803527832e-02
2.578768134117126465e-01 -6.028052046895027161e-02 -2.151090055704116821e-01
1.316214203834533691e-01 -1.148132458329200745e-01 2.561733126640319824e-01
-8.608241379261016846e-02 4.448721650987863541e-03 6.478319764137268066e-01
2.766416072845458984e-01 -6.516525894403457642e-02 -2.813330590724945068e-01
1.112016662955284119e-01 -6.206892058253288269e-02 2.678379118442535400e-01
8.275485597550868988e-03 -9.965399513021111488e-04 5.900694727897644043e-01
-8.038430809974670410e-01 1.169308125972747803e-01 6.462631281465291977e-04
-7.420499920845031738e-01 1.523784101009368896e-01 -4.345229361206293106e-03
-2.141529172658920288e-01 7.307507842779159546e-02 8.763702958822250366e-02
1.633661240339279175e-02 -4.573336336761713028e-03 4.446221888065338135e-01
9.542641788721084595e-02 8.594085276126861572e-02 7.754728198051452637e-02
-1.873002648353576660e-01 1.099640801548957825e-01 -8.790042400360107422e-01
2.366562783718109131e-01 -8.433044701814651489e-02 2.953311800956726074e-01
6.399528980255126953e-01 3.519845753908157349e-02 9.924826025962829590e-02
-7.871335744857788086e-01 8.025535196065902710e-02 -5.596847459673881531e-02
-1.234785690903663635e-01 -8.950901217758655548e-03 1.021310538053512573e-01
4.148092493414878845e-02 6.690911948680877686e-02 -8.519674092531204224e-02
-8.153475522994995117e-01 3.422953486442565918e-01 3.021893324330449104e-03
-1.121342629194259644e-01 2.227929607033729553e-02 7.902096509933471680e-01
-8.180701732635498047e-01 1.849966198205947876e-01 -3.413583326619118452e-04
1.793742328882217407e-01 -2.974432706832885742e-02 1.937396228313446045e-01
8.940118551254272461e-01 -4.039463028311729431e-02 4.049812629818916321e-02
5.709602311253547668e-02 -3.708476200699806213e-02 7.194186747074127197e-02
2.892671525478363037e-01 -4.562636092305183411e-02 2.485659569501876831e-01
1.417378634214401245e-01 -7.947242259979248047e-02 2.735501229763031006e-01
-4.583016037940979004e-02 1.387116406112909317e-02 -6.791576147079467773e-01
-3.315123543143272400e-02 -9.722291678190231323e-02 4.383469000458717346e-02
-8.066457509994506836e-01 1.138878688216209412e-01 2.475249618291854858e-01
-2.477053403854370117e-01 -6.684687733650207520e-02 -6.218782067298889160e-02
7.097610831260681152e-02 -3.604375571012496948e-02 1.872533410787582397e-01
4.634088575839996338e-01 -8.473084121942520142e-02 -3.167832642793655396e-02
-6.361075639724731445e-01 2.033343464136123657e-01 -2.877143444493412971e-03
4.812734946608543396e-02 -1.404915656894445419e-02 -4.446376264095306396e-01
-6.728898286819458008e-01 3.450445458292961121e-02 6.027725338935852051e-02
6.144616007804870605e-01 -7.389369606971740723e-02 -5.265861004590988159e-02
1.269769221544265747e-01 -9.858423471450805664e-02 -2.531991600990295410e-01
2.300098538398742676e-01 -3.617721796035766602e-02 -3.835144266486167908e-02
2.288621068000793457e-01 -7.616255432367324829e-02 -2.306707203388214111e-01
6.905425339937210083e-02 -2.485961280763149261e-02 3.254136145114898682e-01
1.160063147544860840e-01 -2.771570719778537750e-02 -1.759511530399322510e-01
-8.384631872177124023e-01 4.088397026062011719e-01 -4.825694020837545395e-03
-7.979974150657653809e-01 8.001512289047241211e-02 5.269658938050270081e-02
2.624145448207855225e-01 -8.737338334321975708e-02 -2.519713342189788818e-01
2.067874073982238770e-01 5.988899618387222290e-02 -8.874683827161788940e-02
1.575131118297576904e-01 -9.863761067390441895e-02 -2.608065307140350342e-01
-5.562970638275146484e-01 -1.613117195665836334e-02 -6.426983326673507690e-02
-8.058983683586120605e-01 3.144284486770629883e-01 -4.478691611438989639e-03
9.342448413372039795e-02 -4.482559114694595337e-02 7.677320390939712524e-02
-1.706975400447845459e-01 3.848162665963172913e-02 8.672441840171813965e-01
1.816431134939193726e-01 -9.722291678190231323e-02 -3.384300740435719490e-03
-1.345826387405395508e-01 1.029437687247991562e-02 -6.830813884735107422e-01
1.479038149118423462e-01 -1.178294941782951355e-01 -2.653709352016448975e-01
2.497889995574951172e-01 -1.089408993721008301e-01 2.225941866636276245e-01
7.604768127202987671e-02 -3.711144998669624329e-02 -5.762340873479843140e-02
5.149060115218162537e-02 -5.219271779060363770e-02 -3.805782645940780640e-02
8.250725269317626953e-02 -5.243293568491935730e-02 -1.193898022174835205e-01
3.203914267942309380e-03 -8.630583994090557098e-03 5.088175535202026367e-01
6.116855740547180176e-01 7.440970093011856079e-02 8.544825017452239990e-02
-2.242086082696914673e-02 1.726090908050537109e-03 -9.774219989776611328e-02
1.965908855199813843e-01 -3.572344779968261719e-02 2.730429768562316895e-01
-7.480024099349975586e-01 2.423587739467620850e-01 6.598684936761856079e-03
-3.168314695358276367e-02 -5.854574963450431824e-03 -5.287455916404724121e-01
1.311142593622207642e-01 -4.471881687641143799e-02 1.884545087814331055e-01
-8.844810128211975098e-01 1.252855658531188965e-01 3.476484119892120361e-01
3.672966361045837402e-02 -9.244519285857677460e-03 -3.770789206027984619e-01
1.561591681092977524e-02 -3.396173566579818726e-02 -1.488316059112548828e-01
-4.614853858947753906e-01 2.377407625317573547e-02 -9.125593304634094238e-02
2.026767879724502563e-01 -2.416560053825378418e-02 -1.287054717540740967e-01
-5.283500552177429199e-01 1.183722093701362610e-01 1.420344924554228783e-03
1.983792781829833984e-01 -3.470912575721740723e-02 5.253643542528152466e-02
-7.910307049751281738e-01 9.010487794876098633e-02 -1.325224936008453369e-01
6.889409571886062622e-02 -2.098919823765754700e-02 9.890125691890716553e-02
8.731190115213394165e-02 -1.661163382232189178e-02 4.184101819992065430e-01
2.181584089994430542e-01 -1.047234907746315002e-01 2.910336852073669434e-01
-8.902999758720397949e-01 1.137810945510864258e-01 2.781145274639129639e-01
-6.728898286819458008e-01 3.450445458292961121e-02 6.027725338935852051e-02
-2.351525053381919861e-02 1.344409119337797165e-02 1.045333743095397949e-01
-7.427973747253417969e-01 1.001946330070495605e-01 1.309055387973785400e-01
-2.974868118762969971e-01 1.088696941733360291e-01 4.597008973360061646e-02
-1.558031588792800903e-01 1.031308025121688843e-01 -5.046982318162918091e-02
7.150995731353759766e-02 -2.811610139906406403e-02 -2.799717187881469727e-01
-1.443520784378051758e-01 1.101507805287837982e-02 7.082905173301696777e-01
1.281513869762420654e-01 -1.113699302077293396e-01 -2.625949084758758545e-01
8.322187662124633789e-01 -7.405384629964828491e-02 -1.726438663899898529e-02
-5.951079130172729492e-01 1.132739484310150146e-01 2.002499997615814209e-02
-2.083339393138885498e-01 -7.602909207344055176e-02 -5.004274472594261169e-02
1.392821520566940308e-01 -5.491534620523452759e-02 1.433442234992980957e-01
8.630486130714416504e-01 -5.702405050396919250e-02 -3.255917504429817200e-02
1.426187157630920410e-01 -1.202585250139236450e-01 2.631934583187103271e-01
-9.822748601436614990e-02 1.427155733108520508e-02 7.659462690353393555e-01
-3.715511038899421692e-02 -4.226330202072858810e-03 -4.721842408180236816e-01
-6.890119910240173340e-01 1.098840013146400452e-01 6.729556480422616005e-04
2.185587882995605469e-01 -6.970297545194625854e-02 2.145063579082489014e-01
-8.458763360977172852e-02 1.105513125658035278e-01 4.228652268648147583e-02
1.042349338531494141e-01 -2.552691660821437836e-02 -3.165404200553894043e-01
-3.034852631390094757e-02 -3.844607621431350708e-02 3.688689470291137695e-01
-1.469412446022033691e-01 -4.124879464507102966e-02 -8.343503624200820923e-02
2.275541573762893677e-01 -8.008635044097900391e-02 2.025748342275619507e-01
-3.008233606815338135e-01 5.348280444741249084e-02 9.756663441658020020e-02
2.796311676502227783e-01 -5.326041206717491150e-02 -2.878459990024566650e-01
-4.165886342525482178e-01 1.096704602241516113e-01 4.412830248475074768e-02
1.836717426776885986e-01 -3.777877241373062134e-02 1.722254753112792969e-01
1.322086453437805176e-01 -1.260240972042083740e-01 2.770735323429107666e-01
-5.156177282333374023e-01 -5.681050196290016174e-02 -1.286012865602970123e-02
-6.337853074073791504e-01 1.887869685888290405e-01 -5.786623340100049973e-03
1.141378358006477356e-01 -9.722291678190231323e-02 1.332518830895423889e-02
-7.582523226737976074e-01 1.328395307064056396e-01 7.346074096858501434e-03
1.756446622312068939e-02 -3.804570436477661133e-02 -2.416146397590637207e-01
-4.958652853965759277e-01 1.156228780746459961e-01 -1.980017125606536865e-02
-4.239290654659271240e-01 1.184255927801132202e-01 3.208740847185254097e-03
5.338576808571815491e-02 -3.956717252731323242e-02 -1.803287118673324585e-01
2.459452748298645020e-01 -5.523565411567687988e-02 2.120239734649658203e-01
-1.591931134462356567e-01 1.969012990593910217e-02 7.930924892425537109e-01
-4.649747535586357117e-02 2.267968095839023590e-02 -9.803581982851028442e-02
-3.089646100997924805e-01 -8.814746141433715820e-02 -1.256651151925325394e-02
-6.322638392448425293e-01 1.009153351187705994e-01 4.156582430005073547e-02
8.248792961239814758e-03 -5.400803405791521072e-03 -5.414778590202331543e-01
-6.062386631965637207e-01 1.350816935300827026e-01 1.356542110443115234e-02
1.854334324598312378e-01 9.354820847511291504e-02 6.961961835622787476e-02
-8.401181697845458984e-01 1.099106892943382263e-01 2.251032888889312744e-01
1.769185364246368408e-01 -3.436212986707687378e-02 -1.833983510732650757e-01
2.194930166006088257e-01 -4.947006702423095703e-02 -9.112246334552764893e-02
3.096408769488334656e-02 2.740410156548023224e-03 -9.782227873802185059e-02
7.991808652877807617e-02 -2.117606066167354584e-02 3.707641065120697021e-01
2.122593671083450317e-01 -2.985110320150852203e-02 1.080300807952880859e-01
-4.788354933261871338e-01 -6.254938244819641113e-02 -2.052086964249610901e-02
-2.099355161190032959e-01 -8.542483299970626831e-02 -2.946284972131252289e-02
3.885898590087890625e-01 -7.074397802352905273e-02 -5.759671702980995178e-02
6.307513266801834106e-02 -7.530838996171951294e-02 -1.288389265537261963e-01
-4.670107364654541016e-01 3.917563706636428833e-02 -8.981453627347946167e-02
-1.238449010998010635e-02 -2.146965824067592621e-02 3.426569402217864990e-01
6.609138101339340210e-02 -2.736871130764484406e-02 1.998788863420486450e-01
3.558188676834106445e-02 2.283984422683715820e-02 1.041596829891204834e-01
1.281320676207542419e-02 -2.106928452849388123e-02 3.574712574481964111e-01
5.792008042335510254e-01 -6.922272033989429474e-03 1.025848239660263062e-01
-3.699494898319244385e-02 -1.901395618915557861e-02 3.634503781795501709e-01
-4.462900012731552124e-02 -2.758239163085818291e-03 -4.923637509346008301e-01
-8.361142873764038086e-01 3.778764605522155762e-01 1.820732140913605690e-03
-1.961815170943737030e-02 -1.095283031463623047e-02 -4.684205949306488037e-01
1.786535531282424927e-01 -6.254938244819641113e-02 -9.144277125597000122e-02
8.773898333311080933e-02 -5.392771586775779724e-02 1.195879280567169189e-01
-3.491294011473655701e-02 6.237119901925325394e-03 6.783682703971862793e-01
1.591146588325500488e-01 -3.954048454761505127e-02 1.636038124561309814e-01
8.498965203762054443e-02 -6.567240506410598755e-02 2.636472284793853760e-01
1.526817679405212402e-01 -1.003726348280906677e-01 -2.805589735507965088e-01
8.473266959190368652e-01 2.398761734366416931e-02 6.740414351224899292e-02
-4.583016037940979004e-02 1.154093369841575623e-01 2.739212103188037872e-02
1.005780622363090515e-01 -2.269752882421016693e-02 1.923782974481582642e-01
8.159971237182617188e-02 -4.114202037453651428e-02 1.956080943346023560e-01
2.020094543695449829e-01 -4.335749894380569458e-02 1.228444129228591919e-01
-8.085142374038696289e-01 2.107815593481063843e-01 -1.809444394893944263e-03
-5.236981809139251709e-02 -3.809908032417297363e-02 -9.010815620422363281e-02
-1.591931134462356567e-01 1.969012990593910217e-02 7.930924892425537109e-01
-3.210029006004333496e-01 -1.292808074504137039e-02 -9.448572248220443726e-02
-4.566807448863983154e-01 1.165037378668785095e-01 -1.627676561474800110e-02
2.913224995136260986e-01 -4.455866292119026184e-02 -2.411875575780868530e-01
1.403231620788574219e-01 -2.347160875797271729e-02 -1.498192250728607178e-01
1.574330329895019531e-01 -5.907936021685600281e-02 1.215364858508110046e-01
1.042883247137069702e-01 -6.286969035863876343e-02 -2.196226269006729126e-02
-7.485095858573913574e-01 8.599424362182617188e-02 1.139825060963630676e-01
2.967944443225860596e-01 -8.862794190645217896e-02 3.523970767855644226e-02
-8.844810128211975098e-01 1.252855658531188965e-01 3.476484119892120361e-01
-1.064947992563247681e-02 1.088429912924766541e-01 -3.987291455268859863e-02
3.435329496860504150e-01 5.727313086390495300e-02 9.607185423374176025e-02
2.266466170549392700e-01 -5.008400976657867432e-02 4.495577514171600342e-02
-5.207160115242004395e-01 7.683871686458587646e-02 7.986953109502792358e-02
2.418346554040908813e-01 -4.357103258371353149e-02 -4.854796454310417175e-02
1.432059556245803833e-01 -6.916911154985427856e-02 2.643412053585052490e-01
-1.145899742841720581e-01 1.093499176204204559e-02 -6.722442507743835449e-01
-4.777410924434661865e-01 9.707160294055938721e-02 6.342696398496627808e-02
1.483842879533767700e-01 -7.392038404941558838e-02 -4.622572287917137146e-02
8.773898333311080933e-02 -5.392771586775779724e-02 1.195879280567169189e-01
-3.259069100022315979e-02 -3.644414618611335754e-02 -1.822772622108459473e-01
-2.141529172658920288e-01 7.307507842779159546e-02 8.763702958822250366e-02
-7.910307049751281738e-01 9.010487794876098633e-02 -1.325224936008453369e-01
-8.600233495235443115e-02 -7.082425523549318314e-03 -4.902817308902740479e-01
-3.830896019935607910e-01 -8.013972640037536621e-02 4.810289014130830765e-03
1.465958952903747559e-01 -2.955748327076435089e-02 1.425701528787612915e-01
-5.180927738547325134e-02 -1.364877261221408844e-02 -4.209080040454864502e-01
-6.724359989166259766e-01 1.068143621087074280e-01 2.394879236817359924e-02
2.576899528503417969e-01 -1.290136575698852539e-01 -2.619009315967559814e-01
1.396024674177169800e-01 -2.723524719476699829e-02 1.777241379022598267e-01
1.443270295858383179e-01 -1.159877181053161621e-01 -2.485546767711639404e-01
-3.255663905292749405e-03 -3.567006811499595642e-02 1.162780597805976868e-01
2.533391118049621582e-01 -8.262213319540023804e-02 -2.618208229541778564e-01
-7.895625829696655273e-01 3.412810564041137695e-01 3.822667757049202919e-03
-6.027686595916748047e-01 8.639462292194366455e-02 6.150510534644126892e-02
-5.898954719305038452e-02 -9.965210221707820892e-03 -9.576696157455444336e-02
-4.586826860904693604e-01 1.111385524272918701e-01 4.017781466245651245e-02
3.029677830636501312e-02 -4.434511065483093262e-02 -4.171469435095787048e-02
2.371634542942047119e-01 -3.337452188134193420e-02 2.460568696260452271e-01
-2.804303467273712158e-01 1.168774291872978210e-01 2.045208029448986053e-02
2.108980715274810791e-01 -1.283196359872817993e-01 -2.293093949556350708e-01
4.278885200619697571e-02 -2.739540114998817444e-02 -2.006416916847229004e-01
8.298965692520141602e-01 -5.942637473344802856e-02 -4.211508110165596008e-02
9.022137522697448730e-02 -4.720120504498481750e-02 -1.626582890748977661e-01
2.947925329208374023e-01 -7.853818684816360474e-02 7.442425936460494995e-02
-6.337853074073791504e-01 1.887869685888290405e-01 -5.786623340100049973e-03
-8.268253207206726074e-01 1.348147690296173096e-01 1.954194391146302223e-03
1.344508081674575806e-01 -8.072695881128311157e-02 -2.108115404844284058e-01
9.756181389093399048e-02 -4.020778834819793701e-02 -2.013089954853057861e-01
-8.107564449310302734e-01 9.720507264137268066e-02 -1.211248114705085754e-01
-8.321904540061950684e-01 1.060135960578918457e-01 1.954212337732315063e-01
2.497889995574951172e-01 -1.089408993721008301e-01 2.225941866636276245e-01
1.289254724979400635e-01 -5.432811006903648376e-02 -2.495182119309902191e-02
-2.427939474582672119e-01 1.121795475482940674e-01 -3.186517208814620972e-02
3.331302478909492493e-02 -2.966425940394401550e-02 1.932591497898101807e-01
7.929541468620300293e-01 7.614471018314361572e-02 5.678053945302963257e-02
1.464357376098632812e-01 -9.207125753164291382e-02 -2.635291814804077148e-01
-7.514190673828125000e-01 7.846695929765701294e-02 6.206564977765083313e-02
1.704589724540710449e-01 -8.099389076232910156e-02 2.182433158159255981e-01
2.580102682113647461e-01 -5.782482028007507324e-02 2.236885726451873779e-01
-8.876040577888488770e-01 1.253923326730728149e-01 -3.432595729827880859e-01
8.918038010597229004e-02 -3.334781154990196228e-02 -1.035611554980278015e-01
1.408836990594863892e-01 -6.780780106782913208e-02 2.546251714229583740e-01
3.074447512626647949e-01 -4.698767513036727905e-02 8.731672167778015137e-02
3.242076039314270020e-01 8.893040567636489868e-02 7.461111247539520264e-02
-2.255238890647888184e-01 1.182921230792999268e-01 -7.684380980208516121e-04
2.065739035606384277e-01 -1.213262230157852173e-01 -2.417481094598770142e-01
-5.533608794212341309e-01 7.841357588768005371e-02 -6.931471079587936401e-02
9.342448413372039795e-02 -4.482559114694595337e-02 7.677320390939712524e-02
-8.005065321922302246e-01 9.549675881862640381e-02 1.759891211986541748e-01
8.344148844480514526e-02 -3.612384200096130371e-02 -6.838047504425048828e-02
2.381050586700439453e-02 -7.242579478770494461e-03 5.277692079544067383e-01
6.997707486152648926e-01 -2.176327630877494812e-02 -8.599751442670822144e-02
-8.813846707344055176e-01 1.140480265021324158e-01 2.715481817722320557e-01
2.220822125673294067e-01 1.184255927801132202e-01 3.101970767602324486e-03
-3.472682833671569824e-01 5.294895544648170471e-02 -9.122924506664276123e-02
-7.820352911949157715e-01 1.017961874604225159e-01 -1.433329582214355469e-01
1.776659339666366577e-01 -4.063487052917480469e-02 1.528734415769577026e-01
-4.031623005867004395e-01 3.842824697494506836e-02 1.004494205117225647e-01
-8.232218027114868164e-01 1.794712841510772705e-01 2.728276420384645462e-03
-4.489592462778091431e-02 -3.481590375304222107e-02 -3.747833967208862305e-01
-8.202055692672729492e-01 1.082290709018707275e-01 2.728276420384645462e-03
4.433701559901237488e-02 -7.885849475860595703e-02 -1.349248141050338745e-01
1.403231620788574219e-01 -2.347160875797271729e-02 -1.498192250728607178e-01
3.568865731358528137e-02 -1.338716745376586914e-01 -1.180017888545989990e-01
2.256056219339370728e-01 -8.884147554636001587e-02 2.369547337293624878e-01
2.949793636798858643e-01 1.176515072584152222e-01 -9.203259833157062531e-03
5.976526811718940735e-02 -1.470577716827392578e-01 1.243658810853958130e-01
2.066079340875148773e-02 6.386617571115493774e-02 9.297552704811096191e-02
5.701594799757003784e-02 -4.600025247782468796e-03 4.799630343914031982e-01
7.161598801612854004e-01 -2.427237667143344879e-02 -8.412903547286987305e-02
-5.440986156463623047e-01 -2.227044664323329926e-02 6.980646401643753052e-02
6.956140697002410889e-02 -3.211995959281921387e-02 2.665566802024841309e-01
-1.145899742841720581e-01 1.093499176204204559e-02 -6.722442507743835449e-01
2.590245902538299561e-01 -8.838770538568496704e-02 6.908576935529708862e-02
-8.196183443069458008e-01 8.439268171787261963e-02 -4.283577948808670044e-02
-7.053211331367492676e-01 2.976121604442596436e-01 -1.595904934220016003e-03
-2.023014426231384277e-01 7.873388379812240601e-02 8.363316208124160767e-02
3.646200001239776611e-01 -8.595868945121765137e-02 -2.775453031063079834e-02
1.530020833015441895e-01 -2.977103553712368011e-02 1.367244869470596313e-01
5.090262889862060547e-01 1.248317956924438477e-01 2.835046034306287766e-03
5.472039058804512024e-02 -3.903331235051155090e-02 -5.143075436353683472e-02
6.614477187395095825e-02 -1.313091963529586792e-01 1.056277602910995483e-01
8.731190115213394165e-02 -1.661163382232189178e-02 4.184101819992065430e-01
-7.301184535026550293e-01 6.690911948680877686e-02 4.268690943717956543e-02
1.447541117668151855e-01 -2.301783673465251923e-02 -2.255457639694213867e-01
-3.087243735790252686e-01 1.149553898721933365e-02 -9.827604889869689941e-02
-8.166821599006652832e-01 1.142348647117614746e-01 2.509416043758392334e-01
9.163609147071838379e-02 -4.351765289902687073e-02 -8.970776200294494629e-02
-1.905567497014999390e-01 7.884065061807632446e-02 -8.671527504920959473e-01
-8.162476867437362671e-02 1.179451271891593933e-01 1.249772217124700546e-02
-6.888252496719360352e-01 1.273141801357269287e-01 -6.800937466323375702e-03
8.269336819648742676e-01 -8.988248556852340698e-02 -2.786130085587501526e-02
2.757414430379867554e-02 -2.835632301867008209e-02 -1.928741782903671265e-01
9.849604219198226929e-02 -2.854316495358943939e-02 -2.802653610706329346e-01
-5.951079130172729492e-01 1.132739484310150146e-01 2.002499997615814209e-02
2.718369662761688232e-01 -4.031456261873245239e-02 -2.471666783094406128e-01
-4.583016037940979004e-02 1.154093369841575623e-01 2.739212103188037872e-02
5.984727740287780762e-01 8.257759362459182739e-02 8.034999668598175049e-02
-5.951079130172729492e-01 1.132739484310150146e-01 2.002499997615814209e-02
8.771229535341262817e-02 -1.002124622464179993e-01 2.711211144924163818e-01
-7.480024099349975586e-01 2.423587739467620850e-01 6.598684936761856079e-03
2.151955366134643555e-01 -7.530838996171951294e-02 -1.975453495979309082e-01
4.121400043368339539e-02 1.182120591402053833e-01 9.721704758703708649e-03
5.957842618227005005e-02 -5.043100565671920776e-02 -9.259055554866790771e-02
-8.104360699653625488e-01 6.063638627529144287e-02 1.367219071835279465e-02
-3.445990383625030518e-01 1.016627252101898193e-01 5.899601802229881287e-02
2.564354240894317627e-01 -6.746080517768859863e-02 -2.989767789840698242e-01
2.041982561349868774e-01 -3.532305359840393066e-02 -1.315081864595413208e-01
-1.578050851821899414e-01 2.129167504608631134e-02 -8.001279234886169434e-01
-5.340088605880737305e-01 -4.613351076841354370e-02 -3.736382350325584412e-02
7.724276781082153320e-01 5.172109603881835938e-02 -7.377235591411590576e-02
-5.283500552177429199e-01 1.183722093701362610e-01 1.420344924554228783e-03
5.517075657844543457e-01 1.163969635963439941e-01 2.328148111701011658e-02
3.336641192436218262e-02 -4.538612067699432373e-02 -1.454175449907779694e-02
-1.035126000642776489e-01 1.539264246821403503e-02 -7.072647809982299805e-01
2.800122462213039398e-02 -3.465574979782104492e-02 -2.398529350757598877e-01
2.442903518676757812e-01 -4.858922958374023438e-02 -2.473535239696502686e-01
-8.171092867851257324e-01 8.943755924701690674e-02 1.210560128092765808e-01
-6.027686595916748047e-01 8.639462292194366455e-02 6.150510534644126892e-02
-3.283433318138122559e-01 -8.764048106968402863e-03 1.013302728533744812e-01
-3.088577985763549805e-01 -8.136757463216781616e-02 4.546292871236801147e-02
1.592748165130615234e-01 -8.852116763591766357e-02 2.750448882579803467e-01
-8.650222420692443848e-01 1.240844056010246277e-01 3.347026109695434570e-01
2.912691235542297363e-01 1.006750911474227905e-01 -5.434023216366767883e-02
2.910555601119995117e-01 8.687508851289749146e-02 7.669312506914138794e-02
-1.648519039154052734e-01 5.898145213723182678e-02 -8.610935211181640625e-01
1.212647333741188049e-01 -3.681783378124237061e-02 -1.843592822551727295e-01
-1.962155699729919434e-01 1.044120416045188904e-01 8.834465146064758301e-01
1.425119340419769287e-01 -3.182634338736534119e-02 -2.302436530590057373e-01
1.464357376098632812e-01 -8.697301149368286133e-02 2.187771648168563843e-01
1.283115446567535400e-01 6.957821082323789597e-03 1.042931377887725830e-01
-6.993954181671142578e-01 8.748902380466461182e-02 -1.878585852682590485e-02
4.713973030447959900e-02 -4.154241457581520081e-02 1.619221866130828857e-01
-1.874337494373321533e-01 -8.852116763591766357e-02 4.116285126656293869e-03
-8.033893108367919922e-01 8.417915552854537964e-02 -7.892400026321411133e-02
-8.651289939880371094e-01 1.254724115133285522e-01 3.465273678302764893e-01
4.713973030447959900e-02 -4.154241457581520081e-02 1.619221866130828857e-01
-8.250902295112609863e-01 8.441936969757080078e-02 6.820491701364517212e-02
1.316214203834533691e-01 -1.148132458329200745e-01 2.561733126640319824e-01
1.587676554918289185e-01 -4.616019874811172485e-02 -7.310504466295242310e-02
2.105243802070617676e-01 1.180518940091133118e-01 1.140333060175180435e-02
-7.308391332626342773e-01 1.111118495464324951e-01 -4.318536724895238876e-03
5.135373473167419434e-01 2.137175202369689941e-02 1.042931377887725830e-01
4.182792827486991882e-02 -2.592730894684791565e-02 -2.993237674236297607e-01
1.543367058038711548e-01 -5.536912009119987488e-02 -2.707895040512084961e-01
2.285418063402175903e-01 -1.216732189059257507e-01 -2.856305241584777832e-01
-9.822748601436614990e-02 1.427155733108520508e-02 7.659462690353393555e-01
-5.570637434720993042e-02 -1.220738049596548080e-02 5.456799268722534180e-01
1.522013098001480103e-01 -5.350063368678092957e-02 1.463070958852767944e-01
-2.127210609614849091e-04 -8.683954924345016479e-02 -7.257119566202163696e-02
8.856644481420516968e-02 -5.059115961194038391e-02 2.489129751920700073e-01
-3.001827299594879150e-01 -2.501976676285266876e-02 -9.122924506664276123e-02
2.073746472597122192e-01 -6.220238283276557922e-02 2.214731127023696899e-01
1.668821871280670166e-01 -9.722291678190231323e-02 2.672481164336204529e-02
-5.471875518560409546e-02 1.592626213096082211e-03 -6.147220730781555176e-01
-8.458763360977172852e-02 1.105513125658035278e-01 4.228652268648147583e-02
4.327658712863922119e-01 6.434664130210876465e-02 -8.661143481731414795e-02
-2.679649293422698975e-01 1.081223040819168091e-01 -4.144776985049247742e-02
-6.224603578448295593e-02 -1.364877261221408844e-02 -4.050526618957519531e-01
-1.919714659452438354e-01 5.129402130842208862e-02 -9.219016134738922119e-02
5.220789313316345215e-01 -3.865962848067283630e-02 -8.487642556428909302e-02
-7.002496123313903809e-01 1.505633294582366943e-01 -6.240394897758960724e-03
9.467902779579162598e-02 -3.569675609469413757e-02 7.698674499988555908e-02
-4.933028221130371094e-01 8.783601969480514526e-02 -6.653869152069091797e-02
8.910223245620727539e-01 2.564255148172378540e-02 -4.219515994191169739e-02
1.347177475690841675e-01 -3.873969614505767822e-02 -1.631654500961303711e-01
-8.261238783597946167e-02 -3.425552509725093842e-03 5.469611287117004395e-01
5.344108343124389648e-01 -4.642712697386741638e-02 -8.012516051530838013e-02
3.061368167400360107e-01 -8.852116763591766357e-02 5.717833060771226883e-03
1.665084809064865112e-01 -3.972732648253440857e-02 2.776073813438415527e-01
1.485444307327270508e-01 -6.964957714080810547e-02 -2.419616281986236572e-01
1.537227779626846313e-01 -4.186271876096725464e-02 1.342420876026153564e-01
1.702721118927001953e-01 -3.430875390768051147e-02 -6.055958196520805359e-02
-9.661857038736343384e-03 7.051260024309158325e-02 8.923859149217605591e-02
-3.616748377680778503e-02 -3.745869500562548637e-03 5.596934556961059570e-01
6.945464015007019043e-02 -3.022480756044387817e-02 1.055743843317031860e-01
1.179815530776977539e-01 -9.332581609487533569e-02 -2.225562185049057007e-01
-4.390830174088478088e-02 -3.212010953575372696e-03 -5.584009289741516113e-01
-7.666604518890380859e-01 3.578304052352905273e-01 3.609127830713987350e-03
3.006114661693572998e-01 -2.384529262781143188e-02 9.783356636762619019e-02
-2.099888920783996582e-01 8.554046601057052612e-02 7.792098075151443481e-02
2.371634542942047119e-01 -3.337452188134193420e-02 2.460568696260452271e-01
-4.228880703449249268e-01 -3.735169023275375366e-02 -7.516036182641983032e-02
-7.257602363824844360e-02 -3.529636561870574951e-02 3.701235055923461914e-01
-6.448819488286972046e-02 -9.377958625555038452e-02 4.468884691596031189e-02
1.296995580196380615e-01 -1.215130612254142761e-01 -2.796781063079833984e-01
5.011520385742187500e-01 -8.320937305688858032e-02 -3.584235161542892456e-02
2.535526454448699951e-01 -7.944573462009429932e-02 -2.339805811643600464e-01
-1.476886421442031860e-01 7.403600215911865234e-02 8.699642121791839600e-02
8.731190115213394165e-02 -1.661163382232189178e-02 4.184101819992065430e-01
1.357320547103881836e-01 -6.193545460700988770e-02 -2.191128879785537720e-01
-8.361142873764038086e-01 3.778764605522155762e-01 1.820732140913605690e-03
-1.468611806631088257e-01 9.266735613346099854e-02 -6.451006233692169189e-02
-3.440577909350395203e-02 1.074549779295921326e-01 -4.283577948808670044e-02
1.556179374456405640e-01 -7.736371457576751709e-02 2.725892066955566406e-01
1.838852614164352417e-01 -6.238922849297523499e-02 9.609854966402053833e-02
1.838852614164352417e-01 -6.238922849297523499e-02 9.609854966402053833e-02
1.895247586071491241e-02 -3.844607621431350708e-02 -7.596114277839660645e-02
3.233801424503326416e-01 -7.771071046590805054e-02 -4.724003747105598450e-02
9.371809661388397217e-02 -6.607279926538467407e-02 3.102229908108711243e-02
1.885030716657638550e-01 -4.180934280157089233e-02 1.563968509435653687e-01
2.862242162227630615e-01 -3.914009034633636475e-02 2.675176262855529785e-01
-3.616748377680778503e-02 -3.745869500562548637e-03 5.596934556961059570e-01
-2.463633567094802856e-02 -2.144297026097774506e-02 3.044600188732147217e-01
1.638926118612289429e-01 -6.383062899112701416e-02 1.000490337610244751e-01
-4.636741578578948975e-01 1.161033511161804199e-01 2.405556291341781616e-02
-2.148662321269512177e-02 -7.963280193507671356e-03 -5.053896903991699219e-01
2.478404641151428223e-01 -9.626197814941406250e-02 3.072627186775207520e-01
3.061368167400360107e-01 -8.852116763591766357e-02 5.717833060771226883e-03
2.380976825952529907e-01 -1.144128665328025818e-01 -2.574699521064758301e-01
2.796044945716857910e-01 -3.577684611082077026e-02 9.260183572769165039e-02
5.484511256217956543e-01 9.960739314556121826e-02 -5.575493350625038147e-02
2.586241960525512695e-01 7.622478902339935303e-02 8.547494560480117798e-02
3.136374056339263916e-01 4.507467150688171387e-02 1.002892628312110901e-01
2.283549457788467407e-01 -7.989950478076934814e-02 -2.833883762359619141e-01
-1.831022091209888458e-02 -1.637141220271587372e-02 5.411688685417175293e-01
8.117189407348632812e-01 -1.276790201663970947e-01 1.065594051033258438e-02
7.990133762359619141e-01 -1.141993179917335510e-01 -1.259320415556430817e-02
2.238439172506332397e-01 -4.773506522178649902e-02 -3.773751482367515564e-02
9.278385341167449951e-02 -7.432075589895248413e-02 2.759524285793304443e-01
-5.544285774230957031e-01 1.173845827579498291e-01 -3.680509980767965317e-04
6.905425339937210083e-02 -2.485961280763149261e-02 3.254136145114898682e-01
1.018859967589378357e-01 -7.968595623970031738e-02 2.481121867895126343e-01
4.967744648456573486e-01 1.182654350996017456e-01 7.826539687812328339e-03
-9.812071919441223145e-02 1.285685412585735321e-02 -6.789174079895019531e-01
6.302174925804138184e-02 -3.001125529408454895e-02 2.606843411922454834e-01
1.739823520183563232e-01 -5.686390027403831482e-02 -1.157062426209449768e-01
6.754014641046524048e-03 -2.886349149048328400e-02 3.691892623901367188e-01
-2.549390196800231934e-01 -7.570878416299819946e-02 5.670046433806419373e-02
8.899352699518203735e-02 -3.139926120638847351e-02 -1.379410624504089355e-01
-8.268253207206726074e-01 1.348147690296173096e-01 1.954194391146302223e-03
-3.498307466506958008e-01 3.458453342318534851e-02 -9.584703296422958374e-02
-8.413460254669189453e-01 2.043486684560775757e-01 1.420344924554228783e-03
1.357320547103881836e-01 -6.193545460700988770e-02 -2.191128879785537720e-01
-8.202589750289916992e-01 1.052395105361938477e-01 -1.794211715459823608e-01
1.799080967903137207e-01 -2.248397842049598694e-02 1.731597334146499634e-01
-7.664468884468078613e-01 2.850667238235473633e-01 5.424216389656066895e-03
6.994247436523437500e-03 -1.629132591187953949e-02 1.003159657120704651e-01
3.273573517799377441e-01 -7.338652759790420532e-02 -5.401992425322532654e-02
4.704557061195373535e-01 5.340272933244705200e-02 -9.144277125597000122e-02
9.391489028930664062e-01 1.803519576787948608e-02 -4.959156736731529236e-03
-6.802569031715393066e-01 8.012188971042633057e-02 -4.657272249460220337e-02
2.498497627675533295e-02 -5.534257739782333374e-03 4.300747811794281006e-01
-1.470673456788063049e-02 4.688961897045373917e-03 5.619089603424072266e-01
4.447508156299591064e-01 -6.569909304380416870e-02 6.969969719648361206e-02
2.663990855216979980e-02 -8.411691337823867798e-02 -1.521681547164916992e-01
-4.958652853965759277e-01 1.156228780746459961e-01 -1.980017125606536865e-02
1.315413415431976318e-01 -8.665268123149871826e-02 -2.347546815872192383e-01
-8.442747592926025391e-02 1.672725938260555267e-02 7.191542983055114746e-01
-3.974427655339241028e-02 1.173845827579498291e-01 -1.123188715428113937e-02
-2.882705256342887878e-02 4.181802272796630859e-03 -6.491553187370300293e-01
7.583414018154144287e-02 -5.536912009119987488e-02 8.592872321605682373e-02
5.971915125846862793e-01 -1.984143443405628204e-02 -9.304432570934295654e-02
1.490249037742614746e-01 -5.013738945126533508e-02 -1.546505540609359741e-01
-8.232218027114868164e-01 1.794712841510772705e-01 2.728276420384645462e-03
-5.497831385582685471e-03 -2.176327630877494812e-02 -2.782634198665618896e-01
2.634288370609283447e-01 -5.350063368678092957e-02 2.148533761501312256e-01
1.312210261821746826e-01 -2.499307692050933838e-02 -1.289723962545394897e-01
1.628783047199249268e-01 -2.974432706832885742e-02 2.453895509243011475e-01
1.838852614164352417e-01 -6.238922849297523499e-02 9.609854966402053833e-02
1.255622208118438721e-01 -2.029520645737648010e-02 2.193110138177871704e-01
-6.956851482391357422e-01 2.810094654560089111e-01 3.662512870505452156e-03
5.135373473167419434e-01 2.137175202369689941e-02 1.042931377887725830e-01
5.275241732597351074e-01 -3.244026750326156616e-02 -8.807952702045440674e-02
1.014589145779609680e-01 -1.573077961802482605e-02 2.856418192386627197e-01
-4.927422702312469482e-01 7.745264470577239990e-02 -7.451973855495452881e-02
2.288621068000793457e-01 -7.616255432367324829e-02 -2.306707203388214111e-01
4.500433057546615601e-02 -4.234318062663078308e-02 1.864258944988250732e-01
8.322187662124633789e-01 -7.405384629964828491e-02 -1.726438663899898529e-02
-7.571846842765808105e-01 1.000077873468399048e-01 1.310390084981918335e-01
2.867313921451568604e-01 -7.608246803283691406e-02 2.175226062536239624e-01
-7.251803278923034668e-01 2.258628159761428833e-01 -5.813315976411104202e-03
-7.899897098541259766e-01 1.576101481914520264e-01 -1.542519778013229370e-03
1.323954910039901733e-01 -6.786119937896728516e-02 -7.022225111722946167e-02
-2.444755434989929199e-01 6.931143999099731445e-02 8.998596668243408203e-02
-2.959119677543640137e-01 -8.852116763591766357e-02 1.957122795283794403e-02
2.748532295227050781e-01 -7.023680955171585083e-02 2.900460660457611084e-01
-8.029014617204666138e-02 2.713711233809590340e-03 -6.216887831687927246e-01
3.413708806037902832e-01 -3.025149554014205933e-02 -8.909383416175842285e-02
-6.665103435516357422e-01 -1.637141220271587372e-02 -6.667475681751966476e-03
5.641996264457702637e-01 5.089345853775739670e-03 1.041596829891204834e-01
2.275541573762893677e-01 -8.008635044097900391e-02 2.025748342275619507e-01
4.505964815616607666e-01 1.176248192787170410e-01 -9.336722083389759064e-03
8.344148844480514526e-02 -3.612384200096130371e-02 -6.838047504425048828e-02
7.160798311233520508e-01 -5.739773809909820557e-02 -6.600484251976013184e-02
2.380976825952529907e-01 -1.144128665328025818e-01 -2.574699521064758301e-01
6.603799760341644287e-02 -3.260042145848274231e-02 1.386730521917343140e-01
1.281246989965438843e-01 -4.624028503894805908e-02 2.457365691661834717e-01
3.298397362232208252e-01 -4.893802688457071781e-04 1.035991311073303223e-01
6.442503929138183594e-01 1.139145568013191223e-01 -1.721100322902202606e-02
-3.089646100997924805e-01 -8.814746141433715820e-02 -1.256651151925325394e-02
2.442443370819091797e-02 -3.889985010027885437e-02 -6.733947247266769409e-02
8.640362024307250977e-01 5.983560904860496521e-02 3.112906962633132935e-02
9.716879576444625854e-03 -7.656292617321014404e-02 9.468384832143783569e-02
-2.083339393138885498e-01 -7.602909207344055176e-02 -5.004274472594261169e-02
3.136374056339263916e-01 4.507467150688171387e-02 1.002892628312110901e-01
2.317715734243392944e-01 -5.865227803587913513e-02 2.863624989986419678e-01
-1.412824392318725586e-01 -6.324338912963867188e-02 7.236894220113754272e-02
-4.161615669727325439e-01 3.674661740660667419e-02 -9.371164441108703613e-02
-5.232250690460205078e-01 1.167172789573669434e-01 -1.147211994975805283e-02
2.584373652935028076e-01 -7.325305789709091187e-02 2.951443493366241455e-01
-8.062186837196350098e-01 9.907354414463043213e-02 2.004661262035369873e-01
-1.468611806631088257e-01 9.266735613346099854e-02 -6.451006233692169189e-02
2.885998487472534180e-01 1.130337119102478027e-01 -2.954292669892311096e-02
-6.337853074073791504e-01 1.887869685888290405e-01 -5.786623340100049973e-03
1.545235514640808105e-01 -9.591498225927352905e-02 2.411988526582717896e-01
-1.048932410776615143e-02 -2.731531485915184021e-02 -9.136269986629486084e-02
7.599429041147232056e-02 -3.615052998065948486e-02 -2.395860254764556885e-01
-7.480024099349975586e-01 2.423587739467620850e-01 6.598684936761856079e-03
8.514981716871261597e-02 -8.745346963405609131e-02 7.728035748004913330e-02
-8.526902794837951660e-01 1.051594316959381104e-01 -1.931411027908325195e-01
2.669329196214675903e-02 -5.419464409351348877e-02 -1.828911900520324707e-01
-7.951679825782775879e-01 1.105780005455017090e-01 -2.305372655391693115e-01
-8.180701732635498047e-01 1.849966198205947876e-01 -3.413583326619118452e-04
7.823646068572998047e-02 -3.510951995849609375e-02 2.013202905654907227e-01
1.125362887978553772e-01 -7.602909207344055176e-02 2.657559216022491455e-01
9.017793536186218262e-01 -3.081204369664192200e-02 4.159251973032951355e-02
-3.235046193003654480e-02 -1.869365014135837555e-02 3.701235055923461914e-01
-5.357098206877708435e-02 6.490717828273773193e-02 -8.631782233715057373e-02
-6.632271409034729004e-01 4.849115386605262756e-03 4.992057383060455322e-02
2.217618972063064575e-01 -9.439351409673690796e-02 2.240088880062103271e-01
5.984727740287780762e-01 8.257759362459182739e-02 8.034999668598175049e-02
4.581504464149475098e-01 -5.931960046291351318e-02 7.610589265823364258e-02
-9.822012856602668762e-03 -6.148183252662420273e-03 -5.302403569221496582e-01
5.750101208686828613e-01 9.119926393032073975e-02 -6.613830476999282837e-02
1.322086453437805176e-01 -1.260240972042083740e-01 2.770735323429107666e-01
4.639427065849304199e-01 -8.062018454074859619e-02 4.791863635182380676e-02
5.971915125846862793e-01 -1.984143443405628204e-02 -9.304432570934295654e-02
2.273673266172409058e-01 -7.915211468935012817e-02 -2.165504097938537598e-01
4.569833353161811829e-02 -1.282128691673278809e-01 1.390467435121536255e-01
-3.913034871220588684e-02 -4.090179875493049622e-02 -3.643199503421783447e-01
8.856644481420516968e-02 -5.059115961194038391e-02 2.489129751920700073e-01
1.378941386938095093e-01 -4.063487052917480469e-02 2.039895206689834595e-01
-3.027185499668121338e-01 -5.809174850583076477e-02 -7.104972004890441895e-02
-9.921511262655258179e-02 1.822203956544399261e-02 -8.057066798210144043e-01
1.107212007045745850e-01 -4.002094268798828125e-02 1.476951092481613159e-01
1.415243148803710938e-01 -1.132117062807083130e-01 2.182166278362274170e-01
1.970980465412139893e-01 -6.591264903545379639e-02 -6.653869152069091797e-02
-4.070327281951904297e-01 1.264331303536891937e-02 1.015972048044204712e-01
1.281246989965438843e-01 -4.624028503894805908e-02 2.457365691661834717e-01
-6.695532798767089844e-01 1.408739537000656128e-01 1.156348548829555511e-02
-1.058081462979316711e-01 1.296362001448869705e-02 -7.423120141029357910e-01
3.783399462699890137e-01 1.171977370977401733e-01 -1.243304926902055740e-02
6.820008903741836548e-02 -3.094548918306827545e-02 -8.794606477022171021e-02
-4.350791499018669128e-02 -1.778610609471797943e-02 3.764229118824005127e-01
3.398033604025840759e-02 -1.211126744747161865e-01 1.981438845396041870e-01
1.878624558448791504e-01 -5.283332988619804382e-02 -2.904618680477142334e-01
-8.555731177330017090e-01 1.107915416359901428e-01 2.761926651000976562e-01
6.230031847953796387e-01 -5.993352457880973816e-02 7.437087595462799072e-02
1.626380681991577148e-01 -1.115834638476371765e-01 2.824921011924743652e-01
-1.766766607761383057e-01 5.812728777527809143e-02 -8.606665134429931641e-01
-2.968995571136474609e-01 -7.712347805500030518e-02 -4.828104004263877869e-02
3.139043152332305908e-01 -7.357338815927505493e-02 7.511826604604721069e-02
5.466893911361694336e-01 1.073215231299400330e-01 -4.312939196825027466e-02
2.073746472597122192e-01 -6.220238283276557922e-02 2.214731127023696899e-01
6.229497790336608887e-01 -7.490799576044082642e-02 5.707415938377380371e-02
-2.583022415637969971e-01 -5.069793760776519775e-02 -7.708221673965454102e-02
1.320484876632690430e-01 -6.372385472059249878e-02 2.226208746433258057e-01
1.597552746534347534e-01 -5.766466632485389709e-02 2.321500778198242188e-01
1.322086453437805176e-01 -1.260240972042083740e-01 2.770735323429107666e-01
1.077850311994552612e-01 -1.202052738517522812e-02 -9.531319141387939453e-02
-2.883846759796142578e-01 1.181052848696708679e-01 -4.745616577565670013e-03
2.555812597274780273e-01 -1.299745738506317139e-01 -2.449245005846023560e-01
4.577841237187385559e-02 -2.355167455971240997e-02 3.359838426113128662e-01
-8.813846707344055176e-01 1.140480265021324158e-01 2.715481817722320557e-01
2.535526454448699951e-01 -7.944573462009429932e-02 -2.339805811643600464e-01
2.119390517473220825e-01 -6.978303939104080200e-02 2.050038427114486694e-01
7.181093562394380569e-03 -2.317799068987369537e-02 -2.541067302227020264e-01
2.289955615997314453e-01 -5.213931947946548462e-02 -2.063271999359130859e-01
4.881527721881866455e-01 -7.306621968746185303e-02 6.062425673007965088e-02
-1.264948248863220215e-01 -8.852116763591766357e-02 5.504293832927942276e-03
5.215791240334510803e-02 -3.919346630573272705e-02 -2.601392269134521484e-01
-1.633838117122650146e-01 1.720773056149482727e-02 -7.748501896858215332e-01
9.342448413372039795e-02 -4.482559114694595337e-02 7.677320390939712524e-02
-7.411691546440124512e-01 9.210680425167083740e-02 -6.189420446753501892e-02
-1.745145767927169800e-01 3.618607670068740845e-02 -9.622073173522949219e-02
5.220789313316345215e-01 -3.865962848067283630e-02 -8.487642556428909302e-02
-7.871335744857788086e-01 8.025535196065902710e-02 -5.596847459673881531e-02
1.417111754417419434e-01 1.031841933727264404e-01 5.651361495256423950e-02
-8.079003691673278809e-01 8.012188971042633057e-02 2.747219800949096680e-02
-8.423870205879211426e-01 9.669791907072067261e-02 -1.336702704429626465e-01
2.470663636922836304e-01 -9.049640595912933350e-02 -2.915829420089721680e-01
-3.167588114738464355e-01 -5.988029763102531433e-03 -9.622073173522949219e-02
-1.281497478485107422e-01 6.730949878692626953e-02 9.113375097513198853e-02
-2.444755434989929199e-01 6.931143999099731445e-02 8.998596668243408203e-02
-1.874871253967285156e-01 -8.852116763591766357e-02 1.364549808204174042e-02
5.453354865312576294e-02 -4.351765289902687073e-02 7.912214100360870361e-02
-6.449694633483886719e-01 -1.180699653923511505e-02 -3.426749259233474731e-02
-6.579613685607910156e-02 6.263808812946081161e-03 -6.691746711730957031e-01
2.419147193431854248e-01 -9.599504619836807251e-02 -3.594911843538284302e-02
2.366562783718109131e-01 -8.433044701814651489e-02 2.953311800956726074e-01
8.298965692520141602e-01 -5.942637473344802856e-02 -4.211508110165596008e-02
3.136374056339263916e-01 4.507467150688171387e-02 1.002892628312110901e-01
-7.338820695877075195e-01 1.853169202804565430e-01 -5.092618986964225769e-03
7.915928959846496582e-01 -4.549289494752883911e-02 6.924592703580856323e-02
-7.485095858573913574e-01 8.599424362182617188e-02 1.139825060963630676e-01
-8.458836674690246582e-01 1.042251959443092346e-01 2.284398376941680908e-01
6.820008903741836548e-02 -3.094548918306827545e-02 -8.794606477022171021e-02
7.823646068572998047e-02 -3.510951995849609375e-02 2.013202905654907227e-01
3.273573517799377441e-01 -7.338652759790420532e-02 -5.401992425322532654e-02
5.750101208686828613e-01 9.119926393032073975e-02 -6.613830476999282837e-02
1.293258517980575562e-01 -5.315363779664039612e-02 -9.136269986629486084e-02
-4.425604045391082764e-01 1.124197766184806824e-01 3.692133352160453796e-02
-7.630569338798522949e-01 8.839656412601470947e-02 -1.239008307456970215e-01
4.946123659610748291e-01 2.580270543694496155e-02 1.038927510380744934e-01
-2.959119677543640137e-01 -8.852116763591766357e-02 1.957122795283794403e-02
1.134705320000648499e-01 1.166638880968093872e-01 -1.558276172727346420e-02
3.209511339664459229e-01 -7.744378596544265747e-02 5.643353983759880066e-02
-6.865563392639160156e-01 -1.071260031312704086e-02 8.360387757420539856e-03
1.556179374456405640e-01 -7.736371457576751709e-02 2.725892066955566406e-01
8.581712096929550171e-02 1.109250113368034363e-01 4.129889979958534241e-02
-5.312595367431640625e-01 7.876057177782058716e-02 7.818789780139923096e-02
7.101274132728576660e-01 -4.693429544568061829e-02 7.994960248470306396e-02
-4.663434028625488281e-01 1.253923326730728149e-01 8.387080393731594086e-03
-5.858989953994750977e-01 -3.692460805177688599e-02 2.755227871239185333e-02
6.211346983909606934e-01 -8.852116763591766357e-02 -4.478691611438989639e-03
3.392695263028144836e-02 -9.722291678190231323e-02 -3.357348963618278503e-02
-4.268044605851173401e-02 -1.968128047883510590e-02 -3.455818295478820801e-01
2.984300628304481506e-02 -8.577206172049045563e-03 -5.065641403198242188e-01
1.635456085205078125e-01 -3.137256950139999390e-02 1.100053265690803528e-01
-1.003895774483680725e-01 -8.868132531642913818e-02 3.582694381475448608e-02
6.719838976860046387e-01 9.034511446952819824e-02 6.609620898962020874e-02
1.854334324598312378e-01 9.354820847511291504e-02 6.961961835622787476e-02
2.186195552349090576e-02 -3.377489373087882996e-02 1.436645388603210449e-01
6.809792518615722656e-01 6.391955912113189697e-02 -7.991162687540054321e-02
1.507599204778671265e-01 -5.937297642230987549e-02 -1.149321570992469788e-01
2.864184416830539703e-02 -1.327507756650447845e-02 -3.373605608940124512e-01
5.664225295186042786e-02 -3.900662437081336975e-02 1.900026649236679077e-01
9.005248546600341797e-01 3.343674913048744202e-02 2.768574096262454987e-02
1.316214203834533691e-01 -1.148132458329200745e-01 2.561733126640319824e-01
5.888441950082778931e-02 -2.659463323652744293e-02 2.133052051067352295e-01
-3.088577985763549805e-01 -8.136757463216781616e-02 4.546292871236801147e-02
-4.153874814510345459e-01 6.186423823237419128e-02 9.265521913766860962e-02
-6.700336933135986328e-01 2.206310778856277466e-01 8.146848529577255249e-03
5.624185875058174133e-02 -8.539814502000808716e-02 1.337883174419403076e-01
2.204806655645370483e-01 -5.715751647949218750e-02 -2.114254534244537354e-01
9.467902779579162598e-02 -3.569675609469413757e-02 7.698674499988555908e-02
1.489448249340057373e-01 -2.371182851493358612e-02 2.223005741834640503e-01
2.862242162227630615e-01 -3.914009034633636475e-02 2.675176262855529785e-01
3.778861761093139648e-01 -3.046502731740474701e-02 9.513761848211288452e-02
2.197065651416778564e-01 -2.579384483397006989e-02 1.217767149209976196e-01
5.275241732597351074e-01 -3.244026750326156616e-02 -8.807952702045440674e-02
-1.265141461044549942e-02 2.687022322788834572e-03 5.384996533393859863e-01
1.310682296752929688e-02 -1.642479002475738525e-02 -4.097238481044769287e-01
1.465691924095153809e-01 -9.850414842367172241e-02 2.664766013622283936e-01
1.107212007045745850e-01 -4.002094268798828125e-02 1.476951092481613159e-01
-8.196183443069458008e-01 8.439268171787261963e-02 -4.283577948808670044e-02
9.289062768220901489e-02 -6.922250986099243164e-02 -2.336069047451019287e-01
