-6.145119667053222656e-01 1.593485027551651001e-01 -3.992811590433120728e-02
-4.470844566822052002e-01 1.256492733955383301e-01 -4.362903535366058350e-02
4.024329185485839844e-01 -7.876134663820266724e-02 2.417326867580413818e-01
5.412173867225646973e-01 -9.132363647222518921e-02 7.949270308017730713e-03
3.176679834723472595e-03 -5.097839981317520142e-02 1.334677636623382568e-01
-5.030421167612075806e-02 -2.468101866543292999e-02 -9.148035943508148193e-02
5.226606726646423340e-01 8.952622860670089722e-02 4.274413920938968658e-03
3.051143586635589600e-01 -1.211394965648651123e-01 3.178621828556060791e-01
2.319820970296859741e-01 -6.700702011585235596e-02 8.590313792228698730e-02
-3.768980503082275391e-02 -3.309510881081223488e-03 -5.751279592514038086e-01
1.549143642187118530e-01 3.586289659142494202e-02 -8.665873110294342041e-02
-5.948345065116882324e-01 8.426153659820556641e-02 -1.133721042424440384e-02
4.219195339828729630e-03 -4.130909219384193420e-02 -2.411851584911346436e-01
3.119688928127288818e-01 -3.002388961613178253e-02 -2.765523791313171387e-01
-6.171971932053565979e-02 1.290155295282602310e-02 -7.021581530570983887e-01
3.657885789871215820e-01 -9.247038513422012329e-02 -3.388052806258201599e-03
8.095600605010986328e-01 4.962405934929847717e-02 5.744254961609840393e-02
6.267555356025695801e-01 4.970224574208259583e-02 -7.977814972400665283e-02
1.932788342237472534e-01 -5.796323344111442566e-02 1.513468623161315918e-01
-5.272805318236351013e-02 8.642475306987762451e-02 -2.809559740126132965e-02
2.733438014984130859e-01 -2.481133490800857544e-02 -1.665412634611129761e-01
-4.709848016500473022e-02 1.686310209333896637e-02 6.912901401519775391e-01
-6.699215173721313477e-01 2.225508242845535278e-01 2.554268110543489456e-03
-2.405895851552486420e-02 -1.733130589127540588e-02 -4.380115270614624023e-01
7.564440965652465820e-01 -7.227171212434768677e-02 -5.806782841682434082e-02
-2.391553372144699097e-01 -5.415805801749229431e-02 -7.803194969892501831e-02
7.998298853635787964e-03 -8.009055256843566895e-02 1.972966082394123077e-02
1.177748665213584900e-01 -4.083996638655662537e-02 2.817130386829376221e-01
-2.244306355714797974e-02 8.942197263240814209e-02 -1.277066487818956375e-02
-5.674164295196533203e-01 1.676104068756103516e-01 -5.170850455760955811e-02
3.244268894195556641e-01 -1.058666855096817017e-01 -2.330796271562576294e-01
-1.663358509540557861e-01 7.823539199307560921e-04 -9.489458054304122925e-02
-6.083090305328369141e-01 7.175138592720031738e-02 1.133743673563003540e-02
9.345825761556625366e-02 -1.269212644547224045e-02 3.101736605167388916e-01
4.051694869995117188e-01 3.276141732931137085e-02 -8.806612342596054077e-02
3.137672245502471924e-01 -3.085790574550628662e-02 9.075082093477249146e-02
-6.728926897048950195e-01 1.819970905780792236e-01 6.620066706091165543e-03
-3.682965636253356934e-01 8.877040445804595947e-02 1.063373964279890060e-02
-5.880582332611083984e-01 1.145986542105674744e-01 -2.707914821803569794e-02
-5.564700961112976074e-01 1.773839592933654785e-01 2.285720035433769226e-02
4.320402741432189941e-01 9.022992849349975586e-02 -2.840733854100108147e-03
-4.727042019367218018e-01 1.746213138103485107e-01 -4.938891530036926270e-02
1.595535576343536377e-01 -3.901556506752967834e-02 3.172627389430999756e-01
7.362193465232849121e-01 8.712844550609588623e-02 -2.040706947445869446e-02
-5.409888029098510742e-01 1.812151819467544556e-01 1.813982985913753510e-02
-5.553753972053527832e-01 6.726858019828796387e-02 3.294350579380989075e-02
1.222047582268714905e-02 -3.028452210128307343e-02 8.590313792228698730e-02
4.509097337722778320e-01 -2.932019904255867004e-02 -8.994264900684356689e-02
-4.787247180938720703e-01 1.267699748277664185e-01 -4.944104328751564026e-02
-4.329403862357139587e-03 2.089701301883906126e-04 4.675930142402648926e-01
3.259385526180267334e-01 2.035552263259887695e-02 -9.218405187129974365e-02
-1.788199394941329956e-01 -2.825161814689636230e-02 -9.030753374099731445e-02
-1.861183159053325653e-02 6.825897097587585449e-02 -6.296764314174652100e-02
6.340791583061218262e-01 -1.652335934340953827e-02 8.618982881307601929e-02
-9.711302071809768677e-02 1.381375733762979507e-02 7.101334929466247559e-01
-3.275864720344543457e-01 -5.166240953258238733e-05 8.618982881307601929e-02
-7.192062735557556152e-01 3.648840263485908508e-02 1.668802946805953979e-01
4.047256708145141602e-02 -1.450651437044143677e-01 1.458997428417205811e-01
3.966461867094039917e-02 -3.067546151578426361e-02 2.484569102525711060e-01
-2.675116658210754395e-01 1.999064348638057709e-02 -9.231436252593994141e-02
-5.219107866287231445e-01 1.100897863507270813e-01 7.766830734908580780e-03
-7.185807824134826660e-01 1.963316351175308228e-01 -1.329090679064393044e-03
-4.343918561935424805e-01 -3.093609400093555450e-02 6.445344537496566772e-02
-1.429314464330673218e-01 -3.093609400093555450e-02 -8.939532935619354248e-02
4.069678187370300293e-01 -1.125648170709609985e-01 2.361291944980621338e-01
5.025401711463928223e-01 2.476014010608196259e-02 -9.072454273700714111e-02
1.235608085989952087e-01 -2.553692087531089783e-03 -4.057978689670562744e-01
-2.958427369594573975e-02 -7.010426837950944901e-03 8.712809532880783081e-02
3.036019578576087952e-02 -3.453276306390762329e-02 -3.061858117580413818e-01
-5.297817587852478027e-01 1.038086414337158203e-01 -3.424642235040664673e-02
2.823354601860046387e-01 -3.315143287181854248e-02 1.984423696994781494e-01
-7.795766461640596390e-03 -1.441226806491613388e-02 -3.981093466281890869e-01
1.111027821898460388e-01 -1.453518271446228027e-01 1.521548181772232056e-01
3.595595657825469971e-01 -9.247038513422012329e-02 -3.401185572147369385e-02
-7.779518961906433105e-01 3.448896706104278564e-01 -5.837957374751567841e-03
-3.184123635292053223e-01 -2.614053897559642792e-02 8.272347599267959595e-02
-7.529836893081665039e-01 3.158859163522720337e-02 -1.664630621671676636e-01
-5.924375727772712708e-02 1.206754613667726517e-02 5.819826722145080566e-01
-7.099540233612060547e-01 3.844311460852622986e-02 -1.884600818157196045e-01
-1.775689125061035156e-01 3.390818834304809570e-02 -8.724786639213562012e-01
-4.449220374226570129e-02 -8.905615657567977905e-02 5.408044904470443726e-02
-1.716265976428985596e-01 2.754886075854301453e-02 7.620767354965209961e-01
4.792400002479553223e-01 8.991716802120208740e-02 -7.844793610274791718e-03
2.705290019512176514e-01 -1.294795870780944824e-01 2.851012051105499268e-01
8.342408388853073120e-02 -7.099462300539016724e-02 1.419381946325302124e-01
-2.848434448242187500e-01 -9.111511707305908203e-02 9.825792163610458374e-03
3.022995889186859131e-01 -1.665367558598518372e-02 8.616377413272857666e-02
9.167564511299133301e-01 -2.288267947733402252e-02 -5.290739610791206360e-02
1.823845803737640381e-01 9.015172719955444336e-02 -1.954598119482398033e-03
-7.171733379364013672e-01 2.395219169557094574e-02 -6.606911122798919678e-02
-3.907113522291183472e-02 -2.217898890376091003e-02 -3.914111852645874023e-01
-6.961146593093872070e-01 1.418342888355255127e-01 -6.228899117559194565e-03
1.311450898647308350e-01 3.075458481907844543e-02 8.136821538209915161e-02
9.366423487663269043e-01 -5.486175045371055603e-02 -2.197083830833435059e-02
7.804479002952575684e-01 2.358731254935264587e-02 7.751091569662094116e-02
-6.000992059707641602e-01 1.165794283151626587e-01 2.494222484529018402e-02
-1.272163726389408112e-02 -2.598416246473789215e-02 3.615173697471618652e-01
1.220752373337745667e-01 -6.385342776775360107e-02 -9.325262904167175293e-02
-5.447157621383666992e-01 7.427947968244552612e-02 2.585442364215850830e-02
-7.612716555595397949e-01 4.665289819240570068e-02 2.675870060920715332e-01
6.895922124385833740e-02 -5.725953355431556702e-02 1.390973478555679321e-01
3.422799110412597656e-01 -6.354067474603652954e-02 2.498382329940795898e-01
-6.959322094917297363e-01 3.893830627202987671e-02 2.137933671474456787e-01
1.407362073659896851e-01 -5.186038091778755188e-03 -3.640452325344085693e-01
2.106105983257293701e-01 3.721816465258598328e-02 7.863161712884902954e-02
-1.301867216825485229e-01 1.277540228329598904e-03 8.749297261238098145e-02
2.832729741930961609e-02 3.708784654736518860e-02 7.870980352163314819e-02
2.265089154243469238e-01 -2.410763502120971680e-02 -1.253359466791152954e-01
8.579579740762710571e-02 -1.487921327352523804e-01 -1.691996604204177856e-01
6.402039527893066406e-01 -8.715356886386871338e-02 2.509860321879386902e-02
3.729558587074279785e-01 -1.340927034616470337e-01 -2.499161958694458008e-01
6.059305369853973389e-02 -3.591409325599670410e-02 1.884342581033706665e-01
2.575497329235076904e-01 -9.492029249668121338e-02 3.074631094932556152e-01
1.685965992510318756e-02 -1.222299039363861084e-02 -5.157047510147094727e-01
8.543881773948669434e-01 -9.369534999132156372e-02 2.833038941025733948e-02
6.021782755851745605e-01 5.387229844927787781e-02 6.919687986373901367e-02
-4.736163914203643799e-01 1.027921959757804871e-01 1.743613369762897491e-02
3.027687072753906250e-01 -3.909375518560409546e-02 2.667269408702850342e-01
-2.063422650098800659e-01 8.371421694755554199e-02 -3.620113059878349304e-02
3.444692194461822510e-01 -5.600851774215698242e-02 -9.325262904167175293e-02
-3.852113485336303711e-01 -7.610294222831726074e-02 -2.533294074237346649e-02
-1.943012475967407227e-01 -7.156801223754882812e-02 5.423682555556297302e-02
-5.906123518943786621e-01 1.924222111701965332e-01 -6.984720472246408463e-03
2.410512045025825500e-02 -4.704291000962257385e-02 -2.000059187412261963e-01
-4.920949339866638184e-01 1.679231673479080200e-01 3.223981335759162903e-02
1.505879461765289307e-01 -4.795510321855545044e-02 2.289879769086837769e-01
-8.128760457038879395e-01 3.611528575420379639e-01 -3.648681100457906723e-03
3.916942700743675232e-02 -1.421982347965240479e-01 -1.285938024520874023e-01
-1.224982067942619324e-01 7.141675334423780441e-03 -6.331959366798400879e-01
-1.418367922306060791e-01 1.269305869936943054e-02 8.634620904922485352e-02
1.871011778712272644e-02 -3.815548866987228394e-02 -2.213252931833267212e-01
3.665183484554290771e-01 -3.951076045632362366e-02 2.897925078868865967e-01
-8.840804547071456909e-02 -2.188812242820858955e-03 -5.596466064453125000e-01
-1.901051253080368042e-01 3.130190446972846985e-02 -8.372938632965087891e-01
2.777997776865959167e-02 -2.084978669881820679e-02 4.294631481170654297e-01
-1.646157056093215942e-01 7.983086258172988892e-02 3.734812140464782715e-02
2.887469232082366943e-01 -1.130339428782463074e-01 -2.445472627878189087e-01
2.620325386524200439e-01 -7.221958786249160767e-02 3.072024583816528320e-01
-1.179632693529129028e-01 -1.931207999587059021e-02 8.590313792228698730e-02
6.254776567220687866e-02 -1.290063094347715378e-02 4.987380802631378174e-01
5.863834917545318604e-02 -1.118047907948493958e-02 -9.406057745218276978e-02
-3.026443421840667725e-01 -8.949922770261764526e-02 1.811376772820949554e-02
3.289097249507904053e-01 -3.935437649488449097e-02 -2.725647687911987305e-01
-4.473190307617187500e-01 1.686007976531982422e-01 -4.946710169315338135e-02
-7.633305788040161133e-01 3.953775390982627869e-02 -2.475705295801162720e-01
-7.358083128929138184e-01 1.792083680629730225e-01 -2.788607962429523468e-03
-6.252498626708984375e-01 5.577908828854560852e-03 -4.532311856746673584e-02
4.210417270660400391e-01 -9.140181541442871094e-02 -1.433443371206521988e-02
-4.502380490303039551e-01 1.954976171255111694e-01 -2.814772352576255798e-02
-4.409596920013427734e-01 7.328909635543823242e-02 -5.233401060104370117e-02
1.396155059337615967e-01 -4.680834710597991943e-02 -2.411851584911346436e-01
3.995659947395324707e-01 5.350742116570472717e-02 6.945750862360000610e-02
1.169929802417755127e-01 -3.828580677509307861e-02 -3.099909722805023193e-01
-6.426337361335754395e-01 1.587751209735870361e-01 3.476790711283683777e-02
8.335639834403991699e-01 7.305452972650527954e-02 -1.196271833032369614e-02
-4.545652493834495544e-02 -2.074553072452545166e-02 3.921672701835632324e-01
-1.173124555498361588e-02 9.409141726791858673e-03 6.366885304450988770e-01
5.832559242844581604e-02 -4.959706962108612061e-02 -1.883818954229354858e-01
-7.588043808937072754e-04 -2.168379351496696472e-02 4.084043800830841064e-01
1.379474848508834839e-01 -4.795088898390531540e-03 3.586504757404327393e-01
-6.249892115592956543e-01 3.265717253088951111e-02 1.075092107057571411e-01
-9.562744200229644775e-02 -6.924843788146972656e-02 -6.692919135093688965e-02
2.248922549188137054e-02 -1.389664560556411743e-01 1.590875238180160522e-01
1.391455810517072678e-02 -1.380803138017654419e-01 1.353964209556579590e-01
7.344201952219009399e-02 -1.357867866754531860e-01 1.353182345628738403e-01
2.075873017311096191e-01 -5.405380204319953918e-02 -2.000319808721542358e-01
-5.926191806793212891e-01 1.538231819868087769e-01 -5.483604595065116882e-02
-7.893673777580261230e-01 4.467212408781051636e-02 2.570837140083312988e-01
7.824026346206665039e-01 -7.912623882293701172e-02 3.677474334836006165e-02
4.274531900882720947e-01 7.120407372713088989e-02 -5.926671996712684631e-02
-3.865926563739776611e-01 8.433972299098968506e-02 2.504647709429264069e-02
5.522334016859531403e-03 -2.671391144394874573e-02 -3.634457886219024658e-01
-9.979747980833053589e-02 -9.098480641841888428e-02 -1.868692412972450256e-02
3.885675072669982910e-01 2.363943494856357574e-02 8.373992890119552612e-02
1.141521334648132324e-01 -3.974532708525657654e-02 -2.943272292613983154e-01
5.259184837341308594e-01 8.811883628368377686e-02 1.574205048382282257e-02
-4.788550138473510742e-01 6.101350858807563782e-02 -6.221181899309158325e-02
-1.130634471774101257e-01 9.383081458508968353e-03 -6.613177657127380371e-01
5.308696627616882324e-02 3.206195775419473648e-03 -4.383242726325988770e-01
-4.660321474075317383e-01 -2.574959024786949158e-02 -7.073435932397842407e-02
-1.716265976428985596e-01 2.754886075854301453e-02 7.620767354965209961e-01
6.059305369853973389e-02 -3.591409325599670410e-02 1.884342581033706665e-01
-7.375283837318420410e-01 2.154096066951751709e-01 -2.110974863171577454e-03
-5.409888029098510742e-01 1.812151819467544556e-01 1.813982985913753510e-02
3.259385526180267334e-01 2.035552263259887695e-02 -9.218405187129974365e-02
-5.007477998733520508e-01 -2.718304842710494995e-02 -6.070017442107200623e-02
2.928648591041564941e-01 1.574240252375602722e-02 8.603345602750778198e-02
-4.660321474075317383e-01 -2.574959024786949158e-02 -7.073435932397842407e-02
5.261783674359321594e-02 -1.384973227977752686e-01 -1.627882122993469238e-01
-1.411070376634597778e-01 6.844141334295272827e-02 5.538358911871910095e-02
-1.108220517635345459e-01 2.624571695923805237e-02 -9.022934734821319580e-02
-5.493028163909912109e-01 1.719629019498825073e-01 -3.351666405797004700e-02
9.814956784248352051e-02 -4.378506168723106384e-02 -2.532782852649688721e-01
1.758428215980529785e-01 -5.071776732802391052e-02 -2.771779000759124756e-01
-7.079210877418518066e-01 1.535886228084564209e-01 2.632355317473411560e-02
1.141521334648132324e-01 -3.974532708525657654e-02 -2.943272292613983154e-01
-1.618799008429050446e-02 7.930960506200790405e-02 3.839063644409179688e-02
-5.358812585473060608e-02 -8.626321330666542053e-03 -4.695214629173278809e-01
3.648495674133300781e-02 7.167319953441619873e-02 -5.869334191083908081e-02
1.105815246701240540e-01 -3.398543596267700195e-02 3.423872590065002441e-01
2.489229440689086914e-01 -4.683440551161766052e-02 2.670657336711883545e-01
2.629968822002410889e-01 -6.554749608039855957e-02 1.078219711780548096e-01
1.231698617339134216e-01 -3.234348446130752563e-02 -1.613808274269104004e-01
-1.618799008429050446e-02 7.930960506200790405e-02 3.839063644409179688e-02
1.057599112391471863e-01 -3.544495627284049988e-02 -3.321965038776397705e-01
-4.734860956668853760e-01 -4.977950453758239746e-02 3.875551745295524597e-02
7.392165660858154297e-01 7.769370824098587036e-02 3.763481602072715759e-02
3.389438986778259277e-01 -9.885577857494354248e-02 2.251046150922775269e-01
-6.763589978218078613e-01 1.323995441198348999e-01 3.667049109935760498e-02
9.338797330856323242e-01 -3.263017535209655762e-02 -4.336840659379959106e-02
2.808759510517120361e-01 -9.239220619201660156e-02 -2.439478039741516113e-01
2.257009744644165039e-01 -6.343641877174377441e-02 1.148068085312843323e-01
-4.621487557888031006e-01 -5.741591006517410278e-02 -3.630538284778594971e-02
8.915797472000122070e-01 3.953775390982627869e-02 -4.639169201254844666e-02
-5.069767832756042480e-01 1.120444908738136292e-01 -1.501206681132316589e-02
-9.706089645624160767e-02 5.056653637439012527e-03 -6.159684062004089355e-01
-6.108371615409851074e-01 2.300569117069244385e-01 -4.117811564356088638e-03
3.451989591121673584e-01 8.843158930540084839e-02 -2.217933908104896545e-02
1.180347241461277008e-02 -1.574147120118141174e-02 -3.737666606903076172e-01
1.871011778712272644e-02 -3.815548866987228394e-02 -2.213252931833267212e-01
2.254134975373744965e-02 -1.816531270742416382e-02 -4.584707915782928467e-01
-1.013873144984245300e-01 -3.455882146954536438e-02 8.084695786237716675e-02
-2.283914089202880859e-01 -7.065581530332565308e-02 5.538358911871910095e-02
-2.477821111679077148e-01 -3.479338437318801880e-02 8.076876401901245117e-02
7.893353700637817383e-01 -8.824822306632995605e-02 -1.170209050178527832e-02
9.760754108428955078e-01 4.796021152287721634e-03 1.277089118957519531e-02
-1.503072232007980347e-01 8.467854559421539307e-02 2.593261189758777618e-02
6.494554877281188965e-02 -2.481133490800857544e-02 -4.148677289485931396e-01
8.450837135314941406e-01 -7.982993870973587036e-02 -2.311760000884532928e-02
-9.747789055109024048e-02 2.919503720477223396e-03 -5.989233255386352539e-01
4.509097337722778320e-01 -2.932019904255867004e-02 -8.994264900684356689e-02
1.487114280462265015e-01 -1.839987561106681824e-02 2.236711680889129639e-01
2.035475820302963257e-01 -2.303905598819255829e-02 -3.261499404907226562e-01
-5.866507887840270996e-01 6.195177137851715088e-02 3.276107087731361389e-02
1.064636036753654480e-01 -3.995382785797119141e-02 2.828077077865600586e-01
3.238274455070495605e-01 -9.247038513422012329e-02 3.495034575462341309e-02
9.608808159828186035e-01 1.003464404493570328e-02 -2.747008949518203735e-02
4.619603455066680908e-01 1.936513185501098633e-02 8.514732122421264648e-02
-1.785332411527633667e-01 3.098914958536624908e-02 8.389099240303039551e-01
-7.826952934265136719e-01 3.205772489309310913e-02 -1.011225860565900803e-02
6.348088979721069336e-01 7.245508581399917603e-02 5.035346373915672302e-02
3.607063293457031250e-01 2.077252604067325592e-02 8.470425009727478027e-02
6.087461113929748535e-01 3.570651635527610779e-02 7.938744127750396729e-02
-8.890405297279357910e-03 -9.199704974889755249e-03 5.253742933273315430e-01
9.818613529205322266e-01 -1.701855473220348358e-02 1.714944280683994293e-02
-6.228781342506408691e-01 2.859137207269668579e-02 -7.910051941871643066e-02
-4.683517217636108398e-01 9.200637228786945343e-03 -8.032546937465667725e-02
4.052998125553131104e-01 -8.733602613210678101e-02 3.541947528719902039e-02
2.097765803337097168e-01 8.577318489551544189e-02 2.270082198083400726e-02
5.717882886528968811e-02 -4.013211000710725784e-03 -3.951121270656585693e-01
9.900964051485061646e-02 -1.941632851958274841e-02 2.653977274894714355e-01
-6.669502854347229004e-01 1.488232705742120743e-02 2.942502871155738831e-02
-4.709579646587371826e-01 1.032873913645744324e-01 -2.301335148513317108e-02
4.055343568325042725e-01 -1.168912574648857117e-01 3.130405545234680176e-01
-4.552681744098663330e-01 4.266529157757759094e-02 6.781554967164993286e-02
-1.618799008429050446e-02 7.930960506200790405e-02 3.839063644409179688e-02
-7.118052244186401367e-02 8.663325011730194092e-02 2.017273008823394775e-02
7.346732541918754578e-03 -7.870922982692718506e-02 -5.762476101517677307e-02
3.324542641639709473e-01 -8.749239891767501831e-02 -3.237260878086090088e-01
-1.062089428305625916e-01 2.267511375248432159e-02 6.820899248123168945e-01
1.565563231706619263e-01 -1.720098964869976044e-02 -2.295611500740051270e-01
-1.048536822199821472e-01 1.918269693851470947e-02 -9.257499873638153076e-02
1.155855879187583923e-01 -2.864256873726844788e-02 -1.956012994050979614e-01
3.027165830135345459e-01 -1.282025128602981567e-01 2.857267260551452637e-01
-1.505157202482223511e-01 8.965653926134109497e-02 -1.037288643419742584e-02
-1.076163202524185181e-01 -8.050756156444549561e-02 -4.777301847934722900e-02
-7.188674807548522949e-01 2.973813377320766449e-02 -1.600255519151687622e-01
7.346808910369873047e-02 -1.464986056089401245e-01 1.553344726562500000e-01
-8.109734058380126953e-01 1.261184215545654297e-01 -3.961434587836265564e-03
-1.922422796487808228e-01 3.114552423357963562e-02 7.986688613891601562e-01
-3.789301812648773193e-01 -4.013626277446746826e-02 6.690335273742675781e-02
7.365052402019500732e-02 -6.481774151325225830e-02 -1.509035676717758179e-01
-7.198847085237503052e-02 6.411915645003318787e-03 6.500848531723022461e-01
9.380757808685302734e-01 2.846105583012104034e-02 -2.488987334072589874e-02
-7.404214143753051758e-01 2.027733623981475830e-02 4.190911725163459778e-02
-5.337954163551330566e-01 -3.145734965801239014e-02 -4.805970937013626099e-02
1.120149865746498108e-01 -9.103694558143615723e-02 3.573222830891609192e-02
6.173905450850725174e-03 -5.546120181679725647e-02 9.434749186038970947e-02
-5.797962546348571777e-01 9.526004642248153687e-02 -2.379523403942584991e-02
2.887469232082366943e-01 -1.130339428782463074e-01 -2.445472627878189087e-01
-5.005653500556945801e-01 1.511908471584320068e-01 -3.930260613560676575e-02
4.023025631904602051e-01 -5.837599746882915497e-03 -9.460788965225219727e-02
-7.369289994239807129e-01 2.339402884244918823e-01 -1.092020608484745026e-02
3.119688928127288818e-01 -3.002388961613178253e-02 -2.765523791313171387e-01
-1.185366585850715637e-01 1.980819925665855408e-02 7.615554332733154297e-01
6.205265522003173828e-01 -2.681816928088665009e-02 8.342717587947845459e-02
-5.291301608085632324e-01 1.441278159618377686e-01 3.643592447042465210e-02
7.392165660858154297e-01 7.769370824098587036e-02 3.763481602072715759e-02
-5.424743890762329102e-01 1.096727773547172546e-01 -4.162219539284706116e-02
-4.945448637008666992e-01 3.020726516842842102e-02 6.614752858877182007e-02
1.629677861928939819e-01 -9.247038513422012329e-02 5.110928788781166077e-02
-6.971570849418640137e-01 1.329208016395568848e-01 -1.381216221489012241e-03
2.300273925065994263e-01 -1.863444969058036804e-02 -1.940114647150039673e-01
8.149543404579162598e-02 -4.073570668697357178e-02 -2.727211415767669678e-01
-4.158351421356201172e-01 4.931131005287170410e-02 -7.446134090423583984e-02
4.997514486312866211e-01 -8.955136686563491821e-02 -2.522868849337100983e-02
3.817650675773620605e-01 -1.442572027444839478e-01 2.646679580211639404e-01
4.156720265746116638e-02 -3.948469460010528564e-02 -2.691244781017303467e-01
-7.054190635681152344e-01 1.064149290323257446e-01 -2.449791645631194115e-03
3.851785510778427124e-02 -6.341035664081573486e-02 -5.368927866220474243e-02
1.160025969147682190e-01 -2.038064971566200256e-02 8.590313792228698730e-02
6.363987922668457031e-01 7.164713740348815918e-02 -5.874546617269515991e-02
-7.304915189743041992e-01 1.131651997566223145e-01 -1.011225860565900803e-02
-6.027315258979797363e-01 1.119663044810295105e-01 4.144099541008472443e-03
2.268477231264114380e-01 -6.844047456979751587e-02 -2.706100642681121826e-01
-1.868994086980819702e-01 3.369968384504318237e-02 -8.150361776351928711e-01
1.007558554410934448e-01 -7.691089808940887451e-02 -2.710521034896373749e-02
8.983821272850036621e-01 5.561850592494010925e-02 3.987723030149936676e-03
3.477010130882263184e-01 -7.631145417690277100e-02 3.148128092288970947e-01
8.231127262115478516e-01 -8.509460836648941040e-02 -4.482691176235675812e-03
3.381098806858062744e-01 -1.457427889108657837e-01 -2.761875092983245850e-01
7.365052402019500732e-02 -6.481774151325225830e-02 -1.509035676717758179e-01
8.983821272850036621e-01 5.561850592494010925e-02 3.987723030149936676e-03
7.867988198995590210e-03 -6.341035664081573486e-02 4.383776336908340454e-02
-7.403953075408935547e-01 1.142598316073417664e-01 -1.120689697563648224e-02
5.334759876132011414e-02 -1.560897082090377808e-01 1.331028938293457031e-01
-5.812297463417053223e-01 6.099164485931396484e-03 -5.522698536515235901e-02
-6.445102691650390625e-01 3.208378702402114868e-02 -1.151714548468589783e-01
4.948949906975030899e-03 -3.051908500492572784e-02 -2.949005961418151855e-01
1.670075058937072754e-01 -1.105016283690929413e-02 -3.626117706298828125e-01
1.422478407621383667e-01 -3.992776200175285339e-02 -2.908347845077514648e-01
3.824166655540466309e-01 -7.495617121458053589e-02 2.435831576585769653e-01
-3.831002712249755859e-01 -6.958308164030313492e-03 -8.715393394231796265e-02
2.102196514606475830e-01 -9.234008193016052246e-02 2.679779529571533203e-01
7.341595739126205444e-02 -1.806106604635715485e-02 -4.741085171699523926e-01
2.592951431870460510e-02 -1.443093270063400269e-01 -1.503041237592697144e-01
1.277569234371185303e-01 -3.427213057875633240e-02 -3.534637391567230225e-01
1.140739470720291138e-01 -1.521281599998474121e-01 1.295322924852371216e-01
7.661134004592895508e-01 8.504342287778854370e-02 -8.079358376562595367e-03
-7.198847085237503052e-02 6.411915645003318787e-03 6.500848531723022461e-01
8.690875768661499023e-01 4.084089025855064392e-02 4.790356382727622986e-02
-8.371673524379730225e-02 1.827050186693668365e-02 8.553826063871383667e-02
-5.409888029098510742e-01 1.812151819467544556e-01 1.813982985913753510e-02
1.792830973863601685e-01 -5.817172676324844360e-02 -1.514248251914978027e-01
7.824026346206665039e-01 -7.912623882293701172e-02 3.677474334836006165e-02
2.491053789854049683e-01 -2.580171823501586914e-02 8.590313792228698730e-02
1.175924316048622131e-01 -6.166414916515350342e-02 -1.046160086989402771e-01
1.393288075923919678e-01 -1.415164582431316376e-02 -2.622438967227935791e-01
-4.240717366337776184e-02 1.639397442340850830e-02 5.924339294433593750e-01
2.892681658267974854e-01 -9.643193334341049194e-02 -3.322746753692626953e-01
1.848344802856445312e-01 -4.414994269609451294e-02 8.590313792228698730e-02
8.337119594216346741e-03 -5.697283893823623657e-02 -1.149108260869979858e-01
2.283854484558105469e-01 -3.979744389653205872e-02 2.619053125381469727e-01
-7.348961234092712402e-01 1.373254209756851196e-01 -2.997211925685405731e-02
3.113433718681335449e-01 -4.136122018098831177e-02 8.590313792228698730e-02
3.306037783622741699e-01 -2.932019904255867004e-02 -9.325262904167175293e-02
1.379474848508834839e-01 -4.795088898390531540e-03 3.586504757404327393e-01
-6.116710901260375977e-01 8.627253584563732147e-03 -4.871128126978874207e-02
-5.381739735603332520e-01 3.552408143877983093e-02 -6.137781217694282532e-02
9.843625873327255249e-02 1.016917405650019646e-03 4.139557778835296631e-01
-4.535480141639709473e-01 1.447011977434158325e-01 -5.236007645726203918e-02
6.850840449333190918e-01 -9.231400489807128906e-02 -2.110974863171577454e-03
6.021782755851745605e-01 5.387229844927787781e-02 6.919687986373901367e-02
-1.076163202524185181e-01 -8.050756156444549561e-02 -4.777301847934722900e-02
1.407362073659896851e-01 -5.186038091778755188e-03 -3.640452325344085693e-01
-2.455928623676300049e-01 7.633844017982482910e-02 -8.846499919891357422e-01
5.436404421925544739e-02 -1.128473598510026932e-02 -3.590672314167022705e-01
-6.268135905265808105e-01 7.547837495803833008e-02 -9.121871553361415863e-03
9.033080339431762695e-01 -2.103222161531448364e-02 -5.744232237339019775e-02
-5.114595890045166016e-01 4.607952013611793518e-02 -6.343677639961242676e-02
-1.214825361967086792e-02 -1.493352372199296951e-02 4.675930142402648926e-01
-1.124640032649040222e-01 3.174497187137603760e-02 7.420083284378051758e-01
6.557105481624603271e-02 -7.089038938283920288e-02 -9.856943786144256592e-02
-5.012690424919128418e-01 1.610686480998992920e-01 -9.017619304358959198e-03
2.848635613918304443e-01 8.741513639688491821e-02 1.780101470649242401e-02
3.228884190320968628e-02 -1.449869573116302490e-01 1.668542474508285522e-01
-6.763589978218078613e-01 1.171006783843040466e-01 -4.168922605458647013e-04
1.151685863733291626e-01 -2.491558343172073364e-02 -9.325262904167175293e-02
-7.850417494773864746e-02 -4.039270337671041489e-03 5.408816337585449219e-01
9.353644400835037231e-02 -3.750391677021980286e-02 -3.064725100994110107e-01
-6.763589978218078613e-01 1.323995441198348999e-01 3.667049109935760498e-02
-5.368969440460205078e-01 -3.807730227708816528e-02 3.088454529643058777e-02
4.711344838142395020e-01 -6.515240296721458435e-03 8.718021959066390991e-02
1.982047110795974731e-01 -5.626915022730827332e-02 1.693823337554931641e-01
4.039966464042663574e-01 -1.227814480662345886e-01 3.052738308906555176e-01
-5.924375727772712708e-02 1.206754613667726517e-02 5.819826722145080566e-01
2.429024279117584229e-01 8.921347558498382568e-02 7.297699805349111557e-03
6.065047383308410645e-01 4.695929528679698706e-04 8.757115900516510010e-02
-5.004350543022155762e-01 1.492361277341842651e-01 1.039917394518852234e-02
-4.291011095046997070e-01 -4.091398790478706360e-03 -8.274931460618972778e-02
8.253794908523559570e-02 -1.071698069572448730e-01 1.413387358188629150e-01
3.228631317615509033e-01 -1.445960104465484619e-01 -2.811655104160308838e-01
2.575497329235076904e-01 -9.492029249668121338e-02 3.074631094932556152e-01
-7.330456376075744629e-01 3.044182993471622467e-02 -1.632573455572128296e-01
-6.789131760597229004e-01 1.754553318023681641e-01 2.087642624974250793e-02
-1.741807460784912109e-01 6.716433912515640259e-02 5.697342380881309509e-02
3.726952373981475830e-01 -1.257004886865615845e-01 2.359206974506378174e-01
-6.797472238540649414e-01 1.701124459505081177e-01 -8.053297176957130432e-03
1.199380755424499512e-01 4.417693242430686951e-02 7.516526430845260620e-02
4.511182606220245361e-01 -6.169020757079124451e-02 -7.201143354177474976e-02
8.271003961563110352e-01 -1.280200630426406860e-01 -7.818730548024177551e-03
-1.108220517635345459e-01 2.624571695923805237e-02 -9.022934734821319580e-02
2.237201929092407227e-01 -1.860838010907173157e-02 -2.666224539279937744e-01
-5.580346658825874329e-02 -4.070964828133583069e-02 8.118577301502227783e-02
-2.640453279018402100e-01 -1.024221535772085190e-02 -9.416482597589492798e-02
5.926653742790222168e-01 8.728481829166412354e-02 -2.559356763958930969e-02
3.326888382434844971e-01 8.212438225746154785e-02 3.273500502109527588e-02
1.151685863733291626e-01 -2.491558343172073364e-02 -9.325262904167175293e-02
2.459517866373062134e-01 -2.760004810988903046e-02 -2.591945528984069824e-01
9.726343303918838501e-02 -2.319544181227684021e-02 2.410289943218231201e-01
2.295843213796615601e-01 -5.598245933651924133e-02 -2.921118736267089844e-01
-4.727042019367218018e-01 1.746213138103485107e-01 -4.938891530036926270e-02
1.912719905376434326e-01 -1.584572717547416687e-02 -3.362362384796142578e-01
-7.065658569335937500e-01 2.721004001796245575e-02 8.376599103212356567e-02
-2.734279632568359375e-01 -1.858232170343399048e-02 -9.333081543445587158e-02
2.720145881175994873e-01 -5.421017855405807495e-02 -1.812406778335571289e-01
2.709199786186218262e-01 -9.247038513422012329e-02 -3.388052806258201599e-03
-8.840804547071456909e-02 -2.188812242820858955e-03 -5.596466064453125000e-01
6.348088979721069336e-01 7.245508581399917603e-02 5.035346373915672302e-02
2.268477231264114380e-01 -6.844047456979751587e-02 -2.706100642681121826e-01
4.320402741432189941e-01 9.022992849349975586e-02 -2.840733854100108147e-03
-3.328250944614410400e-01 -3.646140918135643005e-02 -8.384395390748977661e-02
-6.630409359931945801e-01 1.498355716466903687e-01 3.737418726086616516e-02
1.461833417415618896e-01 -3.179616853594779968e-02 1.378984600305557251e-01
-4.721124714706093073e-04 -4.586584866046905518e-03 5.771871805191040039e-01
5.717882886528968811e-02 -4.013211000710725784e-03 -3.951121270656585693e-01
1.091741397976875305e-01 5.822478607296943665e-02 6.567839533090591431e-02
2.492878139019012451e-01 6.455805152654647827e-02 -6.758075952529907227e-02
-5.796667560935020447e-02 -8.496014401316642761e-03 -5.082507729530334473e-01
6.402039527893066406e-01 -8.715356886386871338e-02 2.509860321879386902e-02
-1.505157202482223511e-01 8.965653926134109497e-02 -1.037288643419742584e-02
4.935998469591140747e-02 -1.527234446257352829e-02 8.629408478736877441e-02
1.456360071897506714e-01 -5.202091112732887268e-02 -1.944805979728698730e-01
-7.330456376075744629e-01 3.044182993471622467e-02 -1.632573455572128296e-01
-5.349422097206115723e-01 1.325298696756362915e-01 -3.870316222310066223e-02
6.064004898071289062e-01 7.498317956924438477e-02 4.706955328583717346e-02
2.543179392814636230e-01 -2.429006993770599365e-02 2.250003665685653687e-01
6.921985000371932983e-02 -1.643255650997161865e-01 -1.657593846321105957e-01
-5.443248152732849121e-01 1.838996708393096924e-01 3.713962063193321228e-02
5.608687400817871094e-01 -2.249174192547798157e-02 -9.221012145280838013e-02
8.264487981796264648e-01 -8.280109614133834839e-02 -2.092832513153553009e-02
9.340614080429077148e-02 -6.341035664081573486e-02 -6.528723239898681641e-02
-7.598903775215148926e-01 3.886011615395545959e-02 -2.062088549137115479e-01
-4.920949339866638184e-01 1.679231673479080200e-01 3.223981335759162903e-02
1.006255373358726501e-01 -4.951464943587779999e-03 -4.776530563831329346e-01
7.804479002952575684e-01 2.358731254935264587e-02 7.751091569662094116e-02
9.103971123695373535e-01 5.147451907396316528e-02 7.949270308017730713e-03
-4.869084358215332031e-01 9.823120385408401489e-02 -4.873632919043302536e-03
6.696288585662841797e-01 -9.064599126577377319e-02 -2.199689857661724091e-02
-1.243486553430557251e-01 5.580094456672668457e-02 6.763311475515365601e-02
1.189998239278793335e-01 -4.339411109685897827e-02 2.580480277538299561e-01
-7.375283837318420410e-01 2.154096066951751709e-01 -2.110974863171577454e-03
1.005473509430885315e-01 -2.856438048183917999e-02 -2.103267908096313477e-01
-6.275433301925659180e-01 1.677667796611785889e-01 3.010266274213790894e-02
-8.348216116428375244e-02 7.589537650346755981e-02 -5.254251509904861450e-02
3.918513953685760498e-01 -1.401914060115814209e-01 -3.064203560352325439e-01
-7.849888205528259277e-01 4.081482812762260437e-02 -2.298999577760696411e-01
-6.049555260688066483e-03 -5.707708746194839478e-02 1.044859290122985840e-01
4.972485825419425964e-02 -3.573164716362953186e-02 -2.057918459177017212e-01
8.866799473762512207e-01 -6.231570988893508911e-02 3.320413827896118164e-02
7.610043138265609741e-02 -1.516590416431427002e-01 1.668542474508285522e-01
-7.358083128929138184e-01 1.792083680629730225e-01 -2.788607962429523468e-03
1.158462166786193848e-01 -9.184487909078598022e-02 -7.167261838912963867e-02
8.092205226421356201e-02 3.675322514027357101e-03 -4.562033712863922119e-01
2.769404649734497070e-01 -1.309130340814590454e-01 -2.946660220623016357e-01
-7.081564515829086304e-02 -8.934284746646881104e-02 -2.588025853037834167e-02
4.023025631904602051e-01 -5.837599746882915497e-03 -9.460788965225219727e-02
-7.345572113990783691e-01 3.036061823368072510e-01 4.431807028595358133e-04
-6.737787723541259766e-01 3.839099034667015076e-02 -3.130132332444190979e-02
2.575758099555969238e-01 -5.639945715665817261e-02 1.749597787857055664e-01
-2.142653614282608032e-01 3.338692709803581238e-02 -8.326025605201721191e-01
2.913271188735961914e-01 -5.512238293886184692e-02 -1.624493896961212158e-01
-2.371484935283660889e-01 8.506948500871658325e-02 2.481191046535968781e-02
8.013763427734375000e-01 -2.162743126973509789e-03 7.717210054397583008e-02
-4.666836857795715332e-01 1.565337181091308594e-01 -5.408022180199623108e-02
-5.868071913719177246e-01 2.791373617947101593e-02 5.553996935486793518e-02
9.202488660812377930e-01 -6.416618078947067261e-02 5.108423996716737747e-03
5.221393704414367676e-01 -8.965560048818588257e-02 1.759251020848751068e-02
3.777253627777099609e-01 -7.831828296184539795e-02 -8.201955258846282959e-02
3.324542641639709473e-01 -8.749239891767501831e-02 -3.237260878086090088e-01
-5.593109130859375000e-01 1.251019686460494995e-01 5.629680585116147995e-03
8.983821272850036621e-01 5.561850592494010925e-02 3.987723030149936676e-03
-1.883849948644638062e-01 3.880799561738967896e-02 -8.501427769660949707e-01
3.794194459915161133e-01 -5.681646615266799927e-02 -2.696717977523803711e-01
-7.779518961906433105e-01 3.448896706104278564e-01 -5.837957374751567841e-03
3.745456933975219727e-01 -9.278315305709838867e-02 2.247658073902130127e-01
2.931254804134368896e-01 -5.606064572930335999e-02 -2.598721981048583984e-01
8.509478569030761719e-01 2.932113036513328552e-02 -6.682493537664413452e-02
3.056877553462982178e-01 -1.356564611196517944e-01 2.999830842018127441e-01
-6.985645294189453125e-01 3.325661644339561462e-02 1.332853287458419800e-01
2.421726733446121216e-01 -6.122108176350593567e-02 -1.459516435861587524e-01
-1.214825361967086792e-02 -1.493352372199296951e-02 4.675930142402648926e-01
-6.887649297714233398e-01 2.066827379167079926e-02 6.799799203872680664e-02
-6.879048347473144531e-01 1.747776865959167480e-01 -5.108198150992393494e-03
-2.800739407539367676e-01 4.065845161676406860e-02 7.691147178411483765e-02
1.120149865746498108e-01 -9.103694558143615723e-02 3.573222830891609192e-02
2.859321534633636475e-01 -5.473144352436065674e-02 3.015468418598175049e-01
6.929724477231502533e-03 -3.216104954481124878e-02 2.744675874710083008e-01
6.606110930442810059e-01 -4.957100003957748413e-02 -8.089885860681533813e-02
4.050391912460327148e-01 -9.043750166893005371e-02 3.191913664340972900e-01
3.631822764873504639e-01 -7.339242100715637207e-02 -3.185656368732452393e-01
4.542196989059448242e-01 7.891865819692611694e-02 3.917251899838447571e-02
2.558816969394683838e-01 -9.247038513422012329e-02 -2.058950811624526978e-02
-7.314818501472473145e-01 2.909396290779113770e-01 3.389292687643319368e-04
-1.462422404438257217e-02 -4.889336973428726196e-02 1.681052446365356445e-01
1.427690982818603516e-01 -9.247038513422012329e-02 -1.662796176970005035e-02
9.906176477670669556e-02 -5.420601461082696915e-03 3.437685966491699219e-01
-4.799757301807403564e-01 -6.080407276749610901e-02 -9.408562444150447845e-03
-3.212531805038452148e-01 3.109340183436870575e-02 8.040389418601989746e-02
-7.123265415430068970e-02 -7.219353318214416504e-02 -7.605117559432983398e-02
3.107178509235382080e-01 -1.098282337188720703e-01 -2.498901337385177612e-01
-1.785332411527633667e-01 3.098914958536624908e-02 8.389099240303039551e-01
7.406753301620483398e-02 -3.283867985010147095e-02 -2.041238397359848022e-01
4.320402741432189941e-01 9.022992849349975586e-02 -2.840733854100108147e-03
-7.404214143753051758e-01 2.027733623981475830e-02 4.190911725163459778e-02
-6.470904946327209473e-01 2.679001092910766602e-01 -4.013560246676206589e-03
-6.439368724822998047e-01 1.660247892141342163e-02 -4.657413437962532043e-02
1.189998239278793335e-01 -4.339411109685897827e-02 2.580480277538299561e-01
6.009786203503608704e-02 -2.556715533137321472e-02 -2.694111764430999756e-01
-7.581441402435302734e-01 3.831279650330543518e-02 2.293267995119094849e-01
2.745426893234252930e-01 -6.825803965330123901e-02 8.845729380846023560e-02
4.274531900882720947e-01 7.120407372713088989e-02 -5.926671996712684631e-02
-3.275864720344543457e-01 -5.166240953258238733e-05 8.618982881307601929e-02
1.418047845363616943e-01 -4.521851241588592529e-02 2.509068250656127930e-01
-7.501428127288818359e-01 3.156253322958946228e-02 -1.401656866073608398e-01
6.474233269691467285e-01 8.465248346328735352e-02 2.601080015301704407e-02
2.347961254417896271e-02 -1.296880990266799927e-01 1.561684757471084595e-01
-6.737787723541259766e-01 3.839099034667015076e-02 -3.130132332444190979e-02
5.226606726646423340e-01 8.952622860670089722e-02 4.274413920938968658e-03
2.135556936264038086e-01 -9.247038513422012329e-02 1.297939289361238480e-02
-5.868071913719177246e-01 2.791373617947101593e-02 5.553996935486793518e-02
8.884439244866371155e-03 -1.912963576614856720e-02 -3.582332134246826172e-01
-7.501428127288818359e-01 3.156253322958946228e-02 -1.401656866073608398e-01
9.760754108428955078e-01 4.796021152287721634e-03 1.277089118957519531e-02
1.301025748252868652e-01 -9.247038513422012329e-02 1.204113196581602097e-02
-1.575266122817993164e-01 2.006883174180984497e-02 -7.134433388710021973e-01
-5.613178014755249023e-01 1.884387619793415070e-02 -5.991829186677932739e-02
-6.938218325376510620e-02 -3.987141884863376617e-03 5.383014678955078125e-01
-3.145811259746551514e-01 -5.053533241152763367e-02 7.253292202949523926e-02
-6.665593981742858887e-01 2.421282045543193817e-02 4.675680026412010193e-02
2.283593863248825073e-01 -6.857079267501831055e-02 -2.983148396015167236e-01
1.013545412570238113e-02 -1.058103609830141068e-02 3.970931172370910645e-01
-5.379662290215492249e-02 -1.191023923456668854e-02 4.753076136112213135e-01
-4.649374783039093018e-01 1.499137729406356812e-01 -4.170038551092147827e-02
-7.094587683677673340e-01 1.412869691848754883e-01 -3.435067087411880493e-02
1.255929563194513321e-02 -9.103694558143615723e-02 -3.007637150585651398e-02
-3.865926563739776611e-01 8.433972299098968506e-02 2.504647709429264069e-02
-7.404214143753051758e-01 2.027733623981475830e-02 4.190911725163459778e-02
2.830123342573642731e-02 -1.615428482182323933e-03 -4.340499639511108398e-01
2.433968521654605865e-02 -1.620581001043319702e-01 -1.609638184309005737e-01
7.344201952219009399e-02 -1.357867866754531860e-01 1.353182345628738403e-01
1.006255373358726501e-01 -4.951464943587779999e-03 -4.776530563831329346e-01
-7.921300530433654785e-01 4.266529157757759094e-02 2.404816895723342896e-01
-6.266572475433349609e-01 2.470801025629043579e-02 -4.683475941419601440e-02
2.297407090663909912e-01 -5.413199216127395630e-02 2.021172344684600830e-01
9.955696016550064087e-02 -9.247038513422012329e-02 4.431807028595358133e-04
3.451989591121673584e-01 8.843158930540084839e-02 -2.217933908104896545e-02
3.349823355674743652e-01 -9.247038513422012329e-02 5.168267339468002319e-02
-7.402136921882629395e-02 -2.084555337205529213e-03 -5.222986340522766113e-01
4.291473031044006348e-01 7.422735542058944702e-02 4.813812673091888428e-02
-9.281265735626220703e-02 1.199352438561618328e-03 5.843804478645324707e-01
-4.240717366337776184e-02 1.639397442340850830e-02 5.924339294433593750e-01
2.920568883419036865e-01 -1.203054785728454590e-01 3.153601288795471191e-01
7.840445637702941895e-01 7.146469503641128540e-02 -4.597468301653862000e-02
5.014186725020408630e-02 7.823539199307560921e-04 -9.489458054304122925e-02
-6.349973082542419434e-01 1.885909736156463623e-01 -1.110264472663402557e-02
3.249742388725280762e-01 -1.125908792018890381e-01 -3.330044448375701904e-01
9.353644400835037231e-02 -3.750391677021980286e-02 -3.064725100994110107e-01
-7.633305788040161133e-01 3.953775390982627869e-02 -2.475705295801162720e-01
-7.022654414176940918e-01 1.432938128709793091e-01 3.823425993323326111e-02
2.052937895059585571e-01 4.506306722760200500e-02 7.472219318151473999e-02
2.184815853834152222e-01 -2.637510187923908234e-02 1.117053255438804626e-01
2.620325386524200439e-01 -7.221958786249160767e-02 3.072024583816528320e-01
1.993506774306297302e-02 -2.551502548158168793e-02 -9.325262904167175293e-02
7.763561010360717773e-01 5.981461703777313232e-02 -6.471385061740875244e-02
2.102196514606475830e-01 8.598168939352035522e-02 -2.945086546242237091e-02
-2.138483524322509766e-01 5.699983611702919006e-02 -7.401826977729797363e-02
-9.711302071809768677e-02 1.381375733762979507e-02 7.101334929466247559e-01
8.068748563528060913e-02 -3.677415847778320312e-02 -1.691214889287948608e-01
3.592989444732666016e-01 -1.293231993913650513e-01 -2.716786265373229980e-01
1.461833417415618896e-01 -3.179616853594779968e-02 1.378984600305557251e-01
2.244239002466201782e-01 -9.082842618227005005e-02 2.571097612380981445e-01
-6.116710901260375977e-01 8.627253584563732147e-03 -4.871128126978874207e-02
2.184815853834152222e-01 -2.637510187923908234e-02 1.117053255438804626e-01
2.483756244182586670e-01 -2.124072611331939697e-02 -1.871308833360671997e-01
2.736296877264976501e-02 -7.008243352174758911e-02 -9.325262904167175293e-02
7.060118019580841064e-02 -6.341035664081573486e-02 7.365361601114273071e-02
2.707548206672072411e-03 1.540359202772378922e-02 5.911828875541687012e-01
4.001133143901824951e-01 -7.813584804534912109e-02 5.783349275588989258e-02
-6.649435162544250488e-01 2.405862808227539062e-01 -1.084201689809560776e-02
-7.686734795570373535e-01 3.080670908093452454e-02 -1.389407366514205933e-01
3.056877553462982178e-01 -1.356564611196517944e-01 2.999830842018127441e-01
-9.463779628276824951e-03 -3.677415847778320312e-02 -2.735291123390197754e-01
1.407362073659896851e-01 -4.261223599314689636e-02 2.727995514869689941e-01
2.534318268299102783e-01 5.840722844004631042e-02 6.554808467626571655e-02
-6.340851187705993652e-01 7.136044651269912720e-02 -3.153487341478466988e-03
-3.184905350208282471e-01 -8.399997651576995850e-02 3.054573014378547668e-02
1.771198809146881104e-01 -6.197689846158027649e-02 1.130866557359695435e-01
8.819625377655029297e-01 -2.775643207132816315e-02 -6.229000538587570190e-02
-6.275433301925659180e-01 1.677667796611785889e-01 3.010266274213790894e-02
2.483756244182586670e-01 -2.124072611331939697e-02 -1.871308833360671997e-01
3.297437429428100586e-01 1.642419956624507904e-03 8.744084835052490234e-02
-5.379662290215492249e-02 -1.191023923456668854e-02 4.753076136112213135e-01
1.127186790108680725e-01 -9.899162687361240387e-04 4.094468653202056885e-01
1.746439188718795776e-01 -3.474126756191253662e-02 9.288797527551651001e-02
2.868964672088623047e-01 -4.941462352871894836e-02 1.773575395345687866e-01
3.614613786339759827e-02 -3.570558875799179077e-02 -2.200482040643692017e-01
5.005072951316833496e-01 8.202014118432998657e-02 3.291744366288185120e-02
-5.733848214149475098e-01 1.203585267066955566e-01 -5.058780312538146973e-02
-1.677432358264923096e-01 3.763516619801521301e-02 8.218648433685302734e-01
8.628845810890197754e-01 4.524550959467887878e-02 -5.408022180199623108e-02
-6.316612362861633301e-01 1.075877547264099121e-01 3.184887021780014038e-02
-6.470904946327209473e-01 2.679001092910766602e-01 -4.013560246676206589e-03
2.228072285652160645e-02 -4.052720218896865845e-02 -2.538777291774749756e-01
-7.695856690406799316e-01 3.356936573982238770e-02 -1.627360880374908447e-01
3.076945841312408447e-01 2.775735966861248016e-02 -8.973414450883865356e-02
-6.750819087028503418e-01 2.694941312074661255e-02 -1.441272348165512085e-01
-5.812297463417053223e-01 6.099164485931396484e-03 -5.522698536515235901e-02
2.902325093746185303e-01 -8.402603864669799805e-02 2.316203117370605469e-01
-6.842560768127441406e-01 1.847899705171585083e-02 4.691317677497863770e-02
-7.594733238220214844e-01 2.762704901397228241e-02 -1.092030704021453857e-01
5.537536144256591797e-01 -9.205339103937149048e-02 4.953060997650027275e-04
3.653455376625061035e-01 8.884859830141067505e-02 -1.834810711443424225e-02
3.093886673450469971e-01 -5.546120181679725647e-02 -2.469189763069152832e-01
-6.053639054298400879e-01 1.596352010965347290e-01 -5.256857722997665405e-02
3.817650675773620605e-01 -1.442572027444839478e-01 2.646679580211639404e-01
-4.516193866729736328e-01 8.960441499948501587e-02 2.423954429104924202e-03
-6.633015275001525879e-01 2.356124855577945709e-02 1.053199321031570435e-01
-4.508896172046661377e-01 -4.420205950736999512e-02 -5.864121392369270325e-02
-1.077987775206565857e-01 8.574711531400680542e-02 -3.010243363678455353e-02
2.249451577663421631e-01 -9.247038513422012329e-02 -4.076212644577026367e-02
-6.680449247360229492e-01 2.288361638784408569e-02 9.687559306621551514e-02
7.763561010360717773e-01 5.981461703777313232e-02 -6.471385061740875244e-02
3.444692194461822510e-01 -5.600851774215698242e-02 -9.325262904167175293e-02
3.465281724929809570e-01 -9.247038513422012329e-02 5.540965124964714050e-02
2.380026131868362427e-01 -9.387778490781784058e-02 -3.082187175750732422e-01
3.868733942508697510e-01 -4.185640439391136169e-02 2.655541002750396729e-01
