5.633663758635520935e-02 -6.956670433282852173e-02 -6.604953110218048096e-02
-7.606888413429260254e-01 7.143775373697280884e-02 -7.069187611341476440e-02
-7.087959647178649902e-01 9.833133220672607422e-02 -1.675940901041030884e-01
-1.295704841613769531e-01 -2.103556506335735321e-02 -9.422374516725540161e-02
3.358109593391418457e-01 -3.557622060179710388e-02 2.666249573230743408e-01
-3.206001818180084229e-01 1.139925643801689148e-01 1.401752885431051254e-02
3.473367691040039062e-01 -7.679701596498489380e-02 2.236699759960174561e-01
2.696181833744049072e-02 -2.754550985991954803e-02 3.618196547031402588e-01
-7.504170536994934082e-01 2.664694786071777344e-01 -2.817631000652909279e-03
7.738725841045379639e-02 6.879642605781555176e-02 9.552531689405441284e-02
-8.773604780435562134e-02 1.410216279327869415e-02 7.677310705184936523e-01
-1.551033556461334229e-01 -8.901653438806533813e-02 6.825822591781616211e-02
7.802485823631286621e-01 7.589334249496459961e-02 4.784793034195899963e-02
1.790919005870819092e-01 8.766136132180690765e-03 -9.707852452993392944e-02
1.607632637023925781e-02 -6.337691843509674072e-02 -2.425652444362640381e-01
3.128927350044250488e-01 -6.225636228919029236e-02 -2.888285815715789795e-01
1.853884160518646240e-01 -8.421410620212554932e-02 1.150284856557846069e-01
8.550596237182617188e-01 4.990689456462860107e-02 3.360074013471603394e-02
4.413575232028961182e-01 1.124717965722084045e-01 -1.140863075852394104e-02
-6.573567986488342285e-01 1.383515149354934692e-01 2.314213104546070099e-02
3.122791051864624023e-01 8.659419603645801544e-03 1.140946894884109497e-01
-4.282812178134918213e-01 1.118581518530845642e-01 -5.432283505797386169e-03
-6.208850741386413574e-01 1.044410690665245056e-01 -7.139812223613262177e-03
4.286317154765129089e-02 -5.782745033502578735e-02 1.812218874692916870e-01
-3.672364354133605957e-02 -4.907637089490890503e-02 -1.670604795217514038e-01
7.424694895744323730e-01 9.382238984107971191e-02 2.402257546782493591e-02
2.149233072996139526e-01 -2.503757178783416748e-02 9.090965986251831055e-02
6.394048035144805908e-02 -3.787072747945785522e-02 -3.051568269729614258e-01
6.158188581466674805e-01 -2.218281850218772888e-02 -8.899443596601486206e-02
1.759703159332275391e-01 -2.853268384933471680e-02 2.673986852169036865e-01
8.853682279586791992e-01 -2.228952385485172272e-02 5.833321809768676758e-02
6.871621310710906982e-02 -4.915641993284225464e-02 2.594746947288513184e-01
-3.034709580242633820e-02 -5.769404768943786621e-02 1.294624358415603638e-01
-3.034709580242633820e-02 -5.769404768943786621e-02 1.294624358415603638e-01
-6.824360489845275879e-01 8.859307318925857544e-02 1.037694662809371948e-01
-4.755050241947174072e-01 1.204758286476135254e-01 2.551666274666786194e-02
4.867670834064483643e-01 1.115379855036735535e-01 3.621539473533630371e-02
-7.383041977882385254e-01 2.169511616230010986e-01 1.980711705982685089e-02
1.146066468209028244e-02 -8.392062783241271973e-02 1.115333959460258484e-01
-6.756058931350708008e-01 3.117990195751190186e-01 -1.697065890766680241e-03
1.807727515697479248e-01 -3.026688098907470703e-02 1.270345449447631836e-01
2.330391258001327515e-01 -6.513781100511550903e-02 -2.294919788837432861e-01
-5.379632115364074707e-01 -4.667516052722930908e-02 2.495638094842433929e-02
-1.751935034990310669e-01 2.645505964756011963e-02 -7.978854179382324219e-01
-6.012210994958877563e-02 -1.044356171041727066e-02 -5.197184085845947266e-01
-2.272997796535491943e-01 -8.629516512155532837e-02 6.494989246129989624e-02
-9.784781187772750854e-02 1.300828251987695694e-02 -7.462326884269714355e-01
-1.068123430013656616e-01 8.632743731141090393e-03 -6.194220185279846191e-01
7.044770121574401855e-01 -3.626991063356399536e-02 -7.746862620115280151e-02
6.774233579635620117e-01 -4.328679293394088745e-02 -7.768207043409347534e-02
2.086801677942276001e-01 -1.220998764038085938e-01 2.336216568946838379e-01
-5.097889900207519531e-01 6.084574386477470398e-02 8.666750788688659668e-02
2.655622065067291260e-01 -1.450447887182235718e-01 -2.330937981605529785e-01
-7.494298219680786133e-01 9.379570931196212769e-02 1.499260962009429932e-01
3.636383116245269775e-01 -7.468929141759872437e-02 -2.064670175313949585e-01
-6.835565567016601562e-01 3.077169656753540039e-01 1.986047811806201935e-02
1.017195358872413635e-01 -1.150029599666595459e-01 -2.861731313169002533e-02
3.181220591068267822e-01 -1.271691024303436279e-01 -1.939540505409240723e-01
-4.694753289222717285e-01 6.148606911301612854e-02 9.240373969078063965e-02
-6.172031760215759277e-01 -2.767891250550746918e-02 8.441382087767124176e-03
2.874665856361389160e-01 -4.590143635869026184e-02 2.882625460624694824e-01
1.913647651672363281e-01 6.740906089544296265e-02 9.645911306142807007e-02
4.718535393476486206e-02 -8.845624327659606934e-02 -1.247458085417747498e-01
-8.922951295971870422e-03 -6.057551875710487366e-02 2.810322344303131104e-01
3.935467600822448730e-01 -2.228952385485172272e-02 1.110798344016075134e-01
1.774644106626510620e-01 -4.611489176750183105e-02 -2.456334382295608521e-01
2.569978833198547363e-01 1.136457175016403198e-01 -1.617024885490536690e-03
1.734624058008193970e-01 -2.906627580523490906e-02 -2.512095868587493896e-01
-8.684232234954833984e-01 1.274660229682922363e-01 -3.620655536651611328e-01
2.956040203571319580e-01 -1.409873366355895996e-02 -5.116202309727668762e-02
5.285748839378356934e-01 -6.625837087631225586e-02 -7.381344586610794067e-02
-1.382948905229568481e-01 6.711769383400678635e-03 -9.723860025405883789e-02
-5.003442168235778809e-01 1.022533029317855835e-01 2.663722820580005646e-02
1.138056293129920959e-01 -9.483065456151962280e-03 3.804423809051513672e-01
-5.611482262611389160e-01 1.029469892382621765e-01 -1.962611265480518341e-02
5.724376440048217773e-02 -6.284333020448684692e-02 2.645706236362457275e-01
2.095939591526985168e-03 -5.289164185523986816e-02 -1.683678030967712402e-01
8.915319293737411499e-02 -1.585960760712623596e-02 -4.654243290424346924e-01
6.490356326103210449e-01 9.475618600845336914e-02 5.665237084031105042e-02
3.080902993679046631e-01 -7.754406332969665527e-02 -2.766357660293579102e-01
1.798389405012130737e-01 -7.503614574670791626e-02 -2.210877239704132080e-01
-2.466360805556178093e-03 -1.585747115314006805e-03 -4.707870483398437500e-01
-2.503775060176849365e-02 -7.887807488441467285e-02 -9.403698146343231201e-02
-1.845048666000366211e-01 1.058284416794776917e-01 -3.283277526497840881e-02
2.751937210559844971e-01 1.055349633097648621e-01 5.019577965140342712e-02
-1.429639160633087158e-01 -9.093748778104782104e-02 -4.884085059165954590e-02
2.445649355649948120e-01 -1.108141764998435974e-01 -2.767424881458282471e-01
-8.471591472625732422e-01 1.190617829561233521e-01 -3.071844875812530518e-01
-1.386950761079788208e-01 2.551770012360066175e-04 5.964180231094360352e-01
2.295440137386322021e-01 1.145795285701751709e-01 6.360332015901803970e-03
6.719545274972915649e-02 -2.775896340608596802e-02 4.196622073650360107e-01
-2.188949473202228546e-02 -3.872447833418846130e-02 -3.469912409782409668e-01
-1.155634224414825439e-01 -4.408719018101692200e-02 1.039295569062232971e-01
-8.325378596782684326e-02 -5.075721442699432373e-02 -2.618816494941711426e-01
-7.890765070915222168e-01 7.367888838052749634e-02 5.040922388434410095e-02
1.268794946372509003e-02 -3.077381663024425507e-02 -2.603341937065124512e-01
2.087875083088874817e-02 -1.068922057747840881e-01 -2.605602145195007324e-02
8.616229295730590820e-01 -8.474770188331604004e-02 1.975375600159168243e-02
-3.206802010536193848e-01 1.127119064331054688e-01 -8.287057280540466309e-03
1.787984222173690796e-01 -1.208459138870239258e-01 -2.590001821517944336e-01
1.461686193943023682e-01 -1.062785610556602478e-01 -2.278111279010772705e-01
-1.110011264681816101e-01 -9.742075949907302856e-02 6.078779324889183044e-02
-7.290729284286499023e-01 6.271335482597351074e-02 4.558012261986732483e-02
3.588626086711883545e-01 -5.107525736093521118e-03 -9.651823341846466064e-02
-4.560551941394805908e-01 1.252803392708301544e-02 1.015817001461982727e-01
6.548792123794555664e-02 -7.714387774467468262e-02 9.816664457321166992e-02
6.217958405613899231e-02 -1.471792012453079224e-01 -1.152210086584091187e-01
3.589959740638732910e-01 -1.364271193742752075e-01 -2.758620381355285645e-01
3.942143544554710388e-02 -1.962150633335113525e-02 -3.072378635406494141e-01
-8.234666287899017334e-02 -1.585960760712623596e-02 -4.258843958377838135e-01
-6.435631513595581055e-01 5.991194397211074829e-02 -1.324956212192773819e-02
-4.414071887731552124e-02 -3.709700703620910645e-02 -9.267629683017730713e-02
5.240125656127929688e-01 -3.680352494120597839e-02 1.061706840991973877e-01
7.501800060272216797e-01 -6.655184924602508545e-02 9.828749112784862518e-03
8.108239173889160156e-01 -4.259310290217399597e-02 -7.913535460829734802e-03
3.595562875270843506e-01 -1.013694331049919128e-01 2.522977590560913086e-01
-2.796461880207061768e-01 1.139391958713531494e-01 1.641874015331268311e-02
3.734038770198822021e-02 -1.188449114561080933e-01 1.303036324679851532e-02
2.927225530147552490e-01 -9.552647918462753296e-02 2.211620360612869263e-01
7.044770121574401855e-01 -3.626991063356399536e-02 -7.746862620115280151e-02
1.135455211624503136e-03 -2.522434853017330170e-02 3.104337453842163086e-01
9.715723246335983276e-02 -2.791904285550117493e-02 -3.933079540729522705e-01
4.458664655685424805e-01 6.546141207218170166e-02 -8.075028657913208008e-02
4.094220325350761414e-02 -2.202271856367588043e-02 -4.516040384769439697e-01
3.028877079486846924e-01 -1.295969933271408081e-01 -2.261836379766464233e-01
5.657676234841346741e-02 -5.150426179170608521e-02 -8.501909673213958740e-02
-8.109269291162490845e-02 -1.092380005866289139e-02 -4.681990742683410645e-01
1.256516128778457642e-01 9.806451946496963501e-02 6.548348814249038696e-02
-2.565678954124450684e-01 9.206148982048034668e-02 -5.767197161912918091e-02
2.258621603250503540e-01 -6.913983821868896484e-02 1.637464016675949097e-01
6.445266604423522949e-01 3.632671386003494263e-02 1.012348607182502747e-01
-6.982573270797729492e-01 9.582339227199554443e-02 -1.635920703411102295e-01
3.667332231998443604e-01 -1.088131740689277649e-01 3.125948309898376465e-01
3.021406531333923340e-01 -8.183957636356353760e-02 1.109464317560195923e-01
-4.085112214088439941e-01 9.144785255193710327e-02 2.295537106692790985e-02
-3.653161227703094482e-01 1.112711876630783081e-01 -2.417429815977811813e-03
5.214785784482955933e-02 -4.947446286678314209e-03 -4.156125187873840332e-01
-4.293217062950134277e-01 -6.796590983867645264e-02 -2.733666636049747467e-02
6.351359188556671143e-02 -1.155098974704742432e-01 -1.538397092372179031e-02
2.112681418657302856e-01 -1.209259629249572754e-01 -1.966754198074340820e-01
5.767064541578292847e-02 -6.497773528099060059e-02 -1.686346083879470825e-01
7.040767073631286621e-01 4.115581512451171875e-02 -7.424032688140869141e-02
5.324701666831970215e-01 -8.789394050836563110e-03 1.121737137436866760e-01
6.375370919704437256e-02 -3.925808891654014587e-02 -2.885350883007049561e-01
8.693602085113525391e-01 4.158269241452217102e-02 -5.992566701024770737e-03
-3.118491172790527344e-01 -4.515439271926879883e-02 9.763304889202117920e-02
1.129518672823905945e-01 1.123917475342750549e-01 2.911848016083240509e-02
-1.825572103261947632e-01 5.636348575353622437e-02 -8.664658665657043457e-02
3.001930117607116699e-01 -1.291701048612594604e-01 -2.578529715538024902e-01
-2.644652128219604492e-01 -6.799259036779403687e-02 8.450642973184585571e-02
6.543182730674743652e-01 7.079743593931198120e-02 -6.591612845659255981e-02
-1.030771210789680481e-01 1.151419430971145630e-02 -6.370842456817626953e-01
-5.111763477325439453e-01 -2.263638004660606384e-02 -5.788541585206985474e-02
1.615897417068481445e-01 -2.954651415348052979e-02 -2.622284889221191406e-01
1.229835897684097290e-01 -1.231116242706775665e-02 3.454113900661468506e-01
1.376576721668243408e-01 -6.214963644742965698e-02 -1.748510748147964478e-01
7.442570328712463379e-01 -1.538492292165756226e-01 9.722027927637100220e-03
1.508916169404983521e-02 -5.443908274173736572e-02 -9.617140144109725952e-02
-7.263782024383544922e-01 3.047021031379699707e-01 -4.525159951299428940e-03
-7.803254723548889160e-01 7.925503700971603394e-02 8.213189244270324707e-02
3.028877079486846924e-01 -1.295969933271408081e-01 -2.261836379766464233e-01
1.461686193943023682e-01 -1.062785610556602478e-01 -2.278111279010772705e-01
7.950026988983154297e-01 1.669225748628377914e-03 8.170500397682189941e-02
6.239563226699829102e-01 2.616157755255699158e-02 1.065442040562629700e-01
5.591036751866340637e-03 9.334214031696319580e-02 7.164660096168518066e-02
2.050250023603439331e-01 -1.431771665811538696e-01 -2.573727071285247803e-01
-7.605014741420745850e-02 1.217741155414842069e-04 6.511123180389404297e-01
-7.589812874794006348e-01 6.719561666250228882e-02 -4.217081889510154724e-02
7.423360347747802734e-01 -1.753000319004058838e-01 2.292869240045547485e-02
5.147545337677001953e-01 -7.997195422649383545e-02 7.943719625473022461e-02
-4.931672513484954834e-01 1.706077903509140015e-01 1.126947533339262009e-02
-7.240303754806518555e-01 8.835295587778091431e-02 -8.651318401098251343e-02
-8.057249188423156738e-01 4.252162277698516846e-01 -1.296864007599651814e-03
-8.684232234954833984e-01 1.274660229682922363e-01 -3.620655536651611328e-01
4.747883602976799011e-02 1.131921559572219849e-01 -5.405602976679801941e-03
2.456060796976089478e-02 -1.694304198026657104e-01 -1.150609254837036133e-01
2.701778411865234375e-01 -1.249791868031024933e-02 -9.547770768404006958e-02
-5.965794324874877930e-01 1.958738714456558228e-01 2.119448408484458923e-02
4.681977629661560059e-01 1.137524321675300598e-01 1.753930374979972839e-02
2.033974826335906982e-01 -2.706527151167392731e-02 -2.405642420053482056e-01
7.074651718139648438e-01 -2.783899195492267609e-02 -7.973643392324447632e-02
3.571283817291259766e-01 -9.851465374231338501e-02 2.696131467819213867e-01
3.060893118381500244e-01 -8.269334584474563599e-02 9.589883685111999512e-02
6.682192534208297729e-02 -4.710204526782035828e-02 -8.752703666687011719e-02
-7.307537198066711426e-01 3.615574538707733154e-01 1.956699416041374207e-02
-4.927937388420104980e-01 1.107642650604248047e-01 4.599444102495908737e-03
1.551331579685211182e-01 -7.519622147083282471e-02 -1.256796121597290039e-01
4.085676670074462891e-01 -4.587476328015327454e-02 -6.655645370483398438e-02
2.157237231731414795e-01 -6.393720954656600952e-02 2.563264369964599609e-01
-2.295942604541778564e-01 2.445405535399913788e-02 -9.590459614992141724e-02
-8.514813184738159180e-01 4.676643013954162598e-01 1.364400610327720642e-02
2.024636864662170410e-01 -5.628000944852828979e-02 -1.932070106267929077e-01
2.826641499996185303e-01 -6.673862785100936890e-02 -9.659827500581741333e-02
6.338018923997879028e-02 -3.986959345638751984e-03 4.366307556629180908e-01
3.337032198905944824e-01 -7.026039808988571167e-02 -2.734608054161071777e-01
-6.922276020050048828e-01 6.682209670543670654e-02 5.024914443492889404e-02
3.906386196613311768e-01 -9.203138947486877441e-02 2.181205004453659058e-01
2.017166465520858765e-01 -7.460925728082656860e-02 2.322342991828918457e-01
-7.298732995986938477e-01 8.080247789621353149e-02 -4.094352945685386658e-02
-8.127945661544799805e-02 2.528114058077335358e-02 7.622883319854736328e-01
-7.495626807212829590e-02 -1.772513147443532944e-03 -6.083764433860778809e-01
7.666689902544021606e-02 -1.680164039134979248e-01 -1.718629002571105957e-01
9.510286152362823486e-02 1.522272918373346329e-02 1.135343983769416809e-01
-5.843065977096557617e-01 1.962740719318389893e-01 -3.031072439625859261e-03
-2.433078438043594360e-01 8.336377143859863281e-02 8.608055859804153442e-02
-7.151458859443664551e-01 7.746746391057968140e-02 4.213838279247283936e-02
2.753538191318511963e-01 -8.634851127862930298e-02 7.212684303522109985e-02
-6.344118714332580566e-01 2.029974609613418579e-01 -6.312727928161621094e-03
2.610532641410827637e-01 -6.073559820652008057e-02 -2.550248503684997559e-01
2.679100334644317627e-01 -1.189516186714172363e-01 6.306972354650497437e-03
7.922818511724472046e-02 -1.588117331266403198e-01 -1.737305223941802979e-01
-3.415974676609039307e-01 2.186607755720615387e-02 -9.411702305078506470e-02
-7.868087291717529297e-01 7.888150960206985474e-02 -1.076171696186065674e-01
2.754878066480159760e-02 4.497323185205459595e-03 -5.112608075141906738e-01
2.714585065841674805e-01 -1.126017495989799500e-01 2.254041731357574463e-01
8.561001420021057129e-01 4.030204564332962036e-02 -2.941771782934665680e-02
-8.470791578292846680e-01 3.807671666145324707e-01 8.361342363059520721e-03
-7.036200761795043945e-01 1.710079908370971680e-01 -4.258357454091310501e-03
6.906305998563766479e-02 -3.130740672349929810e-02 2.711872756481170654e-01
2.585453093051910400e-01 -5.897470191121101379e-02 -2.263970971107482910e-01
-2.569147348403930664e-01 -6.209628283977508545e-02 8.938889205455780029e-02
2.883203327655792236e-01 -6.201623380184173584e-02 -2.642028331756591797e-01
-4.614445865154266357e-01 1.531323045492172241e-01 1.984791597351431847e-03
-8.673293590545654297e-01 1.189550682902336121e-01 3.774542212486267090e-01
5.610445737838745117e-01 -2.978664264082908630e-02 1.069710925221443176e-01
1.218102686107158661e-02 -3.755056858062744141e-02 2.147854864597320557e-01
2.569978833198547363e-01 1.136457175016403198e-01 -1.617024885490536690e-03
3.613978251814842224e-02 -1.370407640933990479e-01 1.325840055942535400e-01
-7.633034586906433105e-01 1.048145964741706848e-01 2.230830043554306030e-01
2.682835757732391357e-01 -1.063052341341972351e-01 -1.870705634355545044e-01
3.614772260189056396e-01 -1.294635832309722900e-01 2.661447227001190186e-01
5.641668289899826050e-02 -1.508343666791915894e-01 1.547818779945373535e-01
3.542469143867492676e-01 -9.125764667987823486e-02 -7.704173773527145386e-02
7.922818511724472046e-02 -1.588117331266403198e-01 -1.737305223941802979e-01
1.032403036952018738e-01 -1.556614506989717484e-02 -4.506969153881072998e-01
7.415623068809509277e-01 -1.749265193939208984e-01 2.038151724264025688e-03
-8.443844318389892578e-01 1.108443066477775574e-01 -2.626820504665374756e-01
-6.298495531082153320e-01 2.377349883317947388e-01 2.071424014866352081e-02
7.818765938282012939e-02 1.119381859898567200e-01 -1.575749367475509644e-02
-2.114244922995567322e-02 -5.497267469763755798e-02 1.644934415817260742e-01
-7.948394417762756348e-01 9.910505264997482300e-02 -1.760783642530441284e-01
-2.271396964788436890e-01 -1.022231802344322205e-01 2.082096226513385773e-02
4.267641156911849976e-02 -6.548465043306350708e-02 -1.698352247476577759e-01
9.056724607944488525e-02 -5.067718774080276489e-02 -2.171657532453536987e-01
2.664159536361694336e-01 -9.688716381788253784e-02 -9.048852324485778809e-02
6.351359188556671143e-02 -1.155098974704742432e-01 -1.538397092372179031e-02
-6.007682085037231445e-01 1.053748726844787598e-01 2.519650012254714966e-02
-7.659448385238647461e-01 8.464442193508148193e-02 1.786339282989501953e-01
4.166257008910179138e-02 -7.482269406318664551e-02 1.630260348320007324e-01
7.019689679145812988e-01 2.173268422484397888e-02 -8.035007864236831665e-02
1.971543431282043457e-01 8.101592212915420532e-02 -7.018495351076126099e-02
2.641214728355407715e-01 1.119915470480918884e-01 3.242681547999382019e-02
7.226194739341735840e-01 1.217741155414842069e-04 9.632572531700134277e-02
1.619365811347961426e-01 -3.378866985440254211e-02 -9.617140144109725952e-02
4.696651101112365723e-01 3.680695220828056335e-02 -9.307649731636047363e-02
4.390370100736618042e-02 -1.216196343302726746e-01 1.567295193672180176e-01
-7.500435113906860352e-01 1.539060324430465698e-01 1.484461221843957901e-02
6.213950514793395996e-01 -8.941671997308731079e-02 6.502992659807205200e-02
8.016199618577957153e-02 -8.608170598745346069e-02 -4.422518983483314514e-02
1.052413061261177063e-01 -6.716549396514892578e-02 1.623857021331787109e-01
-5.300658941268920898e-01 8.106928318738937378e-02 2.685066871345043182e-02
-6.756058931350708008e-01 3.117990195751190186e-01 -1.697065890766680241e-03
-5.978067517280578613e-01 7.461269199848175049e-02 3.818972408771514893e-02
2.805297374725341797e-01 -6.329689174890518188e-02 -2.175392806529998779e-01
-3.544299677014350891e-02 -5.054162815213203430e-03 -5.946895480155944824e-01
2.100675255060195923e-01 -7.399562001228332520e-02 -2.138841003179550171e-01
5.685683488845825195e-01 -5.948161706328392029e-02 -7.698838412761688232e-02
3.962414562702178955e-01 -1.028368249535560608e-01 4.256526380777359009e-02
1.441942900419235229e-01 -1.329831592738628387e-02 -3.266343176364898682e-01
1.428937539458274841e-03 -3.269477188587188721e-02 -3.120936453342437744e-01
3.704951107501983643e-01 -6.724554300308227539e-02 2.125710397958755493e-01
-6.549288630485534668e-01 3.399198651313781738e-01 1.089595351368188858e-02
-6.682955622673034668e-01 2.751405239105224609e-01 2.106108330190181732e-02
-1.751935034990310669e-01 2.645505964756011963e-02 -7.978854179382324219e-01
-8.717575669288635254e-02 -9.349661879241466522e-03 -5.093131661415100098e-01
-9.552665054798126221e-02 -5.339855700731277466e-02 3.544026017189025879e-01
-4.050428271293640137e-01 9.414254873991012573e-02 -5.228258669376373291e-02
-5.292121171951293945e-01 1.054282411932945251e-01 3.496142849326133728e-02
2.504085004329681396e-02 -8.239986002445220947e-02 -6.663649529218673706e-02
-6.860639154911041260e-02 -3.885788097977638245e-02 -2.555851638317108154e-01
-4.393000602722167969e-01 7.661370187997817993e-02 -7.010491192340850830e-02
3.696686774492263794e-02 -3.648336604237556458e-02 -3.473914563655853271e-01
-5.014114379882812500e-01 6.196630746126174927e-02 -7.047843188047409058e-02
1.032403036952018738e-01 -1.556614506989717484e-02 -4.506969153881072998e-01
6.682192534208297729e-02 -4.710204526782035828e-02 -8.752703666687011719e-02
-7.850472629070281982e-02 -4.293993860483169556e-02 -2.399238944053649902e-01
3.616906702518463135e-01 -5.710710212588310242e-02 1.089454144239425659e-01
-3.216134384274482727e-02 -1.959269167855381966e-03 6.355844736099243164e-01
1.702874451875686646e-01 -2.434390038251876831e-02 -1.908057928085327148e-01
5.430957302451133728e-03 -3.242798522114753723e-02 3.406089544296264648e-01
-7.629299759864807129e-01 1.494504511356353760e-01 1.276356261223554611e-02
1.035071089863777161e-01 -7.268828898668289185e-02 -9.675835072994232178e-02
3.827413022518157959e-01 -6.839279830455780029e-02 -8.488570153713226318e-02
3.306616842746734619e-01 -5.513275414705276489e-02 2.092626988887786865e-01
-1.159096416085958481e-02 -5.022362247109413147e-02 1.543016284704208374e-01
3.501115143299102783e-01 -9.989980608224868774e-03 6.241527944803237915e-02
-3.776416927576065063e-02 1.242131832987070084e-02 -6.496772766113281250e-01
5.751056224107742310e-02 -4.430062323808670044e-02 2.069682180881500244e-01
2.330391258001327515e-01 -6.513781100511550903e-02 -2.294919788837432861e-01
4.739879816770553589e-02 -5.470588803291320801e-02 -1.766653209924697876e-01
4.724132120609283447e-01 -4.979673773050308228e-02 -8.485902100801467896e-02
-1.587051749229431152e-01 1.484920643270015717e-02 7.164251804351806641e-01
3.299680352210998535e-01 -4.803584516048431396e-02 -2.456067651510238647e-01
2.208463102579116821e-01 1.084718946367502213e-02 1.139079183340072632e-01
1.192750558257102966e-01 -6.228303909301757812e-02 2.686260044574737549e-01
2.554237246513366699e-01 -6.489768624305725098e-02 -2.460336536169052124e-01
6.351359188556671143e-02 -1.155098974704742432e-01 -1.538397092372179031e-02
-1.217798814177513123e-01 1.967830769717693329e-02 -8.017540574073791504e-01
6.904699206352233887e-01 -7.356873154640197754e-02 -6.025994569063186646e-02
-7.459880709648132324e-01 9.713072329759597778e-02 1.679085046052932739e-01
6.743283867835998535e-01 -5.966839566826820374e-02 -7.058515399694442749e-02
6.366293430328369141e-01 -7.661025971174240112e-02 -6.236767396330833435e-02
-6.456708908081054688e-01 1.235440373420715332e-01 2.314213104546070099e-02
8.082899451255798340e-02 -6.092235445976257324e-02 -1.613509356975555420e-01
2.711116671562194824e-01 -6.273660063743591309e-02 -1.508122980594635010e-01
-1.262087970972061157e-01 2.629712689667940140e-03 6.381190419197082520e-01
2.488871216773986816e-01 -4.470083117485046387e-02 2.791646420955657959e-01
1.242114882916212082e-02 -2.919756108894944191e-03 -4.517641365528106689e-01
-7.844341993331909180e-01 9.451606869697570801e-02 1.705231666564941406e-01
-7.478557229042053223e-01 6.319360435009002686e-02 -2.114687860012054443e-02
-7.676257491111755371e-01 1.908046454191207886e-01 1.433768961578607559e-02
4.115564748644828796e-02 -3.797743469476699829e-02 3.064317405223846436e-01
3.060893118381500244e-01 -8.269334584474563599e-02 9.589883685111999512e-02
-6.391342282295227051e-01 8.237660676240921021e-02 4.176485911011695862e-02
5.358858406543731689e-02 -2.871944010257720947e-02 2.446405440568923950e-01
-1.928557306528091431e-01 2.512106113135814667e-02 8.148215413093566895e-01
2.924824357032775879e-01 -4.558127745985984802e-02 2.301799207925796509e-01
-8.802952617406845093e-02 6.738446187227964401e-03 -6.931392550468444824e-01
2.594797313213348389e-02 -5.801206920295953751e-03 -4.208952188491821289e-01
-3.504019081592559814e-01 -7.146099954843521118e-02 -4.766692593693733215e-02
-7.800586223602294922e-01 6.826282292604446411e-02 9.028345346450805664e-03
1.540932338684797287e-02 -4.632832482457160950e-02 -1.392331272363662720e-01
-1.444579958915710449e-01 -3.808416053652763367e-02 -8.904780447483062744e-02
3.591026961803436279e-01 1.122049912810325623e-01 -1.354304235428571701e-02
-1.178312301635742188e-01 2.597482129931449890e-02 7.724000811576843262e-01
-7.984679341316223145e-01 3.149206042289733887e-01 1.798030571080744267e-03
1.406458467245101929e-01 -5.169103667140007019e-02 2.426662147045135498e-01
-7.211488485336303711e-01 8.221653103828430176e-02 1.608382612466812134e-01
-1.444579958915710449e-01 -3.808416053652763367e-02 -8.904780447483062744e-02
1.068694144487380981e-02 -4.171265661716461182e-02 2.564331889152526855e-01
-7.948394417762756348e-01 9.910505264997482300e-02 -1.760783642530441284e-01
-5.812116861343383789e-01 -2.930640429258346558e-02 -2.346805110573768616e-02
3.571283817291259766e-01 -9.851465374231338501e-02 2.696131467819213867e-01
-3.562181591987609863e-01 -3.258806467056274414e-02 9.931389242410659790e-02
4.286317154765129089e-02 -5.782745033502578735e-02 1.812218874692916870e-01
-3.521628081798553467e-01 5.929829925298690796e-02 -8.437877893447875977e-02
3.181220591068267822e-01 -1.271691024303436279e-01 -1.939540505409240723e-01
2.666833810508251190e-02 -4.840937629342079163e-02 -3.468311727046966553e-01
-7.080756425857543945e-01 8.966027945280075073e-02 -8.824739605188369751e-02
-9.723353199660778046e-03 8.179171942174434662e-03 5.724325776100158691e-01
-7.540455460548400879e-01 8.333709836006164551e-02 -7.261284440755844116e-02
-9.944862872362136841e-02 -4.803584516048431396e-02 -3.307697474956512451e-01
-7.676257491111755371e-01 1.908046454191207886e-01 1.433768961578607559e-02
-6.033555418252944946e-02 4.497323185205459595e-03 -5.547760725021362305e-01
-4.574093036353588104e-03 -2.898624539375305176e-02 -4.591811895370483398e-01
6.690196692943572998e-02 -1.024633124470710754e-01 -1.781186275184154510e-02
4.582460820674896240e-01 4.257194232195615768e-03 -9.745204448699951172e-02
7.870786786079406738e-01 5.913821980357170105e-02 -4.614615812897682190e-02
8.047142028808593750e-01 3.592650592327117920e-02 -5.391007289290428162e-02
-1.587051749229431152e-01 1.484920643270015717e-02 7.164251804351806641e-01
1.242114882916212082e-02 -2.919756108894944191e-03 -4.517641365528106689e-01
-4.065635800361633301e-01 -2.295653894543647766e-02 9.797988831996917725e-02
-6.387873888015747070e-01 3.198297321796417236e-01 5.720009095966815948e-03
2.416301220655441284e-01 -2.719867415726184845e-02 1.849571168422698975e-01
1.997162587940692902e-02 -4.923645034432411194e-02 2.111303210258483887e-01
-3.307653367519378662e-01 -1.007002964615821838e-02 -9.246285259723663330e-02
6.610416769981384277e-01 -7.252820581197738647e-02 -6.330148130655288696e-02
3.179886341094970703e-01 -9.243157505989074707e-02 2.397047132253646851e-01
2.184450924396514893e-01 -2.938643470406532288e-02 -9.323658794164657593e-02
-6.747521758079528809e-01 5.871133506298065186e-02 -1.386320404708385468e-02
1.650314778089523315e-01 1.142860427498817444e-01 3.932440653443336487e-03
7.712840437889099121e-01 -4.259310290217399597e-02 1.964703388512134552e-02
3.938935995101928711e-01 -9.907492250204086304e-02 -3.614111244678497314e-02
2.853594720363616943e-02 -4.475418478250503540e-02 -2.254365980625152588e-01
-1.684434264898300171e-01 -1.084396615624427795e-01 1.460449118167161942e-02
-8.031369447708129883e-01 9.358225762844085693e-02 2.276986837387084961e-01
6.639504432678222656e-02 1.139925643801689148e-01 1.451189396902918816e-03
-8.340591788291931152e-01 9.411586821079254150e-02 1.938949525356292725e-01
1.406458467245101929e-01 -5.169103667140007019e-02 2.426662147045135498e-01
-9.549997001886367798e-02 -2.039308892562985420e-03 1.139879599213600159e-01
-1.044911593198776245e-01 2.432065270841121674e-02 -7.366812825202941895e-01
-5.992741584777832031e-01 2.594526112079620361e-01 1.407088898122310638e-02
5.764123201370239258e-01 -9.816779941320419312e-02 5.174322798848152161e-02
4.115564748644828796e-02 -3.797743469476699829e-02 3.064317405223846436e-01
3.510720133781433105e-01 -1.092667356133460999e-01 -2.588401138782501221e-01
-8.741588890552520752e-02 -9.712727367877960205e-02 -5.460375547409057617e-02
2.881335914134979248e-01 -1.045977175235748291e-01 2.959997951984405518e-01
-7.224295735359191895e-01 8.461774885654449463e-02 -6.471552699804306030e-02
-1.650010980665683746e-02 1.351519767194986343e-02 6.723496317863464355e-01
-7.749026175588369370e-03 -6.268324702978134155e-02 -2.469407767057418823e-01
-5.023719072341918945e-01 1.391785889863967896e-01 -6.766289938241243362e-03
-6.298495531082153320e-01 2.377349883317947388e-01 2.071424014866352081e-02
-8.170639276504516602e-01 2.937099039554595947e-01 6.547093391418457031e-03
-2.725759446620941162e-01 1.094569414854049683e-01 -2.514889836311340332e-02
-1.826099492609500885e-02 -1.069455742835998535e-01 -5.225590616464614868e-02
-4.590160772204399109e-02 -2.292984165251255035e-02 3.622732460498809814e-01
2.276497334241867065e-01 -5.390547215938568115e-02 -2.679113447666168213e-01
2.445115745067596436e-01 1.083897277712821960e-01 -2.688310481607913971e-02
2.220735996961593628e-01 -1.175909340381622314e-01 2.270316630601882935e-01
6.213950514793395996e-01 -8.941671997308731079e-02 6.502992659807205200e-02
3.667338192462921143e-02 -1.317847669124603271e-01 1.658007651567459106e-01
-6.206975877285003662e-02 -2.223617024719715118e-02 -3.802880644798278809e-01
5.118997693061828613e-01 7.976195961236953735e-02 8.808156102895736694e-02
4.582460820674896240e-01 4.257194232195615768e-03 -9.745204448699951172e-02
5.633663758635520935e-02 -6.956670433282852173e-02 -6.604953110218048096e-02
3.944004774093627930e-01 1.125251501798629761e-01 -1.092838961631059647e-02
-1.800492703914642334e-01 3.966172784566879272e-02 1.093456223607063293e-01
-7.138112932443618774e-02 1.527609210461378098e-02 6.601302027702331543e-01
-8.852049708366394043e-01 1.226902753114700317e-01 -3.496592640876770020e-01
-6.391342282295227051e-01 8.237660676240921021e-02 4.176485911011695862e-02
6.375370919704437256e-02 -8.069026283919811249e-03 -3.835430443286895752e-01
-7.601019144058227539e-01 1.043076738715171814e-01 1.070919260382652283e-02
2.015565633773803711e-01 -2.333005145192146301e-02 -2.010242789983749390e-01
1.864556223154067993e-01 -5.046373233199119568e-02 -2.238357961177825928e-01
9.056724607944488525e-02 -5.067718774080276489e-02 -2.171657532453536987e-01
-7.733085751533508301e-01 2.087336778640747070e-01 2.651795046404004097e-03
4.829518496990203857e-01 -9.870140999555587769e-02 5.152978375554084778e-02
3.315160796046257019e-02 -1.831419393420219421e-02 3.354330360889434814e-01
4.327131807804107666e-01 -4.005848616361618042e-02 -5.593776330351829529e-02
2.256220430135726929e-01 -1.054248139262199402e-01 9.573876112699508667e-02
3.203898668289184570e-01 -1.426702588796615601e-01 -2.220482230186462402e-01
3.243384957313537598e-01 9.710403531789779663e-02 6.673745810985565186e-02
1.775717549026012421e-02 3.643552772700786591e-03 1.145215630531311035e-01
5.644397344440221786e-03 -3.482919558882713318e-02 2.407185733318328857e-01
2.325055152177810669e-01 -8.213305473327636719e-02 3.084060549736022949e-01
9.172776341438293457e-01 1.186103001236915588e-02 -1.709149964153766632e-02
2.382150590419769287e-01 -1.361849531531333923e-02 1.123337894678115845e-01
4.470472689718008041e-03 -2.474411018192768097e-02 -4.076351821422576904e-01
9.027376025915145874e-02 -5.534410942345857620e-03 -4.018989503383636475e-01
-6.103197336196899414e-01 8.958023786544799805e-02 2.466289885342121124e-02
-6.103197336196899414e-01 8.958023786544799805e-02 2.466289885342121124e-02
-6.824360489845275879e-01 8.859307318925857544e-02 1.037694662809371948e-01
1.242114882916212082e-02 -2.919756108894944191e-03 -4.517641365528106689e-01
-8.172774314880371094e-01 9.342217445373535156e-02 -1.567886471748352051e-01
-2.017668932676315308e-01 5.748405307531356812e-02 1.034226343035697937e-01
6.394841670989990234e-01 -9.275173395872116089e-02 6.004074960947036743e-02
-1.494471728801727295e-01 2.744222246110439301e-02 8.010011911392211914e-01
3.788993656635284424e-01 2.928315661847591400e-02 1.123071163892745972e-01
6.906305998563766479e-02 -3.130740672349929810e-02 2.711872756481170654e-01
-8.175906725227832794e-03 -5.577309429645538330e-02 -1.748244017362594604e-01
-1.983251720666885376e-01 3.461918234825134277e-02 -8.732034564018249512e-01
2.050250023603439331e-01 -1.431771665811538696e-01 -2.573727071285247803e-01
1.774910837411880493e-01 -2.709194831550121307e-02 -1.508122980594635010e-01
-1.860256344079971313e-01 2.504102140665054321e-02 -7.949506044387817383e-01
-8.114605396986007690e-02 1.118581518530845642e-01 3.357405960559844971e-02
7.870786786079406738e-01 5.913821980357170105e-02 -4.614615812897682190e-02
-6.734981536865234375e-01 2.587322294712066650e-01 2.234173007309436798e-02
9.545230865478515625e-01 -4.568800702691078186e-02 1.276356261223554611e-02
2.405368350446224213e-02 -4.758228361606597900e-02 2.243903428316116333e-01
1.575076878070831299e-01 -2.815915271639823914e-02 -5.412351712584495544e-02
-3.011770248413085938e-01 -8.472102135419845581e-02 -3.875575959682464600e-02
-5.699259638786315918e-01 -2.573126368224620819e-02 5.190330743789672852e-02
-7.629299759864807129e-01 1.494504511356353760e-01 1.276356261223554611e-02
2.446716576814651489e-01 2.589478157460689545e-02 -9.558443725109100342e-02
5.607244372367858887e-01 -4.318006709218025208e-02 -8.523254096508026123e-02
3.151071965694427490e-01 -8.370717614889144897e-02 -2.972861826419830322e-01
-7.912375926971435547e-01 3.409603834152221680e-01 1.745926402509212494e-02
2.295440137386322021e-01 1.145795285701751709e-01 6.360332015901803970e-03
5.340709686279296875e-01 -6.673862785100936890e-02 9.032269567251205444e-02
-8.175906725227832794e-03 -5.577309429645538330e-02 -1.748244017362594604e-01
3.243384957313537598e-01 9.710403531789779663e-02 6.673745810985565186e-02
-8.143159151077270508e-01 2.703647911548614502e-01 9.722027927637100220e-03
3.633715510368347168e-01 -9.429919719696044922e-02 8.498666435480117798e-02
-1.551033556461334229e-01 -8.901653438806533813e-02 6.825822591781616211e-02
2.658823728561401367e-01 -5.278491601347923279e-02 -2.214612662792205811e-01
-6.637600064277648926e-01 1.344828903675079346e-01 -5.539003759622573853e-03
-5.312665104866027832e-01 9.937185794115066528e-02 -3.197900950908660889e-02
-1.894673705101013184e-01 -8.272001892328262329e-02 7.340749353170394897e-02
-8.003088235855102539e-01 7.263836264610290527e-02 6.913866847753524780e-02
-1.340794265270233154e-01 1.831762306392192841e-02 8.092720508575439453e-01
3.298613131046295166e-01 -8.922996371984481812e-02 -2.795439064502716064e-01
-1.386950761079788208e-01 2.551770012360066175e-04 5.964180231094360352e-01
1.803191900253295898e-01 -3.450901806354522705e-02 3.120612204074859619e-01
-2.017668932676315308e-01 5.748405307531356812e-02 1.034226343035697937e-01
2.157237231731414795e-01 -6.393720954656600952e-02 2.563264369964599609e-01
2.117483764886856079e-01 -1.271424293518066406e-01 -2.826654613018035889e-01
-2.332960255444049835e-03 2.461413480341434479e-02 1.127073168754577637e-01
-1.178312301635742188e-01 2.597482129931449890e-02 7.724000811576843262e-01
2.953105270862579346e-01 -1.948812231421470642e-02 1.121470332145690918e-01
1.957142353057861328e-02 -2.260968275368213654e-02 -4.436800479888916016e-01
-3.726531267166137695e-01 8.942016214132308960e-02 7.690259069204330444e-02
1.619099080562591553e-01 -3.029355779290199280e-02 9.048277139663696289e-02
3.629179596900939941e-01 -7.738398015499114990e-02 2.232164144515991211e-01
1.619099080562591553e-01 -3.029355779290199280e-02 9.048277139663696289e-02
-4.213977158069610596e-01 7.592216599732637405e-03 -8.851420134305953979e-02
1.087630912661552429e-01 -7.079400867223739624e-02 -1.284276694059371948e-01
-3.080004593357443810e-03 -4.493884276598691940e-03 4.633108973503112793e-01
1.787984222173690796e-01 -1.208459138870239258e-01 -2.590001821517944336e-01
3.704951107501983643e-01 -6.724554300308227539e-02 2.125710397958755493e-01
3.998432755470275879e-01 -5.409224703907966614e-02 -2.176726907491683960e-01
-1.110011264681816101e-01 -2.557118423283100128e-02 -4.625161886215209961e-01
3.588626086711883545e-01 -5.107525736093521118e-03 -9.651823341846466064e-02
-2.466360805556178093e-03 -1.585747115314006805e-03 -4.707870483398437500e-01
-7.323812842369079590e-01 1.035606265068054199e-01 -2.029452621936798096e-01
-7.228831052780151367e-01 9.403581917285919189e-02 1.516477391123771667e-02
9.299513697624206543e-02 -7.575649023056030273e-02 -9.585122764110565186e-02
2.383484691381454468e-01 -1.316246986389160156e-01 3.011223971843719482e-01
-2.371981143951416016e-01 1.120449081063270569e-01 -1.570413261651992798e-02
-6.604509800672531128e-02 -1.906123757362365723e-02 4.360437691211700439e-01
-8.610855787992477417e-02 5.577652156352996826e-02 1.036627516150474548e-01
-7.581275701522827148e-01 9.982541948556900024e-02 -2.287716120481491089e-01
2.053184807300567627e-01 -2.349013090133666992e-02 2.424794584512710571e-01
6.070678234100341797e-01 4.379714652895927429e-02 1.022753939032554626e-01
-6.194976568222045898e-01 6.372720003128051758e-02 6.663073599338531494e-02
-1.111878827214241028e-01 2.928315661847591400e-02 -7.838783264160156250e-01
-4.681946635246276855e-01 -8.229105733335018158e-03 9.387114644050598145e-02
-5.827857851982116699e-01 7.298520952463150024e-02 1.477869111113250256e-03
-5.563191175460815430e-01 1.507844626903533936e-01 -7.299893070012331009e-03
-6.968433260917663574e-01 1.782916635274887085e-01 2.204824611544609070e-02
4.286317154765129089e-02 -5.782745033502578735e-02 1.812218874692916870e-01
9.673562645912170410e-01 -1.882110908627510071e-02 -7.899415213614702225e-04
6.892965734004974365e-02 -5.756066367030143738e-02 -1.459831893444061279e-01
3.222307860851287842e-01 5.879137665033340454e-02 -8.531258255243301392e-02
1.476093530654907227e-01 -9.998204559087753296e-02 -8.867427706718444824e-02
-7.986541092395782471e-02 -5.011689662933349609e-02 2.809522151947021484e-01
-6.143217086791992188e-01 2.722057104110717773e-01 1.473789196461439133e-02
-6.345185637474060059e-01 1.734358817338943481e-01 -7.219851948320865631e-03
4.425848424434661865e-01 -9.771423786878585815e-02 -3.664803132414817810e-02
1.864556223154067993e-01 -5.046373233199119568e-02 -2.238357961177825928e-01
9.185582995414733887e-01 -5.830770730972290039e-02 2.938528172671794891e-02
-7.433201074600219727e-01 7.893487811088562012e-02 1.460841596126556396e-01
2.112681418657302856e-01 -1.209259629249572754e-01 -1.966754198074340820e-01
2.698576748371124268e-01 -1.040908023715019226e-01 3.141956329345703125e-01
3.206299841403961182e-01 -7.159440219402313232e-02 -2.089749574661254883e-01
-5.596808195114135742e-01 3.128417208790779114e-02 -6.695665419101715088e-02
3.150538504123687744e-01 -1.094534918665885925e-01 -4.105025157332420349e-02
2.754878066480159760e-02 4.497323185205459595e-03 -5.112608075141906738e-01
-3.643016144633293152e-02 -2.925303205847740173e-02 5.007964372634887695e-01
-1.778881996870040894e-01 7.253164798021316528e-02 -7.610794156789779663e-02
4.829518496990203857e-01 -9.870140999555587769e-02 5.152978375554084778e-02
-5.458071231842041016e-01 -4.550122842192649841e-02 -2.470789244398474693e-03
2.179114818572998047e-01 -4.560795426368713379e-02 2.651575803756713867e-01
4.585134983062744141e-02 -2.031519636511802673e-02 3.116076588630676270e-01
-6.206975877285003662e-02 -2.223617024719715118e-02 -3.802880644798278809e-01
-4.606168717145919800e-02 -1.714026369154453278e-02 -9.478402882814407349e-02
3.477909788489341736e-02 6.778258085250854492e-02 9.621899574995040894e-02
-5.374495405703783035e-03 6.978575605899095535e-03 5.995662808418273926e-01
1.056415140628814697e-01 5.326859280467033386e-02 -8.750034868717193604e-02
2.833845019340515137e-01 -9.475275874137878418e-02 -9.064860641956329346e-02
-7.273653745651245117e-01 8.421754091978073120e-02 -1.494516134262084961e-01
3.466964364051818848e-01 -1.009425446391105652e-01 2.315672785043716431e-01
1.178082637488842010e-02 -2.135572396218776703e-02 -4.525378346443176270e-01
3.591026961803436279e-01 -1.316246986389160156e-01 2.174001336097717285e-01
-1.747132539749145508e-01 -3.861777111887931824e-02 1.055837273597717285e-01
-4.360650666058063507e-03 -2.586466632783412933e-02 -3.398143053054809570e-01
-9.144458919763565063e-02 -4.387375712394714355e-02 3.450378775596618652e-01
2.917626872658729553e-02 -9.376558661460876465e-02 -1.749170199036598206e-02
-2.332960255444049835e-03 2.461413480341434479e-02 1.127073168754577637e-01
4.710591863840818405e-03 -2.154248021543025970e-02 -4.823128581047058105e-01
3.001930117607116699e-01 1.124184206128120422e-01 2.879831939935684204e-02
2.532092928886413574e-01 -2.199388574808835983e-03 -9.694512188434600830e-02
1.278126984834671021e-01 1.140992790460586548e-01 2.198232337832450867e-03
-1.040375977754592896e-01 -6.708330474793910980e-03 -5.263083577156066895e-01
2.869596481323242188e-01 -8.549474179744720459e-02 -6.658313423395156860e-02
7.261151820421218872e-02 -6.956670433282852173e-02 -3.389997780323028564e-02
-1.696173548698425293e-01 9.753299877047538757e-03 6.870504021644592285e-01
-4.248654842376708984e-02 5.991402082145214081e-03 -5.541624426841735840e-01
-7.509239315986633301e-01 4.448795020580291748e-01 4.332643002271652222e-03
-3.136093914508819580e-02 -4.494095966219902039e-02 -1.920597553253173828e-01
-5.857206583023071289e-01 6.151274591684341431e-02 7.428793609142303467e-02
3.616906702518463135e-01 -5.710710212588310242e-02 1.089454144239425659e-01
9.115421026945114136e-02 -4.734003450721502304e-03 4.387918412685394287e-01
5.537615343928337097e-02 -1.223111338913440704e-02 4.889238178730010986e-01
-4.213977158069610596e-01 7.592216599732637405e-03 -8.851420134305953979e-02
-7.868087291717529297e-01 7.888150960206985474e-02 -1.076171696186065674e-01
3.879172503948211670e-01 6.284884177148342133e-03 -9.729196876287460327e-02
2.399225831031799316e-01 -1.234072074294090271e-01 3.072321116924285889e-01
2.139895111322402954e-01 -1.142559200525283813e-01 4.968886077404022217e-02
3.326627314090728760e-01 -6.799259036779403687e-02 2.898633778095245361e-01
3.427211046218872070e-01 -5.526615679264068604e-02 -2.830923497676849365e-01
1.292000561952590942e-01 -8.021207898855209351e-02 -9.643819183111190796e-02
6.698200851678848267e-02 -6.052214279770851135e-02 1.077981740236282349e-01
2.860525250434875488e-01 -4.125909134745597839e-02 -2.613480389118194580e-01
-1.075593829154968262e-01 1.802413910627365112e-02 -6.874297261238098145e-01
3.440818190574645996e-01 -1.017429456114768982e-01 3.158231377601623535e-01
-1.277028918266296387e-01 1.009726524353027344e-01 6.030754745006561279e-02
-7.633034586906433105e-01 1.048145964741706848e-01 2.230830043554306030e-01
-9.509915485978126526e-03 -4.248637706041336060e-02 -2.620950937271118164e-01
6.272913217544555664e-01 9.347554296255111694e-02 6.284216046333312988e-02
3.572084009647369385e-01 -1.082262098789215088e-01 -2.758353650569915771e-01
-7.893165946006774902e-01 9.080753475427627563e-02 2.133981287479400635e-01
5.476251244544982910e-02 -7.829111069440841675e-02 1.257805824279785156e-01
2.872270718216896057e-02 -6.116248294711112976e-02 -2.591602802276611328e-01
2.292772233486175537e-01 -2.775896340608596802e-02 2.454676479101181030e-01
7.252607941627502441e-01 -5.225130543112754822e-02 1.505805365741252899e-02
-3.964251279830932617e-01 4.339694976806640625e-02 1.054236367344856262e-01
4.611815139651298523e-02 -6.519467569887638092e-04 -4.567266106605529785e-01
2.367209792137145996e-01 1.041475906968116760e-01 -3.624783083796501160e-02
4.874874949455261230e-01 -3.995177894830703735e-02 1.053969636559486389e-01
-7.552461028099060059e-01 9.574335068464279175e-02 -1.400335282087326050e-01
-7.870488166809082031e-01 3.019273877143859863e-01 1.657881960272789001e-02
-5.392171740531921387e-01 8.547149598598480225e-02 6.751117855310440063e-02
1.320014744997024536e-01 -3.133408352732658386e-02 2.740420699119567871e-01
-1.260753870010375977e-01 3.299169242382049561e-02 8.450233936309814453e-01
-1.340794265270233154e-01 1.831762306392192841e-02 8.092720508575439453e-01
-2.526459097862243652e-01 7.717398554086685181e-02 9.066953510046005249e-02
1.352831274271011353e-01 -2.954651415348052979e-02 -3.626258075237274170e-01
4.502426460385322571e-02 3.643552772700786591e-03 5.349203348159790039e-01
1.431543845683336258e-02 8.421418024227023125e-04 -9.739868342876434326e-02
-2.066220715641975403e-02 1.137791201472282410e-01 -3.096993023063987494e-04
5.819885134696960449e-01 -6.380380690097808838e-02 -7.354664802551269531e-02
4.413575232028961182e-01 1.124717965722084045e-01 -1.140863075852394104e-02
-7.495626807212829590e-02 -1.772513147443532944e-03 -6.083764433860778809e-01
-1.435775458812713623e-01 9.112982079386711121e-03 6.993499398231506348e-01
1.774644106626510620e-01 -4.611489176750183105e-02 -2.456334382295608521e-01
2.833845019340515137e-01 -1.441109925508499146e-01 2.731349468231201172e-01
2.256220430135726929e-01 -1.054248139262199402e-01 9.573876112699508667e-02
-7.408388257026672363e-01 9.987877309322357178e-02 1.859442740678787231e-01
1.256516128778457642e-01 9.806451946496963501e-02 6.548348814249038696e-02
8.749096393585205078e-01 -7.855573669075965881e-03 -4.363822564482688904e-02
6.364699453115463257e-02 -1.719361729919910431e-02 -4.649974703788757324e-01
-7.224295735359191895e-01 8.461774885654449463e-02 -6.471552699804306030e-02
2.393089383840560913e-01 -2.287648804485797882e-02 8.952228724956512451e-02
-7.162131071090698242e-01 3.576087951660156250e-01 1.871323212981224060e-02
-6.636525690555572510e-02 5.110964644700288773e-03 6.966285109519958496e-01
-5.111763477325439453e-01 -2.263638004660606384e-02 -5.788541585206985474e-02
-2.145199924707412720e-01 3.320513293147087097e-02 8.886454105377197266e-01
2.730866149067878723e-02 -1.450981497764587402e-01 -1.374188661575317383e-01
-4.712895750999450684e-01 -6.559137254953384399e-02 5.933450534939765930e-03
-7.509239315986633301e-01 4.448795020580291748e-01 4.332643002271652222e-03
-6.194976568222045898e-01 6.372720003128051758e-02 6.663073599338531494e-02
-2.982956171035766602e-01 5.246818438172340393e-02 -8.899443596601486206e-02
1.574276387691497803e-01 -3.578967228531837463e-02 -2.227952778339385986e-01
1.224500015377998352e-01 -6.986019015312194824e-02 2.542720735073089600e-01
7.396947145462036133e-01 -5.881246645003557205e-03 9.331086277961730957e-02
-5.422053337097167969e-01 3.718047589063644409e-02 -6.973138451576232910e-02
1.941134408116340637e-02 -2.354350313544273376e-02 4.540528655052185059e-01
