7.004420161247253418e-01 7.330142706632614136e-02 3.726045042276382446e-02
2.997034192085266113e-01 -1.236809324473142624e-02 -6.849074363708496094e-02
4.600672721862792969e-01 -1.407885085791349411e-02 8.503009378910064697e-02
3.881891071796417236e-01 -4.713596403598785400e-02 3.428636118769645691e-02
6.883000582456588745e-02 -4.867066163569688797e-03 -3.507132530212402344e-01
-5.596500039100646973e-01 -5.550551414489746094e-02 5.975802778266370296e-04
3.038092553615570068e-01 -9.569518268108367920e-02 2.630805671215057373e-01
3.166004717350006104e-01 -4.171416908502578735e-02 7.808177918195724487e-02
3.502365648746490479e-01 -1.197329629212617874e-02 -9.275718778371810913e-02
3.214169144630432129e-01 -1.276287995278835297e-02 -1.593097858130931854e-02
-6.369763016700744629e-01 1.773681789636611938e-01 4.492845851927995682e-03
3.215485215187072754e-01 -1.426308229565620422e-02 -6.304263323545455933e-02
1.560786813497543335e-01 -1.676342450082302094e-02 -3.281312286853790283e-01
-3.862580657005310059e-01 9.725204855203628540e-02 2.325855009257793427e-02
-1.736590452492237091e-02 -8.345668762922286987e-02 -1.727326586842536926e-02
3.337782248854637146e-02 -7.461337745189666748e-02 3.789211437106132507e-02
2.545920610427856445e-01 -8.477263897657394409e-02 5.449414602480828762e-04
8.013504743576049805e-01 4.271833226084709167e-02 -1.848395541310310364e-02
2.234825640916824341e-01 -4.261722322553396225e-03 2.856888771057128906e-01
-7.098808884620666504e-01 3.371711075305938721e-02 1.176660954952239990e-01
-6.329318881034851074e-02 1.605681702494621277e-02 3.867289423942565918e-01
-7.723104953765869141e-01 2.455797605216503143e-02 2.786443755030632019e-02
2.734893560409545898e-01 -7.300788909196853638e-02 4.094516113400459290e-02
-2.857181131839752197e-01 -3.213392943143844604e-02 -8.717748522758483887e-02
7.022843360900878906e-01 -7.463969290256500244e-02 2.217945456504821777e-02
-8.754296898841857910e-01 6.095765158534049988e-02 -3.081548213958740234e-01
8.770097792148590088e-02 -7.630606181919574738e-03 3.243257105350494385e-01
-1.458043903112411499e-01 -4.976790770888328552e-02 -8.507194370031356812e-02
-6.400293707847595215e-01 6.301055848598480225e-02 3.905016556382179260e-02
1.383920758962631226e-01 -2.155354246497154236e-02 -2.987588346004486084e-01
1.588948518037796021e-01 -4.666221886873245239e-02 2.783721089363098145e-01
-1.501997262239456177e-01 5.258809402585029602e-02 -6.660718321800231934e-01
2.730156183242797852e-01 -8.635181188583374023e-02 -2.917315661907196045e-01
2.282375656068325043e-02 -1.629790524020791054e-03 -9.302038699388504028e-02
3.587816283106803894e-02 -1.392918173223733902e-03 -9.265191853046417236e-02
-2.485814988613128662e-01 -3.371309116482734680e-02 -8.641422539949417114e-02
-4.436869025230407715e-01 7.214337587356567383e-02 5.697365477681159973e-02
2.802797555923461914e-01 -4.776762425899505615e-02 3.002961575984954834e-01
2.929130494594573975e-01 -1.037489026784896851e-01 2.894525825977325439e-01
4.511450231075286865e-01 -2.692269906401634216e-02 1.670503057539463043e-02
2.946764528751373291e-01 -1.033804416656494141e-01 -3.249992430210113525e-01
1.858458966016769409e-01 -1.174876168370246887e-01 -3.112342059612274170e-01
9.404394030570983887e-02 -4.717347910627722740e-04 1.641987264156341553e-01
-1.258279979228973389e-01 -8.332508802413940430e-02 -4.338206723332405090e-02
2.008654549717903137e-02 -2.348624111618846655e-04 2.084678858518600464e-01
-3.976368159055709839e-02 -3.331830352544784546e-02 -3.714438155293464661e-02
1.401028335094451904e-01 -4.766234010457992554e-02 -2.008943818509578705e-02
7.296828627586364746e-01 -3.918751701712608337e-02 -6.509554386138916016e-02
-7.098808884620666504e-01 3.371711075305938721e-02 1.176660954952239990e-01
1.816347837448120117e-01 -1.236809324473142624e-02 2.380771785974502563e-01
-6.939928233623504639e-02 -3.429211676120758057e-02 -7.612334936857223511e-02
-2.549858950078487396e-02 -1.218385249376296997e-02 1.715944707393646240e-01
1.895832419395446777e-01 -4.789922386407852173e-02 -2.755451500415802002e-01
1.145379524677991867e-02 -4.156448878347873688e-03 -1.964817792177200317e-01
1.588948518037796021e-01 -7.098131626844406128e-02 -3.342373371124267578e-01
5.935503169894218445e-02 -4.592527821660041809e-02 -1.193043496459722519e-02
5.814784765243530273e-01 9.906809031963348389e-02 1.030942425131797791e-02
7.613449692726135254e-01 6.911665201187133789e-02 -9.289426379837095737e-04
4.255889058113098145e-01 -2.221152745187282562e-02 -2.890642359852790833e-02
-7.802325487136840820e-01 3.832299634814262390e-02 -1.517388820648193359e-01
-6.618743538856506348e-01 -1.555272657424211502e-02 -4.253985360264778137e-02
-3.749144375324249268e-01 9.972606599330902100e-02 1.128324214369058609e-02
9.472825378179550171e-02 -3.789786249399185181e-02 -3.587197978049516678e-03
-2.307106405496597290e-01 6.224729865789413452e-02 7.548841238021850586e-01
-3.057997822761535645e-01 -8.429889380931854248e-02 -1.235154550522565842e-02
4.945895448327064514e-02 -8.393865078687667847e-03 -3.202880620956420898e-01
1.258552726358175278e-02 -1.542113814502954483e-02 -1.239193156361579895e-01
3.615539371967315674e-01 -5.774265900254249573e-02 3.347046300768852234e-02
2.598559260368347168e-01 -9.578236378729343414e-03 8.610918372869491577e-02
7.061533331871032715e-01 6.845042109489440918e-03 7.292318344116210938e-02
1.707122623920440674e-01 -4.816242307424545288e-02 1.867898181080818176e-02
1.795292347669601440e-01 -1.140661016106605530e-01 -3.277890980243682861e-01
2.823852896690368652e-01 -8.643078058958053589e-02 2.667652666568756104e-01
-1.251700073480606079e-01 -6.822912837378680706e-04 4.492637217044830322e-01
-6.553032994270324707e-02 2.103117667138576508e-02 -5.337117314338684082e-01
7.714692503213882446e-02 -4.418819397687911987e-02 6.068468466401100159e-02
3.020458519458770752e-01 -6.629645824432373047e-02 -2.582796514034271240e-01
-7.832154631614685059e-02 4.224458336830139160e-02 5.998893976211547852e-01
2.600138485431671143e-01 1.003314182162284851e-01 6.545755546540021896e-03
-3.018343448638916016e-02 -5.929551273584365845e-02 9.674221277236938477e-02
-5.821355059742927551e-02 7.143275439739227295e-02 -7.128059118986129761e-02
-1.163003817200660706e-01 -3.340548602864146233e-03 -1.856291480362415314e-02
-8.750700205564498901e-02 1.524091698229312897e-02 -4.611492753028869629e-01
-8.090522289276123047e-01 1.360911689698696136e-02 1.496795099228620529e-02
-6.139819324016571045e-02 -5.155762284994125366e-02 6.679077446460723877e-02
6.710169315338134766e-01 -7.558719813823699951e-02 2.523250132799148560e-02
-1.578060090541839600e-01 2.261034585535526276e-02 -9.478378295898437500e-02
1.248112767934799194e-01 -7.208671420812606812e-02 -9.317830204963684082e-02
-6.148417592048645020e-01 7.467003911733627319e-02 -3.848667070269584656e-02
-7.250935435295104980e-01 8.397884666919708252e-03 -4.175026714801788330e-02
4.606375470757484436e-02 -2.113243937492370605e-02 2.304182350635528564e-01
2.730156183242797852e-01 -7.695580273866653442e-02 -3.173929452896118164e-01
1.401028335094451904e-01 -4.766234010457992554e-02 -2.008943818509578705e-02
-5.789772048592567444e-02 2.990080602467060089e-02 -4.716770052909851074e-01
2.445117384195327759e-01 -7.303420454263687134e-02 3.670683503150939941e-01
-7.474913001060485840e-01 2.450533397495746613e-02 4.512994363903999329e-02
4.713845849037170410e-01 -8.287765830755233765e-02 -1.979992352426052094e-02
-5.169600248336791992e-01 7.201178371906280518e-02 4.986742511391639709e-02
-1.115365847945213318e-01 4.632408544421195984e-02 6.567655801773071289e-01
2.091911584138870239e-01 -1.744772493839263916e-02 1.984665393829345703e-01
-1.619644761085510254e-01 -7.556086778640747070e-02 -4.346103221178054810e-02
-7.943134903907775879e-01 3.879675269126892090e-02 -1.319467127323150635e-01
-3.749144375324249268e-01 9.972606599330902100e-02 1.128324214369058609e-02
-5.837146937847137451e-02 -4.867066163569688797e-03 -2.855991423130035400e-01
7.104083150625228882e-02 -4.105619341135025024e-02 -1.155760809779167175e-01
1.255745440721511841e-01 -1.823730953037738800e-02 2.558427453041076660e-01
1.472090631723403931e-01 -3.626606240868568420e-02 -1.556341350078582764e-01
-5.426564812660217285e-02 -4.367005545645952225e-03 -3.314474523067474365e-01
1.311805695295333862e-01 2.216291613876819611e-02 -9.412579983472824097e-02
1.124411746859550476e-01 -3.110747411847114563e-02 3.138506114482879639e-01
-9.733291342854499817e-03 -2.658054418861865997e-02 5.802642554044723511e-02
4.160876274108886719e-01 8.285535871982574463e-02 4.965687170624732971e-02
4.024541974067687988e-01 -6.484889239072799683e-02 5.170978233218193054e-02
-5.584393143653869629e-01 3.616480901837348938e-02 6.429043412208557129e-02
-6.569527387619018555e-01 1.896066963672637939e-01 -1.169356144964694977e-02
-4.775072932243347168e-01 -4.987316951155662537e-02 -5.325182899832725525e-02
4.701125249266624451e-02 -4.258270934224128723e-02 8.021365106105804443e-02
3.740468248724937439e-02 -8.682555705308914185e-02 5.387703422456979752e-03
-4.042868614196777344e-01 -4.763602465391159058e-02 6.442203372716903687e-02
-6.180790066719055176e-01 1.175705939531326294e-01 6.624714005738496780e-03
2.856752276420593262e-01 -8.071946352720260620e-02 3.181406557559967041e-01
1.494198739528656006e-01 -4.624110832810401917e-02 -6.709581613540649414e-02
-9.329726547002792358e-02 -6.735748611390590668e-03 -2.948635518550872803e-01
1.165996342897415161e-01 -7.545559853315353394e-02 3.560233116149902344e-02
2.010847926139831543e-01 -3.466058894991874695e-02 1.536709815263748169e-01
1.514991074800491333e-01 -9.522143751382827759e-02 3.087183535099029541e-01
4.356341809034347534e-02 -6.834936887025833130e-02 4.810402914881706238e-02
2.788585126399993896e-01 -4.403027892112731934e-02 -9.280982613563537598e-02
-6.892992258071899414e-01 2.489831745624542236e-01 -8.587876334786415100e-03
8.119834661483764648e-01 3.532259538769721985e-02 6.624714005738496780e-03
-7.028536796569824219e-01 -4.980604862794280052e-04 -4.275040328502655029e-02
-7.809169292449951172e-01 5.550954490900039673e-02 -2.439882308244705200e-01
-6.633483171463012695e-01 3.863883763551712036e-02 9.645269811153411865e-02
-1.248805001378059387e-01 3.005872108042240143e-02 5.879930853843688965e-01
-9.895592927932739258e-02 1.939937658607959747e-02 -4.380935132503509521e-01
-5.674668550491333008e-01 1.317040920257568359e-01 -9.851206094026565552e-03
8.709563314914703369e-02 -4.684644937515258789e-02 6.502190954051911831e-04
1.368918716907501221e-01 -5.208399891853332520e-02 -2.961532175540924072e-01
-6.307649016380310059e-01 -3.676613420248031616e-02 1.641551591455936432e-02
-9.413948655128479004e-02 1.316168718039989471e-02 -4.032467007637023926e-01
5.393148660659790039e-01 -2.102715708315372467e-02 -8.962518721818923950e-02
-7.205402851104736328e-01 2.495885193347930908e-01 -1.019335724413394928e-02
-1.213273853063583374e-01 8.187328465282917023e-03 4.008624255657196045e-01
-1.441813725978136063e-02 -7.841163314878940582e-03 3.108502030372619629e-01
-1.201166957616806030e-01 8.603999763727188110e-02 4.678805917501449585e-02
2.192188203334808350e-01 -9.578236378729343414e-03 9.682116657495498657e-02
5.650551915168762207e-01 -4.782027751207351685e-02 -7.499162107706069946e-02
-5.381734371185302734e-01 7.548593729734420776e-02 4.284015670418739319e-02
-7.370951175689697266e-01 1.231766119599342346e-01 -8.672310650581493974e-05
1.159942895174026489e-01 8.164466917514801025e-02 -5.917368829250335693e-02
3.138106167316436768e-01 -2.681741490960121155e-02 8.063476532697677612e-02
5.469650775194168091e-02 -4.205633327364921570e-02 9.832137078046798706e-02
9.538623690605163574e-02 -6.642805784940719604e-02 3.100079894065856934e-01
-6.162629723548889160e-01 3.140100836753845215e-02 5.665782094001770020e-02
1.328123658895492554e-01 8.661082945764064789e-03 3.141754865646362305e-02
-7.247864454984664917e-02 5.964168161153793335e-02 -8.033445477485656738e-02
3.771086633205413818e-01 -6.703340262174606323e-02 -5.619959905743598938e-02
-1.984430998563766479e-01 3.476988151669502258e-02 6.031793951988220215e-01
-6.628745198249816895e-01 8.203946053981781006e-02 -6.087537389248609543e-03
1.124411746859550476e-01 -3.110747411847114563e-02 3.138506114482879639e-01
4.143154621124267578e-02 8.661082945764064789e-03 1.759988814592361450e-02
-2.828756272792816162e-01 3.069039061665534973e-02 8.671452850103378296e-02
-6.180790066719055176e-01 1.175705939531326294e-01 6.624714005738496780e-03
4.847635049372911453e-03 8.555799722671508789e-03 -2.955741882324218750e-01
1.180735230445861816e-01 3.774397820234298706e-02 8.324037492275238037e-02
1.248112767934799194e-01 -7.208671420812606812e-02 -9.317830204963684082e-02
-6.569527387619018555e-01 1.896066963672637939e-01 -1.169356144964694977e-02
-1.742029786109924316e-01 1.742542907595634460e-02 8.832000941038131714e-02
2.818589210510253906e-01 -6.358557194471359253e-02 2.792406678199768066e-01
-6.939928233623504639e-02 -3.429211676120758057e-02 -7.612334936857223511e-02
5.935503169894218445e-02 -4.592527821660041809e-02 -1.193043496459722519e-02
1.485250145196914673e-01 -2.644894458353519440e-02 -2.111416757106781006e-01
3.241014778614044189e-01 6.148403882980346680e-02 -7.791307568550109863e-02
2.240264602005481720e-02 -2.105348184704780579e-02 2.251280546188354492e-01
3.253560140728950500e-02 -3.094955906271934509e-02 1.629354059696197510e-01
1.801345795392990112e-01 -2.708879066631197929e-03 2.203642427921295166e-01
1.785290986299514771e-01 7.359094172716140747e-02 6.189537048339843750e-02
-1.213273853063583374e-01 8.187328465282917023e-03 4.008624255657196045e-01
1.503322832286357880e-02 9.758251253515481949e-04 -2.290125191211700439e-01
-1.243541166186332703e-01 -4.445139318704605103e-02 7.242311537265777588e-02
-6.503026932477951050e-02 -3.592391684651374817e-02 -4.719837754964828491e-02
1.702911406755447388e-01 6.435284763574600220e-02 6.900160014629364014e-02
-2.307106405496597290e-01 6.224729865789413452e-02 7.548841238021850586e-01
-1.421459913253784180e-01 4.266569763422012329e-02 6.793739199638366699e-01
1.101499656215310097e-04 -2.731748670339584351e-02 1.777268797159194946e-01
-5.102836713194847107e-02 -4.577561747282743454e-03 3.236940503120422363e-01
2.901495099067687988e-01 -4.587262496352195740e-02 -7.738668471574783325e-02
-7.339105010032653809e-01 3.548051044344902039e-02 -1.362104564905166626e-01
3.178374767303466797e-01 -5.016268417239189148e-02 -3.587197978049516678e-03
2.801744639873504639e-01 -6.421723216772079468e-02 -3.166033327579498291e-01
-3.208017945289611816e-01 -5.329468473792076111e-02 -7.333350181579589844e-02
-2.378168702125549316e-01 -5.934814363718032837e-02 6.060572713613510132e-02
2.374493516981601715e-02 9.440956264734268188e-02 -3.706542402505874634e-02
-6.439772844314575195e-01 1.842556148767471313e-02 -2.106325328350067139e-02
-8.492419719696044922e-01 5.822043865919113159e-02 -2.916525900363922119e-01
5.448595061898231506e-02 8.582125417888164520e-03 -2.641225457191467285e-01
-5.729237571358680725e-02 -2.497505955398082733e-02 1.759371608495712280e-01
-2.426333129405975342e-01 9.914704412221908569e-02 1.596808619797229767e-02
-6.523994207382202148e-01 2.908490598201751709e-02 -8.991470187902450562e-02
-6.278961300849914551e-01 1.479168236255645752e-01 -1.287793274968862534e-02
-6.478198766708374023e-01 3.640168160200119019e-02 7.871344685554504395e-02
2.751737833023071289e-01 2.318111713975667953e-03 4.907784610986709595e-02
5.962436795234680176e-01 -4.313541948795318604e-02 -7.736036926507949829e-02
1.234426796436309814e-01 -3.445821814239025116e-03 -3.254729807376861572e-01
-1.001139804720878601e-01 -8.514112234115600586e-02 -5.771704949438571930e-03
1.323386132717132568e-01 6.213382352143526077e-03 2.359716296195983887e-01
1.517359912395477295e-01 -4.760970920324325562e-02 -2.835371904075145721e-02
2.008654549717903137e-02 -2.348624111618846655e-04 2.084678858518600464e-01
-7.059593200683593750e-01 1.270192414522171021e-01 -9.535373188555240631e-03
1.106777861714363098e-01 -4.455667361617088318e-02 -7.886056602001190186e-02
-8.024285733699798584e-02 4.871095530688762665e-03 3.425123989582061768e-01
2.535919249057769775e-01 -1.113107986748218536e-02 -2.776507139205932617e-01
-6.369763016700744629e-01 1.773681789636611938e-01 4.492845851927995682e-03
2.741210162639617920e-01 -5.776899307966232300e-02 2.597906589508056641e-01
-5.652911216020584106e-02 -3.429211676120758057e-02 4.707757383584976196e-02
7.837164402008056641e-01 -3.376572951674461365e-02 -5.493626743555068970e-02
8.849056065082550049e-02 7.285400480031967163e-02 -6.985934823751449585e-02
4.790611192584037781e-02 -1.292079500854015350e-02 -2.956531345844268799e-01
1.226794049143791199e-01 -4.555679485201835632e-02 6.113211438059806824e-02
-7.458331584930419922e-01 4.479756206274032593e-02 1.919919699430465698e-01
-6.830878257751464844e-01 3.145365044474601746e-02 1.016902476549148560e-01
4.533821642398834229e-01 5.098261311650276184e-02 7.713428139686584473e-02
-8.842818439006805420e-02 -8.282501250505447388e-02 1.523114461451768875e-02
7.456762343645095825e-02 8.661082945764064789e-03 2.515354380011558533e-02
2.730156183242797852e-01 -4.105619341135025024e-02 2.823989689350128174e-01
1.523413360118865967e-01 1.908354647457599640e-02 8.729355037212371826e-02
-2.633729577064514160e-01 -8.443049341440200806e-02 4.124374594539403915e-03
-6.329318881034851074e-02 1.605681702494621277e-02 3.867289423942565918e-01
-7.458331584930419922e-01 4.479756206274032593e-02 1.919919699430465698e-01
-6.891676187515258789e-01 3.921785578131675720e-02 8.716196566820144653e-02
-6.180790066719055176e-01 1.175705939531326294e-01 6.624714005738496780e-03
-9.600815922021865845e-02 3.042719140648841858e-02 -4.950222969055175781e-01
2.315362840890884399e-01 -7.924558222293853760e-02 -8.175569772720336914e-02
-7.607036828994750977e-01 2.476671934127807617e-01 1.545077073387801647e-03
1.106777861714363098e-01 -4.455667361617088318e-02 -7.886056602001190186e-02
7.764523029327392578e-01 6.687127053737640381e-03 -6.191089749336242676e-02
5.471580624580383301e-01 9.485698491334915161e-02 2.752228453755378723e-02
7.296828627586364746e-01 -3.918751701712608337e-02 -6.509554386138916016e-02
1.562102735042572021e-01 -1.492106728255748749e-02 2.912776730954647064e-02
2.009005546569824219e-01 -3.789786249399185181e-02 1.372213810682296753e-01
-1.567795574665069580e-01 -1.415780838578939438e-02 8.655661344528198242e-02
-1.265649348497390747e-01 2.716359123587608337e-02 4.918747842311859131e-01
-1.712025552988052368e-01 2.990080602467060089e-02 -5.789021253585815430e-01
-6.993532180786132812e-01 1.030159890651702881e-01 2.203061245381832123e-03
5.813469290733337402e-01 -5.130263976752758026e-03 8.513537049293518066e-02
-3.285047598183155060e-03 9.985766559839248657e-02 1.059893798083066940e-02
1.811873614788055420e-01 -6.758611649274826050e-02 -5.596272274851799011e-02
3.152581751346588135e-01 -5.008373782038688660e-02 7.945039123296737671e-02
-6.325020194053649902e-01 3.382239118218421936e-02 -7.304398715496063232e-02
-5.779244378209114075e-02 -6.255911290645599365e-02 9.453137964010238647e-02
1.820907928049564362e-03 1.766230165958404541e-02 -3.636887073516845703e-01
3.915843069553375244e-01 2.082062885165214539e-02 -9.362573176622390747e-02
2.433273792266845703e-01 -1.594752445816993713e-02 -9.246767312288284302e-02
6.531461477279663086e-01 -1.099948119372129440e-02 7.918719202280044556e-02
-6.625060439109802246e-01 2.080565541982650757e-01 -1.074606459587812424e-02
6.311957836151123047e-01 6.298424303531646729e-02 6.355348974466323853e-02
1.005886867642402649e-02 -4.005606099963188171e-02 -3.587197978049516678e-03
1.305488944053649902e-01 -2.197465486824512482e-02 2.326553761959075928e-01
-9.458691626787185669e-02 -1.657918281853199005e-02 8.592495322227478027e-02
9.380707144737243652e-02 -3.473954647779464722e-02 7.797650247812271118e-02
-2.474497556686401367e-01 -4.624110832810401917e-02 -7.854473590850830078e-02
-9.470097720623016357e-03 9.841009974479675293e-02 1.994230970740318298e-02
-7.059593200683593750e-01 1.270192414522171021e-01 -9.535373188555240631e-03
4.479163326323032379e-03 -2.489610202610492706e-02 5.565768480300903320e-02
-7.445172071456909180e-01 3.992848098278045654e-02 3.244400769472122192e-02
-7.668359875679016113e-01 3.234850615262985229e-02 1.011901870369911194e-01
1.853721290826797485e-01 -8.829943835735321045e-02 4.668278247117996216e-02
2.332382462918758392e-02 -8.258815109729766846e-02 1.631023734807968140e-02
-2.934296727180480957e-01 3.734918311238288879e-02 -9.175705909729003906e-02
-2.057686634361743927e-02 -6.288319826126098633e-03 2.030987441539764404e-01
8.199056386947631836e-01 -6.532263010740280151e-02 -6.087537389248609543e-03
-2.864550352096557617e-01 9.317254275083541870e-02 3.341782093048095703e-02
2.178765386343002319e-01 -4.684644937515258789e-02 -7.930799573659896851e-02
1.452877372503280640e-01 4.231229540891945362e-04 1.644882410764694214e-01
5.793378874659538269e-02 -2.289582975208759308e-02 -2.274596840143203735e-01
1.843456774950027466e-01 -1.715821214020252228e-02 2.317868322134017944e-01
-8.030251860618591309e-01 1.976784691214561462e-02 2.002126723527908325e-02
3.680547773838043213e-01 -5.105753988027572632e-02 -8.930028416216373444e-03
-1.547529697418212891e-01 4.914025589823722839e-02 7.177475094795227051e-01
-4.181659221649169922e-02 -1.307871006429195404e-02 1.822538077831268311e-01
-9.311302751302719116e-02 9.450657293200492859e-03 -4.313820898532867432e-01
3.074413537979125977e-01 -1.017749607563018799e-01 -2.770980000495910645e-01
8.133170008659362793e-02 -6.183036603033542633e-03 -3.410540521144866943e-01
-4.768580943346023560e-02 -2.005334198474884033e-02 -1.007845923304557800e-01
-8.134827017784118652e-02 -9.604552760720252991e-03 -2.825197875499725342e-01
8.194054961204528809e-01 -4.892567917704582214e-02 2.862769924104213715e-02
-2.236307412385940552e-01 -8.350931853055953979e-02 -1.790492981672286987e-02
1.925310045480728149e-01 -3.139698877930641174e-02 2.981905937194824219e-01
-7.477018833160400391e-01 -6.919979583472013474e-03 -2.322144247591495514e-02
-2.843231558799743652e-01 -1.473682653158903122e-02 8.681980520486831665e-02
2.144023925065994263e-01 -1.418412476778030396e-02 2.693972289562225342e-01
2.840434312820434570e-01 7.769676297903060913e-02 -6.370061635971069336e-02
1.259956508874893188e-01 -2.347485721111297607e-02 -2.306969612836837769e-01
6.688237190246582031e-02 3.903362527489662170e-02 8.300350606441497803e-02
1.101499656215310097e-04 -2.731748670339584351e-02 1.777268797159194946e-01
-5.391209125518798828e-01 -4.660956934094429016e-02 -4.188186675310134888e-02
3.711341619491577148e-01 -5.111019313335418701e-02 1.045009470544755459e-03
-1.668160222470760345e-02 -2.873872965574264526e-02 -5.554161593317985535e-02
-7.574136853218078613e-01 2.990080602467060089e-02 5.407852306962013245e-02
6.919145584106445312e-01 -5.787425860762596130e-02 4.928840324282646179e-02
-1.959690749645233154e-01 4.311312362551689148e-02 -6.838110685348510742e-01
-2.073653638362884521e-01 -1.850049756467342377e-02 -9.259927272796630859e-02
2.796217501163482666e-01 -7.766643166542053223e-02 3.365642428398132324e-01
-9.529753029346466064e-02 3.976237960159778595e-03 -2.890642359852790833e-02
-7.290151119232177734e-01 1.128594353795051575e-01 -7.403505500406026840e-03
-6.514256596565246582e-01 4.161291942000389099e-02 -5.604168027639389038e-02
2.743052542209625244e-01 9.801531583070755005e-02 -2.793260850012302399e-02
-4.821395277976989746e-01 8.614528179168701172e-02 3.678670153021812439e-02
-3.057997822761535645e-01 -8.429889380931854248e-02 -1.235154550522565842e-02
-7.493599653244018555e-01 2.855851873755455017e-02 7.539720833301544189e-02
4.453723132610321045e-02 -2.644894458353519440e-02 -1.493084244430065155e-02
1.227320507168769836e-01 -7.835072278976440430e-02 -3.047069907188415527e-01
1.735547482967376709e-01 -3.393190214410424232e-03 -1.388687044382095337e-01
-6.235008239746093750e-01 3.303280845284461975e-02 -5.385717377066612244e-02
2.788585126399993896e-01 -4.403027892112731934e-02 -9.280982613563537598e-02
-7.468947023153305054e-02 3.765681525692343712e-03 3.305107653141021729e-01
1.801345795392990112e-01 -2.708879066631197929e-03 2.203642427921295166e-01
-6.691912412643432617e-01 5.243017897009849548e-02 -4.851434379816055298e-02
5.289450287818908691e-01 9.885752946138381958e-02 1.499427203088998795e-02
3.244172930717468262e-01 -5.074171349406242371e-02 6.887907627969980240e-03
-2.004697024822235107e-01 -8.124586194753646851e-02 -3.138044476509094238e-02
-1.897840350866317749e-01 -3.766098991036415100e-02 2.212681807577610016e-02
1.774763315916061401e-01 -4.468825459480285645e-02 -1.079697757959365845e-01
1.797924339771270752e-01 -4.768867790699005127e-02 2.537108659744262695e-01
-6.800435483455657959e-02 -5.705836787819862366e-02 -1.039166003465652466e-01
2.333523333072662354e-01 -1.075125858187675476e-01 2.629752755165100098e-01
-5.595008656382560730e-02 1.716223172843456268e-02 8.805682510137557983e-02
1.951103061437606812e-01 -3.663453459739685059e-02 -3.033384084701538086e-01
1.106777861714363098e-01 -4.455667361617088318e-02 -7.886056602001190186e-02
2.876228392124176025e-01 -1.384196896106004715e-02 -3.639836795628070831e-03
2.849119603633880615e-01 -7.727163285017013550e-02 -3.225778639316558838e-01
-7.998405098915100098e-01 5.400933697819709778e-02 -2.630434632301330566e-01
1.205475479364395142e-01 -1.419234089553356171e-03 1.482228785753250122e-01
-1.547091174870729446e-02 1.716223172843456268e-02 3.618571460247039795e-01
1.805820167064666748e-01 -7.706108689308166504e-02 3.398541510105133057e-01
6.252475976943969727e-01 -5.551376845687627792e-03 -8.965150266885757446e-02
1.649219989776611328e-01 -6.814706139266490936e-03 2.934531271457672119e-01
-4.260617122054100037e-02 -3.421315923333168030e-02 -1.284988820552825928e-01
2.091911584138870239e-01 -1.744772493839263916e-02 1.984665393829345703e-01
6.970204710960388184e-01 -3.342357650399208069e-02 -7.346510142087936401e-02
-4.673480391502380371e-01 -6.924422830343246460e-02 1.038838177919387817e-02
2.913865149021148682e-01 -2.550144493579864502e-02 -2.689653337001800537e-01
9.538623690605163574e-02 -6.642805784940719604e-02 3.100079894065856934e-01
-7.640198469161987305e-01 2.981214225292205811e-01 1.702993293292820454e-03
1.448403149843215942e-01 -8.600966632366180420e-02 -3.003116846084594727e-01
2.806482315063476562e-01 -4.366181790828704834e-02 3.185091614723205566e-01
-5.759943723678588867e-01 5.745717510581016541e-02 5.297311022877693176e-02
-6.945893764495849609e-01 3.161156550049781799e-02 -1.104174777865409851e-01
-8.612172603607177734e-01 1.963625848293304443e-02 -1.823800965212285519e-03
-6.514256596565246582e-01 4.161291942000389099e-02 -5.604168027639389038e-02
-7.686783671379089355e-01 2.626873366534709930e-02 3.720780834555625916e-02
1.586842983961105347e-01 -2.579095959663391113e-02 -2.134841084480285645e-01
1.347599923610687256e-01 -1.223649363964796066e-02 2.950322628021240234e-01
6.832993775606155396e-02 -2.576464228332042694e-02 -2.099836170673370361e-01
4.930103570222854614e-02 1.729383133351802826e-02 3.432756662368774414e-01
-2.335268110036849976e-01 5.750981718301773071e-02 -7.922205328941345215e-01
-6.977477669715881348e-01 1.445479393005371094e-01 3.308474319055676460e-03
2.878597378730773926e-01 -1.947431266307830811e-02 -3.011275529861450195e-01
8.054036498069763184e-01 -7.420049980282783508e-03 4.544577375054359436e-02
6.403022408485412598e-01 1.539884135127067566e-02 8.158224821090698242e-02
1.621584445238113403e-01 -8.579909801483154297e-02 3.239835500717163086e-01
-7.131181955337524414e-01 4.569242149591445923e-02 -1.551867127418518066e-01
-4.437395930290222168e-01 -5.784794315695762634e-02 4.402452707290649414e-02
6.919145584106445312e-01 -5.787425860762596130e-02 4.928840324282646179e-02
-3.281975388526916504e-01 1.158252824097871780e-02 -9.665245562791824341e-02
-2.680051624774932861e-01 1.016210615634918213e-01 -4.324140492826700211e-03
1.073089018464088440e-01 -8.832575380802154541e-02 -3.819715976715087891e-02
-8.123158812522888184e-01 4.350791126489639282e-02 1.611720025539398193e-01
-1.210203487426042557e-02 2.652080438565462828e-04 -3.800856471061706543e-01
4.736480712890625000e-01 -4.447770863771438599e-02 -7.796570658683776855e-02
-3.984176218509674072e-01 1.006998866796493530e-01 1.624035183340311050e-03
2.259039431810379028e-01 1.239023171365261078e-03 -8.386125415563583374e-02
-3.665185272693634033e-01 -2.971254475414752960e-02 -8.825658261775970459e-02
-6.711125373840332031e-01 2.151364684104919434e-01 3.519029589369893074e-03
6.100612878799438477e-01 2.255770377814769745e-02 -9.052004665136337280e-02
-1.441462635993957520e-01 4.458700492978096008e-02 5.999157428741455078e-01
-2.523539401590824127e-02 -3.431843221187591553e-02 -1.331574022769927979e-01
2.367738634347915649e-01 -6.598062813282012939e-02 -3.750849664211273193e-01
-2.914820611476898193e-01 6.677422672510147095e-02 -8.530445694923400879e-01
-3.607897087931632996e-02 -1.607912220060825348e-02 2.437621504068374634e-01
2.730156183242797852e-01 -2.729116939008235931e-02 3.108238875865936279e-01
-2.187090069055557251e-01 5.603593215346336365e-02 -8.344013988971710205e-02
-6.618743538856506348e-01 -1.555272657424211502e-02 -4.253985360264778137e-02
-1.696234047412872314e-01 1.012525931000709534e-01 -7.765036571072414517e-06
2.569256909191608429e-02 -6.630465388298034668e-03 1.622510999441146851e-01
-2.089270018041133881e-02 1.876771636307239532e-02 -5.134458541870117188e-01
-4.736383557319641113e-01 -7.393734063953161240e-03 7.429178804159164429e-02
-9.311302751302719116e-02 9.450657293200492859e-03 -4.313820898532867432e-01
2.052695602178573608e-01 -5.624245852231979370e-02 2.471836656332015991e-01
6.385564804077148438e-02 -1.465786900371313095e-02 -8.923039585351943970e-02
3.470519483089447021e-01 -5.108387768268585205e-02 -9.035306051373481750e-03
-1.161687821149826050e-01 3.129573538899421692e-02 5.990998744964599609e-01
-1.268807649612426758e-01 2.195235900580883026e-02 5.197996497154235840e-01
-6.704019308090209961e-01 -1.252600830048322678e-02 3.539177402853965759e-02
1.472090631723403931e-01 -3.626606240868568420e-02 -1.556341350078582764e-01
4.511450231075286865e-01 -6.484889239072799683e-02 -5.877889692783355713e-02
-4.250001609325408936e-01 6.606360524892807007e-02 6.292182952165603638e-02
-7.341737151145935059e-01 1.466534882783889771e-01 8.344544912688434124e-04
-7.712576985359191895e-01 4.687679186463356018e-02 -2.150106132030487061e-01
1.263904422521591187e-01 -7.203408330678939819e-02 2.905053496360778809e-01
-3.285047598183155060e-03 9.985766559839248657e-02 1.059893798083066940e-02
3.166004717350006104e-01 -4.171416908502578735e-02 7.808177918195724487e-02
9.538623690605163574e-02 -6.642805784940719604e-02 3.100079894065856934e-01
-7.608439773321151733e-02 9.898086078464984894e-03 -3.717687427997589111e-01
-7.920236587524414062e-01 2.555893361568450928e-01 -3.499165759421885014e-04
3.272861242294311523e-01 -8.042994886636734009e-02 -3.467036411166191101e-02
1.621584445238113403e-01 -5.382108315825462341e-02 3.276945948600769043e-01
-6.993532180786132812e-01 1.030159890651702881e-01 2.203061245381832123e-03
5.306470766663551331e-02 -2.413284219801425934e-02 -2.176951915025711060e-01
2.864647805690765381e-01 -8.293029665946960449e-02 2.775298953056335449e-01
-7.709155678749084473e-01 5.171955749392509460e-02 -2.027984410524368286e-01
-5.474904775619506836e-01 1.233082115650177002e-01 -3.245046129450201988e-03
7.655034065246582031e-01 4.006008058786392212e-02 4.420876502990722656e-02
-9.127067774534225464e-02 2.384734898805618286e-02 4.481582939624786377e-01
-4.533724486827850342e-01 6.956408172845840454e-02 -6.525345891714096069e-02
-1.281265635043382645e-02 -7.361323386430740356e-02 8.029260486364364624e-02
3.089941740036010742e-01 -3.629238903522491455e-02 -8.399283885955810547e-02
2.662778496742248535e-01 -5.313676968216896057e-02 -7.199121266603469849e-02
7.490977644920349121e-02 -4.729387909173965454e-02 -1.039166003465652466e-01
-9.971918910741806030e-02 2.261034585535526276e-02 -5.407916307449340820e-01
-5.829250812530517578e-02 -3.118643164634704590e-02 -1.430008560419082642e-01
3.051778674125671387e-01 -1.149955112487077713e-02 4.033981636166572571e-02
1.334440261125564575e-01 -2.868608944118022919e-02 2.812409400939941406e-01
1.879777610301971436e-01 -1.099948119372129440e-02 3.269050121307373047e-01
1.933205872774124146e-01 -8.737826347351074219e-02 5.339421704411506653e-02
-1.251173764467239380e-01 7.606496661901473999e-02 5.971086397767066956e-02
-6.955719739198684692e-02 1.008051633834838867e-01 3.387432312592864037e-03
-2.257713861763477325e-02 8.661082945764064789e-03 -9.509054012596607208e-03
-6.097621321678161621e-01 1.174916401505470276e-01 6.729991640895605087e-03
5.109075456857681274e-02 -1.700029708445072174e-02 -8.180833607912063599e-02
-8.000598102807998657e-02 7.635447382926940918e-02 5.923711881041526794e-02
3.838464319705963135e-01 -6.782297790050506592e-02 4.799875244498252869e-02
2.240264602005481720e-02 -2.105348184704780579e-02 2.251280546188354492e-01
-6.734637171030044556e-02 2.018895931541919708e-02 5.200364589691162109e-01
6.710169315338134766e-01 -7.558719813823699951e-02 2.523250132799148560e-02
3.771086633205413818e-01 -6.703340262174606323e-02 -5.619959905743598938e-02
2.299044877290725708e-01 -1.049941033124923706e-02 1.327207684516906738e-01
1.607898473739624023e-01 2.054923446848988533e-03 -2.056146115064620972e-01
-1.291179209947586060e-01 -8.440417796373367310e-02 -1.071974448859691620e-02
6.532073486596345901e-03 -1.436835527420043945e-02 -2.764137089252471924e-01
2.976505458354949951e-01 -5.532128363847732544e-02 3.610938489437103271e-01
2.397479414939880371e-01 -2.113243937492370605e-02 -3.597144484519958496e-01
1.444718390703201294e-01 -5.130263976752758026e-03 -1.194186955690383911e-01
1.568945795297622681e-01 -4.013501852750778198e-02 3.311161100864410400e-01
-6.273434162139892578e-01 7.785467803478240967e-02 -3.124884702265262604e-02
2.356421202421188354e-01 -8.653604239225387573e-02 -1.337799988687038422e-02
6.998893618583679199e-01 6.314215809106826782e-02 -5.662070959806442261e-02
-9.733291342854499817e-03 -2.658054418861865997e-02 5.802642554044723511e-02
2.192188203334808350e-01 -9.578236378729343414e-03 9.682116657495498657e-02
2.174554318189620972e-01 -3.426580131053924561e-02 -1.039955615997314453e-01
-7.629144191741943359e-01 2.176631093025207520e-01 -7.903574034571647644e-03
-1.161687821149826050e-01 3.129573538899421692e-02 5.990998744964599609e-01
4.701125249266624451e-02 -4.258270934224128723e-02 8.021365106105804443e-02
1.403133869171142578e-01 8.661082945764064789e-03 -1.264105830341577530e-02
1.560786813497543335e-01 -1.676342450082302094e-02 -3.281312286853790283e-01
2.887282669544219971e-01 -3.942438960075378418e-02 3.150349855422973633e-01
3.133105337619781494e-01 -3.563440218567848206e-02 -3.562929630279541016e-01
-2.389310672879219055e-02 -4.156448878347873688e-03 3.355640769004821777e-01
-7.024149596691131592e-02 -2.652790211141109467e-02 -1.689517498016357422e-01
-7.998405098915100098e-01 5.400933697819709778e-02 -2.630434632301330566e-01
2.553465031087398529e-02 -1.032633736031129956e-04 -2.125892490148544312e-01
4.624097049236297607e-01 6.048390269279479980e-02 -7.828153669834136963e-02
-6.453020125627517700e-02 7.476711645722389221e-03 -4.247232675552368164e-01
-3.436733782291412354e-01 8.140779286623001099e-02 9.198275208473205566e-01
-2.207707054913043976e-02 -3.229184448719024658e-02 9.674221277236938477e-02
1.073089018464088440e-01 -8.832575380802154541e-02 -3.819715976715087891e-02
-1.401983648538589478e-01 3.198003396391868591e-02 5.870718955993652344e-01
-3.595702350139617920e-01 9.948918968439102173e-02 1.328351162374019623e-02
8.783257752656936646e-02 -6.034828349947929382e-02 -6.549033522605895996e-02
1.355495750904083252e-01 -2.010598219931125641e-02 -9.102011471986770630e-02
2.341419160366058350e-01 -8.393865078687667847e-03 -3.230516016483306885e-01
-1.368294954299926758e-01 2.484748885035514832e-02 -4.957592487335205078e-01
7.988764643669128418e-01 1.353015936911106110e-02 4.307702928781509399e-02
-2.947456538677215576e-01 7.156435400247573853e-02 8.842701315879821777e-01
-7.379636764526367188e-01 1.994238048791885376e-01 1.966187031939625740e-03
-5.821794271469116211e-01 -5.055747926235198975e-02 -1.114085502922534943e-02
2.831748723983764648e-01 -2.321166917681694031e-02 -3.106025457382202148e-01
2.211664617061614990e-01 8.946151286363601685e-02 -4.804059863090515137e-02
-9.700829535722732544e-02 1.045079808682203293e-02 4.313928782939910889e-01
6.615682840347290039e-01 -6.024299934506416321e-02 -5.754188820719718933e-02
-7.716349512338638306e-02 -2.305374480783939362e-02 -1.889544576406478882e-01
1.648956686258316040e-01 -9.864295274019241333e-02 3.030860126018524170e-01
2.262197881937026978e-01 4.858754947781562805e-02 7.868712395429611206e-02
-6.436877250671386719e-01 3.137469291687011719e-02 -9.359941631555557251e-02
1.586842983961105347e-01 -2.579095959663391113e-02 -2.134841084480285645e-01
3.998222649097442627e-01 1.155621279031038284e-02 -9.481009840965270996e-02
4.143154621124267578e-02 8.661082945764064789e-03 1.759988814592361450e-02
1.543679237365722656e-01 -4.066140577197074890e-02 -1.303412467241287231e-01
-6.345549225807189941e-01 8.030238002538681030e-02 -2.430053614079952240e-02
3.080730140209197998e-01 6.243153288960456848e-02 -7.722876965999603271e-02
-8.047096133232116699e-01 5.545690283179283142e-02 2.304972112178802490e-01
4.198249876499176025e-01 -3.618710488080978394e-02 -3.587197978049516678e-03
-1.905736178159713745e-01 8.485563099384307861e-02 -5.564689263701438904e-02
7.307618856430053711e-01 -1.942168176174163818e-02 -7.307031005620956421e-02
1.740284860134124756e-01 5.535162985324859619e-02 7.573935389518737793e-02
1.559207588434219360e-01 6.603728234767913818e-02 6.773827224969863892e-02
6.528828740119934082e-01 9.472538530826568604e-02 3.308474319055676460e-03
2.790427207946777344e-01 -6.882311403751373291e-02 3.155876994132995605e-01
1.687382906675338745e-01 2.291795797646045685e-03 7.271263003349304199e-02
-7.146447300910949707e-01 1.604448258876800537e-01 -9.745928458869457245e-03
-7.348316311836242676e-01 -1.365773845463991165e-02 -1.748382113873958588e-02
2.211664617061614990e-01 8.946151286363601685e-02 -4.804059863090515137e-02
4.537506401538848877e-01 -8.177223801612854004e-02 2.010022476315498352e-02
-8.737540245056152344e-02 1.753070205450057983e-02 -5.021285414695739746e-01
-2.326144278049468994e-02 -2.621207199990749359e-02 1.781216710805892944e-01
-7.066261023283004761e-02 -3.924015909433364868e-02 5.478914827108383179e-02
1.263904422521591187e-01 -7.203408330678939819e-02 2.905053496360778809e-01
-7.274184376001358032e-02 -3.371309116482734680e-02 -9.575760364532470703e-02
1.348652690649032593e-01 -3.163386136293411255e-02 -3.222357034683227539e-01
8.050877451896667480e-01 4.369214922189712524e-02 -3.824072191491723061e-03
-7.947608828544616699e-01 3.405219018459320068e-01 5.975802778266370296e-04
2.463540881872177124e-01 -5.011005327105522156e-02 3.018961520865559578e-03
1.713702380657196045e-01 -1.070914715528488159e-01 -3.393695950508117676e-01
1.293645203113555908e-01 -1.763195544481277466e-02 2.188994362950325012e-02
2.663568258285522461e-01 -3.339726105332374573e-02 7.808177918195724487e-02
1.793450117111206055e-01 -8.138903067447245121e-04 -2.013508677482604980e-01
-8.134475946426391602e-01 2.947969362139701843e-02 -2.672191709280014038e-02
-7.497811317443847656e-01 4.303416609764099121e-02 1.814379096031188965e-01
2.211664617061614990e-01 8.946151286363601685e-02 -4.804059863090515137e-02
-1.411721855401992798e-01 2.129437401890754700e-02 -5.157619714736938477e-01
2.471700012683868408e-01 -2.611782983876764774e-04 -3.186299502849578857e-01
2.705152630805969238e-01 -1.138555333018302917e-01 -2.805458307266235352e-01
1.399712264537811279e-01 -2.139562740921974182e-02 -1.039166003465652466e-01
-5.054321289062500000e-01 -4.842561855912208557e-02 -4.827747121453285217e-02
1.247586384415626526e-01 8.661082945764064789e-03 -1.035127323120832443e-02
-5.623959749937057495e-02 -6.045356765389442444e-02 5.860545486211776733e-02
-7.812590599060058594e-01 3.832299634814262390e-02 1.152973622083663940e-01
-1.752820611000061035e-01 3.877042606472969055e-02 6.465799808502197266e-01
7.556336522102355957e-01 5.540426447987556458e-02 -4.143443703651428223e-02
-2.590565979480743408e-01 -5.829536914825439453e-02 -6.920136511325836182e-02
5.862423181533813477e-01 1.765409484505653381e-03 -9.299406409263610840e-02
-5.829250812530517578e-02 -3.118643164634704590e-02 -1.430008560419082642e-01
5.713455677032470703e-01 4.511339589953422546e-02 -8.594047278165817261e-02
1.538941711187362671e-01 -2.013229951262474060e-02 -2.910472452640533447e-01
2.878597378730773926e-01 -1.947431266307830811e-02 -3.011275529861450195e-01
-3.265745565295219421e-02 3.248010575771331787e-02 -4.870738387107849121e-01
2.270356863737106323e-01 -2.294847182929515839e-02 3.160088062286376953e-01
1.511306464672088623e-01 -3.537120670080184937e-02 9.682116657495498657e-02
3.593693971633911133e-01 -4.942573979496955872e-02 -1.940513402223587036e-02
-4.152707755565643311e-02 -1.210489496588706970e-02 -2.783086895942687988e-01
-1.015440095216035843e-02 -7.551649119704961777e-03 -1.931129246950149536e-01
6.068240404129028320e-01 5.885210260748863220e-02 -7.638654857873916626e-02
-1.351187378168106079e-01 -8.200912177562713623e-02 5.684205517172813416e-02
-2.175509631633758545e-01 6.690582633018493652e-02 -7.509689778089523315e-02
2.801218330860137939e-01 -6.550688296556472778e-02 -2.535158395767211914e-01
1.551311761140823364e-01 -7.577142864465713501e-02 -2.725447416305541992e-01
4.455126523971557617e-01 -8.369354903697967529e-02 -1.461501047015190125e-02
4.736480712890625000e-01 -4.447770863771438599e-02 -7.796570658683776855e-02
-7.085386514663696289e-01 3.498043864965438843e-02 1.263251602649688721e-01
-1.905736178159713745e-01 8.485563099384307861e-02 -5.564689263701438904e-02
-2.262626588344573975e-01 5.666759610176086426e-02 -7.867197394371032715e-01
-7.997878789901733398e-01 3.263802081346511841e-02 -9.975814819335937500e-02
7.022843360900878906e-01 -7.463969290256500244e-02 2.217945456504821777e-02
-7.668359875679016113e-01 3.234850615262985229e-02 1.011901870369911194e-01
4.802805483341217041e-01 6.853763014078140259e-02 6.502737849950790405e-02
-4.568553715944290161e-02 -1.600015535950660706e-02 -2.483835667371749878e-01
-2.292367517948150635e-01 5.032462999224662781e-02 -7.341073751449584961e-01
-4.092611968517303467e-01 -6.116417422890663147e-02 -5.591008812189102173e-02
-1.349871307611465454e-01 5.211434513330459595e-02 7.808177918195724487e-02
-3.320138752460479736e-01 8.619791269302368164e-02 -5.419933050870895386e-02
1.258552726358175278e-02 -1.542113814502954483e-02 -1.239193156361579895e-01
1.621584445238113403e-01 -4.124042391777038574e-02 -3.037595152854919434e-01
-3.555258736014366150e-02 1.686452073045074940e-03 7.431811094284057617e-02
4.066828638315200806e-02 7.187197450548410416e-03 -2.594377100467681885e-01
-7.190927267074584961e-01 4.487651959061622620e-02 1.359843760728836060e-01
-3.980491757392883301e-01 5.922057479619979858e-02 -7.965014874935150146e-02
-7.080911993980407715e-01 1.166757419705390930e-01 1.939867506735026836e-03
2.202189713716506958e-01 -6.745451688766479492e-02 4.884097352623939514e-02
-7.381742596626281738e-01 4.356055334210395813e-02 1.833592206239700317e-01
1.632638573646545410e-01 -4.171416908502578735e-02 1.174292191863059998e-01
5.448595061898231506e-02 8.582125417888164520e-03 -2.641225457191467285e-01
-1.427776664495468140e-01 -8.295661211013793945e-02 1.044102106243371964e-02
-3.627285957336425781e-01 6.114188954234123230e-02 7.271263003349304199e-02
1.951103061437606812e-01 -3.663453459739685059e-02 -3.033384084701538086e-01
-7.445260137319564819e-02 2.308408915996551514e-02 -5.483716726303100586e-01
1.444718390703201294e-01 -5.130263976752758026e-03 -1.194186955690383911e-01
9.491248428821563721e-02 2.832585414580535144e-05 -8.836185932159423828e-02
-7.942695915699005127e-02 -1.735063968226313591e-03 -3.422910571098327637e-01
1.234953105449676514e-01 -4.747810959815979004e-02 8.388111367821693420e-03
-6.705861687660217285e-01 2.321568876504898071e-02 4.544577375054359436e-02
-9.529753029346466064e-02 8.390814065933227539e-02 -5.669966712594032288e-02
-1.248805001378059387e-01 3.005872108042240143e-02 5.879930853843688965e-01
2.729629576206207275e-01 -8.203543722629547119e-02 -2.643240429461002350e-02
-3.121953904628753662e-01 8.603999763727188110e-02 -5.438356474041938782e-02
2.879386842250823975e-01 -1.092052366584539413e-02 -5.393613502383232117e-02
-2.173403948545455933e-01 -7.487657666206359863e-02 3.812898695468902588e-02
5.713455677032470703e-01 4.511339589953422546e-02 -8.594047278165817261e-02
-1.427776664495468140e-01 -8.295661211013793945e-02 1.044102106243371964e-02
2.333523333072662354e-01 -1.075125858187675476e-01 2.629752755165100098e-01
5.311734229326248169e-02 -1.384196896106004715e-02 -1.016531363129615784e-01
-3.216703534126281738e-01 5.619384720921516418e-02 -8.359805494546890259e-02
-3.285047598183155060e-03 9.985766559839248657e-02 1.059893798083066940e-02
2.730156183242797852e-01 -7.408697903156280518e-02 -3.445018827915191650e-01
-8.165270090103149414e-01 4.492916166782379150e-02 -1.960080415010452271e-01
-3.208017945289611816e-01 -5.329468473792076111e-02 -7.333350181579589844e-02
-2.173403948545455933e-01 -7.487657666206359863e-02 3.812898695468902588e-02
3.153634667396545410e-01 -1.384196896106004715e-02 -1.035127323120832443e-02
5.935503169894218445e-02 -4.592527821660041809e-02 -1.193043496459722519e-02
1.774236857891082764e-01 -4.882039874792098999e-02 -1.164092309772968292e-02
4.964318871498107910e-02 -7.856129109859466553e-02 2.839082479476928711e-02
-5.277773141860961914e-01 -5.424219369888305664e-02 2.439028210937976837e-02
1.577016897499561310e-02 2.626873366534709930e-02 4.522904455661773682e-01
5.862423181533813477e-01 1.765409484505653381e-03 -9.299406409263610840e-02
-5.140385627746582031e-01 -3.489746153354644775e-02 -6.051597371697425842e-02
1.547627002000808716e-01 -2.584359981119632721e-02 2.066518515348434448e-01
-7.797062397003173828e-01 1.962128430604934692e-01 -5.955941043794155121e-03
5.692663192749023438e-01 3.116413578391075134e-02 8.429314941167831421e-02
-2.236307412385940552e-01 6.530034542083740234e-02 7.729655504226684570e-01
-7.070384621620178223e-01 2.206108868122100830e-01 3.624306526035070419e-03
7.104083150625228882e-02 -4.105619341135025024e-02 -1.155760809779167175e-01
-7.919008284807205200e-02 8.968677138909697533e-04 -3.637413382530212402e-01
2.596190571784973145e-01 7.450385950505733490e-03 3.749732300639152527e-02
-3.121953904628753662e-01 8.603999763727188110e-02 -5.438356474041938782e-02
2.610139846801757812e-01 9.919968992471694946e-02 -2.098429575562477112e-02
2.129811346530914307e-01 6.134424824267625809e-03 5.828962102532386780e-02
3.750557601451873779e-01 -1.418412476778030396e-02 -1.269369665533304214e-02
-1.724922060966491699e-01 2.468957379460334778e-02 5.249055624008178711e-01
-1.236522756516933441e-02 3.476167563349008560e-03 -4.057733714580535889e-01
-5.286721587181091309e-01 -4.584630951285362244e-02 3.836585953831672668e-02
1.538941711187362671e-01 -2.013229951262474060e-02 -2.910472452640533447e-01
-6.996077485382556915e-03 2.403158880770206451e-02 -4.125900566577911377e-01
7.285510897636413574e-01 -5.147865414619445801e-02 -5.667334422469139099e-02
-4.479243457317352295e-01 9.888384491205215454e-02 5.098191089928150177e-03
7.884013056755065918e-01 8.108370937407016754e-03 5.034117400646209717e-02
-6.981951594352722168e-01 -1.844785735011100769e-02 -2.740622125566005707e-02
-1.405405253171920776e-01 4.427117481827735901e-02 -6.033264994621276855e-01
8.964861184358596802e-02 1.137197203934192657e-02 2.819515466690063477e-01
