-7.687641978263854980e-01 1.634466797113418579e-01 -3.262181300669908524e-03
4.753921627998352051e-01 -2.346894331276416779e-02 7.591570913791656494e-02
2.601272761821746826e-01 -2.686453983187675476e-02 -2.681448757648468018e-01
6.947384774684906006e-02 6.829106807708740234e-02 -5.843400955200195312e-02
-5.774248391389846802e-02 -1.859929785132408142e-02 3.143969774246215820e-01
3.776832818984985352e-01 -3.826215863227844238e-02 6.880865246057510376e-02
1.876089423894882202e-01 -1.075428128242492676e-01 2.452742606401443481e-01
-8.387292623519897461e-01 4.478513449430465698e-02 -2.212119549512863159e-01
-7.936125993728637695e-01 2.606988139450550079e-02 3.556341305375099182e-02
-7.921911478042602539e-01 2.328063100576400757e-01 -3.314826637506484985e-03
1.007712334394454956e-01 -4.839629307389259338e-02 -1.128424927592277527e-01
-5.545097868889570236e-03 -2.075773663818836212e-02 -3.210266530513763428e-01
2.306461334228515625e-01 -1.062793284654617310e-01 2.381408810615539551e-01
1.574975438416004181e-02 7.723143789917230606e-03 3.608824014663696289e-01
-6.909286975860595703e-01 3.954697027802467346e-02 -3.382253274321556091e-02
2.358842939138412476e-01 -5.355549603700637817e-02 -2.288981229066848755e-01
6.091905757784843445e-02 -4.378986731171607971e-02 -1.399282813072204590e-01
-1.709289848804473877e-01 1.922604441642761230e-02 6.256598234176635742e-01
1.682092994451522827e-01 -4.650108143687248230e-02 -1.524314433336257935e-01
3.043767437338829041e-02 -2.517990022897720337e-02 1.455648690462112427e-01
-8.026148676872253418e-01 2.901799231767654419e-02 -6.669925898313522339e-02
3.490444421768188477e-01 4.188966378569602966e-02 7.357300817966461182e-02
-1.670859009027481079e-01 -6.621659547090530396e-02 -5.796020478010177612e-02
-1.795890480279922485e-01 2.262164093554019928e-02 6.144727468490600586e-01
1.019571907818317413e-02 -2.433758601546287537e-02 2.911542654037475586e-01
-3.929046168923377991e-02 -3.174347104504704475e-03 -3.554300665855407715e-01
-4.737145081162452698e-02 -4.294755309820175171e-02 8.691848069429397583e-02
-6.949033737182617188e-01 2.933386340737342834e-02 -3.658638894557952881e-02
-7.421784996986389160e-01 1.159873232245445251e-01 3.439922875259071589e-04
-1.022010818123817444e-01 7.091400679200887680e-03 8.194354921579360962e-02
5.433844402432441711e-02 5.380442831665277481e-03 -3.316872417926788330e-01
5.079530477523803711e-01 5.699874460697174072e-02 -6.851550191640853882e-02
3.115613162517547607e-01 -4.992299899458885193e-02 2.790196239948272705e-01
4.525720700621604919e-02 -2.820698358118534088e-02 -2.729092240333557129e-01
-8.039309382438659668e-01 4.875982180237770081e-02 2.664901316165924072e-01
-1.223903894424438477e-01 -2.231076173484325409e-02 -8.386148512363433838e-02
1.988749504089355469e-01 8.911211788654327393e-02 -1.429128274321556091e-02
5.625998601317405701e-02 -6.948057562112808228e-02 -7.993943989276885986e-02
7.017124295234680176e-01 6.579043716192245483e-02 5.788484215736389160e-02
2.896361798048019409e-02 -2.860182709991931915e-02 -1.248455271124839783e-01
8.037280291318893433e-03 3.485232358798384666e-03 8.168032020330429077e-02
2.718144059181213379e-01 -5.379239469766616821e-02 -6.156637892127037048e-02
8.955245614051818848e-01 5.094458535313606262e-02 3.811668977141380310e-02
5.898420810699462891e-01 -8.570449426770210266e-03 8.046948909759521484e-02
2.093527652323246002e-02 -1.227308511734008789e-01 1.231907978653907776e-01
-8.249626159667968750e-01 3.108786642551422119e-01 -3.183213993906974792e-03
1.082745753228664398e-02 -7.701806258410215378e-03 2.827047705650329590e-01
9.827204979956150055e-03 -7.237603515386581421e-02 1.371680200099945068e-01
-5.924287065863609314e-02 -7.719305157661437988e-02 1.287347264587879181e-02
3.697075843811035156e-01 3.096585534512996674e-02 -8.130820840597152710e-02
-2.265482693910598755e-01 -7.711407542228698730e-02 -1.077419263310730457e-03
-6.421781331300735474e-02 -1.599337719380855560e-02 3.360339999198913574e-01
-6.395458430051803589e-02 -7.719305157661437988e-02 -6.299378001131117344e-04
1.043247506022453308e-01 -2.739098668098449707e-02 2.862846255302429199e-01
-4.613707363605499268e-01 6.713288277387619019e-02 5.383118242025375366e-02
2.157739549875259399e-01 -6.308421492576599121e-02 -2.233967334032058716e-01
3.105084002017974854e-01 -6.729580461978912354e-02 -4.003462567925453186e-02
2.561525702476501465e-01 -3.052335605025291443e-02 2.737288177013397217e-01
-7.035371661186218262e-01 6.726449728012084961e-02 -1.784481108188629150e-02
-5.982195585966110229e-02 1.277705095708370209e-02 5.679610371589660645e-01
-1.547143459320068359e-01 3.446673601865768433e-02 6.625375747680664062e-01
-1.086237505078315735e-01 1.616331283003091812e-03 4.392969310283660889e-01
6.995276808738708496e-01 8.532168716192245483e-02 -2.850539796054363251e-02
-3.899053037166595459e-01 -7.063874602317810059e-02 2.961454167962074280e-02
5.643619894981384277e-01 6.958086788654327393e-02 -5.680201947689056396e-02
1.424133330583572388e-01 -1.436138618737459183e-02 1.191634684801101685e-01
4.870544746518135071e-02 -1.410741358995437622e-03 -8.475645631551742554e-02
3.116665780544281006e-01 2.012101188302040100e-02 8.062742650508880615e-02
8.424058556556701660e-01 -6.366331130266189575e-02 3.035157173871994019e-02
2.348854951560497284e-02 -2.404803782701492310e-02 3.000775873661041260e-01
8.142935037612915039e-01 -3.605107218027114868e-02 6.514982879161834717e-02
8.039765805006027222e-02 2.169108018279075623e-03 -8.509863913059234619e-02
2.712104655802249908e-02 -1.054462697356939316e-02 -2.530094683170318604e-01
7.597534060478210449e-01 7.000203430652618408e-02 5.256770551204681396e-02
-3.202034831047058105e-01 4.033664241433143616e-02 7.433636486530303955e-02
-8.086690306663513184e-01 2.264889329671859741e-01 -1.419610925950109959e-03
2.535466551780700684e-01 -1.058055236935615540e-01 2.761768102645874023e-01
-3.202401567250490189e-03 -9.228511713445186615e-03 2.875480949878692627e-01
-4.688463211059570312e-01 7.076537609100341797e-02 -5.293262004852294922e-02
1.477831006050109863e-01 -1.717788726091384888e-02 -9.944436699151992798e-02
-7.599988579750061035e-01 1.214530784636735916e-02 1.805899292230606079e-02
5.255890488624572754e-01 5.494559556245803833e-02 -7.017381489276885986e-02
1.367540061473846436e-01 -6.596263032406568527e-03 2.403782755136489868e-01
-7.213047742843627930e-01 3.328222781419754028e-02 -1.424815505743026733e-01
1.189337149262428284e-01 -4.850158840417861938e-02 -1.170540899038314819e-01
-7.825834751129150391e-01 3.271195888519287109e-01 3.703147813212126493e-04
-7.048006653785705566e-01 -8.702054619789123535e-03 -1.958209276199340820e-02
-2.349451184272766113e-01 -1.673040539026260376e-02 -8.170304447412490845e-02
-5.774248391389846802e-02 -1.859929785132408142e-02 3.143969774246215820e-01
-1.649011075496673584e-01 8.903314918279647827e-02 -1.489669829607009888e-02
3.019536137580871582e-01 -1.045683771371841431e-01 -2.351891696453094482e-01
1.284361183643341064e-01 -4.099969565868377686e-02 -1.884142011404037476e-01
2.561525702476501465e-01 -3.052335605025291443e-02 2.737288177013397217e-01
1.148010864853858948e-01 -5.555600300431251526e-02 -8.386148512363433838e-02
-8.126436471939086914e-01 3.079305291175842285e-01 -2.946312073618173599e-03
-4.806650876998901367e-01 -3.042732598260045052e-03 7.209895551204681396e-02
-6.808721274137496948e-02 -2.884799381718039513e-03 3.793607354164123535e-01
-8.919779956340789795e-02 5.301475990563631058e-03 -5.345016121864318848e-01
1.114054918289184570e-01 -3.641958534717559814e-02 2.220315486192703247e-01
-8.237780332565307617e-01 4.428500309586524963e-02 -2.067083120346069336e-01
8.449065089225769043e-01 5.328727886080741882e-02 -5.603866651654243469e-02
1.316211223602294922e-01 -5.137072876095771790e-02 9.394657611846923828e-02
-1.441575959324836731e-02 7.900430262088775635e-02 3.930119797587394714e-02
-6.475756764411926270e-01 5.731461197137832642e-02 3.661631047725677490e-02
-4.917468428611755371e-01 -5.710902437567710876e-02 1.650596968829631805e-02
-7.256202399730682373e-02 2.142788842320442200e-03 -5.118380188941955566e-01
2.210384309291839600e-01 -1.103593111038208008e-01 -2.552995383739471436e-01
1.766061633825302124e-01 -1.254513207823038101e-02 -1.748844683170318604e-01
-1.030434072017669678e-01 2.709645405411720276e-02 7.904808223247528076e-02
-8.348583430051803589e-02 1.025009714066982269e-02 -4.668792486190795898e-01
-4.185704290866851807e-01 8.898050338029861450e-02 1.158367283642292023e-02
-6.492850929498672485e-02 -1.225558482110500336e-02 3.718062341213226318e-01
-4.409971535205841064e-01 -6.671670824289321899e-02 1.516352500766515732e-02
2.566790282726287842e-01 -4.536921158432960510e-02 -9.591716527938842773e-02
-3.029623031616210938e-01 6.923867017030715942e-02 5.367324873805046082e-02
-1.912747137248516083e-02 -5.347652733325958252e-02 -8.254536986351013184e-02
7.986098062247037888e-04 1.351408008486032486e-02 -4.460055828094482422e-01
-2.824571132659912109e-01 7.710908353328704834e-02 4.309162870049476624e-02
1.737633496522903442e-01 -9.593462198972702026e-02 2.664111852645874023e-01
-1.069128066301345825e-01 8.266311883926391602e-02 -3.550716862082481384e-02
-9.888299740850925446e-03 -7.780773099511861801e-03 -3.041276335716247559e-01
-6.163309216499328613e-01 -2.639073878526687622e-02 -2.874230034649372101e-02
-2.467902302742004395e-01 -9.912893176078796387e-03 8.033788204193115234e-02
7.011860013008117676e-01 2.488537132740020752e-02 -8.333503454923629761e-02
1.444928050041198730e-01 -7.780773099511861801e-03 2.225843369960784912e-01
2.601272761821746826e-01 -2.686453983187675476e-02 -2.681448757648468018e-01
7.986098062247037888e-04 1.351408008486032486e-02 -4.460055828094482422e-01
-5.945096015930175781e-01 1.248316615819931030e-01 1.739081693813204765e-03
4.146677628159523010e-02 -1.375240683555603027e-01 -1.575379967689514160e-01
-7.063800096511840820e-01 2.130118161439895630e-01 5.082031246274709702e-03
4.054548963904380798e-02 1.475122850388288498e-02 8.118019998073577881e-02
-5.945096015930175781e-01 1.248316615819931030e-01 1.739081693813204765e-03
-7.817674875259399414e-01 3.030779212713241577e-02 -7.006852328777313232e-02
-1.189947947859764099e-01 2.901799231767654419e-02 6.638274192810058594e-01
1.706572920083999634e-01 -1.207133196294307709e-02 -1.214762479066848755e-01
6.988433003425598145e-01 5.286612361669540405e-02 -7.164787501096725464e-02
5.620734021067619324e-02 -7.719305157661437988e-02 -5.759169161319732666e-02
4.159824252128601074e-01 -7.427125424146652222e-02 1.869073137640953064e-02
-2.995404005050659180e-01 -1.625659689307212830e-02 7.831104844808578491e-02
4.415166378021240234e-02 -5.658256635069847107e-02 8.031155914068222046e-02
1.954018510878086090e-02 -3.964023664593696594e-03 -2.976786494255065918e-01
-6.739245057106018066e-01 2.040885090827941895e-01 -5.683845374733209610e-03
8.250856995582580566e-01 -7.461343705654144287e-02 -3.295389190316200256e-02
-1.904850453138351440e-02 -7.780773099511861801e-03 4.380334913730621338e-01
-2.805882394313812256e-01 -7.708775252103805542e-02 -2.656765514984726906e-03
2.609447389841079712e-02 -7.201677653938531876e-03 4.277940392494201660e-01
1.766061633825302124e-01 -1.254513207823038101e-02 -1.748844683170318604e-01
-4.378911256790161133e-01 -5.800398811697959900e-02 3.766920790076255798e-02
4.015065357089042664e-02 -1.796755380928516388e-02 -3.706971108913421631e-01
2.170900851488113403e-01 -5.129176005721092224e-02 1.046334877610206604e-01
1.019571907818317413e-02 -2.433758601546287537e-02 2.911542654037475586e-01
5.085584521293640137e-01 8.355808258056640625e-02 -3.369091823697090149e-02
1.859506368637084961e-01 -7.719305157661437988e-02 7.003569044172763824e-03
-2.083842828869819641e-02 -1.594072952866554260e-02 2.643580436706542969e-01
2.098792046308517456e-02 -1.467725262045860291e-02 -2.294772118330001831e-01
-4.223857820034027100e-02 8.539139293134212494e-03 -4.203675389289855957e-01
3.125878572463989258e-01 -5.397664755582809448e-02 2.289016991853713989e-01
-2.011997848749160767e-01 -7.508724182844161987e-02 1.629539020359516144e-02
-7.762397527694702148e-01 4.404810443520545959e-02 -1.866242736577987671e-01
8.353251218795776367e-01 4.715415462851524353e-02 5.938521772623062134e-02
1.941895633935928345e-01 7.937281578779220581e-02 -4.211410135030746460e-02
-6.592877209186553955e-02 1.454065646976232529e-02 -4.745391011238098145e-01
-6.101188063621520996e-01 1.582611650228500366e-01 -2.340896287932991982e-03
2.972696907818317413e-02 -7.719305157661437988e-02 5.238344892859458923e-02
3.125878572463989258e-01 -5.397664755582809448e-02 2.289016991853713989e-01
3.746725618839263916e-03 5.090895108878612518e-03 -3.601417839527130127e-01
7.674395442008972168e-01 4.236346855759620667e-02 -7.588578760623931885e-02
-8.079320192337036133e-01 3.480893000960350037e-02 1.124249175190925598e-01
-2.393409758806228638e-01 -1.541428174823522568e-02 7.857427746057510376e-02
-4.275200963020324707e-01 7.621411979198455811e-02 4.380233585834503174e-02
5.312483906745910645e-01 5.813060700893402100e-02 6.404428929090499878e-02
6.595175862312316895e-01 6.591281387954950333e-03 8.199619501829147339e-02
-2.233881503343582153e-02 -1.036037411540746689e-02 8.031155914068222046e-02
5.855003744363784790e-02 -5.366078019142150879e-02 -8.254536986351013184e-02
-8.445727825164794922e-01 3.172920271754264832e-02 3.966372460126876831e-04
9.510121941566467285e-01 -3.970988839864730835e-02 2.308657765388488770e-02
1.341480761766433716e-01 -2.049450762569904327e-02 -8.931023627519607544e-02
-1.149674654006958008e-01 -1.254513207823038101e-02 -8.386148512363433838e-02
-8.394925594329833984e-01 3.256718814373016357e-01 -2.472508233040571213e-03
1.221187189221382141e-01 -1.665143854916095734e-02 -1.245033293962478638e-01
6.005041301250457764e-02 -3.210270777344703674e-02 -8.386148512363433838e-02
-4.613707363605499268e-01 6.713288277387619019e-02 5.383118242025375366e-02
1.043247506022453308e-01 -7.374479621648788452e-02 -7.393793016672134399e-02
-7.385986447334289551e-01 3.454570472240447998e-02 -9.452207386493682861e-02
2.009443705901503563e-03 -9.401308000087738037e-02 -1.339004486799240112e-01
-7.176986932754516602e-01 2.189343720674514771e-01 -7.921252399682998657e-03
-3.434184193611145020e-02 -6.766431033611297607e-02 7.799518108367919922e-02
-7.966761477291584015e-03 -2.481138519942760468e-02 2.782036364078521729e-01
-8.041942119598388672e-01 2.905577123165130615e-01 -4.209789447486400604e-03
2.272505313158035278e-01 -7.719305157661437988e-02 2.840371057391166687e-02
1.697096824645996094e-01 -9.298650175333023071e-02 2.418260276317596436e-01
-1.821159869432449341e-01 3.654621168971061707e-02 7.591570913791656494e-02
-3.084095753729343414e-02 -1.186075154691934586e-02 -3.941240310668945312e-01
-5.612906813621520996e-01 -2.539048157632350922e-02 4.590813070535659790e-02
2.474924772977828979e-01 -1.204671263694763184e-01 2.793881297111511230e-01
1.977708563208580017e-02 -1.361289620399475098e-01 -1.501413881778717041e-01
1.967691630125045776e-01 9.003339707851409912e-02 1.396889798343181610e-03
5.060066282749176025e-02 -9.544379077851772308e-03 -2.338993847370147705e-01
2.837384641170501709e-01 -6.655877828598022461e-02 -2.107882797718048096e-01
3.641286864876747131e-02 -3.149729594588279724e-02 2.373775243759155273e-01
-3.927744626998901367e-01 2.506962791085243225e-02 -8.328238874673843384e-02
-4.275200963020324707e-01 7.621411979198455811e-02 4.380233585834503174e-02
-1.897231936454772949e-01 3.765175491571426392e-02 -7.692450881004333496e-01
-2.134923487901687622e-01 -6.495310366153717041e-02 -4.469369724392890930e-02
-1.613739281892776489e-01 2.438524179160594940e-02 -6.885667443275451660e-01
1.310683488845825195e-01 -7.298144698143005371e-02 2.479854822158813477e-01
3.369361162185668945e-01 5.826222151517868042e-02 6.393900513648986816e-02
3.075076341629028320e-01 -1.237047910690307617e-01 -2.679342925548553467e-01
-1.220218911767005920e-01 1.409317553043365479e-02 -5.223406553268432617e-01
1.310683488845825195e-01 -7.298144698143005371e-02 2.479854822158813477e-01
-1.613739281892776489e-01 2.438524179160594940e-02 -6.885667443275451660e-01
2.117992639541625977e-01 -1.446667127311229706e-02 -8.386148512363433838e-02
1.736054122447967529e-01 -4.507966339588165283e-02 -2.566946148872375488e-01
2.148526608943939209e-01 -1.111226603388786316e-01 2.316129058599472046e-01
-3.732432126998901367e-01 5.707770958542823792e-02 6.491293013095855713e-02
1.623657196760177612e-01 -1.041302178055047989e-02 1.971568465232849121e-01
8.126088380813598633e-01 6.028905138373374939e-02 -5.885516852140426636e-02
7.860773056745529175e-02 -7.719305157661437988e-02 2.587675675749778748e-02
-7.250689268112182617e-01 2.670161984860897064e-02 6.988786906003952026e-02
2.513092458248138428e-01 -8.385261148214340210e-02 2.072909921407699585e-01
5.312483906745910645e-01 5.813060700893402100e-02 6.404428929090499878e-02
-3.707937523722648621e-02 -5.371342971920967102e-02 8.031155914068222046e-02
-8.387292623519897461e-01 4.478513449430465698e-02 -2.212119549512863159e-01
1.529949456453323364e-01 -4.410573467612266541e-02 2.632261514663696289e-01
6.010455079376697540e-03 -7.585058361291885376e-02 5.601594597101211548e-02
3.636533915996551514e-01 4.812808334827423096e-02 -7.401689141988754272e-02
-6.508644670248031616e-02 -1.359802857041358948e-02 -3.227376043796539307e-01
-1.686374656856060028e-02 5.407695099711418152e-02 -7.085820287466049194e-02
-7.211454212665557861e-02 -1.733582094311714172e-02 3.198194205760955811e-01
1.818443238735198975e-01 -4.594830423593521118e-02 -1.546688377857208252e-01
4.204587265849113464e-02 -4.513230919837951660e-02 1.205059066414833069e-01
-2.542858710512518883e-04 -2.288985624909400940e-02 1.913922429084777832e-01
-1.407897770404815674e-01 8.805922418832778931e-02 -2.037176489830017090e-02
8.053702116012573242e-01 -6.008346006274223328e-02 4.509213566780090332e-02
1.755795925855636597e-01 -7.692982256412506104e-02 -6.177695840597152710e-02
-6.618687510490417480e-01 2.575401030480861664e-02 6.636066734790802002e-02
8.045278787612915039e-01 6.834371387958526611e-02 -5.082682520151138306e-02
-1.778502762317657471e-02 -5.622333846986293793e-03 -4.642733633518218994e-01
1.178281605243682861e-01 -3.060232289135456085e-02 8.031155914068222046e-02
-7.660266160964965820e-01 1.401419937610626221e-02 -2.095086127519607544e-02
-7.253570109605789185e-02 1.488284301012754440e-02 5.863603949546813965e-01
8.297184705734252930e-01 3.707265853881835938e-02 6.549202650785446167e-02
-1.120193526148796082e-01 2.988663502037525177e-02 -6.438713073730468750e-01
2.098792046308517456e-02 -1.467725262045860291e-02 -2.294772118330001831e-01
3.209321200847625732e-01 7.297646254301071167e-02 4.901418089866638184e-02
1.789488643407821655e-01 -1.301894243806600571e-02 -1.518523395061492920e-01
2.307514250278472900e-01 -5.279213935136795044e-02 -9.183719009160995483e-02
5.793657898902893066e-01 2.691219560801982880e-02 -8.267697691917419434e-02
2.413593828678131104e-01 -2.207386121153831482e-02 -8.617786318063735962e-02
3.231168687343597412e-01 8.971752971410751343e-02 -8.079187013208866119e-03
1.088010519742965698e-02 1.214530784636735916e-02 -4.474270045757293701e-01
-1.223903894424438477e-01 9.802616201341152191e-03 4.955743253231048584e-01
6.254037022590637207e-01 -7.229707390069961548e-02 -2.821585163474082947e-02
3.937662839889526367e-01 -7.603485882282257080e-02 9.714780375361442566e-03
5.747226532548666000e-03 -3.365573287010192871e-02 -6.361953169107437134e-02
7.826698943972587585e-03 -5.095886066555976868e-03 -3.023113906383514404e-01
1.941895633935928345e-01 7.937281578779220581e-02 -4.211410135030746460e-02
-3.950645029544830322e-01 8.774335682392120361e-02 -2.126673050224781036e-02
-1.854326426982879639e-01 3.033411689102649689e-02 7.346610426902770996e-01
-5.815063118934631348e-01 1.304027065634727478e-02 5.867451429367065430e-02
5.399084687232971191e-01 -1.064992230385541916e-02 -8.370354771614074707e-02
-4.573946073651313782e-02 -3.681442141532897949e-02 -1.682248860597610474e-01
-5.997214317321777344e-01 -3.689338639378547668e-02 -4.657270852476358414e-03
-6.884017586708068848e-01 2.403081953525543213e-01 -1.498578232713043690e-03
2.367002964019775391e-01 -2.778583019971847534e-02 -2.482187896966934204e-01
2.387534528970718384e-01 -8.728383108973503113e-03 -8.401942998170852661e-02
2.057187855243682861e-01 -4.760662466287612915e-02 2.229265123605728149e-01
-6.318085193634033203e-01 -2.431126683950424194e-02 2.148091048002243042e-02
5.718126893043518066e-02 4.273198544979095459e-02 -7.670178264379501343e-02
-3.051207363605499268e-01 8.963856101036071777e-02 5.345255602151155472e-03
-6.909286975860595703e-01 3.954697027802467346e-02 -3.382253274321556091e-02
5.084531307220458984e-01 9.021765738725662231e-02 -3.209536662325263023e-03
-1.929082125425338745e-01 6.492179632186889648e-02 5.859554558992385864e-02
8.955245614051818848e-01 5.094458535313606262e-02 3.811668977141380310e-02
-1.193633228540420532e-01 -5.810927227139472961e-02 8.031155914068222046e-02
-2.909856140613555908e-01 6.884384155273437500e-02 5.417337641119956970e-02
9.987626969814300537e-02 -2.702247351408004761e-02 2.640158534049987793e-01
3.044805526733398438e-01 -7.669290900230407715e-02 3.160493215546011925e-03
-2.306808978319168091e-01 3.846774995326995850e-02 -7.482134699821472168e-01
-4.655545577406883240e-02 -3.378733620047569275e-02 1.897865682840347290e-01
3.546248078346252441e-01 -7.677188515663146973e-02 -5.920747295022010803e-03
-3.339964747428894043e-01 -7.635072618722915649e-02 6.503443233668804169e-03
3.391223400831222534e-02 2.221755683422088623e-03 3.147128522396087646e-01
4.159824252128601074e-01 -7.427125424146652222e-02 1.869073137640953064e-02
3.436483442783355713e-01 4.380194935947656631e-03 -8.533554524183273315e-02
3.112205862998962402e-02 -1.261527687311172485e-01 1.153467148542404175e-01
1.170648112893104553e-01 -4.221052303910255432e-02 1.695972681045532227e-01
8.424058556556701660e-01 -6.366331130266189575e-02 3.035157173871994019e-02
1.588121950626373291e-01 -1.022875960916280746e-02 -1.508257687091827393e-01
-1.233116760849952698e-01 1.941030099987983704e-02 -5.529799461364746094e-01
2.446248382329940796e-02 5.634356057271361351e-04 -3.172098994255065918e-01
-3.084095753729343414e-02 -1.186075154691934586e-02 -3.941240310668945312e-01
1.604178696870803833e-01 -5.192350596189498901e-02 -2.711982727050781250e-01
1.284361183643341064e-01 -4.099969565868377686e-02 -1.884142011404037476e-01
-4.245193004608154297e-01 7.755656540393829346e-02 -4.545704647898674011e-02
2.767367362976074219e-01 -7.145474851131439209e-02 3.048419356346130371e-01
-7.743445038795471191e-01 3.578285872936248779e-02 -1.527999490499496460e-01
7.995529174804687500e-01 7.445052266120910645e-02 -4.224571213126182556e-02
-1.990676671266555786e-01 3.288738802075386047e-02 -7.551888823509216309e-01
-6.895585358142852783e-02 -4.055221378803253174e-02 1.284289658069610596e-01
-6.951929330825805664e-01 1.858470886945724487e-01 -8.552990853786468506e-03
-4.203340411186218262e-01 4.654873535037040710e-02 -7.314825057983398438e-02
7.007926702499389648e-02 3.195684636011719704e-03 -3.324769139289855957e-01
-2.209679186344146729e-01 -8.465154096484184265e-03 -8.404574543237686157e-02
1.477831006050109863e-01 -1.717788726091384888e-02 -9.944436699151992798e-02
4.031370878219604492e-01 1.404052786529064178e-02 8.123283833265304565e-02
2.413593828678131104e-01 -2.207386121153831482e-02 -8.617786318063735962e-02
-7.818990349769592285e-01 3.907316550612449646e-02 -1.457718610763549805e-01
6.234046816825866699e-02 -2.739098668098449707e-02 2.513284087181091309e-01
-3.084110319614410400e-01 8.416349440813064575e-02 -3.197996318340301514e-02
3.033223748207092285e-01 -9.132819622755050659e-02 -2.257394343614578247e-01
-8.300428390502929688e-01 3.783601149916648865e-02 1.461176425218582153e-01
1.417040638625621796e-02 -5.771443992853164673e-02 7.899543642997741699e-02
-3.455242142081260681e-02 -4.139452800154685974e-02 1.297977268695831299e-01
-3.807714283466339111e-01 8.687470853328704834e-02 2.037536725401878357e-02
8.505672961473464966e-02 -4.521127790212631226e-02 1.321404278278350830e-01
4.006101191043853760e-01 5.634068325161933899e-02 6.549202650785446167e-02
4.121656715869903564e-01 -5.250259116291999817e-02 5.801645293831825256e-02
5.323290824890136719e-02 5.669990554451942444e-03 -3.545087873935699463e-01
6.006606221199035645e-01 7.273956388235092163e-02 4.930372163653373718e-02
-5.368883535265922546e-02 7.666160166263580322e-02 -4.753651842474937439e-02
-8.071686029434204102e-01 4.954949393868446350e-02 -1.121155731379985809e-02
-1.544086495414376259e-03 -1.215463429689407349e-01 -1.447716057300567627e-01
-6.949033737182617188e-01 2.933386340737342834e-02 -3.658638894557952881e-02
5.278264880180358887e-01 -6.979644298553466797e-02 3.143079206347465515e-02
3.536144504323601723e-03 -3.876227885484695435e-02 6.486029177904129028e-02
-6.663946807384490967e-02 2.362189441919326782e-02 -5.662201642990112305e-01
-7.017670432105660439e-04 -6.740110367536544800e-02 7.820576429367065430e-02
4.867371320724487305e-01 -7.669290900230407715e-02 3.186815883964300156e-03
-1.187315657734870911e-01 6.776461750268936157e-02 5.551582202315330505e-02
4.038755595684051514e-02 -1.396654266864061356e-02 2.137136608362197876e-01
1.022204291075468063e-02 -5.479264259338378906e-02 -8.728341013193130493e-02
-7.844787240028381348e-01 4.868085309863090515e-02 2.439054995775222778e-01
-3.029623031616210938e-01 6.923867017030715942e-02 5.367324873805046082e-02
-8.355178833007812500e-01 4.173173010349273682e-02 1.790733486413955688e-01
-4.353115260601043701e-01 8.908579498529434204e-02 -1.365954428911209106e-02
-4.806650876998901367e-01 -3.042732598260045052e-03 7.209895551204681396e-02
-2.703224718570709229e-01 6.884384155273437500e-02 -5.772330611944198608e-02
-4.153064489364624023e-01 -4.915964230895042419e-02 5.567375570535659790e-02
1.284361183643341064e-01 -4.099969565868377686e-02 -1.884142011404037476e-01
-3.850078582763671875e-02 -1.417093276977539062e-01 1.136357560753822327e-01
-2.984611690044403076e-01 4.820704832673072815e-02 8.436622619628906250e-01
-1.990676671266555786e-01 3.288738802075386047e-02 -7.551888823509216309e-01
-2.307335436344146729e-01 8.576916903257369995e-02 -2.716295421123504639e-02
-4.188863337039947510e-01 -7.092829048633575439e-02 -1.739733107388019562e-02
1.575750410556793213e-01 3.180817142128944397e-02 -8.104497939348220825e-02
-2.703224718570709229e-01 6.884384155273437500e-02 -5.772330611944198608e-02
-2.676098048686981201e-02 1.772566325962543488e-02 5.028129816055297852e-01
1.632606834173202515e-01 -9.145981073379516602e-02 -2.720932364463806152e-01
-6.764513850212097168e-01 -3.463894827291369438e-03 3.048318251967430115e-02
-7.644209861755371094e-01 4.557480663061141968e-02 -1.971269398927688599e-01
2.246343763545155525e-03 1.159254088997840881e-02 4.733844995498657227e-01
-1.447118073701858521e-01 1.772566325962543488e-02 -6.296308636665344238e-01
-5.192801356315612793e-01 9.592035785317420959e-03 -7.309560477733612061e-02
-1.194159612059593201e-01 2.827170072123408318e-03 -4.935702085494995117e-01
-6.708694994449615479e-02 -7.719305157661437988e-02 -5.622292309999465942e-02
8.575676083564758301e-01 -3.660383820533752441e-02 -6.051348149776458740e-02
4.499397799372673035e-02 -1.128862649202346802e-01 1.534616053104400635e-01
1.811877451837062836e-02 -1.306275874376296997e-01 1.548040509223937988e-01
1.608390361070632935e-01 -1.994174160063266754e-02 2.627260386943817139e-01
-6.757932901382446289e-01 3.667782619595527649e-02 1.022644713521003723e-01
-1.981200277805328369e-01 2.628045715391635895e-02 -6.830127835273742676e-01
-9.606795758008956909e-02 2.480640448629856110e-02 6.303715109825134277e-01
-5.764260888099670410e-01 7.866210490465164185e-02 -3.155880048871040344e-02
2.321201860904693604e-01 -4.926493763923645020e-02 1.040017455816268921e-01
-7.943496108055114746e-01 2.465992420911788940e-01 -3.499083453789353371e-03
9.474339336156845093e-02 -4.279890563338994980e-03 -3.452696204185485840e-01
8.143987655639648438e-01 -7.345524430274963379e-02 -1.400173641741275787e-02
-2.746656835079193115e-01 7.258162647485733032e-02 4.951430484652519226e-02
1.325057703070342541e-03 -1.027784496545791626e-01 1.326932013034820557e-01
-3.809556961059570312e-01 -3.939402103424072266e-02 -7.177948206663131714e-02
4.978466778993606567e-02 -1.195721626281738281e-01 1.221115812659263611e-01
2.781317830085754395e-01 6.384257972240447998e-02 -6.301411241292953491e-02
-8.318327665328979492e-01 3.316733837127685547e-01 -2.351012954022735357e-04
3.904659068211913109e-03 -2.818066440522670746e-02 5.996431410312652588e-02
-1.086237505078315735e-01 1.616331283003091812e-03 4.392969310283660889e-01
-7.253570109605789185e-02 1.488284301012754440e-02 5.863603949546813965e-01
1.470723897218704224e-01 -5.529277399182319641e-02 8.031155914068222046e-02
-1.104136779904365540e-01 8.913843333721160889e-02 1.045180764049291611e-02
4.387513399124145508e-01 -7.558737695217132568e-02 1.421591732650995255e-02
5.212458372116088867e-01 5.591023713350296021e-03 8.189090341329574585e-02
-1.069128066301345825e-01 8.266311883926391602e-02 -3.550716862082481384e-02
-4.715312123298645020e-01 -6.237350404262542725e-02 4.055456258356571198e-03
-1.013324409723281860e-01 8.486491627991199493e-03 -5.603502392768859863e-01
7.747586816549301147e-02 -2.836491726338863373e-02 2.595410346984863281e-01
7.785476446151733398e-01 6.121033057570457458e-02 -6.246133893728256226e-02
6.857610344886779785e-01 3.673046827316284180e-02 7.586306333541870117e-02
-6.782398372888565063e-02 -6.945423781871795654e-02 7.644215971231460571e-02
1.500731557607650757e-01 -1.994174160063266754e-02 -2.596164047718048096e-01
-8.039047122001647949e-01 5.168161168694496155e-02 -2.677763700485229492e-01
2.235668711364269257e-02 -7.254325319081544876e-03 -2.768575847148895264e-01
2.075613588094711304e-01 -7.627175003290176392e-02 -6.662028282880783081e-02
1.814231872558593750e-01 -9.880375862121582031e-02 2.635683715343475342e-01
1.806071847677230835e-01 -6.197867169976234436e-02 2.824152410030364990e-01
-7.939547896385192871e-01 4.499571397900581360e-02 2.383777797222137451e-01
-4.409971535205841064e-01 -6.671670824289321899e-02 1.516352500766515732e-02
-4.163067340850830078e-01 8.766438066959381104e-02 -2.105614915490150452e-02
1.883196532726287842e-01 -5.118647590279579163e-02 2.239530980587005615e-01
1.620761752128601074e-01 -7.719305157661437988e-02 4.066996648907661438e-02
5.726023763418197632e-02 -2.591693028807640076e-02 2.978928089141845703e-01
3.985832929611206055e-01 3.459835052490234375e-02 7.657376676797866821e-02
6.586767733097076416e-02 -1.846768334507942200e-02 -1.641186028718948364e-01
-1.586348935961723328e-02 -7.719305157661437988e-02 -4.066636413335800171e-02
1.596033573150634766e-02 -7.016494870185852051e-02 -7.938666641712188721e-02
2.299354225397109985e-01 -3.226064145565032959e-02 2.485909014940261841e-01
-6.805313825607299805e-01 -5.622333846986293793e-03 -3.126925230026245117e-02
4.318811595439910889e-01 4.670667275786399841e-02 7.117766886949539185e-02
3.075076341629028320e-01 -1.237047910690307617e-01 -2.679342925548553467e-01
-4.292295873165130615e-02 1.991043053567409515e-02 4.942581951618194580e-01
8.031868934631347656e-02 -5.118647590279579163e-02 8.031155914068222046e-02
5.859990119934082031e-01 5.457708239555358887e-02 6.691343337297439575e-02
3.391223400831222534e-02 2.221755683422088623e-03 3.147128522396087646e-01
2.035340070724487305e-01 -3.270812332630157471e-02 8.031155914068222046e-02
-7.001152634620666504e-01 3.475628420710563660e-02 1.293502449989318848e-01
7.577528953552246094e-01 7.038762792944908142e-03 -8.549347519874572754e-02
-4.806650876998901367e-01 -3.042732598260045052e-03 7.209895551204681396e-02
-6.762408614158630371e-01 1.578663140535354614e-01 5.529512651264667511e-03
-4.275200963020324707e-01 7.621411979198455811e-02 4.380233585834503174e-02
-4.409971535205841064e-01 -6.671670824289321899e-02 1.516352500766515732e-02
-2.265482693910598755e-01 -7.711407542228698730e-02 -1.077419263310730457e-03
7.133469581604003906e-01 6.355303525924682617e-02 -6.325101852416992188e-02
-2.973541431128978729e-02 -1.331808716058731079e-01 1.444856524467468262e-01
3.436483442783355713e-01 4.380194935947656631e-03 -8.533554524183273315e-02
-1.204688549041748047e-01 -7.719305157661437988e-02 -9.395309723913669586e-03
-7.829782962799072266e-01 4.847027361392974854e-02 -2.280031591653823853e-01
-5.318870767951011658e-02 -4.352664947509765625e-02 -9.088958054780960083e-02
8.266139030456542969e-02 -7.719305157661437988e-02 3.292105160653591156e-03
-3.581589832901954651e-02 -2.618015743792057037e-02 2.561191320419311523e-01
-1.194159612059593201e-01 2.827170072123408318e-03 -4.935702085494995117e-01
5.425947904586791992e-02 -6.964777596294879913e-03 8.062742650508880615e-02
-6.895585358142852783e-02 -4.055221378803253174e-02 1.284289658069610596e-01
2.342786341905593872e-01 -1.120702624320983887e-01 2.245321869850158691e-01
2.610748708248138428e-01 -4.273696988821029663e-02 -2.228966057300567627e-01
2.474924772977828979e-01 -1.204671263694763184e-01 2.793881297111511230e-01
-3.649516403675079346e-01 -7.485035061836242676e-02 -2.050337754189968109e-02
3.501763045787811279e-01 -5.392400920391082764e-02 -5.996071174740791321e-02
2.618645429611206055e-01 -4.715913534164428711e-02 2.957870364189147949e-01
-7.552344799041748047e-01 3.754646331071853638e-02 -1.764111816883087158e-01
7.826698943972587585e-03 -5.095886066555976868e-03 -3.023113906383514404e-01
2.937147021293640137e-01 -1.263370364904403687e-01 2.545134425163269043e-01
6.407234072685241699e-01 -4.990590736269950867e-03 -8.438794314861297607e-02
2.436494082212448120e-01 6.023640185594558716e-02 6.235965341329574585e-02
2.427281290292739868e-01 8.024145662784576416e-02 -4.035049676895141602e-02
4.535445272922515869e-01 -6.413711607456207275e-02 4.277576133608818054e-02
1.030100975185632706e-02 -2.489036321640014648e-02 -8.386148512363433838e-02
3.457177896052598953e-03 -2.489965874701738358e-03 -3.201580047607421875e-01
-1.594245620071887970e-02 8.328558877110481262e-03 -8.536186814308166504e-02
7.007926702499389648e-02 3.195684636011719704e-03 -3.324769139289855957e-01
1.878195106983184814e-01 -3.481391444802284241e-02 -2.544835209846496582e-01
-7.500752210617065430e-01 2.605501413345336914e-01 3.450039774179458618e-03
-4.381792247295379639e-02 -1.325491219758987427e-01 1.553831398487091064e-01
1.127479374408721924e-01 3.520376607775688171e-02 -7.991311699151992798e-02
3.042963147163391113e-01 -4.821204021573066711e-02 -2.795424759387969971e-01
1.153538525104522705e-01 8.582181483507156372e-02 2.350773662328720093e-02
-5.700546503067016602e-02 -2.086302265524864197e-02 -2.725407183170318604e-01
9.266392141580581665e-02 -3.257650882005691528e-02 -2.516143918037414551e-01
8.774308487772941589e-03 -7.590324431657791138e-02 -1.034453809261322021e-01
-1.478178650140762329e-01 2.657000534236431122e-02 6.944404244422912598e-01
-1.841954588890075684e-01 2.578033320605754852e-02 6.361624598503112793e-01
1.925049126148223877e-01 -1.115175038576126099e-01 2.593041360378265381e-01
2.763945460319519043e-01 -6.900675594806671143e-02 -2.939145267009735107e-01
2.795795202255249023e-01 -9.256534278392791748e-02 -2.913086116313934326e-01
7.747586816549301147e-02 -2.836491726338863373e-02 2.595410346984863281e-01
-2.860206179320812225e-03 1.009216438978910446e-02 -4.933333396911621094e-01
-1.352357566356658936e-01 5.485738161951303482e-03 5.086565613746643066e-01
5.859990119934082031e-01 5.457708239555358887e-02 6.691343337297439575e-02
-1.548196524381637573e-01 1.338246557861566544e-02 -5.785127282142639160e-01
-1.212848573923110962e-01 8.737483620643615723e-02 1.887498795986175537e-02
5.949764698743820190e-02 -7.719305157661437988e-02 -2.508348226547241211e-02
-4.560784623026847839e-02 -6.124164164066314697e-02 7.899543642997741699e-02
-3.415758907794952393e-02 1.688334904611110687e-02 -4.605618715286254883e-01
8.508816957473754883e-01 -1.268634796142578125e-01 1.050445344299077988e-02
1.439926624298095703e-01 -1.775697246193885803e-02 9.605237096548080444e-02
1.408602893352508545e-01 -5.018621683120727539e-02 1.065286993980407715e-01
-1.412635743618011475e-01 -7.669290900230407715e-02 -6.605131085962057114e-03
1.319633126258850098e-01 -1.057095546275377274e-02 8.031155914068222046e-02
2.626805305480957031e-01 -1.074375137686729431e-01 -2.769102454185485840e-01
2.779738903045654297e-01 -7.937780022621154785e-02 -2.230282276868820190e-01
8.950771093368530273e-01 -6.211028620600700378e-02 1.168896351009607315e-02
1.153538525104522705e-01 8.582181483507156372e-02 2.350773662328720093e-02
2.083773463964462280e-01 -7.719305157661437988e-02 5.054087936878204346e-02
1.362801939249038696e-01 1.704128086566925049e-02 8.094329386949539185e-02
-6.342301964759826660e-01 7.831992208957672119e-02 -1.105362270027399063e-02
-6.700798124074935913e-02 -4.007840156555175781e-02 8.031155914068222046e-02
-4.725840687751770020e-01 -4.253571387380361557e-03 -7.620165497064590454e-02
-3.287319839000701904e-01 1.846269704401493073e-02 8.081167936325073242e-02
1.860032677650451660e-01 -1.422977168112993240e-02 -1.129741072654724121e-01
-7.687641978263854980e-01 1.634466797113418579e-01 -3.262181300669908524e-03
2.495719492435455322e-01 -6.674303114414215088e-02 -5.985542014241218567e-02
-7.493645548820495605e-01 1.222257390618324280e-01 -3.578050760552287102e-03
-5.808321759104728699e-03 -2.226737095043063164e-03 -3.300025761127471924e-01
-1.907483302056789398e-02 8.003454422578215599e-04 -4.969131946563720703e-01
-4.725840687751770020e-01 -4.253571387380361557e-03 -7.620165497064590454e-02
1.310683488845825195e-01 -7.298144698143005371e-02 2.479854822158813477e-01
-7.704751491546630859e-01 3.110365569591522217e-01 9.757308289408683777e-04
-7.641314268112182617e-01 3.854671493172645569e-02 -1.361904889345169067e-01
2.267255447804927826e-02 -1.263370364904403687e-01 -1.341373473405838013e-01
-1.673213206231594086e-02 6.786990910768508911e-02 5.538420751690864563e-02
-7.910066843032836914e-01 4.786485806107521057e-02 2.207417488098144531e-01
8.966315537691116333e-02 -1.978380791842937469e-02 1.292186379432678223e-01
2.896361798048019409e-02 -2.860182709991931915e-02 -1.248455271124839783e-01
6.397245824337005615e-02 -2.360055781900882721e-02 -3.263964354991912842e-01
-5.176583770662546158e-03 5.959538277238607407e-03 3.701215684413909912e-01
1.811877451837062836e-02 -1.306275874376296997e-01 1.548040509223937988e-01
6.933192489668726921e-04 -1.212304756045341492e-01 1.445382982492446899e-01
2.413593828678131104e-01 -2.207386121153831482e-02 -8.617786318063735962e-02
4.189568459987640381e-01 -5.213408544659614563e-02 -6.188225001096725464e-02
-7.758449316024780273e-01 4.467984288930892944e-02 1.884441226720809937e-01
-7.544147665612399578e-04 -1.767800562083721161e-02 -3.526925444602966309e-01
-1.668489873409271240e-01 1.667276769876480103e-02 5.708827972412109375e-01
1.987433284521102905e-01 -2.362688630819320679e-02 -8.386148512363433838e-02
9.782822728157043457e-01 2.083171717822551727e-02 7.977498695254325867e-03
-3.595764283090829849e-04 -2.375848963856697083e-02 2.919965982437133789e-01
-2.916436493396759033e-01 -4.926493763923645020e-02 -6.417230516672134399e-02
-8.466885425150394440e-03 -1.202038973569869995e-01 -1.242401003837585449e-01
8.495144546031951904e-02 3.157126903533935547e-02 7.757402211427688599e-02
-2.849826589226722717e-02 -1.228887885808944702e-01 -1.536159515380859375e-01
-1.907483302056789398e-02 -7.719305157661437988e-02 -3.946565091609954834e-03
-7.704751491546630859e-01 3.110365569591522217e-01 9.757308289408683777e-04
2.718144059181213379e-01 -5.379239469766616821e-02 -6.156637892127037048e-02
-1.393947005271911621e-01 3.511551301926374435e-03 4.872301220893859863e-01
9.508016705513000488e-01 -4.779087752103805542e-02 -1.182709005661308765e-03
-6.618687510490417480e-01 2.575401030480861664e-02 6.636066734790802002e-02
1.070359647274017334e-01 2.746496722102165222e-02 -8.249272406101226807e-02
2.798690795898437500e-01 -4.958080127835273743e-02 -2.817535698413848877e-01
7.558065652847290039e-02 -1.428241934627294540e-02 1.810475140810012817e-01
3.437010049819946289e-01 7.826727628707885742e-02 4.074893519282341003e-02
5.513850450515747070e-01 -5.910952016711235046e-02 4.996178671717643738e-02
1.049301773309707642e-01 -4.958080127835273743e-02 1.013958230614662170e-01
-1.894321851432323456e-02 -1.306012570858001709e-01 1.166891604661941528e-01
-7.492329478263854980e-01 2.911894917488098145e-01 -4.051854833960533142e-03
-7.892956733703613281e-01 3.432289361953735352e-01 -2.235606545582413673e-03
-4.939678590744733810e-03 -2.858480205759406090e-03 3.230044245719909668e-01
-2.326287776231765747e-01 -5.571393296122550964e-02 -5.774962902069091797e-02
-3.707937523722648621e-02 -5.371342971920967102e-02 8.031155914068222046e-02
-8.194085359573364258e-01 5.078665167093276978e-02 -2.576158940792083740e-01
2.474135309457778931e-01 -4.602727293968200684e-02 -2.805427312850952148e-01
-2.933546304702758789e-01 -7.600854337215423584e-02 1.005697250366210938e-02
-1.686374656856060028e-02 5.407695099711418152e-02 -7.085820287466049194e-02
-2.821938991546630859e-01 -6.748005747795104980e-02 3.611618280410766602e-02
1.806071847677230835e-01 -6.197867169976234436e-02 2.824152410030364990e-01
-3.539473563432693481e-02 -6.432136893272399902e-02 -8.254536986351013184e-02
-6.437325477600097656e-01 6.542192399501800537e-02 -3.427001088857650757e-02
1.682092994451522827e-01 -4.650108143687248230e-02 -1.524314433336257935e-01
2.301986515522003174e-01 7.576663792133331299e-02 -4.906322434544563293e-02
2.530991733074188232e-01 -6.137325614690780640e-02 2.894169986248016357e-01
6.450402736663818359e-01 -7.595588266849517822e-02 1.060974225401878357e-02
-3.576866388320922852e-01 -2.381113730370998383e-02 7.578409463167190552e-02
2.009017616510391235e-01 -3.360308706760406494e-02 -1.831760406494140625e-01
-3.505532443523406982e-01 -7.635072618722915649e-02 -1.018498186022043228e-02
-1.271021068096160889e-01 3.254519775509834290e-02 6.500343680381774902e-01
5.166920423507690430e-01 -6.674303114414215088e-02 -4.111384600400924683e-02
-2.139120548963546753e-02 1.604103296995162964e-02 -5.041255354881286621e-01
-7.244898080825805664e-01 1.898914389312267303e-02 -3.097970783710479736e-02
3.878335235640406609e-03 -7.940411567687988281e-02 1.376155018806457520e-01
4.507295042276382446e-02 -2.391642332077026367e-02 -1.439029723405838013e-01
8.942084312438964844e-01 1.698864437639713287e-02 -6.011864542961120605e-02
1.687357574701309204e-01 -1.504576671868562698e-02 2.299019694328308105e-01
4.351992532610893250e-02 7.144048344343900681e-03 -3.749613165855407715e-01
-3.339964747428894043e-01 -7.635072618722915649e-02 6.503443233668804169e-03
-6.847429275512695312e-01 -1.183443237096071243e-02 -2.281975187361240387e-02
-7.090371102094650269e-02 1.159544335678219795e-04 4.885725378990173340e-01
-1.453172415494918823e-01 1.914707757532596588e-02 -5.699842572212219238e-01
1.679987311363220215e-01 -5.231833830475807190e-02 2.715966999530792236e-01
-4.015924632549285889e-01 -7.545576244592666626e-02 3.176699683535844088e-04
1.592596918344497681e-01 3.599343821406364441e-02 7.609996199607849121e-02
-4.655545577406883240e-02 -3.378733620047569275e-02 1.897865682840347290e-01
2.957941591739654541e-01 -3.576152399182319641e-02 -7.362205535173416138e-02
-3.228883743286132812e-01 -5.874101817607879639e-02 5.040926486253738403e-02
-6.853468716144561768e-02 -3.952563554048538208e-02 -1.385595053434371948e-01
4.791826009750366211e-01 6.355303525924682617e-02 -6.322469562292098999e-02
2.574950158596038818e-01 -3.470863029360771179e-02 2.820467054843902588e-01
-2.683219611644744873e-01 4.023135080933570862e-02 -7.793893665075302124e-02
3.950297534465789795e-01 -7.458712160587310791e-02 -2.134569734334945679e-02
-5.653165653347969055e-02 -1.241351850330829620e-02 3.742805123329162598e-01
2.678134143352508545e-01 -1.263370364904403687e-01 -2.650388181209564209e-01
-6.492850929498672485e-02 -1.225558482110500336e-02 3.718062341213226318e-01
-1.067811921238899231e-01 2.943915501236915588e-02 6.021275520324707031e-01
-9.135624021291732788e-02 2.730703353881835938e-02 6.041806936264038086e-01
1.239876225590705872e-01 -3.326088935136795044e-02 -2.497191578149795532e-01
7.791267633438110352e-01 3.002165758516639471e-04 -8.301916718482971191e-02
8.927869796752929688e-01 -5.731959640979766846e-02 2.629791386425495148e-02
-5.023810863494873047e-01 7.550341635942459106e-02 4.217034205794334412e-02
2.627873234450817108e-02 -7.719305157661437988e-02 9.741103276610374451e-03
1.343338284641504288e-02 7.013364136219024658e-02 5.256770551204681396e-02
-1.683493703603744507e-01 1.638321951031684875e-02 -5.734061598777770996e-01
-3.595764283090829849e-04 -2.375848963856697083e-02 2.919965982437133789e-01
8.440115451812744141e-01 7.268691807985305786e-02 2.563985437154769897e-02
-1.331036239862442017e-01 8.182080090045928955e-02 -3.719180077314376831e-02
6.943948268890380859e-01 -5.634566769003868103e-02 -5.695995315909385681e-02
6.406764732673764229e-04 2.696484327316284180e-02 7.910072058439254761e-02
2.057187855243682861e-01 -4.760662466287612915e-02 2.229265123605728149e-01
1.629711538553237915e-01 -3.768306225538253784e-02 2.647791802883148193e-01
9.782822728157043457e-01 2.083171717822551727e-02 7.977498695254325867e-03
6.814441680908203125e-01 -2.481138519942760468e-02 7.546822726726531982e-02
-3.939430695027112961e-03 -9.281150065362453461e-03 -8.396677672863006592e-02
6.707850843667984009e-02 -3.368205204606056213e-02 2.597252726554870605e-01
-3.641093373298645020e-01 -4.602727293968200684e-02 6.320197135210037231e-02
-3.413930833339691162e-01 8.650619536638259888e-02 -2.503083646297454834e-02
-1.407897770404815674e-01 8.805922418832778931e-02 -2.037176489830017090e-02
4.707593917846679688e-01 8.934901654720306396e-02 8.293367922306060791e-03
-2.746656835079193115e-01 7.258162647485733032e-02 4.951430484652519226e-02
-6.350461840629577637e-01 7.887268811464309692e-02 2.002305816859006882e-03
1.061146855354309082e-01 7.410832494497299194e-02 -5.114269629120826721e-02
1.706572920083999634e-01 -1.207133196294307709e-02 -1.214762479066848755e-01
1.369119435548782349e-01 8.953327685594558716e-02 6.319185718894004822e-03
-5.727146863937377930e-01 1.044581010937690735e-01 1.396889798343181610e-03
6.916835904121398926e-01 -7.200752943754196167e-02 2.550824359059333801e-02
-2.924596667289733887e-01 5.905189365148544312e-02 -6.685718894004821777e-02
1.583647131919860840e-01 -1.004450768232345581e-02 -1.713836044073104858e-01
-5.005633831024169922e-02 2.488537132740020752e-02 -8.333503454923629761e-02
4.499397799372673035e-02 -1.128862649202346802e-01 1.534616053104400635e-01
1.711047738790512085e-01 3.511551301926374435e-03 -8.523025363683700562e-02
-4.380753636360168457e-01 -6.405813992023468018e-02 -2.850539796054363251e-02
-7.352557182312011719e-01 4.023135080933570862e-02 -1.422972977161407471e-01
-2.300491631031036377e-01 8.166287094354629517e-02 3.395774587988853455e-02
-5.774248391389846802e-02 -1.859929785132408142e-02 3.143969774246215820e-01
2.024021595716476440e-01 -5.097589269280433655e-02 -1.185544654726982117e-01
1.608390361070632935e-01 -1.994174160063266754e-02 2.627260386943817139e-01
6.255616545677185059e-01 8.990179002285003662e-02 -6.262939423322677612e-03
7.273931987583637238e-03 -1.319700181484222412e-01 -1.314261257648468018e-01
4.801565110683441162e-01 8.519007265567779541e-02 2.535030618309974670e-02
-8.084058165550231934e-01 3.925742208957672119e-02 -1.759110540151596069e-01
-4.163315519690513611e-02 6.021008267998695374e-02 6.238597631454467773e-02
2.847650647163391113e-01 -1.038313508033752441e-01 -3.003635406494140625e-01
6.081362366676330566e-01 -6.303156912326812744e-02 -4.856309667229652405e-02
1.809245161712169647e-02 -2.720673568546772003e-02 2.670429050922393799e-01
