-8.823505043983459473e-01 9.653027355670928955e-02 -1.730397641658782959e-01
8.069407939910888672e-01 -1.665094494819641113e-02 6.944452226161956787e-02
-7.229497283697128296e-02 -4.697724804282188416e-02 -8.450815081596374512e-02
-3.896631672978401184e-02 -1.256369985640048981e-02 4.899507761001586914e-01
-8.895914554595947266e-01 1.048813462257385254e-01 -2.546079456806182861e-01
-1.259589046239852905e-01 6.118322163820266724e-02 8.430491387844085693e-02
-2.069972604513168335e-01 -5.129155144095420837e-02 -6.972344964742660522e-02
-2.334886342287063599e-01 1.062437668442726135e-01 3.081758879125118256e-02
5.730094313621520996e-01 3.317805752158164978e-02 9.374088793992996216e-02
1.674897074699401855e-01 -4.788551479578018188e-02 -1.239929050207138062e-01
1.111497636884450912e-02 -2.101569995284080505e-02 3.027451634407043457e-01
5.245175957679748535e-01 9.970922768115997314e-02 -4.388806223869323730e-02
-8.493245244026184082e-01 3.338929116725921631e-01 3.468408482149243355e-03
-2.821839228272438049e-02 -2.799741690978407860e-03 -9.212757647037506104e-02
7.484563440084457397e-02 -3.585087880492210388e-02 -1.161464154720306396e-01
1.447828263044357300e-01 -4.584190249443054199e-02 9.939237684011459351e-02
-1.316104084253311157e-01 8.200486190617084503e-03 -5.893831253051757812e-01
4.793813824653625488e-01 -2.848375029861927032e-02 8.632330596446990967e-02
8.849498629570007324e-02 -4.258724674582481384e-02 -8.433154970407485962e-02
-2.963126264512538910e-02 -1.487783039920032024e-03 -4.391896724700927734e-01
1.936514489352703094e-02 -2.891265787184238434e-02 1.022181212902069092e-01
2.209518104791641235e-01 6.923154741525650024e-02 7.951124012470245361e-02
-8.000758886337280273e-01 8.235107362270355225e-02 -1.686686649918556213e-02
3.187916055321693420e-02 -2.818099595606327057e-02 2.349524796009063721e-01
1.721067875623703003e-01 -8.971664309501647949e-02 -2.791754901409149170e-02
1.986974105238914490e-02 -2.593553252518177032e-02 -1.896410137414932251e-01
-8.476341962814331055e-01 3.621755838394165039e-01 3.745937254279851913e-03
3.177823871374130249e-02 -1.076298579573631287e-01 -9.666895121335983276e-02
5.133912563323974609e-01 -3.884623758494853973e-03 9.401841461658477783e-02
1.301747411489486694e-01 -7.361999154090881348e-02 -2.786520123481750488e-01
5.671560764312744141e-01 5.790332704782485962e-02 -8.387740701436996460e-02
2.269548736512660980e-02 -4.387396946549415588e-02 -2.367199510335922241e-01
-5.912986993789672852e-01 2.687058784067630768e-02 -7.302856445312500000e-02
1.397116333246231079e-01 -3.920644149184226990e-02 2.597029805183410645e-01
1.160712465643882751e-01 1.110374405980110168e-01 -5.683707422576844692e-04
1.301747411489486694e-01 -7.361999154090881348e-02 -2.786520123481750488e-01
-2.376767992973327637e-01 -6.461293250322341919e-02 -5.607409030199050903e-02
1.489709913730621338e-01 -3.088059276342391968e-02 -2.186805903911590576e-01
3.601685538887977600e-02 -2.744933217763900757e-02 2.120437622070312500e-01
-2.014483325183391571e-02 5.677493754774332047e-03 -5.626142024993896484e-01
1.403676122426986694e-01 -3.766741603612899780e-02 -8.693022280931472778e-02
-3.871567547321319580e-03 -3.723850846290588379e-02 7.645842432975769043e-02
6.701696515083312988e-01 1.055121049284934998e-01 1.986782625317573547e-02
-6.658276915550231934e-01 2.032526284456253052e-01 -4.832219332456588745e-03
-1.616591960191726685e-01 1.988191530108451843e-02 -7.471706867218017578e-01
-1.321906894445419312e-01 2.169846929609775543e-02 7.809016704559326172e-01
-8.125898838043212891e-01 1.262258142232894897e-01 -6.692903116345405579e-04
1.225032098591327667e-02 -1.178479567170143127e-01 -1.337821036577224731e-01
1.345142722129821777e-01 -8.628538250923156738e-02 -5.228960886597633362e-02
-1.039080098271369934e-01 -1.125175040215253830e-02 -4.987573921680450439e-01
3.692513331770896912e-02 -5.293149873614311218e-02 1.257575899362564087e-01
1.252044588327407837e-01 -8.691611886024475098e-02 -2.776428163051605225e-01
3.977610915899276733e-02 5.674275755882263184e-02 8.647468686103820801e-02
2.408581823110580444e-01 -5.010575056076049805e-02 -2.206737548112869263e-01
-2.069215923547744751e-01 9.393157809972763062e-02 5.534102022647857666e-02
9.550724178552627563e-03 -1.011640578508377075e-02 3.319865465164184570e-01
4.643443822860717773e-01 -6.135827302932739258e-02 -5.988379940390586853e-02
-5.695521458983421326e-02 9.595107403583824635e-04 5.521172285079956055e-01
7.963930815458297729e-02 -9.559519588947296143e-02 2.406039834022521973e-01
5.652874335646629333e-02 -8.076003938913345337e-02 -2.341717332601547241e-01
2.635381929576396942e-02 -6.443630903959274292e-02 -9.565976262092590332e-02
1.951164156198501587e-01 -6.168625503778457642e-02 5.761171132326126099e-02
5.524202063679695129e-02 -2.257995121181011200e-02 1.657469570636749268e-01
2.690147161483764648e-01 3.716437891125679016e-02 9.293352812528610229e-02
-8.769512772560119629e-01 1.095993369817733765e-01 2.943183779716491699e-01
2.520602345466613770e-01 -3.156178444623947144e-02 -2.320272028446197510e-01
-9.232749789953231812e-02 -7.643876131623983383e-03 4.215273857116699219e-01
1.136239394545555115e-01 -6.403264403343200684e-02 -2.575093805789947510e-01
9.308683127164840698e-02 -2.616259083151817322e-02 -8.395309746265411377e-02
1.720563322305679321e-01 -5.835592001676559448e-02 2.098739892244338989e-01
1.325211226940155029e-01 -3.622931241989135742e-02 1.898414790630340576e-01
1.212433725595474243e-01 6.009832769632339478e-02 8.483474701642990112e-02
3.692513331770896912e-02 -5.293149873614311218e-02 1.257575899362564087e-01
8.872205764055252075e-02 7.891982048749923706e-02 7.211888581514358521e-02
-1.139495000243186951e-01 1.007941141724586487e-01 -4.186967387795448303e-02
4.711564481258392334e-01 8.356211334466934204e-02 -6.563621014356613159e-02
7.915993779897689819e-02 -4.119959846138954163e-02 -8.069844543933868408e-02
-5.117741227149963379e-01 -3.416047617793083191e-02 -5.806724727153778076e-02
-8.054750561714172363e-01 9.756468981504440308e-02 -1.510645449161529541e-01
1.833845376968383789e-01 -5.729625746607780457e-02 -7.941172271966934204e-02
9.220378100872039795e-02 -9.720992296934127808e-02 -2.443141341209411621e-01
-7.842062711715698242e-01 7.167883962392807007e-02 3.472821786999702454e-02
8.395361155271530151e-02 -4.341983422636985779e-02 7.499509304761886597e-02
1.657488495111465454e-01 -7.864072918891906738e-02 1.882772147655487061e-01
1.690791994333267212e-01 1.417996548116207123e-02 9.550698101520538330e-02
-6.886354684829711914e-01 2.278012782335281372e-01 -4.781758878380060196e-03
1.079976782202720642e-01 -4.097254201769828796e-02 8.677744120359420776e-02
-9.074289798736572266e-01 4.202042818069458008e-01 9.706513374112546444e-04
2.711071446537971497e-02 -4.061931371688842773e-02 -8.029476553201675415e-02
5.092771351337432861e-02 -5.827321205288171768e-03 3.807054758071899414e-01
7.675569653511047363e-01 4.695357382297515869e-02 -7.179229706525802612e-02
8.070164322853088379e-01 -1.543990150094032288e-02 -6.767982989549636841e-02
-1.715997457504272461e-01 1.592082157731056213e-02 -6.870731711387634277e-01
-7.592034935951232910e-01 2.977889478206634521e-01 -3.722104709595441818e-03
4.090657234191894531e-01 -4.097254201769828796e-02 7.946077734231948853e-02
-1.527782678604125977e-01 9.375497698783874512e-02 -5.352586880326271057e-02
-8.493245244026184082e-01 3.338929116725921631e-01 3.468408482149243355e-03
1.560353636741638184e-01 1.106842234730720520e-01 9.246049448847770691e-03
1.502829492092132568e-01 -2.755023725330829620e-02 2.085368186235427856e-01
-1.964023709297180176e-02 -1.324491016566753387e-02 3.883501291275024414e-01
2.731019556522369385e-01 -9.920307993888854980e-02 2.647742033004760742e-01
5.092771351337432861e-02 -5.827321205288171768e-03 3.807054758071899414e-01
9.351573884487152100e-02 -3.400909528136253357e-02 5.158177390694618225e-02
-7.858966588973999023e-01 9.044986963272094727e-02 -9.414596855640411377e-02
4.600788652896881104e-02 -3.799541667103767395e-02 1.855587214231491089e-02
2.095479071140289307e-01 -7.051671296358108521e-02 1.986214667558670044e-01
-6.647680401802062988e-01 1.748185604810714722e-01 -5.992793478071689606e-03
5.432886481285095215e-01 1.013491675257682800e-01 4.277654364705085754e-02
-3.514382839202880859e-01 9.418388456106185913e-02 -5.294558405876159668e-02
6.946930885314941406e-01 -5.230074375867843628e-02 6.641693413257598877e-02
-1.025203615427017212e-01 2.091634459793567657e-02 7.197948694229125977e-01
1.721067875623703003e-01 -8.971664309501647949e-02 -2.791754901409149170e-02
-1.053208783268928528e-01 -1.208433881402015686e-02 5.003455281257629395e-01
-4.161276519298553467e-01 -7.185390591621398926e-02 1.845495216548442841e-02
-1.788407266139984131e-01 -3.390816971659660339e-02 8.364893496036529541e-02
-1.007542684674263000e-01 -3.431185334920883179e-02 -3.393550813198089600e-01
4.368942975997924805e-01 -7.669102866202592850e-03 -9.119407087564468384e-02
2.255184203386306763e-01 -1.198663413524627686e-01 2.523358464241027832e-01
2.247362732887268066e-01 -6.589965522289276123e-02 2.073762267827987671e-01
-1.139999479055404663e-01 -2.278180234134197235e-02 8.874537795782089233e-02
1.866139620542526245e-01 8.936497569084167480e-02 -5.922782421112060547e-02
-1.238900572061538696e-01 1.594605855643749237e-02 -7.127571702003479004e-01
9.550889581441879272e-02 -5.643844231963157654e-02 2.255417406558990479e-01
2.892238497734069824e-01 2.376731857657432556e-02 -9.298539161682128906e-02
-1.826756745576858521e-01 2.442329376935958862e-02 -7.707858681678771973e-01
3.143780231475830078e-01 -7.987699657678604126e-02 2.741155773401260376e-02
4.144128039479255676e-02 7.447935640811920166e-02 -7.370977103710174561e-02
1.140276193618774414e-01 -8.593215793371200562e-02 1.952658891677856445e-01
-1.412482112646102905e-01 9.246825426816940308e-02 5.730895325541496277e-02
7.391212880611419678e-02 -2.308455668389797211e-02 -4.043156653642654419e-02
9.101798385381698608e-02 -8.050773292779922485e-02 2.142639905214309692e-01
-3.117012083530426025e-01 1.096750274300575256e-01 -1.487370673567056656e-02
7.536301016807556152e-01 3.476753830909729004e-02 7.973830401897430420e-02
1.797514259815216064e-01 -3.958489373326301575e-02 -1.382730156183242798e-01
-2.075775563716888428e-01 -8.156739920377731323e-02 1.885863021016120911e-02
-7.378353923559188843e-02 1.082439348101615906e-02 5.878174304962158203e-01
2.206995040178298950e-01 -5.984447523951530457e-02 -2.592502236366271973e-01
5.448512732982635498e-02 -2.934156544506549835e-02 1.744575612246990204e-02
4.918701648712158203e-01 8.336026966571807861e-02 6.790550053119659424e-02
-6.470314860343933105e-01 1.676028072834014893e-01 -6.245091557502746582e-03
-5.566328167915344238e-01 6.284838914871215820e-02 -7.406298816204071045e-02
1.910796463489532471e-01 -8.335871249437332153e-02 6.328843533992767334e-02
3.334249183535575867e-02 -7.298924773931503296e-02 1.439735591411590576e-01
-1.426106393337249756e-01 1.218680571764707565e-02 -6.560656428337097168e-01
-7.197186946868896484e-01 2.649648785591125488e-01 -4.251931793987751007e-03
2.138622105121612549e-01 4.059563949704170227e-02 -9.008394926786422729e-02
6.946930885314941406e-01 -5.230074375867843628e-02 6.641693413257598877e-02
-6.972152739763259888e-02 -2.088954858481884003e-02 -4.886654615402221680e-01
-9.091462194919586182e-02 7.998645305633544922e-03 -6.258655190467834473e-01
-7.243357896804809570e-01 7.627067714929580688e-02 7.080693542957305908e-02
1.526545584201812744e-01 -2.939201891422271729e-02 -8.576964586973190308e-02
1.562119722366333008e-01 -5.050943419337272644e-02 2.738064825534820557e-01
5.657936930656433105e-01 -2.684380114078521729e-02 8.710543066263198853e-02
-8.092342615127563477e-01 3.405031263828277588e-01 -2.712909597903490067e-03
-8.195028901100158691e-01 5.659138038754463196e-02 1.421633455902338028e-02
1.097385436296463013e-01 -3.469028696417808533e-02 -3.329151123762130737e-02
8.442053198814392090e-01 7.478211820125579834e-02 1.088599208742380142e-02
1.949145793914794922e-01 -2.982092648744583130e-02 -3.326628357172012329e-02
-1.907492280006408691e-01 -4.363993648439645767e-03 9.394273161888122559e-02
1.578085008077323437e-03 -3.191501274704933167e-02 7.242164015769958496e-02
1.562119722366333008e-01 -5.050943419337272644e-02 2.738064825534820557e-01
-6.161248683929443359e-01 5.551351699978113174e-03 6.323797255754470825e-02
-1.907492280006408691e-01 -4.363993648439645767e-03 9.394273161888122559e-02
-8.473818302154541016e-01 9.943170100450515747e-02 2.270807623863220215e-01
-1.525023765861988068e-02 -2.709610387682914734e-02 1.612560302019119263e-01
8.070164322853088379e-01 -1.543990150094032288e-02 -6.767982989549636841e-02
7.176270484924316406e-01 1.054111793637275696e-01 -1.855094335041940212e-03
2.436839342117309570e-01 -8.537711203098297119e-02 -1.855790168046951294e-01
-7.232020795345306396e-02 -4.338758066296577454e-03 -9.190050512552261353e-02
-3.528275340795516968e-02 -1.134564517997205257e-03 5.333713889122009277e-01
-8.329520374536514282e-02 1.741636893711984158e-03 4.998913407325744629e-01
1.448080688714981079e-01 -6.882630288600921631e-02 -2.496124356985092163e-01
1.250026077032089233e-01 -1.841702684760093689e-02 2.181998491287231445e-01
7.551186680793762207e-01 8.971820771694183350e-02 -3.785812109708786011e-02
-2.804178372025489807e-02 -3.178885951638221741e-02 -1.366582959890365601e-01
-8.255832791328430176e-01 4.465764760971069336e-02 -7.683194708079099655e-03
1.076192334294319153e-01 -7.276217639446258545e-02 2.108075022697448730e-01
-6.593183875083923340e-01 1.637496612966060638e-02 5.680435523390769958e-02
-7.634673118591308594e-01 8.848193287849426270e-02 -7.451712340116500854e-02
3.488151356577873230e-02 -1.253412216901779175e-01 1.146059855818748474e-01
1.936514489352703094e-02 -2.891265787184238434e-02 1.022181212902069092e-01
6.998399496078491211e-01 4.422874003648757935e-02 -8.137965202331542969e-02
1.234635934233665466e-01 -1.977944932878017426e-02 -2.731266617774963379e-01
-6.131998077034950256e-02 -8.878313004970550537e-02 -1.873387768864631653e-02
-5.890027880668640137e-01 -1.291690859943628311e-02 -5.743649974465370178e-02
-8.138260841369628906e-01 7.558947056531906128e-02 -4.956478253006935120e-02
3.804550468921661377e-01 -5.517694354057312012e-02 6.835963577032089233e-02
1.377689391374588013e-01 -2.210059016942977905e-02 1.975365877151489258e-01
8.529079705476760864e-02 -1.205909345299005508e-02 2.968413531780242920e-01
2.391677796840667725e-01 -7.243418693542480469e-02 2.482738643884658813e-01
8.703166246414184570e-02 -5.749810487031936646e-02 -8.693022280931472778e-02
-7.608938217163085938e-01 8.295658975839614868e-02 2.864781953394412994e-02
1.721067875623703003e-01 -8.971664309501647949e-02 -2.791754901409149170e-02
-7.677059173583984375e-01 2.213172018527984619e-01 -3.949173260480165482e-03
1.866139620542526245e-01 8.936497569084167480e-02 -5.922782421112060547e-02
5.668012797832489014e-02 -3.557334840297698975e-02 4.625826701521873474e-02
2.186558991670608521e-01 -8.260182291269302368e-02 6.364165246486663818e-02
-3.159919753670692444e-02 -6.886976771056652069e-03 -3.833559751510620117e-01
-2.832671701908111572e-01 -7.937239110469818115e-02 2.930379658937454224e-02
2.398221008479595184e-02 -6.504184007644653320e-02 8.859399706125259399e-02
1.934764832258224487e-01 -1.156529486179351807e-01 2.648751139640808105e-01
7.681356370449066162e-02 -1.692847348749637604e-02 2.359112203121185303e-01
-8.323700428009033203e-01 7.399998605251312256e-02 2.155822701752185822e-02
-6.520774364471435547e-01 3.925845399498939514e-02 6.311182677745819092e-02
3.143780231475830078e-01 -7.987699657678604126e-02 2.741155773401260376e-02
1.692810356616973877e-01 9.627796709537506104e-02 5.175838246941566467e-02
2.345254719257354736e-01 9.342699497938156128e-02 -5.398000776767730713e-02
1.141537725925445557e-01 -2.146985195577144623e-02 -1.559339165687561035e-01
2.108598649501800537e-01 -1.102033033967018127e-01 2.143901437520980835e-01
9.861217439174652100e-02 -8.971664309501647949e-02 -1.802744157612323761e-02
1.446062326431274414e-01 -2.242857404053211212e-02 1.344114392995834351e-01
3.205088973045349121e-01 1.508824247866868973e-02 -9.343953430652618408e-02
-1.316104084253311157e-01 8.200486190617084503e-03 -5.893831253051757812e-01
-3.749273121356964111e-01 -7.220711559057235718e-02 3.417316451668739319e-02
3.070109188556671143e-01 -8.073481172323226929e-02 2.357661537826061249e-02
7.561530470848083496e-01 -7.927148789167404175e-02 -4.169915628153830767e-04
8.715780079364776611e-02 -2.404329739511013031e-02 -2.390600182116031647e-02
2.460303008556365967e-01 -1.036435365676879883e-01 -2.065954804420471191e-01
-2.092427313327789307e-01 9.065169841051101685e-02 -5.773926153779029846e-02
1.300233602523803711e-01 -2.611213736236095428e-02 -2.604108154773712158e-01
2.460303008556365967e-01 -1.036435365676879883e-01 -2.065954804420471191e-01
1.471039801836013794e-01 -8.754687756299972534e-02 -2.800144255161285400e-01
-1.737947613000869751e-01 2.099203318357467651e-02 7.570089697837829590e-01
-9.169841185212135315e-03 2.290950343012809753e-02 9.510330110788345337e-02
1.902722716331481934e-01 -3.968581929802894592e-02 -2.051069289445877075e-01
6.460230052471160889e-02 -2.825667522847652435e-02 -1.391055881977081299e-01
1.502324938774108887e-01 -3.650684282183647156e-02 1.576481461524963379e-01
1.141537725925445557e-01 -2.146985195577144623e-02 -1.559339165687561035e-01
1.919626891613006592e-01 -6.759005784988403320e-02 -3.694984316825866699e-02
-9.982076287269592285e-02 9.920462965965270996e-02 -4.474587738513946533e-02
6.765511631965637207e-02 -3.655731678009033203e-02 -1.258599162101745605e-01
-1.004767417907714844e-01 5.273822229355573654e-03 -5.419509410858154297e-01
-8.773565292358398438e-02 1.377628464251756668e-02 6.973150968551635742e-01
5.693242698907852173e-02 -2.141937986016273499e-02 3.146284222602844238e-01
-6.825820356607437134e-02 -4.041748121380805969e-02 -1.728631407022476196e-01
8.460958302021026611e-02 -2.469926327466964722e-02 1.155647262930870056e-01
-9.538031369447708130e-02 2.548998920246958733e-03 5.562296509742736816e-01
7.400563955307006836e-01 6.892878562211990356e-02 -6.427379697561264038e-02
2.731019556522369385e-01 -9.920307993888854980e-02 2.647742033004760742e-01
-8.427143692970275879e-01 6.933246552944183350e-02 8.640532381832599640e-03
2.138622105121612549e-01 4.059563949704170227e-02 -9.008394926786422729e-02
-7.745684385299682617e-01 2.715246379375457764e-01 -3.747334703803062439e-03
-8.486938476562500000e-01 8.578233420848846436e-02 -8.761142939329147339e-02
8.286637663841247559e-01 -7.013825327157974243e-02 2.635822864249348640e-03
6.803356856107711792e-02 5.324284546077251434e-03 -9.308631718158721924e-02
1.700631678104400635e-01 -8.971664309501647949e-02 -3.636955469846725464e-02
-2.069972604513168335e-01 -5.129155144095420837e-02 -6.972344964742660522e-02
-1.041855290532112122e-01 1.327168755233287811e-02 -6.861144304275512695e-01
5.296645164489746094e-01 -2.648363588377833366e-03 -9.215281158685684204e-02
1.201080232858657837e-01 -1.988035440444946289e-02 -1.850996315479278564e-01
6.946930885314941406e-01 -5.230074375867843628e-02 6.641693413257598877e-02
3.540898561477661133e-01 -8.164308220148086548e-02 4.408240492921322584e-04
2.194884866476058960e-01 -5.873435735702514648e-02 -4.154168441891670227e-02
1.284338831901550293e-01 -2.018311060965061188e-02 1.805064380168914795e-01
-4.477084614336490631e-03 -2.442173287272453308e-02 -1.854276359081268311e-01
2.561979591846466064e-01 -4.203218966722488403e-02 -2.256945073604583740e-01
-1.075411140918731689e-01 -8.234951645135879517e-02 -2.559640258550643921e-02
-8.918873071670532227e-01 1.143930107355117798e-01 3.257548213005065918e-01
-6.564926505088806152e-01 1.664422452449798584e-01 -6.295551545917987823e-03
1.648405790328979492e-01 -1.217333525419235229e-01 -2.490068972110748291e-01
-6.972152739763259888e-02 -2.088954858481884003e-02 -4.886654615402221680e-01
-1.075663343071937561e-01 -7.531039416790008545e-02 6.129527464509010315e-02
-3.528275340795516968e-02 -1.134564517997205257e-03 5.333713889122009277e-01
4.090657234191894531e-01 -4.097254201769828796e-02 7.946077734231948853e-02
1.504595577716827393e-01 -8.146647363901138306e-02 -6.611557304859161377e-02
3.581502288579940796e-02 -1.231714487075805664e-01 9.639002382755279541e-02
2.354085147380828857e-01 -9.720992296934127808e-02 -2.222127765417098999e-01
1.344890445470809937e-01 -5.219981819391250610e-02 8.897244185209274292e-02
1.950155049562454224e-01 -9.549429267644882202e-02 2.100001424551010132e-01
7.873103022575378418e-02 -3.993810340762138367e-02 -1.865818910300731659e-02
4.091145470738410950e-02 -1.317496001720428467e-01 -1.030268743634223938e-01
2.340965718030929565e-01 -5.222506448626518250e-02 -2.328345626592636108e-01
7.897087931632995605e-01 -2.094002068042755127e-02 7.196751236915588379e-02
1.163487732410430908e-01 -2.934156544506549835e-02 1.042365059256553650e-01
-8.478376269340515137e-02 -7.770018186420202255e-03 5.004969239234924316e-01
2.538767755031585693e-01 -4.329368472099304199e-02 -2.657847702503204346e-01
6.409787535667419434e-01 9.640412032604217529e-02 4.666194319725036621e-02
1.304775029420852661e-01 -3.083012066781520844e-02 -7.615707069635391235e-02
1.794991344213485718e-01 -2.694472484290599823e-02 -2.244330197572708130e-01
-4.421412944793701172e-02 -6.483295466750860214e-03 -4.618713557720184326e-01
-5.912986993789672852e-01 2.687058784067630768e-02 -7.302856445312500000e-02
2.340965718030929565e-01 -5.222506448626518250e-02 -2.328345626592636108e-01
6.902274489402770996e-01 9.950739145278930664e-02 3.513189777731895447e-02
-1.205597221851348877e-01 -1.228617038577795029e-02 4.891686737537384033e-01
6.397155672311782837e-02 -4.357121512293815613e-02 -1.360527724027633667e-01
-6.472080945968627930e-01 -1.084111398085951805e-03 5.024458840489387512e-02
1.411733124405145645e-02 -3.469028696417808533e-02 1.255305260419845581e-01
-8.299228549003601074e-01 9.582383185625076294e-02 -5.437735933810472488e-03
2.773405611515045166e-01 -4.357121512293815613e-02 2.374754697084426880e-01
4.557897895574569702e-02 -2.298363298177719116e-02 1.658730953931808472e-01
1.160460188984870911e-01 -9.842094779014587402e-02 2.187044471502304077e-01
-1.315851658582687378e-01 1.359967980533838272e-02 -9.346476197242736816e-02
1.397116333246231079e-01 -3.920644149184226990e-02 2.597029805183410645e-01
-8.075439333915710449e-01 7.536240667104721069e-02 5.347401276230812073e-02
6.192793697118759155e-02 -3.138517960906028748e-02 -8.693022280931472778e-02
-2.069972604513168335e-01 -5.129155144095420837e-02 -6.972344964742660522e-02
-7.058927416801452637e-01 1.348796635866165161e-01 -6.219862028956413269e-03
-8.314869999885559082e-01 4.038048684597015381e-01 -1.754174591042101383e-03
7.980851531028747559e-01 -1.034346409142017365e-02 -7.068218290805816650e-02
1.318399012088775635e-01 -1.031389310956001282e-01 2.493335008621215820e-01
-9.056881070137023926e-01 1.056634783744812012e-01 -2.489564418792724609e-01
-4.102239012718200684e-01 8.015608042478561401e-02 -6.886563450098037720e-02
5.180839896202087402e-01 6.534614413976669312e-02 8.195853233337402344e-02
1.422346234321594238e-01 -8.971664309501647949e-02 -3.167047630995512009e-03
7.398797869682312012e-01 -1.092374883592128754e-02 -8.031999319791793823e-02
-8.070644736289978027e-01 8.356211334466934204e-02 5.576992779970169067e-02
-6.333820819854736328e-01 1.058905497193336487e-01 1.282869093120098114e-02
-2.994647622108459473e-01 -7.420027256011962891e-02 4.295315593481063843e-02
1.193511262536048889e-01 -3.299990296363830566e-02 1.923896968364715576e-01
9.861217439174652100e-02 -8.971664309501647949e-02 -1.802744157612323761e-02
2.194884866476058960e-01 -5.873435735702514648e-02 -4.154168441891670227e-02
-2.811747230589389801e-02 -6.937439087778329849e-03 -4.896494150161743164e-01
4.025547951459884644e-02 -3.350448980927467346e-02 8.140347152948379517e-02
6.206938624382019043e-01 1.042001470923423767e-01 3.255844861268997192e-02
-1.007542684674263000e-01 -3.431185334920883179e-02 -3.393550813198089600e-01
3.243421763181686401e-02 -4.104822129011154175e-02 -1.755627393722534180e-01
2.183278948068618774e-01 -4.922271147370338440e-02 -2.445664405822753906e-01
1.859327554702758789e-01 9.938124567270278931e-02 4.651056602597236633e-02
7.217126339673995972e-02 -4.258724674582481384e-02 2.292000800371170044e-01
-8.138260841369628906e-01 7.558947056531906128e-02 -4.956478253006935120e-02
2.688364684581756592e-02 -8.247566968202590942e-02 -1.184927970170974731e-01
-1.548975706100463867e-01 2.195076458156108856e-02 7.325359582901000977e-01
-8.353472352027893066e-01 8.807825297117233276e-02 9.770198166370391846e-02
-6.311130523681640625e-02 6.123367324471473694e-02 -8.221223950386047363e-02
-3.833540678024291992e-01 4.213466495275497437e-02 -8.897384256124496460e-02
1.881025135517120361e-01 1.917547732591629028e-02 9.535560011863708496e-02
8.119363188743591309e-01 6.448832899332046509e-02 -4.795007035136222839e-02
-7.989657521247863770e-01 1.007688865065574646e-01 -1.749824583530426025e-01
1.908761635422706604e-02 -9.930399060249328613e-02 -1.491723209619522095e-01
-3.285548090934753418e-01 1.081612259149551392e-01 -2.208945155143737793e-02
2.406058758497238159e-01 -1.062422096729278564e-01 2.610654234886169434e-01
1.515444368124008179e-01 -4.114914685487747192e-02 -1.593147069215774536e-01
-3.871567547321319580e-03 -3.723850846290588379e-02 7.645842432975769043e-02
-8.398886322975158691e-01 9.239256381988525391e-02 1.772265434265136719e-01
8.823024630546569824e-01 1.150559540838003159e-02 4.931108281016349792e-02
-4.133524000644683838e-01 3.073076531291007996e-02 -9.071470052003860474e-02
1.245484799146652222e-01 -4.801166802644729614e-02 -2.136093974113464355e-01
-3.776521086692810059e-01 -3.448845818638801575e-02 7.966262102127075195e-02
1.177868768572807312e-01 -3.441276028752326965e-02 -1.724594831466674805e-01
3.420031070709228516e-02 -8.242521435022354126e-02 -1.617619991302490234e-01
-7.763093113899230957e-01 2.153881937265396118e-01 5.865246523171663284e-03
-6.472080945968627930e-01 -1.084111398085951805e-03 5.024458840489387512e-02
-1.179374661296606064e-02 -3.130950033664703369e-02 1.000231206417083740e-01
-1.812880188226699829e-01 1.059410125017166138e-01 3.177632391452789307e-02
-5.776997804641723633e-01 1.065717488527297974e-01 2.350092679262161255e-02
5.095294117927551270e-02 -3.469028696417808533e-02 -1.426125466823577881e-01
-1.615582704544067383e-01 3.539828583598136902e-02 9.331198036670684814e-02
4.754202961921691895e-01 -1.407749857753515244e-02 9.167204052209854126e-02
-3.465689122676849365e-01 1.109112873673439026e-01 -3.999633248895406723e-03
1.403676122426986694e-01 -3.766741603612899780e-02 -8.693022280931472778e-02
1.438493281602859497e-01 -4.440380260348320007e-02 -2.316739857196807861e-01
-7.315278798341751099e-02 -8.577380329370498657e-03 9.305967390537261963e-02
-1.110480576753616333e-01 -2.900657244026660919e-03 4.963087439537048340e-01
-7.885962724685668945e-01 8.744751662015914917e-02 -7.348269969224929810e-02
-1.989994049072265625e-01 8.262860774993896484e-02 -6.659494340419769287e-02
1.226057782769203186e-01 -1.005907133221626282e-01 -2.507225275039672852e-01
-9.472432732582092285e-02 -7.240195292979478836e-03 4.881342351436614990e-01
-7.634673118591308594e-01 8.848193287849426270e-02 -7.451712340116500854e-02
5.814109444618225098e-01 1.106337681412696838e-01 9.574037976562976837e-03
-6.804357767105102539e-01 1.879380941390991211e-01 -5.740494467318058014e-03
8.079500198364257812e-01 -6.723682582378387451e-02 3.218000382184982300e-02
-7.763093113899230957e-01 2.153881937265396118e-01 5.865246523171663284e-03
1.524274945259094238e-01 -8.787485957145690918e-02 2.040458917617797852e-01
7.391212880611419678e-02 -2.308455668389797211e-02 -4.043156653642654419e-02
-3.825719356536865234e-01 -7.354428619146347046e-02 -2.506657503545284271e-02
1.945361346006393433e-01 -9.140704572200775146e-02 2.834442853927612305e-01
2.547598183155059814e-01 -4.917223751544952393e-02 -2.210269868373870850e-01
2.356608211994171143e-01 -6.251884251832962036e-02 2.305120229721069336e-01
-5.551442503929138184e-01 -3.834161441773176193e-03 -7.302856445312500000e-02
6.954500079154968262e-01 -7.864072918891906738e-02 -2.761479094624519348e-02
-3.561562895774841309e-01 -6.317482888698577881e-02 -5.302127450704574585e-02
1.661508902907371521e-02 -8.971664309501647949e-02 -2.711019478738307953e-02
1.657488495111465454e-01 -7.864072918891906738e-02 1.882772147655487061e-01
7.176270484924316406e-01 1.054111793637275696e-01 -1.855094335041940212e-03
1.622923612594604492e-01 -2.770161628723144531e-02 2.001352757215499878e-01
1.481131762266159058e-01 -2.406852506101131439e-02 1.633501052856445312e-01
2.306148558855056763e-01 -4.516069218516349792e-02 -2.181507796049118042e-01
1.396611630916595459e-01 -4.738092795014381409e-02 -9.010918438434600830e-02
1.399134695529937744e-01 -3.100674413144588470e-02 7.186658680438995361e-02
1.617373079061508179e-01 -4.735568165779113770e-02 -2.494358122348785400e-01
-5.940251052379608154e-02 -1.241232175379991531e-02 -3.765186965465545654e-01
1.007062494754791260e-01 -6.236746534705162048e-02 -2.335094474256038666e-02
-9.270594269037246704e-02 -5.877783522009849548e-03 -4.339671134948730469e-01
7.212080061435699463e-02 -3.867660835385322571e-02 9.363996237516403198e-02
3.238140046596527100e-01 9.953262656927108765e-02 -4.416558891534805298e-02
4.518555700778961182e-01 -7.924623787403106689e-02 -2.771571092307567596e-02
4.533946216106414795e-01 6.950907409191131592e-02 7.933463901281356812e-02
1.504595577716827393e-01 -8.146647363901138306e-02 -6.611557304859161377e-02
2.792075872421264648e-01 -1.100771501660346985e-01 2.647994160652160645e-01
-4.595499113202095032e-02 1.014318317174911499e-02 5.772209167480468750e-01
8.512192368507385254e-01 -6.917953491210937500e-02 -2.829599939286708832e-02
9.154780209064483643e-02 -2.868558280169963837e-02 1.236887499690055847e-01
1.170552074909210205e-01 -1.000104248523712158e-01 -1.970081329345703125e-01
2.824874520301818848e-01 1.106589958071708679e-01 -7.456125691533088684e-03
1.717787981033325195e-01 -2.888743206858634949e-02 -1.457158178091049194e-01
2.391677796840667725e-01 -7.243418693542480469e-02 2.482738643884658813e-01
6.237971782684326172e-01 1.092713475227355957e-01 9.094670414924621582e-03
5.835807323455810547e-01 9.491554647684097290e-02 5.390292033553123474e-02
-7.229497283697128296e-02 -4.697724804282188416e-02 -8.450815081596374512e-02
-1.905726343393325806e-01 2.114341035485267639e-02 7.487587928771972656e-01
3.288347423076629639e-01 6.521999090909957886e-02 8.203422278165817261e-02
2.319772541522979736e-01 -1.115152463316917419e-01 -2.242816388607025146e-01
-3.389511257410049438e-02 1.103057786822319031e-01 1.292961183935403824e-02
5.657936930656433105e-01 -2.684380114078521729e-02 8.710543066263198853e-02
-7.633175700902938843e-02 -1.099944766610860825e-02 3.749277889728546143e-01
2.398742139339447021e-01 -3.855047374963760376e-02 2.291496098041534424e-01
1.866139620542526245e-01 8.936497569084167480e-02 -5.922782421112060547e-02
7.678833603858947754e-02 -7.705125212669372559e-02 2.560698986053466797e-01
9.535752236843109131e-02 -7.912010699510574341e-02 -2.104052007198333740e-01
-4.328803122043609619e-01 -1.460731308907270432e-02 -8.337280899286270142e-02
1.438745707273483276e-01 -7.349383831024169922e-02 -2.800901234149932861e-01
2.192109525203704834e-01 -7.586544752120971680e-02 -1.843679696321487427e-01
-3.255019783973693848e-01 8.189694583415985107e-02 6.939405947923660278e-02
4.073484614491462708e-02 -2.649059146642684937e-02 -1.390551328659057617e-01
2.905341610312461853e-02 2.601277269423007965e-02 9.480054676532745361e-02
-7.892270684242248535e-01 2.736439704895019531e-01 5.562488455325365067e-03
-1.549480259418487549e-01 4.993068799376487732e-02 -8.720774948596954346e-02
7.456644903868436813e-03 -2.631398662924766541e-02 -2.303368002176284790e-01
4.001595973968505859e-01 2.308610826730728149e-02 9.507807344198226929e-02
4.067445993423461914e-01 -8.164308220148086548e-02 8.161164820194244385e-03
3.442737832665443420e-02 -1.190771628171205521e-02 -3.023680746555328369e-01
-8.227827548980712891e-01 4.087751507759094238e-01 2.837661886587738991e-03
1.949145793914794922e-01 -2.982092648744583130e-02 -3.326628357172012329e-02
1.765472292900085449e-01 -6.519321352243423462e-02 -1.877992302179336548e-01
3.335527479648590088e-01 -2.033450827002525330e-02 -8.761142939329147339e-02
1.318651437759399414e-01 -1.031389310956001282e-01 2.066950350999832153e-01
-9.324317574501037598e-01 1.168907731771469116e-01 3.315576612949371338e-01
1.944099813699722290e-01 -3.557334840297698975e-02 1.526526361703872681e-01
-2.994143068790435791e-01 -6.322528421878814697e-02 -5.771403014659881592e-02
2.001623958349227905e-01 1.037712395191192627e-01 -3.543605282902717590e-02
-3.687459826469421387e-01 -5.426867678761482239e-02 6.417147815227508545e-02
8.092114925384521484e-01 5.116695910692214966e-02 -5.821862816810607910e-02
8.126932382583618164e-01 -6.940659135580062866e-02 2.572115696966648102e-02
-6.528107821941375732e-02 7.014678791165351868e-03 6.230383515357971191e-01
2.353328317403793335e-01 -5.575722828507423401e-02 -2.555666863918304443e-01
-2.984555661678314209e-01 9.261963516473770142e-02 5.710711330175399780e-02
-7.855938673019409180e-01 1.024088263511657715e-01 -3.368886420503258705e-03
7.963930815458297729e-02 -9.559519588947296143e-02 2.406039834022521973e-01
1.515192091464996338e-01 -6.317482888698577881e-02 7.262348383665084839e-02
-8.691552281379699707e-01 3.697949945926666260e-01 -6.945201894268393517e-04
1.187456026673316956e-01 -1.400180067867040634e-02 9.169726818799972534e-02
-2.970695681869983673e-02 7.278895378112792969e-02 7.703871279954910278e-02
9.702268987894058228e-02 -6.118166819214820862e-02 -4.812668263912200928e-02
8.173338323831558228e-02 -6.814509630203247070e-02 -2.162585258483886719e-01
-8.227827548980712891e-01 4.087751507759094238e-01 2.837661886587738991e-03
2.642967104911804199e-01 -8.585647493600845337e-02 2.322339825332164764e-02
3.540898561477661133e-01 -8.164308220148086548e-02 4.408240492921322584e-04
-1.752092689275741577e-02 -2.860990352928638458e-02 -1.414015144109725952e-01
1.583565026521682739e-01 -5.035803467035293579e-02 1.220740303397178650e-01
-6.060581803321838379e-01 3.189133480191230774e-02 -7.030373811721801758e-02
8.361822366714477539e-01 4.940086603164672852e-02 -4.916110634803771973e-02
-5.434880852699279785e-01 -1.718075759708881378e-02 6.896515190601348877e-02
9.473380632698535919e-04 -1.632294245064258575e-02 -2.700738310813903809e-01
-9.507754445075988770e-02 1.076566427946090698e-01 -2.420875988900661469e-02
2.808223068714141846e-01 -8.315687626600265503e-02 -1.338514592498540878e-02
1.937540173530578613e-01 -5.850729718804359436e-02 6.926791369915008545e-02
1.007062494754791260e-01 -6.236746534705162048e-02 -2.335094474256038666e-02
5.524202063679695129e-02 -2.257995121181011200e-02 1.657469570636749268e-01
1.358262300491333008e-01 -4.432810470461845398e-02 -2.492087483406066895e-01
1.691801100969314575e-01 -1.798811927437782288e-02 -8.304482698440551758e-02
-7.690935730934143066e-01 2.446800619363784790e-01 6.168005056679248810e-03
2.325070798397064209e-01 -3.007322922348976135e-02 5.054734647274017334e-02
7.846376299858093262e-01 4.508655518293380737e-02 7.057986408472061157e-02
4.818034172058105469e-01 7.642205804586410522e-02 -7.217074185609817505e-02
1.505604833364486694e-01 -4.503454267978668213e-02 2.328836470842361450e-01
1.457146927714347839e-02 -1.281600259244441986e-02 4.064651429653167725e-01
5.451035499572753906e-02 -3.890368342399597168e-02 -8.766188472509384155e-02
2.101029753684997559e-01 -1.068224906921386719e-01 -2.591241002082824707e-01
-7.499440908432006836e-01 1.096245646476745605e-01 -4.403310827910900116e-03
-4.268755912780761719e-01 -6.885153055191040039e-02 2.481288090348243713e-02
3.717743232846260071e-02 -3.733943030238151550e-02 -1.511654704809188843e-01
4.811474680900573730e-01 1.103310063481330872e-01 -1.063508912920951843e-02
2.635381929576396942e-02 -3.127724165096879005e-03 -4.093931913375854492e-01
3.326680138707160950e-02 1.085649132728576660e-01 -2.047473937273025513e-02
6.818510890007019043e-01 -5.310810357332229614e-02 6.631601601839065552e-02
7.565298676490783691e-02 3.052892349660396576e-02 -9.212757647037506104e-02
-7.584465146064758301e-01 7.833952456712722778e-02 8.755956590175628662e-02
4.090405106544494629e-01 1.055373325943946838e-01 3.283597901463508606e-02
-3.866592049598693848e-01 1.105833053588867188e-01 1.023001503199338913e-02
-6.235677003860473633e-01 8.817917853593826294e-02 -4.646150767803192139e-02
4.992120862007141113e-01 -6.605102866888046265e-02 -5.420707911252975464e-02
2.256697863340377808e-01 -4.049316421151161194e-02 2.670701146125793457e-01
1.370372623205184937e-01 -8.267752081155776978e-02 2.657833993434906006e-01
-4.215773046016693115e-01 -2.222674153745174408e-02 8.342187106609344482e-02
4.445389211177825928e-01 5.066236108541488647e-02 -8.695545792579650879e-02
-7.857722043991088867e-02 7.700234651565551758e-02 -7.169137895107269287e-02
-4.508187472820281982e-01 -1.715553179383277893e-02 8.208468556404113770e-02
1.453126668930053711e-01 -1.181759387254714966e-01 -2.121208310127258301e-01
1.515192091464996338e-01 -6.317482888698577881e-02 7.262348383665084839e-02
8.063857555389404297e-01 2.401961199939250946e-02 7.100877165794372559e-02
-8.323700428009033203e-01 7.399998605251312256e-02 2.155822701752185822e-02
1.591386348009109497e-01 -7.672326266765594482e-02 -2.004646211862564087e-01
2.158371731638908386e-03 -8.880136534571647644e-03 -3.468483388423919678e-01
-5.713182315230369568e-02 -4.136917181313037872e-03 4.881090223789215088e-01
-6.804357767105102539e-01 1.879380941390991211e-01 -5.740494467318058014e-03
-8.195028901100158691e-01 5.659138038754463196e-02 1.421633455902338028e-02
2.847833633422851562e-01 -7.303970307111740112e-02 -1.928199827671051025e-01
-8.227827548980712891e-01 4.087751507759094238e-01 2.837661886587738991e-03
2.386127114295959473e-01 -6.703499704599380493e-02 1.964264661073684692e-01
-6.805635988712310791e-02 2.574225421994924545e-03 4.996895492076873779e-01
4.111329466104507446e-02 -3.754126280546188354e-02 1.582032144069671631e-01
-5.392763018608093262e-02 -4.288304597139358521e-03 -4.855874180793762207e-01
-4.697663784027099609e-01 -4.422717913985252380e-02 5.819199979305267334e-02
3.959950059652328491e-02 6.787612102925777435e-03 9.525467455387115479e-02
1.987242996692657471e-01 4.604529589414596558e-02 -8.851969987154006958e-02
2.690147161483764648e-01 3.716437891125679016e-02 9.293352812528610229e-02
1.504595577716827393e-01 -8.146647363901138306e-02 -6.611557304859161377e-02
6.576051712036132812e-01 -5.863345041871070862e-02 6.235492974519729614e-02
-4.442085325717926025e-01 2.694627642631530762e-02 9.111697971820831299e-02
8.872205764055252075e-02 7.891982048749923706e-02 7.211888581514358521e-02
2.779191918671131134e-02 -7.288832217454910278e-02 -1.084008440375328064e-01
-1.345118433237075806e-01 2.356547862291336060e-02 -7.417462468147277832e-01
6.390360593795776367e-01 -4.220879450440406799e-02 -7.426482439041137695e-02
2.481496036052703857e-01 -8.348485827445983887e-02 -2.415640950202941895e-01
-1.605743020772933960e-01 2.126956172287464142e-02 7.669747471809387207e-01
-3.825988247990608215e-02 -1.815775060094892979e-03 5.240867733955383301e-01
1.578085008077323437e-03 -3.191501274704933167e-02 7.242164015769958496e-02
-4.905826225876808167e-02 1.080855503678321838e-01 -2.241743914783000946e-02
1.419570893049240112e-01 -1.081092134118080139e-01 -2.339951395988464355e-01
1.313100904226303101e-01 -1.167126148939132690e-01 -2.127768099308013916e-01
6.910852193832397461e-01 -4.362166672945022583e-02 7.295147329568862915e-02
-6.894428730010986328e-01 1.657610237598419189e-01 8.363003842532634735e-03
1.873456239700317383e-01 -3.655731678009033203e-02 -2.243068665266036987e-01
-8.092342615127563477e-01 3.405031263828277588e-01 -2.712909597903490067e-03
-1.799003928899765015e-01 2.502880617976188660e-02 7.754772901535034180e-01
-8.861097097396850586e-01 1.151751354336738586e-01 3.010042905807495117e-01
2.063184827566146851e-01 -4.309183359146118164e-02 -8.687976002693176270e-02
1.700631678104400635e-01 -8.971664309501647949e-02 -3.636955469846725464e-02
-4.330821633338928223e-01 3.052892349660396576e-02 -8.952890336513519287e-02
-5.928881168365478516e-01 -3.610316291451454163e-02 2.405598387122154236e-02
-4.075999557971954346e-01 1.097507178783416748e-01 -1.449525915086269379e-02
-2.418161183595657349e-02 -8.375539444386959076e-03 -4.462288320064544678e-01
-6.161248683929443359e-01 5.551351699978113174e-03 6.323797255754470825e-02
6.206938624382019043e-01 1.042001470923423767e-01 3.255844861268997192e-02
1.197548061609268188e-01 -8.800101280212402344e-02 -2.086391150951385498e-01
8.702930212020874023e-01 -3.405253868550062180e-03 -5.178501456975936890e-02
5.319099426269531250e-01 -4.521114751696586609e-02 7.655934244394302368e-02
-3.825719356536865234e-01 -7.354428619146347046e-02 -2.506657503545284271e-02
4.822811856865882874e-02 -3.052736446261405945e-02 -1.157679632306098938e-01
8.734467625617980957e-01 6.459619849920272827e-03 5.301987379789352417e-02
-1.742993444204330444e-01 8.671585470438003540e-02 -6.235633045434951782e-02
2.060157209634780884e-01 -5.214936658740043640e-02 -4.166783392429351807e-02
-1.300477981567382812e-02 8.270429819822311401e-02 6.858670711517333984e-02
8.868185877799987793e-01 -1.508669182658195496e-02 -4.441788792610168457e-02
1.242709457874298096e-01 -9.763883054256439209e-02 2.557166814804077148e-01
2.501427829265594482e-01 4.422874003648757935e-02 -8.907476067543029785e-02
1.568931788206100464e-01 -4.914701357483863831e-02 3.200339525938034058e-02
7.216638326644897461e-01 -6.205775775015354156e-03 8.559163659811019897e-02
3.596640005707740784e-02 -6.337665766477584839e-02 1.081975996494293213e-01
3.334249183535575867e-02 -7.298924773931503296e-02 1.439735591411590576e-01
9.550724178552627563e-03 -1.011640578508377075e-02 3.319865465164184570e-01
1.519481241703033447e-01 -6.236746534705162048e-02 -2.415136396884918213e-01
5.216397717595100403e-02 -2.853420376777648926e-02 2.341703623533248901e-01
1.645630449056625366e-01 -3.829817101359367371e-02 -2.092193961143493652e-01
1.181400939822196960e-01 -3.759173303842544556e-02 -1.327728927135467529e-01
-1.780081391334533691e-01 2.000806666910648346e-02 -7.397531270980834961e-01
-6.014158129692077637e-01 3.946029394865036011e-02 -7.126247137784957886e-02
8.594676852226257324e-02 -7.954901456832885742e-02 -7.060649991035461426e-02
1.803064793348312378e-01 -4.851627349853515625e-02 -3.303921222686767578e-02
6.624997854232788086e-01 5.883684009313583374e-02 8.024290204048156738e-02
2.161581218242645264e-01 9.791790693998336792e-02 4.918493330478668213e-02
2.132567018270492554e-01 -7.185390591621398926e-02 -2.724454402923583984e-01
-6.917892098426818848e-01 -9.889329783618450165e-03 -1.840589009225368500e-02
1.866139620542526245e-01 8.936497569084167480e-02 -5.922782421112060547e-02
-4.529380798339843750e-01 1.048308908939361572e-01 -3.235800936818122864e-02
4.992120862007141113e-01 -6.605102866888046265e-02 -5.420707911252975464e-02
2.947744131088256836e-01 9.148428589105606079e-02 -5.660391598939895630e-02
-8.359795808792114258e-02 8.780771866440773010e-03 -6.378749012947082520e-01
1.717787981033325195e-01 -2.888743206858634949e-02 -1.457158178091049194e-01
2.263510078191757202e-01 -2.961909584701061249e-02 -5.130564421415328979e-02
-2.409314513206481934e-01 6.108229607343673706e-02 8.435537666082382202e-02
-1.043133437633514404e-02 -8.022321388125419617e-03 3.627670407295227051e-01
1.572463959455490112e-01 -4.041748121380805969e-02 1.176588013768196106e-01
3.187916055321693420e-02 -2.818099595606327057e-02 2.349524796009063721e-01
-2.631084918975830078e-01 7.344493269920349121e-02 -7.451712340116500854e-02
-6.917892098426818848e-01 -9.889329783618450165e-03 -1.840589009225368500e-02
2.324566394090652466e-01 -9.799204021692276001e-02 -2.521606385707855225e-01
2.345254719257354736e-01 -5.373884364962577820e-02 -2.041734158992767334e-01
-9.074289798736572266e-01 4.202042818069458008e-01 9.706513374112546444e-04
-5.247170329093933105e-01 8.151848614215850830e-02 6.629078835248947144e-02
-7.518615126609802246e-01 3.242046236991882324e-01 3.064730670303106308e-03
7.673551440238952637e-01 9.809451550245285034e-02 -6.901068612933158875e-03
-5.778006911277770996e-01 -3.302513062953948975e-02 4.111137241125106812e-02
-2.491327933967113495e-02 -1.715553179383277893e-02 2.792561352252960205e-01
1.478356420993804932e-01 -2.757546491920948029e-02 1.148330569267272949e-01
6.520782411098480225e-02 -3.547242283821105957e-02 -1.031782552599906921e-01
3.070109188556671143e-01 -8.073481172323226929e-02 2.357661537826061249e-02
-7.192898392677307129e-01 8.547957986593246460e-02 4.706562682986259460e-02
2.118942737579345703e-01 -4.690155014395713806e-02 -2.081849873065948486e-01
4.605834931135177612e-02 -4.357121512293815613e-02 -1.066095232963562012e-01
7.516621351242065430e-01 6.640580296516418457e-02 -6.394580751657485962e-02
1.250026077032089233e-01 -1.841702684760093689e-02 2.181998491287231445e-01
-9.279408454895019531e-01 1.146705374121665955e-01 3.147797882556915283e-01
4.541515111923217773e-01 3.053595544770359993e-03 9.497714787721633911e-02
-7.851650118827819824e-01 9.779176115989685059e-02 1.518452763557434082e-01
-1.139495000243186951e-01 1.007941141724586487e-01 -4.186967387795448303e-02
6.829864978790283203e-01 3.507030382752418518e-02 -8.496229350566864014e-02
-7.853416204452514648e-01 9.574813395738601685e-02 -1.336307078599929810e-01
-6.930255293846130371e-01 1.893761903047561646e-01 -5.639574956148862839e-03
6.276052445173263550e-02 -2.727270871400833130e-02 -1.531081795692443848e-01
8.299503922462463379e-01 8.119050413370132446e-02 3.342259442433714867e-03
-8.667836189270019531e-01 2.533086836338043213e-01 1.122030545957386494e-03
8.290421962738037109e-01 -2.916496247053146362e-02 -5.796632915735244751e-02
-8.869927525520324707e-01 1.104319170117378235e-01 2.673728764057159424e-01
-8.193262219429016113e-01 9.872525930404663086e-02 -1.625189185142517090e-01
5.515135526657104492e-01 9.912894666194915771e-02 -4.492248967289924622e-02
9.215332567691802979e-02 -3.617886081337928772e-02 -1.294930130243301392e-01
1.949145793914794922e-01 -2.982092648744583130e-02 -3.326628357172012329e-02
5.432886481285095215e-01 1.013491675257682800e-01 4.277654364705085754e-02
1.746550053358078003e-01 -2.401805296540260315e-02 1.526274085044860840e-01
1.242709457874298096e-01 -9.763883054256439209e-02 2.557166814804077148e-01
5.307998657226562500e-01 -2.445583231747150421e-05 9.457347542047500610e-02
1.789945363998413086e-01 -5.762425810098648071e-02 3.551034629344940186e-02
2.200939953327178955e-01 6.194011121988296509e-02 8.387600630521774292e-02
-8.416547179222106934e-01 9.423434734344482422e-02 1.489942967891693115e-01
1.512652542442083359e-02 -2.005697786808013916e-02 -3.389261662960052490e-01
4.554634690284729004e-01 -6.970934569835662842e-02 -4.888357594609260559e-02
1.973114162683486938e-01 -4.392442479729652405e-02 -7.658597826957702637e-02
-8.940570950508117676e-01 1.155283525586128235e-01 -3.033772706985473633e-01
-1.907492280006408691e-01 -4.363993648439645767e-03 9.394273161888122559e-02
6.287422180175781250e-01 -7.028964906930923462e-02 -4.691564664244651794e-02
2.325070798397064209e-01 -3.007322922348976135e-02 5.054734647274017334e-02
9.594048857688903809e-01 -1.285942504182457924e-03 1.083553116768598557e-02
9.308683127164840698e-02 -2.616259083151817322e-02 -8.395309746265411377e-02
3.977610915899276733e-02 5.674275755882263184e-02 8.647468686103820801e-02
-7.232004404067993164e-01 8.805302530527114868e-02 -6.629218906164169312e-02
9.152258187532424927e-02 -8.600785583257675171e-02 5.524010583758354187e-02
